0.000000,0.000000,0.000000,0.000000,0.000000,0.000000,0.000000,0.000000,0.000000,2.760000,2.003000,2.001000,2.583000,0.000000,2.612000,2.325000,2.556000,2.596000,2.572000,2.583000,2.587000,2.589000,2.584000,2.019000,2.019000,2.025000,2.022000,2.026000,2.029000,2.028000,2.021000,2.555000,0.000000,0.000000,0.000000,0.000000,0.000000,0.000000,0.000000,0.000000,
0.000000,0.000000,0.000000,0.000000,0.000000,0.000000,0.000000,0.000000,2.002000,1.993000,1.992000,1.990000,1.993000,1.993000,1.993000,2.001000,2.002000,2.000000,2.000000,2.001000,2.006000,2.006000,2.007000,2.008000,2.013000,2.013000,2.019000,2.021000,2.021000,2.025000,2.025000,2.025000,1.801000,0.000000,0.000000,0.000000,0.000000,0.000000,0.000000,0.000000,
0.000000,0.000000,0.000000,0.000000,0.000000,0.000000,0.000000,0.000000,2.013000,1.990000,1.990000,1.992000,1.993000,1.993000,1.996000,1.997000,1.997000,2.000000,2.000000,2.002000,2.003000,2.003000,2.004000,2.009000,2.014000,2.010000,2.016000,2.021000,2.021000,2.025000,2.025000,2.025000,0.000000,0.000000,0.000000,0.000000,0.000000,0.000000,0.000000,0.000000,
0.000000,0.000000,0.000000,0.000000,0.000000,0.000000,0.000000,2.055000,2.011000,1.990000,1.990000,1.990000,1.993000,1.993000,1.993000,1.997000,1.997000,2.000000,2.000000,2.001000,2.003000,2.003000,2.004000,2.007000,2.009000,2.013000,2.018000,2.021000,2.021000,2.025000,2.025000,2.025000,0.000000,0.000000,0.000000,0.000000,0.000000,0.000000,0.000000,0.000000,
0.000000,0.000000,0.000000,0.000000,0.000000,0.000000,0.000000,1.368000,2.002000,1.990000,1.992000,1.993000,1.993000,1.993000,1.993000,1.997000,1.997000,2.000000,2.000000,2.000000,2.003000,2.003000,2.007000,2.007000,2.007000,2.010000,2.016000,2.021000,2.021000,2.023000,2.025000,2.021000,0.000000,0.000000,0.000000,0.000000,0.000000,0.000000,0.000000,0.000000,
0.000000,0.000000,0.000000,0.000000,0.000000,0.000000,0.000000,0.000000,1.993000,1.991000,1.990000,1.990000,1.993000,1.993000,1.993000,1.995000,1.997000,2.001000,2.003000,2.003000,2.003000,2.007000,2.007000,2.008000,2.010000,2.014000,2.017000,2.021000,2.021000,2.021000,2.025000,2.021000,2.021000,0.000000,0.000000,0.000000,0.000000,0.000000,0.000000,0.000000,
0.000000,0.000000,0.000000,0.000000,0.000000,0.000000,0.000000,0.000000,1.602000,1.991000,1.990000,1.990000,1.993000,1.993000,1.993000,1.997000,1.997000,1.997000,2.001000,2.003000,2.006000,2.007000,2.007000,2.008000,2.010000,2.014000,2.020000,2.018000,2.021000,2.021000,2.025000,2.024000,1.428000,0.000000,0.000000,0.000000,0.000000,0.000000,0.000000,0.000000,
0.000000,0.000000,0.000000,0.000000,0.000000,0.000000,0.000000,0.000000,1.130000,1.990000,1.990000,1.993000,1.993000,1.993000,1.993000,1.995000,1.997000,2.000000,2.000000,2.003000,2.006000,2.007000,2.007000,2.008000,2.013000,2.014000,2.016000,2.018000,2.021000,2.021000,2.025000,2.028000,0.000000,0.000000,0.000000,0.000000,0.000000,0.000000,0.000000,0.000000,
0.000000,0.000000,0.000000,0.000000,0.000000,0.000000,0.000000,0.000000,1.540000,1.989000,1.990000,1.990000,1.990000,1.993000,1.993000,1.994000,1.997000,1.998000,2.003000,2.003000,2.003000,2.004000,2.007000,2.009000,2.010000,2.012000,2.017000,2.021000,2.021000,2.021000,2.021000,2.021000,0.000000,0.000000,0.000000,0.000000,0.000000,0.000000,0.000000,0.000000,
0.000000,0.000000,0.000000,0.000000,0.000000,0.000000,0.000000,0.000000,1.996000,1.990000,1.990000,1.990000,1.990000,1.993000,1.993000,1.995000,1.997000,1.998000,2.000000,2.003000,2.003000,2.003000,2.007000,2.010000,2.010000,2.014000,2.016000,2.021000,2.021000,2.021000,2.021000,2.025000,0.000000,0.000000,0.000000,0.000000,0.000000,0.000000,0.000000,0.000000,
0.000000,0.000000,0.000000,0.000000,0.000000,0.000000,0.000000,2.048000,1.999000,1.988000,1.990000,1.990000,1.990000,1.992000,1.993000,1.993000,1.993000,1.994000,2.002000,2.003000,2.003000,2.003000,2.007000,2.007000,2.009000,2.010000,2.017000,2.021000,2.021000,2.021000,2.025000,2.025000,0.000000,0.000000,0.000000,0.000000,0.000000,0.000000,0.000000,0.000000,
0.000000,0.000000,0.000000,0.000000,0.000000,0.000000,0.000000,2.010000,2.001000,1.990000,1.990000,1.990000,1.990000,1.990000,1.993000,1.993000,1.993000,1.994000,2.003000,2.003000,2.003000,2.003000,2.006000,2.007000,2.007000,2.010000,2.017000,2.018000,2.021000,2.021000,2.022000,2.025000,0.000000,0.000000,0.000000,0.000000,0.000000,0.000000,0.000000,0.000000,
0.000000,0.000000,0.000000,0.000000,0.000000,0.000000,0.000000,2.044000,1.998000,1.990000,1.990000,1.990000,1.990000,1.990000,1.993000,1.994000,1.997000,1.997000,2.003000,2.003000,2.003000,2.003000,2.003000,2.007000,2.007000,2.010000,2.012000,2.021000,2.021000,2.021000,2.022000,2.022000,0.000000,0.000000,0.000000,0.000000,0.000000,0.000000,0.000000,0.000000,
0.000000,0.000000,0.000000,0.000000,0.000000,0.000000,0.000000,2.038000,2.000000,1.990000,1.990000,1.990000,1.990000,1.991000,1.993000,1.993000,1.994000,1.997000,2.003000,2.003000,2.003000,2.003000,2.003000,2.007000,2.007000,2.010000,2.018000,2.021000,2.019000,2.021000,2.025000,2.022000,0.000000,0.000000,0.000000,0.000000,0.000000,0.000000,0.000000,0.000000,
0.000000,0.000000,0.000000,0.000000,0.000000,0.000000,0.000000,1.742000,2.001000,1.989000,1.989000,1.990000,1.990000,1.991000,1.993000,1.993000,1.993000,1.995000,1.999000,2.002000,2.003000,2.003000,2.004000,2.008000,2.010000,2.013000,2.015000,2.018000,2.019000,2.021000,2.021000,2.021000,0.000000,0.000000,0.000000,0.000000,0.000000,0.000000,0.000000,0.000000,
0.000000,0.000000,0.000000,0.000000,0.000000,0.000000,0.000000,1.742000,1.999000,1.987000,1.984000,1.989000,1.990000,1.990000,1.990000,1.993000,1.993000,1.997000,1.999000,2.001000,2.003000,2.003000,2.006000,2.008000,2.007000,2.010000,2.012000,2.018000,2.021000,2.021000,2.020000,2.021000,0.000000,0.000000,0.000000,0.000000,0.000000,0.000000,0.000000,0.000000,
0.000000,0.000000,0.000000,0.000000,0.000000,0.000000,0.000000,1.742000,2.006000,1.987000,1.983000,1.986000,1.990000,1.990000,1.990000,1.993000,1.993000,1.995000,2.000000,2.003000,2.003000,2.003000,2.003000,2.007000,2.007000,2.009000,2.016000,2.018000,2.020000,2.021000,2.021000,2.021000,0.000000,0.000000,0.000000,0.000000,0.000000,0.000000,0.000000,0.000000,
0.000000,0.000000,0.000000,0.000000,0.000000,0.000000,0.000000,1.745000,1.999000,1.985000,1.986000,1.989000,1.990000,1.990000,1.990000,1.993000,1.993000,1.993000,1.997000,2.000000,2.001000,2.003000,2.005000,2.007000,2.007000,2.007000,2.016000,2.018000,2.018000,2.021000,2.021000,0.000000,0.000000,0.000000,0.000000,0.000000,0.000000,0.000000,0.000000,0.000000,
0.000000,0.000000,0.000000,0.000000,0.000000,0.000000,0.000000,1.754000,1.995000,1.986000,1.987000,1.990000,1.990000,1.990000,1.990000,1.993000,1.993000,1.993000,1.999000,2.000000,2.000000,2.003000,2.003000,2.007000,2.007000,2.007000,2.009000,2.017000,2.019000,2.021000,2.021000,2.025000,0.000000,0.000000,0.000000,0.000000,0.000000,0.000000,0.000000,0.000000,
0.000000,0.000000,0.000000,0.000000,0.000000,0.000000,0.000000,1.240000,1.996000,1.987000,1.986000,1.989000,1.990000,1.988000,1.993000,1.993000,1.993000,1.993000,1.998000,2.001000,2.001000,2.003000,2.003000,2.007000,2.007000,2.007000,2.011000,2.014000,2.018000,2.021000,2.021000,2.021000,0.000000,0.000000,0.000000,0.000000,0.000000,0.000000,0.000000,0.000000,
0.000000,0.000000,0.000000,0.000000,0.000000,0.000000,0.000000,0.000000,2.001000,1.985000,1.983000,1.986000,1.990000,1.990000,1.990000,1.993000,1.993000,1.995000,1.997000,2.000000,2.002000,2.003000,2.003000,2.007000,2.007000,2.007000,2.012000,2.018000,2.018000,2.021000,2.021000,2.021000,1.003000,0.000000,0.000000,0.000000,0.000000,0.000000,0.000000,0.000000,
0.000000,0.000000,0.000000,0.000000,0.000000,0.000000,0.000000,1.375000,2.005000,1.986000,1.983000,1.986000,1.990000,1.990000,1.991000,1.992000,1.993000,1.993000,1.995000,1.998000,2.002000,2.003000,2.003000,2.004000,2.010000,2.009000,2.012000,2.014000,2.016000,2.021000,2.021000,2.023000,2.028000,0.000000,0.000000,0.000000,0.000000,0.000000,0.000000,0.000000,
0.000000,0.000000,0.000000,0.000000,0.000000,0.000000,0.000000,2.074000,2.035000,1.988000,1.983000,1.985000,1.990000,1.990000,1.990000,1.990000,1.993000,1.993000,1.996000,1.997000,1.999000,2.003000,2.003000,2.008000,2.010000,2.010000,2.012000,2.018000,2.018000,2.021000,2.021000,2.021000,2.028000,0.000000,0.000000,0.000000,0.000000,0.000000,0.000000,0.000000,
0.000000,0.000000,0.000000,0.000000,0.000000,0.000000,0.000000,0.000000,2.016000,1.988000,1.984000,1.985000,1.990000,1.990000,1.990000,1.993000,1.993000,1.993000,1.997000,1.999000,2.002000,2.003000,2.003000,2.007000,2.010000,2.010000,2.012000,2.016000,2.018000,2.018000,2.021000,2.021000,0.000000,0.000000,0.000000,0.000000,0.000000,0.000000,0.000000,0.000000,
0.000000,0.000000,0.000000,0.000000,0.000000,0.000000,0.000000,0.000000,2.003000,1.991000,1.984000,1.986000,1.990000,1.990000,1.990000,1.991000,1.993000,1.995000,1.997000,1.998000,2.002000,2.003000,2.003000,2.007000,2.007000,2.007000,2.011000,2.014000,2.018000,2.021000,2.021000,2.021000,0.000000,0.000000,0.000000,0.000000,0.000000,0.000000,0.000000,0.000000,
0.000000,0.000000,0.000000,0.000000,0.000000,0.000000,0.000000,0.000000,1.131000,1.987000,1.985000,1.986000,1.988000,1.990000,1.990000,1.993000,1.997000,1.997000,2.000000,1.997000,2.002000,2.003000,2.003000,2.006000,2.007000,2.007000,2.010000,2.014000,2.020000,2.021000,2.021000,2.021000,2.025000,0.000000,0.000000,0.000000,0.000000,0.000000,0.000000,0.000000,
0.000000,0.000000,0.000000,0.000000,0.000000,0.000000,0.000000,0.000000,1.130000,1.985000,1.983000,1.983000,1.986000,1.990000,1.990000,1.993000,1.993000,1.993000,1.997000,2.000000,2.000000,2.003000,2.003000,2.004000,2.007000,2.007000,2.011000,2.014000,2.018000,2.018000,2.021000,2.024000,2.025000,0.000000,0.000000,0.000000,0.000000,0.000000,0.000000,0.000000,
0.000000,0.000000,0.000000,0.000000,0.000000,0.000000,0.000000,0.000000,2.004000,1.985000,1.981000,1.985000,1.986000,1.990000,1.993000,1.993000,1.994000,1.993000,1.997000,2.000000,2.000000,2.002000,2.003000,2.004000,2.007000,2.007000,2.010000,2.018000,2.018000,2.018000,2.018000,2.021000,2.024000,0.000000,0.000000,0.000000,0.000000,0.000000,0.000000,0.000000,
0.000000,0.000000,0.000000,0.000000,0.000000,0.000000,0.000000,0.000000,2.008000,1.989000,1.983000,1.983000,1.986000,1.990000,1.993000,1.993000,1.997000,1.993000,1.994000,2.000000,2.003000,2.002000,2.002000,2.004000,2.007000,2.007000,2.011000,2.018000,2.018000,2.018000,2.018000,2.021000,2.025000,0.000000,0.000000,0.000000,0.000000,0.000000,0.000000,0.000000,
0.000000,0.000000,0.000000,0.000000,0.000000,0.000000,0.000000,1.748000,2.038000,1.992000,1.982000,1.983000,1.985000,1.990000,1.990000,1.990000,1.993000,1.993000,1.993000,1.995000,1.999000,2.002000,2.003000,2.003000,2.006000,2.007000,2.011000,2.014000,2.018000,2.018000,2.019000,2.020000,1.230000,0.000000,0.000000,0.000000,0.000000,0.000000,0.000000,0.000000,
0.000000,0.000000,0.000000,0.000000,0.000000,0.000000,0.000000,1.750000,2.037000,1.984000,1.980000,1.983000,1.981000,1.989000,1.992000,1.990000,1.990000,1.993000,1.996000,1.997000,1.997000,2.000000,2.003000,2.003000,2.003000,2.007000,2.009000,2.014000,2.018000,2.018000,2.019000,2.020000,2.020000,0.000000,0.000000,0.000000,0.000000,0.000000,0.000000,0.000000,
0.000000,0.000000,0.000000,0.000000,0.000000,0.000000,0.000000,0.000000,2.039000,1.987000,1.983000,1.981000,1.983000,1.983000,1.986000,1.990000,1.990000,1.991000,1.996000,1.998000,2.001000,2.001000,2.001000,2.003000,2.007000,2.007000,2.009000,2.014000,2.016000,2.018000,2.018000,2.021000,2.027000,0.000000,0.000000,0.000000,0.000000,0.000000,0.000000,0.000000,
0.000000,0.000000,0.000000,0.000000,0.000000,0.000000,0.000000,0.000000,1.733000,1.991000,1.983000,1.981000,1.983000,1.980000,1.986000,1.990000,1.990000,1.992000,1.993000,1.997000,1.998000,2.001000,2.001000,2.003000,2.004000,2.007000,2.009000,2.014000,2.016000,2.014000,2.019000,2.021000,2.022000,0.000000,0.000000,0.000000,0.000000,0.000000,0.000000,0.000000,
0.000000,0.000000,0.000000,0.000000,0.000000,0.000000,0.000000,0.000000,2.000000,1.987000,1.982000,1.980000,1.983000,1.985000,1.990000,1.990000,1.990000,1.991000,1.993000,1.997000,1.997000,2.000000,2.000000,2.003000,2.003000,2.003000,2.009000,2.014000,2.017000,2.018000,2.018000,2.020000,2.021000,0.000000,0.000000,0.000000,0.000000,0.000000,0.000000,0.000000,
0.000000,0.000000,0.000000,0.000000,0.000000,0.000000,0.000000,0.000000,2.003000,1.986000,1.980000,1.980000,1.984000,1.986000,1.988000,1.990000,1.990000,1.993000,1.993000,1.997000,1.997000,1.998000,2.000000,2.003000,2.003000,2.003000,2.007000,2.012000,2.014000,2.014000,2.012000,2.018000,2.018000,0.000000,0.000000,0.000000,0.000000,0.000000,0.000000,0.000000,
0.000000,0.000000,0.000000,0.000000,0.000000,0.000000,0.000000,1.098000,2.107000,1.981000,1.980000,1.980000,1.983000,1.986000,1.986000,1.990000,1.990000,1.990000,1.993000,1.996000,1.996000,1.997000,1.926000,2.002000,2.177000,2.179000,0.000000,0.000000,0.000000,0.000000,0.000000,0.000000,0.000000,0.000000,0.000000,0.000000,0.000000,0.000000,0.000000,0.000000,
0.000000,0.000000,0.000000,0.000000,0.000000,0.000000,0.000000,0.000000,0.000000,1.986000,1.980000,1.981000,1.986000,1.984000,1.983000,1.987000,1.983000,1.994000,1.997000,1.996000,1.993000,1.397000,0.000000,0.000000,0.000000,1.358000,0.000000,0.000000,0.000000,0.000000,0.000000,0.000000,0.000000,0.000000,0.000000,0.000000,0.000000,0.000000,0.000000,0.000000,
0.000000,0.000000,0.000000,0.000000,0.000000,0.000000,0.000000,0.000000,0.000000,0.000000,2.233000,0.000000,0.000000,2.034000,1.972000,0.000000,0.000000,2.011000,2.003000,1.966000,1.956000,0.000000,0.000000,0.000000,0.000000,0.000000,0.000000,0.000000,0.000000,0.000000,0.000000,0.000000,0.000000,0.000000,0.000000,0.000000,0.000000,0.000000,0.000000,0.000000,
0.000000,0.000000,0.000000,0.000000,0.000000,0.000000,0.000000,0.000000,0.000000,0.000000,0.000000,0.000000,0.000000,2.997000,0.000000,0.000000,0.000000,2.013000,1.534000,0.000000,0.000000,0.000000,0.000000,0.000000,0.000000,0.000000,0.000000,0.000000,0.000000,0.000000,0.000000,0.000000,0.000000,0.000000,0.000000,0.000000,0.000000,0.000000,0.000000,0.000000,
0.000000,0.000000,0.000000,0.000000,0.000000,0.000000,0.000000,0.000000,0.000000,0.000000,0.000000,0.000000,0.000000,0.000000,0.000000,0.000000,0.000000,0.000000,0.000000,0.000000,0.000000,0.000000,0.000000,0.000000,0.000000,0.000000,0.000000,0.000000,0.000000,0.000000,0.000000,0.000000,0.000000,0.000000,0.000000,0.000000,0.000000,0.000000,0.000000,0.000000,
