40 40
0.000000 0.000000 0.000000 0.000000 0.000000 0.000000 0.000000 0.000000 0.000000 0.000000 0.000000 0.000000 0.000000 0.000000 0.000000 0.000000 0.000000 0.000000 0.000000 0.000000 0.000000 0.000000 0.000000 0.000000 0.000000 0.000000 0.000000 0.000000 0.000000 0.000000 0.000000 0.000000 0.000000 0.000000 0.000000 0.000000 0.000000 0.000000 0.000000 0.000000 
0.000000 0.000000 0.000000 0.000000 0.000000 0.000000 0.000000 0.000000 0.000000 0.000000 0.000000 0.000000 0.000000 0.000000 0.000000 0.000000 0.000000 0.000000 0.000000 0.000000 0.000000 0.000000 0.000000 0.000000 0.000000 0.000000 0.000000 0.000000 0.000000 0.000000 0.000000 0.000000 0.000000 0.000000 0.000000 0.000000 0.000000 0.000000 0.000000 0.000000 
0.000000 0.000000 0.000000 0.000000 0.000000 0.000000 0.000000 0.000000 0.000000 0.000000 0.000000 0.000000 0.000000 0.000000 0.000000 0.000000 0.000000 0.000000 0.000000 0.000000 0.000000 0.000000 0.000000 0.000000 0.000000 0.000000 0.000000 0.000000 0.000000 0.000000 0.000000 0.000000 0.000000 0.000000 0.000000 0.000000 0.000000 0.000000 0.000000 0.000000 
0.000000 0.000000 0.000000 0.000000 0.000000 0.000000 0.000000 0.000000 0.000000 0.000000 0.000000 0.000000 0.000000 0.000000 0.000000 0.000000 0.000000 0.000000 0.000000 0.000000 0.000000 0.000000 0.000000 0.000000 0.000000 0.000000 0.000000 0.000000 0.000000 0.000000 0.000000 0.000000 0.000000 0.000000 0.000000 0.000000 0.000000 0.000000 0.000000 0.000000 
0.000000 0.000000 0.000000 0.000000 0.000000 0.000000 0.000000 0.000000 0.000000 0.000000 0.000000 0.000000 0.000000 0.000000 0.000000 0.000000 0.000000 0.000000 0.000000 0.000000 0.000000 0.000000 0.000000 0.000000 0.000000 0.000000 0.000000 0.000000 0.000000 0.000000 0.000000 0.000000 0.000000 0.000000 0.000000 0.000000 0.000000 0.000000 0.000000 0.000000 
0.000000 0.000000 0.000000 0.000000 0.000000 1.990000 1.992000 1.993000 1.995000 2.360000 0.000000 0.000000 0.000000 0.000000 0.000000 0.000000 0.000000 0.000000 0.000000 0.000000 0.000000 0.000000 0.000000 0.000000 0.000000 0.000000 0.000000 0.000000 0.000000 0.000000 0.000000 0.000000 0.000000 0.000000 0.000000 0.000000 0.000000 0.000000 0.000000 0.000000 
0.000000 0.000000 1.033000 0.000000 1.990000 1.990000 1.991000 1.993000 1.993000 1.995000 1.998000 1.998000 2.000000 2.000000 2.000000 0.000000 0.000000 0.000000 0.000000 0.000000 0.000000 0.000000 0.000000 0.000000 0.000000 0.000000 0.000000 0.000000 0.000000 0.000000 0.000000 0.000000 0.000000 0.000000 0.000000 0.000000 0.000000 0.000000 0.000000 0.000000 
0.000000 0.000000 0.000000 0.000000 1.990000 1.990000 1.990000 1.990000 1.993000 1.993000 1.996000 2.000000 2.000000 2.000000 2.003000 2.003000 2.003000 2.068000 2.071000 0.000000 0.000000 0.000000 0.000000 0.000000 0.000000 0.000000 0.000000 0.000000 0.000000 0.000000 0.000000 0.000000 0.000000 0.000000 0.000000 0.000000 0.000000 0.000000 0.000000 0.000000 
0.000000 0.000000 0.000000 1.520000 1.990000 1.990000 1.990000 1.990000 1.991000 1.996000 1.996000 1.996000 2.000000 2.000000 2.000000 2.003000 2.003000 2.003000 2.003000 2.003000 2.007000 2.006000 2.526000 0.000000 0.000000 0.000000 0.000000 0.000000 0.000000 0.000000 0.000000 0.000000 0.000000 0.000000 0.000000 0.000000 0.000000 0.000000 0.000000 0.000000 
0.000000 0.000000 0.000000 1.519000 1.987000 1.987000 1.990000 1.990000 1.991000 1.996000 1.996000 1.996000 2.000000 2.000000 2.000000 2.003000 2.003000 2.003000 2.003000 2.003000 2.006000 2.003000 2.003000 2.006000 2.006000 2.005000 2.009000 0.000000 0.000000 0.000000 0.000000 0.000000 0.000000 0.000000 0.000000 0.000000 0.000000 0.000000 0.000000 0.000000 
0.000000 0.000000 0.000000 1.988000 1.987000 1.989000 1.990000 1.990000 1.990000 1.993000 1.994000 1.996000 1.996000 2.000000 2.000000 2.002000 2.003000 2.003000 2.003000 2.003000 2.006000 2.003000 2.003000 2.006000 2.006000 2.007000 2.006000 2.009000 2.009000 2.009000 2.009000 2.521000 0.000000 0.000000 0.000000 0.000000 0.000000 0.000000 0.000000 0.000000 
0.000000 0.000000 0.000000 1.986000 1.987000 1.987000 1.990000 1.990000 1.990000 1.990000 1.993000 1.996000 1.996000 2.000000 2.000000 2.000000 2.003000 2.002000 2.003000 2.003000 2.003000 2.003000 2.006000 2.008000 2.006000 2.005000 2.006000 2.006000 2.006000 2.009000 2.010000 2.012000 2.012000 2.012000 2.016000 2.021000 0.000000 0.000000 0.000000 0.000000 
0.000000 2.557000 0.000000 1.987000 1.987000 1.987000 1.987000 1.990000 1.992000 1.993000 1.993000 1.994000 1.996000 2.000000 2.000000 2.000000 2.003000 2.003000 2.003000 2.003000 2.003000 2.003000 2.003000 2.004000 2.006000 2.003000 2.006000 2.006000 2.009000 2.009000 2.009000 2.009000 2.012000 2.012000 2.012000 2.016000 2.019000 2.022000 2.230000 0.000000 
1.597000 0.000000 0.000000 1.987000 1.987000 1.987000 1.987000 1.990000 1.990000 1.993000 1.993000 1.996000 1.996000 2.000000 2.000000 1.999000 2.000000 2.000000 2.003000 2.003000 2.003000 2.003000 2.000000 2.000000 2.002000 2.005000 2.006000 2.008000 2.009000 2.009000 2.009000 2.009000 2.012000 2.012000 2.012000 2.013000 2.019000 2.020000 2.019000 1.426000 
0.000000 0.000000 1.007000 1.987000 1.987000 1.987000 1.987000 1.987000 1.990000 1.990000 1.993000 1.993000 1.996000 2.000000 2.000000 2.000000 2.000000 2.000000 2.003000 2.003000 2.003000 2.003000 2.000000 2.000000 2.003000 2.004000 2.006000 2.006000 2.009000 2.009000 2.009000 2.009000 2.010000 2.012000 2.012000 2.012000 2.012000 2.019000 1.971000 2.504000 
0.000000 0.000000 1.972000 1.984000 1.987000 1.987000 1.987000 1.987000 1.990000 1.990000 1.990000 1.993000 1.996000 1.997000 2.000000 1.997000 2.000000 2.000000 2.000000 2.003000 2.003000 2.000000 2.000000 2.000000 2.001000 2.004000 2.001000 2.003000 2.006000 2.008000 2.009000 2.009000 2.009000 2.010000 2.012000 2.012000 2.012000 2.015000 0.000000 1.560000 
0.000000 0.000000 1.983000 1.983000 1.987000 1.987000 1.987000 1.987000 1.987000 1.990000 1.990000 1.991000 1.993000 1.996000 2.000000 1.996000 2.000000 2.000000 2.000000 2.000000 2.000000 2.000000 2.000000 2.000000 2.000000 2.001000 2.003000 2.003000 2.005000 2.006000 2.009000 2.009000 2.009000 2.009000 2.011000 2.010000 2.012000 2.012000 0.000000 1.314000 
0.000000 0.000000 1.981000 1.981000 1.987000 1.987000 1.987000 1.987000 1.987000 1.990000 1.990000 1.991000 1.993000 1.994000 1.996000 1.996000 2.000000 2.000000 2.000000 2.000000 2.000000 1.996000 1.999000 2.000000 2.000000 2.000000 2.001000 2.003000 2.003000 2.003000 2.007000 2.009000 2.009000 2.011000 2.009000 2.009000 2.012000 2.012000 1.170000 2.878000 
0.000000 1.344000 1.978000 1.978000 1.981000 1.985000 1.987000 1.987000 1.987000 1.990000 1.990000 1.993000 1.993000 1.996000 1.996000 1.997000 1.998000 2.000000 1.999000 2.000000 2.000000 1.998000 1.996000 2.000000 2.000000 2.000000 2.000000 2.001000 2.003000 2.003000 2.005000 2.009000 2.009000 2.009000 2.009000 2.012000 2.012000 2.012000 0.000000 0.000000 
0.000000 1.959000 1.978000 1.978000 1.978000 1.981000 1.984000 1.987000 1.987000 1.987000 1.990000 1.990000 1.992000 1.996000 1.996000 1.995000 1.996000 1.996000 1.996000 2.000000 2.000000 1.996000 1.996000 2.000000 2.000000 2.000000 2.000000 2.000000 2.003000 2.003000 2.003000 2.006000 2.009000 2.009000 2.009000 2.010000 2.010000 1.612000 0.000000 0.000000 
0.000000 1.978000 1.978000 1.980000 1.984000 1.985000 1.986000 1.987000 1.987000 1.987000 1.990000 1.990000 1.990000 1.991000 1.991000 1.995000 1.996000 1.996000 1.996000 1.998000 2.000000 1.996000 1.996000 1.996000 1.999000 2.000000 2.000000 2.000000 2.003000 2.000000 2.003000 2.006000 2.006000 2.009000 2.009000 2.012000 2.009000 2.027000 2.034000 1.550000 
1.767000 1.978000 1.978000 1.980000 1.984000 1.984000 1.986000 1.984000 1.987000 1.987000 1.987000 1.990000 1.990000 1.990000 1.993000 1.993000 1.996000 1.996000 1.996000 1.996000 1.998000 1.996000 1.996000 1.996000 1.999000 1.996000 1.996000 2.000000 2.003000 2.000000 2.004000 2.006000 2.006000 2.006000 2.008000 2.009000 2.009000 1.328000 1.890000 1.889000 
1.767000 1.978000 1.978000 1.978000 1.984000 1.984000 1.987000 1.984000 1.985000 1.987000 1.987000 1.990000 1.990000 1.990000 1.993000 1.993000 1.994000 1.996000 1.996000 1.996000 1.999000 1.996000 1.996000 1.997000 2.000000 1.996000 1.999000 2.000000 2.000000 2.000000 2.003000 2.006000 2.006000 2.006000 2.007000 2.010000 2.007000 0.000000 0.000000 0.000000 
1.975000 1.976000 1.978000 1.980000 1.981000 1.982000 1.986000 1.981000 1.984000 1.987000 1.987000 1.989000 1.990000 1.990000 1.993000 1.993000 1.993000 1.993000 1.993000 1.996000 2.000000 1.996000 1.996000 1.996000 1.999000 2.000000 2.000000 2.000000 2.000000 2.002000 2.004000 2.006000 2.006000 2.006000 2.006000 2.009000 2.004000 0.000000 0.000000 0.000000 
1.975000 1.975000 1.978000 1.978000 1.978000 1.981000 1.984000 1.984000 1.984000 1.987000 1.987000 1.987000 1.990000 1.990000 1.990000 1.990000 1.993000 1.993000 1.993000 1.996000 1.996000 1.996000 1.996000 1.996000 1.996000 2.000000 2.000000 2.000000 2.000000 2.003000 2.006000 2.006000 2.006000 2.006000 2.009000 2.009000 2.001000 0.000000 0.000000 0.000000 
1.975000 1.975000 1.978000 1.978000 1.978000 1.979000 1.981000 1.984000 1.984000 1.985000 1.987000 1.987000 1.988000 1.990000 1.990000 1.990000 1.993000 1.993000 1.993000 1.996000 1.996000 1.996000 1.996000 1.996000 1.996000 1.996000 2.000000 2.000000 2.000000 2.003000 2.003000 2.003000 2.005000 2.009000 2.009000 2.009000 2.009000 1.300000 0.000000 0.000000 
1.975000 1.975000 1.978000 1.978000 1.978000 1.980000 1.981000 1.986000 1.984000 1.984000 1.987000 1.987000 1.987000 1.987000 1.990000 1.990000 1.990000 1.993000 1.993000 1.996000 1.993000 1.996000 1.996000 1.996000 1.996000 1.996000 1.996000 1.996000 2.000000 2.000000 2.003000 2.003000 2.003000 2.006000 2.006000 2.009000 1.162000 0.000000 0.000000 0.000000 
1.973000 1.975000 1.975000 1.978000 1.978000 1.978000 1.981000 1.984000 1.984000 1.986000 1.987000 1.987000 1.987000 1.987000 1.987000 1.990000 1.990000 1.990000 1.991000 1.993000 1.993000 1.996000 1.996000 1.996000 1.996000 1.996000 1.996000 1.996000 2.000000 2.000000 2.001000 2.003000 2.003000 2.004000 2.009000 2.009000 1.162000 0.000000 0.000000 0.000000 
0.000000 0.000000 0.000000 0.000000 0.000000 0.000000 1.773000 1.060000 0.000000 1.725000 2.570000 1.987000 1.987000 1.987000 1.987000 1.990000 1.990000 1.990000 1.990000 1.993000 1.993000 1.993000 1.994000 1.996000 1.996000 1.996000 1.996000 1.996000 2.000000 2.000000 2.001000 2.003000 2.003000 2.003000 2.008000 2.008000 0.000000 0.000000 0.000000 0.000000 
0.000000 0.000000 0.000000 0.000000 0.000000 0.000000 0.000000 0.000000 0.000000 0.000000 0.000000 0.000000 1.164000 0.000000 1.989000 1.990000 1.988000 1.990000 1.993000 1.993000 1.993000 1.993000 1.993000 1.993000 1.996000 1.996000 1.996000 1.996000 2.000000 2.000000 2.003000 2.003000 2.003000 2.003000 2.005000 1.819000 0.000000 0.000000 0.000000 0.000000 
0.000000 0.000000 0.000000 0.000000 0.000000 0.000000 0.000000 0.000000 0.000000 0.000000 0.000000 0.000000 0.000000 0.000000 0.000000 0.000000 1.987000 1.989000 1.991000 1.990000 1.993000 1.989000 1.990000 1.993000 1.994000 1.996000 1.996000 1.998000 1.999000 2.000000 2.000000 2.002000 2.002000 2.001000 2.005000 1.772000 0.000000 0.000000 2.347000 0.000000 
0.000000 0.000000 0.000000 0.000000 0.000000 0.000000 0.000000 0.000000 0.000000 0.000000 0.000000 0.000000 0.000000 0.000000 0.000000 0.000000 0.000000 0.000000 2.768000 1.996000 1.990000 1.990000 1.990000 1.993000 1.995000 1.996000 1.996000 2.000000 1.997000 2.000000 2.000000 2.000000 2.001000 2.003000 2.006000 0.000000 0.000000 0.000000 0.000000 0.000000 
0.000000 0.000000 0.000000 0.000000 0.000000 0.000000 0.000000 0.000000 0.000000 0.000000 0.000000 0.000000 0.000000 0.000000 0.000000 0.000000 0.000000 0.000000 0.000000 0.000000 0.000000 0.000000 0.000000 1.996000 1.996000 1.996000 1.993000 1.996000 1.996000 1.999000 2.000000 2.000000 2.001000 2.003000 2.007000 0.000000 0.000000 0.000000 0.000000 0.000000 
0.000000 0.000000 0.000000 0.000000 0.000000 0.000000 0.000000 0.000000 0.000000 0.000000 0.000000 0.000000 0.000000 0.000000 0.000000 0.000000 0.000000 0.000000 0.000000 0.000000 0.000000 0.000000 0.000000 0.000000 0.000000 2.374000 2.370000 2.370000 1.996000 2.000000 1.999000 2.000000 2.001000 2.003000 1.996000 0.000000 0.000000 0.000000 0.000000 0.000000 
0.000000 0.000000 0.000000 0.000000 0.000000 0.000000 0.000000 0.000000 0.000000 0.000000 0.000000 0.000000 0.000000 0.000000 0.000000 0.000000 0.000000 0.000000 0.000000 0.000000 0.000000 0.000000 0.000000 0.000000 0.000000 0.000000 0.000000 0.000000 0.000000 0.000000 0.000000 0.000000 0.000000 0.000000 0.000000 0.000000 0.000000 0.000000 0.000000 0.000000 
0.000000 0.000000 0.000000 0.000000 0.000000 0.000000 0.000000 0.000000 0.000000 0.000000 0.000000 0.000000 0.000000 0.000000 0.000000 0.000000 0.000000 0.000000 0.000000 0.000000 0.000000 0.000000 0.000000 0.000000 0.000000 0.000000 0.000000 0.000000 0.000000 0.000000 0.000000 0.000000 0.000000 0.000000 0.000000 0.000000 0.000000 0.000000 0.000000 0.000000 
0.000000 0.000000 0.000000 0.000000 0.000000 0.000000 0.000000 0.000000 0.000000 0.000000 0.000000 0.000000 0.000000 0.000000 0.000000 0.000000 0.000000 0.000000 0.000000 0.000000 0.000000 0.000000 0.000000 0.000000 0.000000 0.000000 0.000000 0.000000 0.000000 0.000000 0.000000 0.000000 0.000000 0.000000 0.000000 0.000000 0.000000 0.000000 0.000000 0.000000 
0.000000 0.000000 0.000000 0.000000 0.000000 0.000000 0.000000 0.000000 0.000000 0.000000 0.000000 0.000000 0.000000 0.000000 0.000000 0.000000 0.000000 0.000000 0.000000 0.000000 0.000000 0.000000 0.000000 0.000000 0.000000 0.000000 0.000000 0.000000 0.000000 0.000000 0.000000 0.000000 0.000000 0.000000 0.000000 0.000000 0.000000 0.000000 0.000000 0.000000 
0.000000 0.000000 0.000000 0.000000 0.000000 0.000000 0.000000 0.000000 0.000000 0.000000 0.000000 0.000000 0.000000 0.000000 0.000000 0.000000 0.000000 0.000000 0.000000 0.000000 0.000000 0.000000 0.000000 0.000000 0.000000 0.000000 0.000000 0.000000 0.000000 0.000000 0.000000 0.000000 0.000000 0.000000 0.000000 0.000000 0.000000 0.000000 0.000000 0.000000 
0.000000 0.000000 0.000000 0.000000 0.000000 0.000000 0.000000 0.000000 0.000000 0.000000 0.000000 0.000000 0.000000 0.000000 0.000000 0.000000 0.000000 0.000000 0.000000 0.000000 0.000000 0.000000 0.000000 0.000000 0.000000 0.000000 0.000000 0.000000 0.000000 0.000000 0.000000 0.000000 0.000000 0.000000 0.000000 0.000000 0.000000 0.000000 0.000000 0.000000 
