40 40
0.000000 0.000000 0.000000 0.000000 0.000000 0.000000 0.000000 0.000000 0.000000 0.000000 0.000000 0.000000 0.000000 0.000000 0.000000 0.000000 0.000000 0.000000 0.000000 0.000000 0.000000 0.000000 0.000000 0.000000 0.000000 0.000000 0.000000 0.000000 0.000000 0.000000 0.000000 0.000000 0.000000 0.000000 0.000000 0.000000 0.000000 0.000000 0.000000 0.000000 
0.000000 0.000000 0.000000 0.000000 0.000000 0.000000 0.000000 0.000000 0.000000 0.000000 0.000000 0.000000 0.000000 0.000000 0.000000 0.000000 0.000000 0.000000 0.000000 0.000000 0.000000 0.000000 0.000000 0.000000 0.000000 0.000000 0.000000 0.000000 0.000000 0.000000 0.000000 0.000000 0.000000 0.000000 0.000000 0.000000 0.000000 0.000000 0.000000 0.000000 
0.000000 0.000000 0.000000 0.000000 0.000000 0.000000 0.000000 0.000000 0.000000 0.000000 0.000000 0.000000 0.000000 0.000000 0.000000 0.000000 0.000000 0.000000 0.000000 0.000000 0.000000 0.000000 0.000000 0.000000 0.000000 0.000000 0.000000 0.000000 0.000000 0.000000 0.000000 0.000000 0.000000 0.000000 0.000000 0.000000 0.000000 0.000000 0.000000 0.000000 
0.000000 0.000000 0.000000 0.000000 0.000000 0.000000 0.000000 0.000000 0.000000 0.000000 0.000000 0.000000 0.000000 0.000000 0.000000 0.000000 0.000000 0.000000 0.000000 0.000000 0.000000 0.000000 0.000000 0.000000 0.000000 0.000000 0.000000 0.000000 0.000000 0.000000 0.000000 0.000000 0.000000 0.000000 0.000000 0.000000 0.000000 0.000000 0.000000 0.000000 
0.000000 0.000000 0.000000 0.000000 0.000000 0.000000 0.000000 0.000000 0.000000 0.000000 0.000000 0.000000 0.000000 0.000000 0.000000 0.000000 0.000000 0.000000 0.000000 0.000000 0.000000 0.000000 0.000000 0.000000 0.000000 0.000000 0.000000 0.000000 0.000000 0.000000 0.000000 0.000000 0.000000 0.000000 0.000000 0.000000 0.000000 0.000000 0.000000 0.000000 
0.000000 0.000000 0.000000 0.000000 0.000000 0.000000 0.000000 0.000000 0.000000 0.000000 0.000000 0.000000 0.000000 0.000000 0.000000 0.000000 0.000000 0.000000 0.000000 0.000000 0.000000 0.000000 0.000000 0.000000 0.000000 0.000000 0.000000 0.000000 0.000000 0.000000 0.000000 0.000000 0.000000 0.000000 0.000000 0.000000 0.000000 0.000000 0.000000 0.000000 
0.000000 0.000000 2.076000 2.069000 2.065000 2.065000 2.073000 2.069000 2.063000 2.063000 2.063000 2.073000 2.073000 2.064000 2.049000 2.042000 2.042000 2.057000 2.063000 2.048000 2.042000 2.536000 2.536000 2.536000 2.536000 2.540000 2.074000 2.080000 2.479000 2.487000 2.509000 2.540000 2.538000 2.554000 2.556000 2.570000 2.681000 2.651000 0.000000 0.000000 
0.000000 0.000000 2.062000 2.059000 2.058000 2.058000 2.058000 2.053000 2.053000 2.046000 2.046000 2.050000 2.049000 2.046000 2.042000 2.042000 2.042000 2.046000 2.046000 2.042000 2.038000 2.036000 2.036000 2.042000 2.042000 2.049000 2.052000 2.060000 2.046000 2.053000 2.065000 2.062000 2.053000 2.053000 2.058000 2.065000 2.298000 2.278000 0.000000 0.000000 
0.000000 0.000000 2.032000 2.032000 2.040000 2.031000 2.032000 2.031000 2.031000 2.031000 2.031000 2.021000 2.024000 2.031000 2.031000 2.031000 2.031000 2.021000 2.030000 2.032000 2.024000 2.021000 2.020000 2.030000 2.031000 2.023000 2.021000 2.021000 2.021000 2.046000 2.052000 2.052000 2.052000 2.053000 2.053000 2.053000 2.042000 2.034000 0.000000 0.000000 
0.000000 0.000000 2.016000 2.016000 2.010000 2.010000 2.015000 2.010000 2.005000 2.005000 2.000000 2.005000 1.998000 1.995000 1.996000 2.000000 2.001000 2.007000 2.015000 2.015000 2.007000 2.004000 1.995000 1.991000 1.992000 1.996000 2.000000 2.000000 2.000000 2.005000 2.011000 2.016000 2.024000 2.027000 2.030000 2.032000 2.022000 2.017000 0.000000 0.000000 
0.000000 0.000000 1.386000 2.010000 2.010000 2.006000 2.001000 2.000000 2.000000 1.990000 1.989000 1.990000 1.989000 1.982000 1.980000 1.986000 1.989000 1.991000 1.992000 1.994000 2.000000 1.989000 1.980000 1.971000 1.973000 1.979000 1.980000 1.980000 1.980000 1.985000 1.990000 1.994000 1.995000 1.992000 1.988000 1.984000 1.989000 2.001000 0.000000 0.000000 
0.000000 0.000000 1.119000 1.515000 2.010000 2.007000 2.000000 2.000000 2.000000 1.992000 1.989000 1.992000 1.989000 1.983000 1.981000 1.979000 1.989000 1.989000 1.989000 1.989000 1.989000 1.988000 1.979000 1.970000 1.969000 1.969000 1.969000 1.969000 1.969000 1.973000 1.979000 1.979000 1.979000 1.979000 1.979000 1.979000 1.979000 1.979000 0.000000 0.000000 
0.000000 0.000000 1.102000 1.509000 2.010000 2.010000 2.001000 2.000000 2.000000 2.000000 1.997000 2.000000 1.997000 1.997000 1.988000 1.986000 1.989000 1.989000 1.989000 1.991000 1.991000 1.989000 1.986000 1.977000 1.973000 1.969000 1.969000 1.969000 1.969000 1.973000 1.979000 1.979000 1.979000 1.979000 1.975000 1.972000 1.974000 1.974000 0.000000 0.000000 
0.000000 0.000000 0.000000 1.301000 2.021000 2.011000 2.010000 2.010000 2.010000 2.001000 2.001000 2.001000 2.001000 2.000000 2.000000 2.000000 1.990000 1.990000 1.989000 1.992000 1.992000 1.989000 1.989000 1.981000 1.979000 1.972000 1.972000 1.980000 1.979000 1.979000 1.979000 1.982000 1.989000 1.980000 1.974000 1.970000 1.973000 1.971000 0.000000 0.000000 
0.000000 0.000000 1.096000 1.685000 2.021000 2.021000 2.011000 2.010000 2.010000 2.010000 2.010000 2.010000 2.008000 2.001000 2.000000 2.000000 2.000000 2.000000 1.996000 1.996000 1.996000 1.989000 1.989000 1.989000 1.984000 1.984000 1.986000 1.995000 1.984000 1.984000 1.984000 1.986000 1.989000 1.989000 1.984000 1.979000 1.979000 1.975000 0.000000 0.000000 
0.000000 0.000000 1.975000 2.017000 2.021000 2.021000 2.021000 2.010000 2.010000 2.010000 2.010000 2.010000 2.006000 2.000000 2.000000 2.000000 2.000000 2.000000 2.000000 2.000000 2.000000 1.989000 1.989000 1.989000 1.993000 1.999000 2.000000 2.000000 1.999000 1.999000 1.999000 1.999000 1.992000 1.990000 1.994000 1.989000 1.985000 1.979000 0.000000 0.000000 
0.000000 0.000000 1.066000 1.441000 2.025000 2.023000 2.021000 2.014000 2.011000 2.010000 2.010000 2.010000 2.006000 2.000000 2.003000 2.000000 2.010000 2.000000 2.000000 2.000000 2.000000 2.000000 2.000000 2.000000 2.000000 2.000000 2.000000 2.000000 2.000000 2.004000 2.010000 2.004000 1.996000 1.994000 2.000000 1.990000 1.985000 1.979000 0.000000 0.000000 
0.000000 0.000000 1.062000 1.062000 1.301000 2.031000 2.030000 2.021000 2.013000 2.010000 2.010000 2.010000 2.009000 2.008000 2.010000 2.008000 2.010000 2.000000 2.000000 2.000000 2.000000 2.000000 2.000000 2.000000 2.000000 2.000000 2.000000 2.000000 2.000000 2.004000 2.010000 2.010000 2.009000 2.000000 2.000000 1.998000 1.988000 1.987000 0.000000 0.000000 
0.000000 0.000000 1.061000 1.060000 1.060000 1.513000 2.053000 2.038000 2.024000 2.012000 2.010000 2.010000 2.010000 2.010000 2.010000 2.010000 2.010000 2.010000 2.010000 2.000000 2.000000 2.002000 2.001000 2.000000 2.000000 2.000000 2.000000 2.000000 2.000000 2.004000 2.010000 2.010000 2.010000 2.010000 2.005000 2.000000 1.997000 1.990000 0.000000 0.000000 
0.000000 0.000000 1.055000 1.055000 1.055000 1.510000 2.053000 2.036000 2.021000 2.020000 2.010000 2.010000 2.001000 1.992000 1.991000 1.991000 2.004000 2.004000 2.004000 2.000000 2.000000 2.005000 2.005000 2.000000 2.000000 2.000000 2.000000 1.996000 1.993000 2.002000 2.004000 2.004000 2.004000 2.004000 2.005000 2.000000 1.998000 1.990000 0.000000 0.000000 
0.000000 0.000000 1.052000 1.048000 1.046000 1.049000 1.896000 2.043000 2.021000 2.021000 2.022000 2.022000 1.994000 1.957000 1.953000 1.968000 1.978000 1.979000 1.970000 1.972000 1.979000 2.001000 2.004000 2.000000 1.999000 1.991000 1.989000 1.982000 1.979000 1.994000 2.000000 1.997000 1.989000 2.000000 2.000000 2.000000 1.989000 1.981000 0.000000 0.000000 
0.000000 0.000000 1.048000 1.047000 1.046000 1.047000 1.044000 1.407000 1.999000 2.000000 2.000000 1.992000 1.923000 1.930000 1.940000 1.945000 1.950000 1.962000 1.959000 1.969000 1.973000 1.991000 1.990000 1.981000 1.970000 1.970000 1.970000 1.969000 1.969000 1.986000 2.000000 1.996000 1.985000 1.985000 1.985000 1.989000 1.979000 1.976000 0.000000 0.000000 
0.000000 0.000000 1.044000 1.044000 1.044000 1.044000 1.044000 0.000000 1.933000 1.934000 1.940000 1.929000 1.924000 1.919000 1.930000 1.936000 1.939000 1.942000 1.957000 1.960000 1.960000 1.962000 1.967000 1.953000 1.939000 1.933000 1.935000 1.948000 1.960000 1.966000 1.996000 1.994000 1.979000 1.970000 1.970000 1.972000 1.979000 1.965000 0.000000 0.000000 
0.000000 0.000000 1.038000 1.036000 1.036000 1.039000 0.000000 0.000000 1.768000 1.920000 1.934000 1.929000 1.917000 1.919000 1.924000 1.926000 1.919000 1.916000 1.923000 1.933000 1.933000 1.926000 1.926000 1.926000 1.924000 1.919000 1.916000 1.922000 1.926000 1.932000 1.945000 1.958000 1.953000 1.946000 1.946000 1.946000 1.942000 1.953000 0.000000 0.000000 
0.000000 0.000000 1.032000 1.032000 1.035000 1.035000 0.000000 0.000000 1.388000 1.926000 1.931000 1.923000 1.908000 1.900000 1.904000 1.910000 1.912000 1.903000 1.903000 1.906000 1.906000 1.906000 1.906000 1.912000 1.910000 1.906000 1.903000 1.905000 1.906000 1.914000 1.920000 1.914000 1.909000 1.923000 1.906000 1.911000 1.904000 1.917000 0.000000 0.000000 
0.000000 0.000000 1.030000 1.028000 1.028000 1.028000 0.000000 0.000000 1.388000 1.744000 1.899000 1.899000 1.899000 1.893000 1.891000 1.891000 1.891000 1.891000 1.890000 1.882000 1.882000 1.890000 1.891000 1.899000 1.899000 1.886000 1.884000 1.890000 1.890000 1.894000 1.900000 1.900000 1.900000 1.898000 1.882000 1.882000 1.890000 1.896000 0.000000 0.000000 
0.000000 0.000000 1.025000 1.022000 1.022000 1.021000 0.000000 0.000000 0.000000 1.034000 1.453000 1.877000 1.878000 1.889000 1.890000 1.886000 1.886000 1.887000 1.877000 1.877000 1.877000 1.877000 1.882000 1.886000 1.886000 1.875000 1.872000 1.872000 1.872000 1.879000 1.893000 1.897000 1.900000 1.894000 1.877000 1.872000 1.872000 1.876000 0.000000 0.000000 
0.000000 0.000000 1.025000 1.020000 1.016000 1.016000 1.016000 0.000000 0.000000 0.000000 1.837000 1.856000 1.854000 1.856000 1.882000 1.882000 1.882000 1.882000 1.873000 1.872000 1.866000 1.864000 1.872000 1.881000 1.864000 1.863000 1.854000 1.854000 1.863000 1.863000 1.872000 1.893000 1.894000 1.882000 1.872000 1.863000 1.863000 1.863000 0.000000 0.000000 
0.000000 0.000000 1.021000 1.016000 1.013000 1.013000 1.013000 1.012000 1.012000 0.000000 0.000000 1.824000 1.845000 1.845000 1.842000 1.839000 1.838000 1.859000 1.862000 1.861000 1.852000 1.854000 1.852000 1.848000 1.851000 1.851000 1.849000 1.842000 1.848000 1.853000 1.856000 1.868000 1.865000 1.866000 1.866000 1.863000 1.858000 1.851000 0.000000 0.000000 
0.000000 0.000000 1.015000 1.013000 1.008000 1.008000 1.008000 1.008000 1.002000 0.000000 0.000000 1.835000 1.839000 1.833000 1.830000 1.826000 1.823000 1.819000 1.841000 1.845000 1.845000 1.841000 1.834000 1.830000 1.832000 1.832000 1.830000 1.823000 1.823000 1.829000 1.825000 1.827000 1.834000 1.849000 1.863000 1.863000 1.845000 1.839000 0.000000 0.000000 
0.000000 0.000000 1.009000 1.006000 1.006000 1.003000 1.003000 1.003000 0.000000 0.000000 1.367000 1.838000 1.817000 1.817000 1.817000 1.813000 1.811000 1.817000 1.834000 1.831000 1.826000 1.826000 1.826000 1.819000 1.817000 1.823000 1.823000 1.814000 1.811000 1.815000 1.811000 1.819000 1.824000 1.836000 1.854000 1.856000 1.835000 1.837000 0.000000 0.000000 
0.000000 0.000000 1.007000 1.002000 0.000000 0.000000 0.000000 0.000000 0.000000 0.000000 0.000000 1.772000 1.811000 1.811000 1.811000 1.808000 1.806000 1.811000 1.820000 1.814000 1.818000 1.818000 1.814000 1.814000 1.806000 1.806000 1.811000 1.811000 1.811000 1.815000 1.811000 1.819000 1.819000 1.819000 1.819000 1.827000 1.828000 1.831000 0.000000 0.000000 
0.000000 0.000000 1.002000 0.000000 0.000000 0.000000 0.000000 0.000000 0.000000 0.000000 0.000000 1.763000 1.802000 1.809000 1.811000 1.805000 1.802000 1.802000 1.810000 1.811000 1.817000 1.811000 1.811000 1.811000 1.799000 1.794000 1.804000 1.811000 1.811000 1.815000 1.811000 1.819000 1.819000 1.819000 1.819000 1.819000 1.828000 1.828000 0.000000 0.000000 
0.000000 0.000000 0.000000 0.000000 0.000000 0.000000 0.000000 0.000000 0.000000 0.000000 0.000000 0.000000 0.000000 0.000000 0.000000 0.000000 0.000000 0.000000 0.000000 0.000000 0.000000 0.000000 0.000000 0.000000 0.000000 0.000000 0.000000 0.000000 0.000000 0.000000 0.000000 0.000000 0.000000 0.000000 0.000000 0.000000 0.000000 0.000000 0.000000 0.000000 
0.000000 0.000000 0.000000 0.000000 0.000000 0.000000 0.000000 0.000000 0.000000 0.000000 0.000000 0.000000 0.000000 0.000000 0.000000 0.000000 0.000000 0.000000 0.000000 0.000000 0.000000 0.000000 0.000000 0.000000 0.000000 0.000000 0.000000 0.000000 0.000000 0.000000 0.000000 0.000000 0.000000 0.000000 0.000000 0.000000 0.000000 0.000000 0.000000 0.000000 
0.000000 0.000000 0.000000 0.000000 0.000000 0.000000 0.000000 0.000000 0.000000 0.000000 0.000000 0.000000 0.000000 0.000000 0.000000 0.000000 0.000000 0.000000 0.000000 0.000000 0.000000 0.000000 0.000000 0.000000 0.000000 0.000000 0.000000 0.000000 0.000000 0.000000 0.000000 0.000000 0.000000 0.000000 0.000000 0.000000 0.000000 0.000000 0.000000 0.000000 
0.000000 0.000000 0.000000 0.000000 0.000000 0.000000 0.000000 0.000000 0.000000 0.000000 0.000000 0.000000 0.000000 0.000000 0.000000 0.000000 0.000000 0.000000 0.000000 0.000000 0.000000 0.000000 0.000000 0.000000 0.000000 0.000000 0.000000 0.000000 0.000000 0.000000 0.000000 0.000000 0.000000 0.000000 0.000000 0.000000 0.000000 0.000000 0.000000 0.000000 
0.000000 0.000000 0.000000 0.000000 0.000000 0.000000 0.000000 0.000000 0.000000 0.000000 0.000000 0.000000 0.000000 0.000000 0.000000 0.000000 0.000000 0.000000 0.000000 0.000000 0.000000 0.000000 0.000000 0.000000 0.000000 0.000000 0.000000 0.000000 0.000000 0.000000 0.000000 0.000000 0.000000 0.000000 0.000000 0.000000 0.000000 0.000000 0.000000 0.000000 
0.000000 0.000000 0.000000 0.000000 0.000000 0.000000 0.000000 0.000000 0.000000 0.000000 0.000000 0.000000 0.000000 0.000000 0.000000 0.000000 0.000000 0.000000 0.000000 0.000000 0.000000 0.000000 0.000000 0.000000 0.000000 0.000000 0.000000 0.000000 0.000000 0.000000 0.000000 0.000000 0.000000 0.000000 0.000000 0.000000 0.000000 0.000000 0.000000 0.000000 
0.000000 0.000000 0.000000 0.000000 0.000000 0.000000 0.000000 0.000000 0.000000 0.000000 0.000000 0.000000 0.000000 0.000000 0.000000 0.000000 0.000000 0.000000 0.000000 0.000000 0.000000 0.000000 0.000000 0.000000 0.000000 0.000000 0.000000 0.000000 0.000000 0.000000 0.000000 0.000000 0.000000 0.000000 0.000000 0.000000 0.000000 0.000000 0.000000 0.000000 
