0.000000,0.000000,0.000000,0.000000,0.000000,0.000000,0.000000,0.000000,0.000000,0.000000,0.000000,0.000000,0.000000,0.000000,0.000000,0.000000,0.000000,0.000000,0.000000,0.000000,0.000000,0.000000,0.000000,0.000000,0.000000,0.000000,0.000000,0.000000,0.000000,0.000000,0.000000,0.000000,0.000000,0.000000,0.000000,0.000000,0.000000,0.000000,0.000000,0.000000,
0.000000,0.000000,0.000000,0.000000,0.000000,0.000000,0.000000,0.000000,0.000000,0.000000,0.000000,0.000000,0.000000,0.000000,0.000000,0.000000,0.000000,0.000000,0.000000,0.000000,0.000000,0.000000,0.000000,0.000000,0.000000,0.000000,0.000000,0.000000,0.000000,0.000000,0.000000,0.000000,0.000000,0.000000,0.000000,0.000000,0.000000,0.000000,0.000000,0.000000,
0.000000,0.000000,0.000000,0.000000,0.000000,0.000000,2.855000,2.845000,2.761000,2.681000,2.615000,2.603000,2.251000,2.097000,2.077000,2.055000,2.043000,2.027000,2.027000,2.027000,2.027000,2.029000,2.032000,2.033000,2.027000,2.027000,2.023000,1.997000,1.966000,1.927000,1.924000,1.921000,1.911000,1.897000,0.000000,0.000000,0.000000,0.000000,0.000000,0.000000,
0.000000,0.000000,0.000000,0.000000,0.000000,0.000000,2.864000,2.837000,2.716000,2.632000,2.605000,2.585000,2.245000,2.097000,2.078000,2.055000,2.033000,2.027000,2.027000,2.027000,2.027000,2.036000,2.037000,2.027000,2.027000,2.027000,2.018000,1.988000,1.974000,1.952000,1.927000,1.904000,1.899000,1.887000,0.000000,0.000000,0.000000,0.000000,0.000000,0.000000,
0.000000,0.000000,0.000000,0.000000,0.000000,0.000000,2.527000,2.513000,2.581000,2.603000,2.592000,2.444000,2.149000,2.097000,2.078000,2.051000,2.031000,2.027000,2.027000,2.027000,2.027000,2.027000,2.031000,2.027000,2.027000,2.026000,2.009000,1.985000,1.967000,1.951000,1.933000,1.910000,1.899000,1.887000,0.000000,0.000000,0.000000,0.000000,0.000000,0.000000,
0.000000,0.000000,0.000000,0.000000,0.000000,0.000000,2.338000,2.345000,2.371000,2.378000,2.501000,2.122000,2.097000,2.097000,2.064000,2.042000,2.031000,2.027000,2.027000,2.027000,2.027000,2.027000,2.027000,2.027000,2.027000,2.026000,2.002000,1.975000,1.954000,1.936000,1.925000,1.909000,1.889000,1.887000,0.000000,0.000000,0.000000,0.000000,0.000000,0.000000,
0.000000,0.000000,0.000000,0.000000,0.000000,0.000000,2.353000,2.353000,2.353000,2.353000,2.312000,2.097000,2.097000,2.084000,2.063000,2.034000,2.018000,2.014000,2.025000,2.027000,2.027000,2.027000,2.027000,2.027000,2.027000,2.025000,1.987000,1.960000,1.940000,1.933000,1.924000,1.910000,1.889000,1.887000,0.000000,0.000000,0.000000,0.000000,0.000000,0.000000,
0.000000,0.000000,0.000000,0.000000,0.000000,0.000000,2.338000,2.338000,2.338000,2.338000,2.306000,2.097000,2.093000,2.078000,2.058000,2.034000,2.018000,2.014000,2.016000,2.021000,2.026000,2.027000,2.025000,2.021000,2.021000,2.020000,1.984000,1.954000,1.938000,1.924000,1.924000,1.916000,1.890000,1.882000,0.000000,0.000000,0.000000,0.000000,0.000000,0.000000,
0.000000,0.000000,0.000000,0.000000,0.000000,0.000000,2.338000,2.338000,2.338000,2.338000,2.297000,2.097000,2.087000,2.070000,2.052000,2.034000,2.018000,2.014000,2.014000,2.014000,2.024000,2.018000,2.017000,2.014000,2.014000,2.012000,1.979000,1.949000,1.930000,1.906000,1.899000,1.906000,1.890000,1.868000,0.000000,0.000000,0.000000,0.000000,0.000000,0.000000,
0.000000,0.000000,0.000000,0.000000,0.000000,0.000000,2.338000,2.338000,2.338000,2.338000,2.297000,2.097000,2.087000,2.057000,2.042000,2.034000,2.018000,2.014000,2.014000,2.020000,2.027000,2.014000,2.014000,2.014000,2.014000,2.012000,1.979000,1.940000,1.924000,1.898000,1.887000,1.895000,1.859000,1.853000,0.000000,0.000000,0.000000,0.000000,0.000000,0.000000,
0.000000,0.000000,0.000000,0.000000,0.000000,0.000000,2.338000,2.338000,2.338000,2.338000,2.297000,2.096000,2.086000,2.054000,2.027000,2.027000,2.027000,2.027000,2.027000,2.027000,2.025000,2.014000,2.014000,2.014000,2.016000,2.010000,1.979000,1.939000,1.913000,1.898000,1.887000,1.887000,1.846000,1.841000,0.000000,0.000000,0.000000,0.000000,0.000000,0.000000,
0.000000,0.000000,0.000000,0.000000,0.000000,0.000000,2.338000,2.338000,2.338000,2.338000,2.203000,2.087000,2.078000,2.043000,2.026000,2.021000,2.021000,2.021000,2.025000,2.021000,2.016000,2.014000,2.014000,2.017000,2.021000,1.999000,1.981000,1.945000,1.914000,1.898000,1.893000,1.889000,1.846000,1.841000,0.000000,0.000000,0.000000,0.000000,0.000000,0.000000,
0.000000,0.000000,0.000000,0.000000,0.000000,0.000000,2.338000,2.338000,2.338000,2.338000,2.095000,2.083000,2.073000,2.042000,2.024000,2.014000,2.014000,2.014000,2.024000,2.014000,2.014000,2.014000,2.021000,2.016000,2.006000,1.999000,1.980000,1.948000,1.915000,1.908000,1.908000,1.900000,1.847000,1.841000,0.000000,0.000000,0.000000,0.000000,0.000000,0.000000,
0.000000,0.000000,0.000000,0.000000,0.000000,0.000000,2.338000,2.338000,2.338000,2.338000,2.095000,2.083000,2.073000,2.056000,2.024000,2.014000,2.014000,2.014000,2.014000,2.014000,2.014000,2.014000,2.014000,2.014000,1.992000,1.986000,1.970000,1.946000,1.915000,1.899000,1.903000,1.896000,1.846000,1.841000,0.000000,0.000000,0.000000,0.000000,0.000000,0.000000,
0.000000,0.000000,0.000000,0.000000,0.000000,0.000000,2.359000,2.349000,2.346000,2.284000,2.069000,2.069000,2.059000,2.042000,2.024000,2.011000,2.011000,2.011000,2.014000,2.014000,2.014000,2.014000,2.010000,2.000000,1.990000,1.974000,1.963000,1.940000,1.926000,1.902000,1.901000,1.870000,1.842000,1.841000,0.000000,0.000000,0.000000,0.000000,0.000000,0.000000,
0.000000,0.000000,0.000000,0.000000,0.000000,0.000000,2.484000,2.478000,2.472000,2.118000,2.069000,2.069000,2.054000,2.041000,2.016000,2.000000,2.000000,2.000000,2.009000,2.014000,2.014000,2.014000,2.010000,2.000000,1.990000,1.967000,1.949000,1.932000,1.925000,1.917000,1.904000,1.867000,1.842000,1.841000,0.000000,0.000000,0.000000,0.000000,0.000000,0.000000,
0.000000,0.000000,0.000000,0.000000,0.000000,0.000000,2.593000,2.589000,2.589000,2.116000,2.069000,2.064000,2.046000,2.041000,2.011000,2.000000,2.000000,2.000000,2.001000,2.003000,2.011000,2.014000,2.010000,2.000000,1.990000,1.960000,1.942000,1.925000,1.924000,1.912000,1.881000,1.855000,1.842000,1.841000,0.000000,0.000000,0.000000,0.000000,0.000000,0.000000,
0.000000,0.000000,0.000000,0.000000,0.000000,0.000000,2.591000,2.572000,2.572000,2.115000,2.069000,2.063000,2.046000,2.041000,2.011000,2.000000,2.000000,2.000000,2.000000,2.000000,2.000000,2.014000,2.014000,2.014000,1.992000,1.960000,1.941000,1.916000,1.901000,1.897000,1.874000,1.845000,1.831000,1.830000,0.000000,0.000000,0.000000,0.000000,0.000000,0.000000,
0.000000,0.000000,0.000000,0.000000,0.000000,0.000000,2.591000,2.572000,2.481000,2.102000,2.068000,2.061000,2.055000,2.042000,2.008000,2.000000,2.003000,2.004000,2.003000,2.000000,2.000000,2.014000,2.017000,2.003000,1.977000,1.948000,1.928000,1.897000,1.887000,1.885000,1.865000,1.845000,1.831000,1.830000,0.000000,0.000000,0.000000,0.000000,0.000000,0.000000,
0.000000,0.000000,0.000000,0.000000,0.000000,0.000000,2.591000,2.572000,2.254000,2.077000,2.067000,2.055000,2.050000,2.034000,2.000000,2.000000,2.010000,2.014000,2.011000,2.000000,2.000000,2.014000,2.014000,1.999000,1.977000,1.961000,1.935000,1.900000,1.887000,1.885000,1.860000,1.845000,1.826000,1.823000,0.000000,0.000000,0.000000,0.000000,0.000000,0.000000,
0.000000,0.000000,0.000000,0.000000,0.000000,0.000000,2.593000,2.590000,2.261000,2.083000,2.067000,2.050000,2.034000,2.017000,2.009000,2.000000,2.010000,2.014000,2.013000,2.011000,2.011000,2.014000,2.011000,1.988000,1.958000,1.953000,1.937000,1.912000,1.897000,1.885000,1.860000,1.845000,1.821000,1.818000,0.000000,0.000000,0.000000,0.000000,0.000000,0.000000,
0.000000,0.000000,0.000000,0.000000,0.000000,0.000000,2.594000,2.585000,2.572000,2.127000,2.066000,2.048000,2.031000,2.014000,2.010000,2.000000,2.010000,2.014000,2.014000,2.014000,2.014000,2.014000,2.006000,1.980000,1.943000,1.936000,1.936000,1.928000,1.902000,1.885000,1.860000,1.845000,1.820000,1.817000,0.000000,0.000000,0.000000,0.000000,0.000000,0.000000,
0.000000,0.000000,0.000000,0.000000,0.000000,0.000000,2.594000,2.585000,2.469000,2.109000,2.053000,2.039000,2.027000,2.001000,2.000000,2.000000,2.010000,2.010000,2.011000,2.014000,2.014000,2.014000,1.996000,1.980000,1.943000,1.936000,1.929000,1.916000,1.891000,1.886000,1.867000,1.836000,1.806000,1.804000,0.000000,0.000000,0.000000,0.000000,0.000000,0.000000,
0.000000,0.000000,0.000000,0.000000,0.000000,0.000000,2.594000,2.474000,2.154000,2.070000,2.053000,2.035000,2.018000,2.001000,2.002000,2.008000,2.012000,2.000000,2.003000,2.014000,2.014000,2.005000,1.991000,1.980000,1.943000,1.935000,1.922000,1.909000,1.890000,1.885000,1.860000,1.828000,1.788000,1.784000,0.000000,0.000000,0.000000,0.000000,0.000000,0.000000,
0.000000,0.000000,0.000000,0.000000,0.000000,0.000000,2.612000,2.401000,2.071000,2.058000,2.043000,2.030000,2.015000,2.001000,2.003000,2.014000,2.014000,2.000000,2.001000,2.008000,2.014000,2.000000,1.987000,1.980000,1.952000,1.935000,1.920000,1.898000,1.887000,1.885000,1.852000,1.829000,1.781000,1.775000,0.000000,0.000000,0.000000,0.000000,0.000000,0.000000,
0.000000,0.000000,0.000000,0.000000,0.000000,0.000000,2.551000,2.085000,2.069000,2.056000,2.039000,2.021000,1.995000,1.987000,1.987000,1.999000,2.003000,2.000000,2.000000,2.000000,2.000000,2.000000,1.987000,1.980000,1.941000,1.933000,1.915000,1.876000,1.876000,1.875000,1.843000,1.800000,1.777000,1.775000,0.000000,0.000000,0.000000,0.000000,0.000000,0.000000,
0.000000,0.000000,0.000000,0.000000,0.000000,0.000000,2.245000,2.078000,2.069000,2.056000,2.039000,2.013000,1.986000,1.982000,1.982000,1.988000,1.999000,2.000000,1.999000,1.995000,1.999000,2.000000,1.987000,1.975000,1.921000,1.910000,1.894000,1.876000,1.876000,1.874000,1.838000,1.794000,1.776000,1.775000,0.000000,0.000000,0.000000,0.000000,0.000000,0.000000,
0.000000,0.000000,0.000000,0.000000,0.000000,0.000000,2.244000,2.072000,2.069000,2.048000,2.039000,2.010000,1.978000,1.974000,1.974000,1.980000,1.996000,2.000000,1.997000,1.987000,1.991000,1.992000,1.985000,1.963000,1.906000,1.895000,1.883000,1.872000,1.869000,1.858000,1.824000,1.798000,1.777000,1.775000,0.000000,0.000000,0.000000,0.000000,0.000000,0.000000,
0.000000,0.000000,0.000000,0.000000,0.000000,0.000000,2.243000,2.069000,2.069000,2.044000,2.039000,2.015000,1.990000,1.985000,1.985000,1.992000,2.000000,2.000000,1.988000,1.987000,1.987000,1.987000,1.983000,1.972000,1.903000,1.887000,1.883000,1.869000,1.864000,1.841000,1.822000,1.801000,1.770000,1.766000,0.000000,0.000000,0.000000,0.000000,0.000000,0.000000,
0.000000,0.000000,0.000000,0.000000,0.000000,0.000000,2.095000,2.076000,2.068000,2.043000,2.022000,1.999000,1.990000,1.987000,1.987000,1.993000,1.991000,1.987000,1.987000,1.987000,1.987000,1.987000,1.984000,1.976000,1.924000,1.887000,1.885000,1.863000,1.833000,1.830000,1.822000,1.801000,1.759000,1.754000,0.000000,0.000000,0.000000,0.000000,0.000000,0.000000,
0.000000,0.000000,0.000000,0.000000,0.000000,0.000000,2.099000,2.069000,2.060000,2.042000,2.022000,1.994000,1.987000,1.987000,1.988000,1.993000,1.989000,1.987000,1.987000,1.987000,1.991000,1.987000,1.984000,1.968000,1.954000,1.887000,1.872000,1.838000,1.827000,1.825000,1.818000,1.803000,1.759000,1.754000,0.000000,0.000000,0.000000,0.000000,0.000000,0.000000,
0.000000,0.000000,0.000000,0.000000,0.000000,0.000000,2.097000,2.060000,2.057000,2.042000,2.014000,1.990000,1.987000,1.987000,1.990000,1.994000,1.987000,1.987000,1.987000,1.987000,1.990000,1.987000,1.977000,1.933000,1.902000,1.894000,1.872000,1.835000,1.820000,1.817000,1.805000,1.794000,1.765000,1.761000,0.000000,0.000000,0.000000,0.000000,0.000000,0.000000,
0.000000,0.000000,0.000000,0.000000,0.000000,0.000000,2.092000,2.055000,2.047000,2.029000,2.009000,1.987000,1.987000,1.987000,1.987000,1.993000,1.990000,1.987000,1.987000,1.987000,1.987000,1.987000,1.968000,1.928000,1.910000,1.898000,1.872000,1.841000,1.831000,1.827000,1.803000,1.790000,1.758000,1.755000,0.000000,0.000000,0.000000,0.000000,0.000000,0.000000,
0.000000,0.000000,0.000000,0.000000,0.000000,0.000000,2.079000,2.050000,2.041000,2.028000,1.998000,1.987000,1.978000,1.974000,1.974000,1.980000,1.987000,1.987000,1.987000,1.987000,1.987000,1.987000,1.967000,1.935000,1.912000,1.896000,1.874000,1.846000,1.841000,1.814000,1.785000,1.765000,1.453000,1.411000,0.000000,0.000000,0.000000,0.000000,0.000000,0.000000,
0.000000,0.000000,0.000000,0.000000,0.000000,0.000000,2.080000,2.053000,2.041000,2.028000,1.998000,1.987000,1.978000,1.974000,1.974000,1.980000,1.991000,1.993000,1.987000,1.987000,1.987000,1.987000,1.971000,1.932000,1.898000,1.882000,1.868000,1.846000,1.837000,1.806000,1.785000,1.765000,0.000000,0.000000,0.000000,0.000000,0.000000,0.000000,0.000000,0.000000,
0.000000,0.000000,0.000000,0.000000,0.000000,0.000000,2.071000,2.052000,2.041000,2.028000,1.998000,1.987000,1.978000,1.974000,1.974000,1.980000,1.996000,2.000000,1.994000,1.987000,1.987000,1.987000,1.970000,1.928000,1.892000,1.875000,1.857000,1.846000,1.832000,1.806000,1.785000,1.765000,0.000000,0.000000,0.000000,0.000000,0.000000,0.000000,0.000000,0.000000,
0.000000,0.000000,0.000000,0.000000,0.000000,0.000000,2.067000,2.050000,2.041000,2.028000,2.000000,1.994000,1.987000,1.986000,1.986000,1.987000,1.996000,2.000000,1.997000,1.987000,1.987000,1.987000,1.963000,1.923000,1.901000,1.874000,1.852000,1.852000,1.833000,1.815000,1.797000,0.000000,0.000000,0.000000,0.000000,0.000000,0.000000,0.000000,0.000000,0.000000,
0.000000,0.000000,0.000000,0.000000,0.000000,0.000000,0.000000,0.000000,0.000000,0.000000,0.000000,0.000000,0.000000,0.000000,0.000000,0.000000,0.000000,0.000000,0.000000,0.000000,0.000000,0.000000,0.000000,0.000000,0.000000,0.000000,0.000000,0.000000,0.000000,0.000000,0.000000,0.000000,0.000000,0.000000,0.000000,0.000000,0.000000,0.000000,0.000000,0.000000,
0.000000,0.000000,0.000000,0.000000,0.000000,0.000000,0.000000,0.000000,0.000000,0.000000,0.000000,0.000000,0.000000,0.000000,0.000000,0.000000,0.000000,0.000000,0.000000,0.000000,0.000000,0.000000,0.000000,0.000000,0.000000,0.000000,0.000000,0.000000,0.000000,0.000000,0.000000,0.000000,0.000000,0.000000,0.000000,0.000000,0.000000,0.000000,0.000000,0.000000,
0.000000,0.000000,0.000000,0.000000,0.000000,0.000000,0.000000,0.000000,0.000000,0.000000,0.000000,0.000000,0.000000,0.000000,0.000000,0.000000,0.000000,0.000000,0.000000,0.000000,0.000000,0.000000,0.000000,0.000000,0.000000,0.000000,0.000000,0.000000,0.000000,0.000000,0.000000,0.000000,0.000000,0.000000,0.000000,0.000000,0.000000,0.000000,0.000000,0.000000,
