40 40
0.000000 0.000000 0.000000 0.000000 0.000000 0.000000 0.000000 0.000000 0.000000 0.000000 0.000000 0.000000 0.000000 0.000000 0.000000 0.000000 0.000000 0.000000 0.000000 0.000000 0.000000 0.000000 0.000000 0.000000 0.000000 0.000000 0.000000 0.000000 0.000000 0.000000 0.000000 0.000000 0.000000 0.000000 0.000000 0.000000 0.000000 0.000000 0.000000 0.000000 
0.000000 0.000000 0.000000 0.000000 0.000000 0.000000 0.000000 0.000000 0.000000 0.000000 0.000000 0.000000 0.000000 0.000000 0.000000 0.000000 0.000000 0.000000 0.000000 0.000000 0.000000 0.000000 0.000000 0.000000 0.000000 0.000000 0.000000 0.000000 0.000000 0.000000 0.000000 0.000000 0.000000 0.000000 0.000000 0.000000 0.000000 0.000000 0.000000 0.000000 
0.000000 0.000000 0.000000 0.000000 0.000000 0.000000 0.000000 0.000000 0.000000 0.000000 0.000000 0.000000 0.000000 0.000000 0.000000 0.000000 0.000000 0.000000 0.000000 0.000000 0.000000 0.000000 0.000000 0.000000 0.000000 0.000000 0.000000 0.000000 0.000000 0.000000 0.000000 0.000000 0.000000 0.000000 0.000000 0.000000 0.000000 0.000000 0.000000 0.000000 
0.000000 0.000000 0.000000 0.000000 0.000000 0.000000 0.000000 0.000000 0.000000 0.000000 0.000000 0.000000 0.000000 0.000000 0.000000 0.000000 0.000000 0.000000 0.000000 0.000000 0.000000 0.000000 0.000000 0.000000 0.000000 0.000000 0.000000 0.000000 0.000000 0.000000 0.000000 0.000000 0.000000 0.000000 0.000000 0.000000 0.000000 0.000000 0.000000 0.000000 
0.000000 0.000000 0.000000 0.000000 0.000000 0.000000 0.000000 0.000000 0.000000 0.000000 0.000000 0.000000 0.000000 0.000000 0.000000 0.000000 0.000000 0.000000 0.000000 0.000000 0.000000 0.000000 0.000000 0.000000 0.000000 0.000000 0.000000 0.000000 0.000000 0.000000 0.000000 0.000000 0.000000 0.000000 0.000000 0.000000 0.000000 0.000000 0.000000 0.000000 
0.000000 0.000000 0.000000 0.000000 0.000000 0.000000 0.000000 0.000000 0.000000 0.000000 0.000000 0.000000 0.000000 0.000000 0.000000 0.000000 0.000000 0.000000 0.000000 0.000000 0.000000 0.000000 0.000000 0.000000 0.000000 0.000000 0.000000 0.000000 0.000000 0.000000 0.000000 0.000000 0.000000 0.000000 0.000000 0.000000 0.000000 0.000000 0.000000 0.000000 
0.000000 0.000000 0.000000 0.000000 0.000000 0.000000 0.000000 0.000000 0.000000 0.000000 0.000000 0.000000 0.000000 0.000000 0.000000 0.000000 0.000000 0.000000 0.000000 0.000000 0.000000 0.000000 0.000000 0.000000 0.000000 0.000000 0.000000 0.000000 0.000000 0.000000 0.000000 0.000000 0.000000 0.000000 0.000000 0.000000 0.000000 0.000000 0.000000 0.000000 
0.000000 0.000000 0.000000 0.000000 0.000000 0.000000 0.000000 0.000000 0.000000 0.000000 0.000000 0.000000 0.000000 0.000000 0.000000 0.000000 0.000000 0.000000 0.000000 0.000000 0.000000 0.000000 0.000000 0.000000 0.000000 0.000000 0.000000 0.000000 0.000000 0.000000 0.000000 0.000000 0.000000 0.000000 0.000000 0.000000 0.000000 0.000000 0.000000 0.000000 
0.000000 0.000000 0.000000 0.000000 0.000000 0.000000 0.000000 0.000000 0.000000 0.000000 0.000000 0.000000 0.000000 0.000000 0.000000 0.000000 0.000000 0.000000 0.000000 0.000000 0.000000 0.000000 0.000000 0.000000 0.000000 0.000000 0.000000 0.000000 0.000000 0.000000 0.000000 0.000000 0.000000 0.000000 0.000000 0.000000 0.000000 0.000000 0.000000 0.000000 
0.000000 0.000000 0.000000 0.000000 0.000000 0.000000 0.000000 0.000000 0.000000 0.000000 0.000000 0.000000 0.000000 2.975000 2.956000 2.956000 2.926000 2.865000 2.820000 2.820000 2.820000 2.820000 2.820000 2.675000 2.504000 2.409000 2.356000 2.304000 2.253000 2.203000 2.154000 2.105000 2.058000 2.010000 2.000000 2.000000 2.000000 2.000000 2.000000 2.000000 
0.000000 0.000000 0.000000 0.000000 0.000000 0.000000 0.000000 0.000000 0.000000 0.000000 2.993000 2.944000 2.892000 2.840000 2.824000 2.824000 2.804000 2.762000 2.730000 2.720000 2.711000 2.703000 2.694000 2.574000 2.433000 2.355000 2.311000 2.269000 2.227000 2.185000 2.145000 2.105000 2.058000 2.010000 2.000000 2.000000 2.000000 2.000000 2.000000 2.000000 
0.000000 0.000000 0.000000 2.979000 2.940000 2.922000 2.922000 2.922000 2.922000 2.902000 2.729000 2.556000 2.519000 2.495000 2.488000 2.488000 2.492000 2.502000 2.500000 2.468000 2.436000 2.405000 2.374000 2.316000 2.253000 2.217000 2.198000 2.179000 2.160000 2.141000 2.123000 2.105000 2.058000 2.010000 2.000000 2.000000 2.000000 2.000000 2.000000 2.000000 
0.000000 0.000000 2.962000 2.895000 2.829000 2.799000 2.799000 2.793000 2.776000 2.731000 2.479000 2.227000 2.201000 2.197000 2.195000 2.195000 2.220000 2.271000 2.294000 2.243000 2.193000 2.148000 2.103000 2.096000 2.096000 2.099000 2.103000 2.105000 2.105000 2.104000 2.100000 2.096000 2.053000 2.009000 2.000000 2.000000 2.000000 2.000000 2.000000 2.000000 
0.000000 0.000000 2.907000 2.815000 2.724000 2.683000 2.683000 2.646000 2.535000 2.423000 2.295000 2.167000 2.132000 2.107000 2.099000 2.099000 2.123000 2.172000 2.195000 2.145000 2.098000 2.075000 2.052000 2.049000 2.049000 2.065000 2.090000 2.105000 2.105000 2.100000 2.074000 2.049000 2.027000 2.005000 2.000000 2.000000 2.000000 2.000000 2.000000 2.000000 
0.000000 2.976000 2.852000 2.735000 2.620000 2.568000 2.568000 2.499000 2.295000 2.114000 2.111000 2.107000 2.064000 2.017000 2.003000 2.003000 2.026000 2.073000 2.095000 2.048000 2.003000 2.002000 2.002000 2.001000 2.001000 2.031000 2.078000 2.105000 2.105000 2.095000 2.048000 2.001000 2.001000 2.000000 2.000000 2.000000 2.000000 2.000000 2.000000 2.000000 
2.760000 2.691000 2.621000 2.537000 2.450000 2.398000 2.377000 2.317000 2.180000 2.059000 2.059000 2.059000 2.035000 2.008000 2.000000 2.000000 2.023000 2.070000 2.092000 2.045000 2.000000 2.000000 2.000000 2.000000 2.000000 2.030000 2.078000 2.096000 2.075000 2.053000 2.027000 2.000000 2.000000 2.000000 1.984000 1.964000 1.956000 1.956000 1.963000 1.983000 
2.409000 2.397000 2.383000 2.336000 2.278000 2.228000 2.184000 2.134000 2.069000 2.012000 2.012000 2.012000 2.007000 2.002000 2.000000 2.000000 2.023000 2.070000 2.092000 2.045000 2.000000 2.000000 2.000000 2.000000 2.000000 2.030000 2.078000 2.087000 2.045000 2.010000 2.005000 2.000000 2.000000 2.000000 1.968000 1.927000 1.910000 1.910000 1.925000 1.965000 
2.286000 2.271000 2.254000 2.225000 2.191000 2.159000 2.126000 2.089000 2.042000 2.000000 2.000000 2.000000 2.000000 2.000000 2.000000 2.000000 2.023000 2.070000 2.092000 2.045000 2.000000 2.000000 2.000000 2.000000 2.000000 2.020000 2.051000 2.056000 2.025000 2.000000 2.000000 2.000000 1.984000 1.969000 1.942000 1.912000 1.899000 1.899000 1.910000 1.940000 
2.236000 2.199000 2.160000 2.142000 2.132000 2.122000 2.112000 2.089000 2.042000 2.000000 2.000000 2.000000 2.000000 2.000000 2.000000 2.000000 2.023000 2.070000 2.092000 2.045000 2.000000 2.000000 2.000000 2.000000 2.000000 2.006000 2.016000 2.017000 2.008000 2.000000 2.000000 2.000000 1.964000 1.927000 1.912000 1.903000 1.899000 1.899000 1.902000 1.912000 
2.213000 2.166000 2.117000 2.105000 2.105000 2.105000 2.105000 2.093000 2.057000 2.026000 2.026000 2.026000 2.026000 2.026000 2.026000 2.026000 2.043000 2.079000 2.092000 2.045000 2.000000 2.000000 2.000000 2.000000 2.000000 2.000000 2.000000 2.000000 2.000000 1.998000 1.986000 1.975000 1.930000 1.884000 1.867000 1.856000 1.852000 1.852000 1.859000 1.881000 
2.213000 2.166000 2.117000 2.105000 2.105000 2.105000 2.105000 2.100000 2.086000 2.073000 2.073000 2.073000 2.073000 2.073000 2.073000 2.073000 2.080000 2.095000 2.092000 2.045000 2.000000 2.000000 2.000000 2.000000 2.000000 2.000000 2.000000 2.000000 2.000000 1.993000 1.961000 1.929000 1.885000 1.840000 1.807000 1.777000 1.765000 1.765000 1.787000 1.848000 
2.213000 2.173000 2.131000 2.116000 2.108000 2.105000 2.105000 2.105000 2.105000 2.105000 2.105000 2.105000 2.105000 2.105000 2.105000 2.105000 2.102000 2.094000 2.078000 2.038000 2.000000 2.000000 2.000000 2.000000 2.000000 2.000000 2.000000 2.000000 2.000000 1.990000 1.945000 1.899000 1.855000 1.810000 1.768000 1.725000 1.707000 1.707000 1.739000 1.825000 
2.214000 2.194000 2.175000 2.148000 2.118000 2.105000 2.105000 2.105000 2.105000 2.105000 2.105000 2.105000 2.105000 2.105000 2.105000 2.105000 2.091000 2.063000 2.037000 2.018000 2.000000 2.000000 2.000000 2.000000 2.000000 2.000000 2.000000 2.000000 2.000000 1.990000 1.945000 1.899000 1.855000 1.810000 1.768000 1.725000 1.707000 1.707000 1.739000 1.825000 
2.214000 2.213000 2.213000 2.178000 2.132000 2.111000 2.111000 2.110000 2.107000 2.105000 2.105000 2.105000 2.105000 2.105000 2.103000 2.101000 2.076000 2.029000 1.994000 1.994000 1.994000 1.994000 1.994000 1.997000 1.999000 2.000000 2.000000 2.001000 2.004000 1.997000 1.953000 1.910000 1.861000 1.812000 1.769000 1.729000 1.712000 1.712000 1.754000 1.868000 
2.214000 2.213000 2.213000 2.195000 2.171000 2.160000 2.160000 2.151000 2.127000 2.105000 2.105000 2.105000 2.105000 2.105000 2.088000 2.064000 2.029000 1.983000 1.949000 1.949000 1.949000 1.949000 1.949000 1.968000 1.992000 2.000000 2.000000 2.010000 2.034000 2.048000 2.026000 2.003000 1.912000 1.820000 1.784000 1.764000 1.755000 1.755000 1.878000 2.218000 
2.213000 2.213000 2.213000 2.211000 2.209000 2.209000 2.209000 2.193000 2.146000 2.105000 2.105000 2.105000 2.105000 2.105000 2.073000 2.028000 1.982000 1.936000 1.903000 1.903000 1.903000 1.903000 1.903000 1.940000 1.984000 2.000000 2.000000 2.019000 2.065000 2.100000 2.098000 2.097000 1.963000 1.829000 1.800000 1.798000 1.797000 1.797000 2.002000 2.568000 
2.169000 2.188000 2.208000 2.213000 2.213000 2.213000 2.213000 2.203000 2.175000 2.147000 2.127000 2.107000 2.105000 2.105000 2.072000 2.024000 1.978000 1.932000 1.899000 1.899000 1.899000 1.899000 1.899000 1.938000 1.983000 2.000000 2.000000 2.076000 2.257000 2.399000 2.399000 2.399000 2.369000 2.340000 2.333000 2.333000 2.333000 2.333000 2.459000 2.804000 
2.120000 2.161000 2.203000 2.213000 2.213000 2.213000 2.213000 2.211000 2.204000 2.193000 2.151000 2.109000 2.105000 2.105000 2.072000 2.024000 1.978000 1.932000 1.899000 1.899000 1.899000 1.899000 1.899000 1.938000 1.983000 2.000000 2.000000 2.138000 2.465000 2.722000 2.722000 2.722000 2.811000 2.900000 2.919000 2.919000 2.919000 2.919000 2.948000 0.000000 
2.105000 2.137000 2.171000 2.203000 2.234000 2.258000 2.274000 2.285000 2.285000 2.290000 2.330000 2.369000 2.373000 2.373000 2.350000 2.318000 2.306000 2.316000 2.283000 2.136000 1.998000 1.998000 1.998000 2.024000 2.056000 2.067000 2.067000 2.237000 2.638000 2.954000 2.954000 2.954000 0.000000 0.000000 0.000000 0.000000 0.000000 0.000000 0.000000 0.000000 
2.104000 2.116000 2.127000 2.188000 2.265000 2.322000 2.362000 2.389000 2.389000 2.409000 2.576000 2.742000 2.758000 2.758000 2.750000 2.739000 2.777000 2.866000 2.834000 2.476000 2.140000 2.140000 2.140000 2.149000 2.159000 2.163000 2.163000 2.352000 2.796000 0.000000 0.000000 0.000000 0.000000 0.000000 0.000000 0.000000 0.000000 0.000000 0.000000 0.000000 
2.104000 2.105000 2.105000 2.181000 2.281000 2.355000 2.407000 2.442000 2.442000 2.470000 2.702000 2.935000 2.956000 2.956000 2.956000 2.956000 0.000000 0.000000 0.000000 2.651000 2.213000 2.213000 2.213000 2.213000 2.213000 2.213000 2.213000 2.411000 2.877000 0.000000 0.000000 0.000000 0.000000 0.000000 0.000000 0.000000 0.000000 0.000000 0.000000 0.000000 
0.000000 0.000000 0.000000 0.000000 0.000000 0.000000 0.000000 0.000000 0.000000 0.000000 0.000000 0.000000 0.000000 0.000000 0.000000 0.000000 0.000000 0.000000 0.000000 0.000000 0.000000 0.000000 0.000000 0.000000 0.000000 0.000000 0.000000 0.000000 0.000000 0.000000 0.000000 0.000000 0.000000 0.000000 0.000000 0.000000 0.000000 0.000000 0.000000 0.000000 
0.000000 0.000000 0.000000 0.000000 0.000000 0.000000 0.000000 0.000000 0.000000 0.000000 0.000000 0.000000 0.000000 0.000000 0.000000 0.000000 0.000000 0.000000 0.000000 0.000000 0.000000 0.000000 0.000000 0.000000 0.000000 0.000000 0.000000 0.000000 0.000000 0.000000 0.000000 0.000000 0.000000 0.000000 0.000000 0.000000 0.000000 0.000000 0.000000 0.000000 
0.000000 0.000000 0.000000 0.000000 0.000000 0.000000 0.000000 0.000000 0.000000 0.000000 0.000000 0.000000 0.000000 0.000000 0.000000 0.000000 0.000000 0.000000 0.000000 0.000000 0.000000 0.000000 0.000000 0.000000 0.000000 0.000000 0.000000 0.000000 0.000000 0.000000 0.000000 0.000000 0.000000 0.000000 0.000000 0.000000 0.000000 0.000000 0.000000 0.000000 
0.000000 0.000000 0.000000 0.000000 0.000000 0.000000 0.000000 0.000000 0.000000 0.000000 0.000000 0.000000 0.000000 0.000000 0.000000 0.000000 0.000000 0.000000 0.000000 0.000000 0.000000 0.000000 0.000000 0.000000 0.000000 0.000000 0.000000 0.000000 0.000000 0.000000 0.000000 0.000000 0.000000 0.000000 0.000000 0.000000 0.000000 0.000000 0.000000 0.000000 
0.000000 0.000000 0.000000 0.000000 0.000000 0.000000 0.000000 0.000000 0.000000 0.000000 0.000000 0.000000 0.000000 0.000000 0.000000 0.000000 0.000000 0.000000 0.000000 0.000000 0.000000 0.000000 0.000000 0.000000 0.000000 0.000000 0.000000 0.000000 0.000000 0.000000 0.000000 0.000000 0.000000 0.000000 0.000000 0.000000 0.000000 0.000000 0.000000 0.000000 
0.000000 0.000000 0.000000 0.000000 0.000000 0.000000 0.000000 0.000000 0.000000 0.000000 0.000000 0.000000 0.000000 0.000000 0.000000 0.000000 0.000000 0.000000 0.000000 0.000000 0.000000 0.000000 0.000000 0.000000 0.000000 0.000000 0.000000 0.000000 0.000000 0.000000 0.000000 0.000000 0.000000 0.000000 0.000000 0.000000 0.000000 0.000000 0.000000 0.000000 
0.000000 0.000000 0.000000 0.000000 0.000000 0.000000 0.000000 0.000000 0.000000 0.000000 0.000000 0.000000 0.000000 0.000000 0.000000 0.000000 0.000000 0.000000 0.000000 0.000000 0.000000 0.000000 0.000000 0.000000 0.000000 0.000000 0.000000 0.000000 0.000000 0.000000 0.000000 0.000000 0.000000 0.000000 0.000000 0.000000 0.000000 0.000000 0.000000 0.000000 
0.000000 0.000000 0.000000 0.000000 0.000000 0.000000 0.000000 0.000000 0.000000 0.000000 0.000000 0.000000 0.000000 0.000000 0.000000 0.000000 0.000000 0.000000 0.000000 0.000000 0.000000 0.000000 0.000000 0.000000 0.000000 0.000000 0.000000 0.000000 0.000000 0.000000 0.000000 0.000000 0.000000 0.000000 0.000000 0.000000 0.000000 0.000000 0.000000 0.000000 
0.000000 0.000000 0.000000 0.000000 0.000000 0.000000 0.000000 0.000000 0.000000 0.000000 0.000000 0.000000 0.000000 0.000000 0.000000 0.000000 0.000000 0.000000 0.000000 0.000000 0.000000 0.000000 0.000000 0.000000 0.000000 0.000000 0.000000 0.000000 0.000000 0.000000 0.000000 0.000000 0.000000 0.000000 0.000000 0.000000 0.000000 0.000000 0.000000 0.000000 
