0.000000,0.000000,0.000000,0.000000,0.000000,0.000000,0.000000,0.000000,0.000000,0.000000,0.000000,0.000000,0.000000,0.000000,0.000000,0.000000,0.000000,0.000000,0.000000,0.000000,0.000000,0.000000,0.000000,0.000000,0.000000,0.000000,0.000000,0.000000,0.000000,0.000000,0.000000,0.000000,0.000000,0.000000,0.000000,0.000000,0.000000,0.000000,0.000000,0.000000,
0.000000,0.000000,0.000000,0.000000,0.000000,0.000000,0.000000,0.000000,0.000000,0.000000,0.000000,0.000000,2.670000,2.100000,0.000000,0.000000,2.032000,2.033000,2.033000,2.034000,2.071000,2.085000,2.070000,2.069000,2.072000,2.753000,0.000000,0.000000,0.000000,0.000000,0.000000,0.000000,0.000000,0.000000,0.000000,0.000000,0.000000,0.000000,0.000000,0.000000,
0.000000,0.000000,0.000000,0.000000,0.000000,0.000000,0.000000,0.000000,2.000000,2.000000,2.000000,2.011000,2.025000,2.016000,2.000000,2.000000,2.003000,2.014000,2.022000,2.033000,2.045000,2.051000,2.068000,2.069000,2.072000,2.087000,2.101000,2.122000,2.134000,0.000000,0.000000,0.000000,0.000000,0.000000,0.000000,0.000000,0.000000,0.000000,0.000000,0.000000,
0.000000,0.000000,0.000000,0.000000,0.000000,0.000000,0.000000,0.000000,2.009000,2.005000,2.005000,2.013000,2.004000,2.000000,2.000000,2.000000,2.000000,2.000000,2.008000,2.027000,2.034000,2.045000,2.063000,2.069000,2.077000,2.087000,2.095000,2.112000,2.122000,0.000000,0.000000,0.000000,0.000000,0.000000,0.000000,0.000000,0.000000,0.000000,0.000000,0.000000,
0.000000,0.000000,0.000000,0.000000,0.000000,0.000000,2.052000,2.050000,2.036000,2.021000,2.017000,2.017000,2.004000,2.000000,2.000000,2.000000,2.000000,2.000000,2.008000,2.023000,2.027000,2.033000,2.051000,2.070000,2.087000,2.087000,2.092000,2.098000,2.110000,2.125000,0.000000,0.000000,0.000000,0.000000,0.000000,0.000000,0.000000,0.000000,0.000000,0.000000,
0.000000,0.000000,0.000000,0.000000,0.000000,0.000000,2.052000,2.052000,2.050000,2.036000,2.021000,2.017000,2.004000,2.000000,2.000000,2.000000,2.000000,2.000000,2.008000,2.017000,2.017000,2.024000,2.051000,2.070000,2.079000,2.087000,2.087000,2.087000,2.099000,2.105000,0.000000,0.000000,0.000000,0.000000,0.000000,0.000000,0.000000,0.000000,0.000000,0.000000,
0.000000,0.000000,0.000000,0.000000,0.000000,0.000000,2.063000,2.061000,2.049000,2.038000,2.025000,2.017000,2.004000,2.000000,2.000000,2.000000,2.000000,2.000000,2.003000,2.013000,2.017000,2.017000,2.050000,2.069000,2.072000,2.087000,2.087000,2.087000,2.099000,2.105000,2.139000,0.000000,0.000000,0.000000,0.000000,0.000000,0.000000,0.000000,0.000000,0.000000,
0.000000,0.000000,0.000000,0.000000,0.000000,0.000000,2.069000,2.066000,2.047000,2.034000,2.025000,2.017000,2.004000,2.000000,2.000000,2.000000,2.000000,2.000000,2.000000,2.010000,2.017000,2.017000,2.037000,2.057000,2.070000,2.077000,2.087000,2.087000,2.099000,2.116000,2.141000,0.000000,0.000000,0.000000,0.000000,0.000000,0.000000,0.000000,0.000000,0.000000,
0.000000,0.000000,0.000000,0.000000,0.000000,0.000000,2.084000,2.066000,2.047000,2.028000,2.018000,2.017000,2.016000,2.002000,2.000000,1.985000,1.989000,2.000000,2.000000,2.010000,2.017000,2.017000,2.033000,2.053000,2.069000,2.075000,2.087000,2.096000,2.116000,2.124000,2.141000,2.422000,0.000000,0.000000,0.000000,0.000000,0.000000,0.000000,0.000000,0.000000,
0.000000,0.000000,0.000000,0.000000,0.000000,0.000000,0.000000,2.081000,2.047000,2.027000,2.017000,2.017000,2.017000,2.002000,2.000000,1.983000,1.987000,2.000000,2.000000,2.010000,2.017000,2.017000,2.033000,2.053000,2.069000,2.075000,2.087000,2.097000,2.118000,2.124000,2.124000,2.166000,0.000000,0.000000,0.000000,0.000000,0.000000,0.000000,0.000000,0.000000,
0.000000,0.000000,0.000000,0.000000,0.000000,0.000000,0.000000,2.084000,2.064000,2.045000,2.026000,2.018000,2.017000,2.002000,1.983000,1.983000,1.987000,1.999000,2.000000,2.010000,2.017000,2.031000,2.051000,2.053000,2.069000,2.075000,2.087000,2.097000,2.118000,2.124000,2.124000,2.166000,0.000000,0.000000,0.000000,0.000000,0.000000,0.000000,0.000000,0.000000,
0.000000,0.000000,0.000000,0.000000,0.000000,0.000000,0.000000,2.080000,2.065000,2.049000,2.036000,2.023000,2.017000,2.002000,1.983000,1.983000,1.983000,1.989000,2.000000,2.010000,2.017000,2.028000,2.051000,2.053000,2.070000,2.078000,2.087000,2.094000,2.113000,2.123000,2.124000,2.167000,0.000000,0.000000,0.000000,0.000000,0.000000,0.000000,0.000000,0.000000,
0.000000,0.000000,0.000000,0.000000,0.000000,0.000000,0.000000,2.069000,2.069000,2.062000,2.042000,2.027000,2.018000,2.002000,1.983000,1.983000,1.983000,1.987000,1.997000,2.006000,2.015000,2.017000,2.050000,2.053000,2.071000,2.080000,2.083000,2.087000,2.099000,2.120000,2.124000,2.168000,0.000000,0.000000,0.000000,0.000000,0.000000,0.000000,0.000000,0.000000,
0.000000,0.000000,0.000000,0.000000,0.000000,0.000000,0.000000,0.000000,2.075000,2.062000,2.042000,2.034000,2.021000,2.002000,1.983000,1.983000,1.983000,1.983000,1.991000,2.000000,2.012000,2.017000,2.050000,2.053000,2.069000,2.069000,2.077000,2.087000,2.099000,2.113000,2.107000,2.150000,0.000000,0.000000,0.000000,0.000000,0.000000,0.000000,0.000000,0.000000,
0.000000,0.000000,0.000000,0.000000,0.000000,0.000000,0.000000,0.000000,2.082000,2.066000,2.053000,2.038000,2.013000,2.001000,1.993000,1.983000,1.983000,1.987000,1.996000,2.000000,2.012000,2.017000,2.040000,2.052000,2.061000,2.069000,2.077000,2.087000,2.092000,2.103000,2.089000,2.131000,0.000000,0.000000,0.000000,0.000000,0.000000,0.000000,0.000000,0.000000,
0.000000,0.000000,0.000000,0.000000,0.000000,0.000000,0.000000,0.000000,2.073000,2.069000,2.060000,2.040000,2.008000,2.000000,2.000000,1.983000,1.986000,1.997000,2.000000,2.000000,2.012000,2.017000,2.033000,2.052000,2.055000,2.069000,2.077000,2.087000,2.087000,2.081000,2.075000,2.131000,0.000000,0.000000,0.000000,0.000000,0.000000,0.000000,0.000000,0.000000,
0.000000,0.000000,0.000000,0.000000,0.000000,0.000000,0.000000,0.000000,2.069000,2.069000,2.060000,2.040000,2.019000,2.002000,2.000000,1.995000,1.984000,1.991000,2.000000,2.000000,2.012000,2.017000,2.020000,2.038000,2.055000,2.069000,2.070000,2.080000,2.097000,2.076000,2.069000,2.130000,0.000000,0.000000,0.000000,0.000000,0.000000,0.000000,0.000000,0.000000,
0.000000,0.000000,0.000000,0.000000,0.000000,0.000000,0.000000,0.000000,2.064000,2.053000,2.043000,2.034000,2.021000,2.002000,1.984000,1.982000,1.968000,1.974000,1.992000,2.000000,2.001000,2.014000,2.017000,2.035000,2.055000,2.069000,2.069000,2.079000,2.099000,2.118000,2.090000,2.130000,0.000000,0.000000,0.000000,0.000000,0.000000,0.000000,0.000000,0.000000,
0.000000,0.000000,0.000000,0.000000,0.000000,0.000000,0.000000,0.000000,0.000000,2.052000,2.042000,2.034000,2.021000,2.002000,1.984000,1.981000,1.968000,1.972000,1.990000,2.000000,2.000000,2.014000,2.017000,2.035000,2.055000,2.069000,2.069000,2.079000,2.099000,2.120000,2.124000,2.105000,2.402000,0.000000,0.000000,0.000000,0.000000,0.000000,0.000000,0.000000,
0.000000,0.000000,0.000000,0.000000,0.000000,0.000000,0.000000,0.000000,0.000000,2.054000,2.044000,2.035000,2.018000,2.002000,2.000000,1.983000,1.979000,1.967000,1.975000,1.993000,2.000000,2.014000,2.017000,2.035000,2.055000,2.069000,2.069000,2.079000,2.099000,2.120000,2.124000,2.109000,2.408000,0.000000,0.000000,0.000000,0.000000,0.000000,0.000000,0.000000,
0.000000,0.000000,0.000000,0.000000,0.000000,0.000000,0.000000,0.000000,0.000000,2.576000,2.054000,2.040000,2.008000,2.000000,2.000000,1.988000,1.984000,1.972000,1.977000,1.993000,2.000000,2.014000,2.017000,2.035000,2.055000,2.069000,2.069000,2.079000,2.099000,2.115000,2.123000,2.124000,2.433000,0.000000,0.000000,0.000000,0.000000,0.000000,0.000000,0.000000,
0.000000,0.000000,0.000000,0.000000,0.000000,0.000000,0.000000,0.000000,0.000000,0.000000,2.064000,2.043000,2.013000,2.007000,2.000000,2.000000,1.996000,1.983000,1.986000,1.996000,2.000000,2.014000,2.017000,2.035000,2.054000,2.064000,2.069000,2.079000,2.094000,2.103000,2.115000,2.116000,2.420000,0.000000,0.000000,0.000000,0.000000,0.000000,0.000000,0.000000,
0.000000,0.000000,0.000000,0.000000,0.000000,0.000000,0.000000,0.000000,0.000000,0.000000,2.069000,2.046000,2.021000,2.017000,2.000000,2.000000,1.996000,1.983000,1.991000,2.000000,2.007000,2.016000,2.017000,2.026000,2.044000,2.057000,2.069000,2.079000,2.087000,2.101000,2.105000,2.105000,2.410000,0.000000,0.000000,0.000000,0.000000,0.000000,0.000000,0.000000,
0.000000,0.000000,0.000000,0.000000,0.000000,0.000000,0.000000,0.000000,0.000000,0.000000,2.069000,2.046000,2.021000,2.017000,2.011000,2.000000,1.996000,1.983000,1.991000,2.000000,2.012000,2.017000,2.017000,2.018000,2.035000,2.049000,2.069000,2.079000,2.087000,2.101000,2.105000,2.105000,2.207000,2.844000,0.000000,0.000000,0.000000,0.000000,0.000000,0.000000,
0.000000,0.000000,0.000000,0.000000,0.000000,0.000000,0.000000,0.000000,0.000000,0.000000,2.054000,2.037000,2.021000,2.017000,2.017000,2.000000,1.999000,1.996000,1.998000,2.000000,2.003000,2.015000,2.017000,2.018000,2.034000,2.041000,2.061000,2.079000,2.087000,2.101000,2.118000,2.120000,2.120000,2.120000,0.000000,0.000000,0.000000,0.000000,0.000000,0.000000,
0.000000,0.000000,0.000000,0.000000,0.000000,0.000000,0.000000,0.000000,0.000000,0.000000,2.050000,2.034000,2.021000,2.017000,2.017000,2.000000,2.000000,2.000000,2.000000,2.000000,2.000000,2.001000,2.016000,2.018000,2.037000,2.051000,2.059000,2.079000,2.087000,2.101000,2.107000,2.124000,2.124000,2.124000,0.000000,0.000000,0.000000,0.000000,0.000000,0.000000,
0.000000,0.000000,0.000000,0.000000,0.000000,0.000000,0.000000,0.000000,0.000000,0.000000,2.059000,2.034000,2.021000,2.017000,2.017000,2.015000,2.000000,2.000000,2.000000,2.000000,2.000000,2.000000,2.016000,2.018000,2.037000,2.052000,2.059000,2.079000,2.087000,2.101000,2.105000,2.124000,2.124000,2.124000,0.000000,0.000000,0.000000,0.000000,0.000000,0.000000,
0.000000,0.000000,0.000000,0.000000,0.000000,0.000000,0.000000,0.000000,0.000000,0.000000,2.252000,2.052000,2.038000,2.019000,2.017000,2.015000,2.000000,2.000000,2.000000,2.000000,2.000000,2.000000,2.016000,2.018000,2.037000,2.057000,2.068000,2.079000,2.087000,2.099000,2.105000,2.124000,2.143000,2.146000,0.000000,0.000000,0.000000,0.000000,0.000000,0.000000,
0.000000,0.000000,0.000000,0.000000,0.000000,0.000000,0.000000,0.000000,0.000000,0.000000,0.000000,2.054000,2.038000,2.019000,2.017000,2.015000,2.003000,2.000000,2.000000,2.000000,2.000000,2.000000,2.016000,2.018000,2.037000,2.049000,2.059000,2.079000,2.087000,2.087000,2.103000,2.124000,2.145000,2.157000,0.000000,0.000000,0.000000,0.000000,0.000000,0.000000,
0.000000,0.000000,0.000000,0.000000,0.000000,0.000000,0.000000,0.000000,0.000000,0.000000,0.000000,2.067000,2.045000,2.025000,2.017000,2.017000,2.013000,2.000000,2.000000,2.000000,2.000000,2.000000,2.010000,2.018000,2.029000,2.040000,2.059000,2.079000,2.087000,2.087000,2.103000,2.131000,2.143000,2.143000,0.000000,0.000000,0.000000,0.000000,0.000000,0.000000,
0.000000,0.000000,0.000000,0.000000,0.000000,0.000000,0.000000,0.000000,0.000000,0.000000,0.000000,2.082000,2.056000,2.036000,2.017000,2.017000,2.013000,2.000000,2.000000,2.000000,2.000000,2.000000,2.000000,2.017000,2.019000,2.031000,2.051000,2.075000,2.087000,2.087000,2.103000,2.134000,2.134000,2.134000,0.000000,0.000000,0.000000,0.000000,0.000000,0.000000,
0.000000,0.000000,0.000000,0.000000,0.000000,0.000000,0.000000,0.000000,0.000000,0.000000,0.000000,2.078000,2.056000,2.036000,2.017000,2.017000,2.013000,2.000000,2.000000,2.000000,2.000000,2.000000,2.000000,2.017000,2.017000,2.022000,2.042000,2.071000,2.087000,2.087000,2.103000,2.124000,2.124000,2.124000,0.000000,0.000000,0.000000,0.000000,0.000000,0.000000,
0.000000,0.000000,0.000000,0.000000,0.000000,0.000000,0.000000,0.000000,0.000000,0.000000,0.000000,2.071000,2.065000,2.049000,2.017000,2.017000,2.013000,2.000000,2.000000,2.000000,2.000000,2.000000,2.000000,2.017000,2.017000,2.026000,2.055000,2.077000,2.087000,2.097000,2.117000,2.124000,2.124000,2.124000,0.000000,0.000000,0.000000,0.000000,0.000000,0.000000,
0.000000,0.000000,0.000000,0.000000,0.000000,0.000000,0.000000,0.000000,0.000000,0.000000,0.000000,2.069000,2.069000,2.040000,2.017000,2.017000,2.013000,2.000000,2.000000,2.000000,2.000000,2.000000,2.000000,2.017000,2.017000,2.023000,2.051000,2.079000,2.087000,2.089000,2.106000,2.124000,2.124000,2.124000,0.000000,0.000000,0.000000,0.000000,0.000000,0.000000,
0.000000,0.000000,0.000000,0.000000,0.000000,0.000000,0.000000,0.000000,0.000000,0.000000,0.000000,2.069000,2.069000,2.038000,2.017000,2.017000,2.013000,2.000000,2.000000,2.000000,2.000000,2.000000,2.000000,2.017000,2.017000,2.017000,2.025000,2.063000,2.087000,2.087000,2.103000,2.124000,2.417000,0.000000,0.000000,0.000000,0.000000,0.000000,0.000000,0.000000,
0.000000,0.000000,0.000000,0.000000,0.000000,0.000000,0.000000,0.000000,0.000000,0.000000,0.000000,2.298000,2.122000,2.054000,2.036000,2.032000,2.017000,2.011000,2.000000,2.000000,2.000000,2.000000,2.001000,2.019000,2.062000,2.238000,2.244000,0.000000,0.000000,0.000000,0.000000,0.000000,0.000000,0.000000,0.000000,0.000000,0.000000,0.000000,0.000000,0.000000,
0.000000,0.000000,0.000000,0.000000,0.000000,0.000000,0.000000,0.000000,0.000000,0.000000,0.000000,0.000000,2.686000,2.054000,2.052000,2.036000,2.020000,2.014000,2.003000,2.001000,2.000000,2.000000,2.020000,2.079000,2.952000,0.000000,0.000000,0.000000,0.000000,0.000000,0.000000,0.000000,0.000000,0.000000,0.000000,0.000000,0.000000,0.000000,0.000000,0.000000,
0.000000,0.000000,0.000000,0.000000,0.000000,0.000000,0.000000,0.000000,0.000000,0.000000,0.000000,0.000000,2.700000,2.054000,2.052000,2.050000,2.034000,2.028000,2.017000,2.007000,2.000000,2.000000,2.032000,2.252000,0.000000,0.000000,0.000000,0.000000,0.000000,0.000000,0.000000,0.000000,0.000000,0.000000,0.000000,0.000000,0.000000,0.000000,0.000000,0.000000,
0.000000,0.000000,0.000000,0.000000,0.000000,0.000000,0.000000,0.000000,0.000000,0.000000,0.000000,0.000000,0.000000,0.000000,0.000000,0.000000,0.000000,0.000000,0.000000,0.000000,0.000000,0.000000,0.000000,0.000000,0.000000,0.000000,0.000000,0.000000,0.000000,0.000000,0.000000,0.000000,0.000000,0.000000,0.000000,0.000000,0.000000,0.000000,0.000000,0.000000,
0.000000,0.000000,0.000000,0.000000,0.000000,0.000000,0.000000,0.000000,0.000000,0.000000,0.000000,0.000000,0.000000,0.000000,0.000000,0.000000,0.000000,0.000000,0.000000,0.000000,0.000000,0.000000,0.000000,0.000000,0.000000,0.000000,0.000000,0.000000,0.000000,0.000000,0.000000,0.000000,0.000000,0.000000,0.000000,0.000000,0.000000,0.000000,0.000000,0.000000,
