0.000000,0.000000,0.000000,0.000000,0.000000,0.000000,0.000000,0.000000,0.000000,0.000000,0.000000,0.000000,0.000000,0.000000,0.000000,0.000000,0.000000,2.860000,2.000000,1.990000,1.986000,1.980000,1.975000,1.974000,1.974000,1.984000,2.026000,2.031000,1.416000,0.000000,0.000000,0.000000,0.000000,0.000000,0.000000,0.000000,0.000000,0.000000,0.000000,0.000000,
0.000000,0.000000,0.000000,0.000000,0.000000,0.000000,0.000000,0.000000,0.000000,0.000000,0.000000,0.000000,0.000000,2.029000,2.019000,2.011000,2.005000,2.000000,2.000000,1.992000,1.984000,1.982000,1.979000,1.974000,1.974000,1.988000,2.021000,2.026000,2.026000,0.000000,0.000000,0.000000,0.000000,0.000000,0.000000,0.000000,0.000000,0.000000,0.000000,0.000000,
0.000000,0.000000,0.000000,0.000000,0.000000,2.069000,2.064000,0.000000,2.660000,2.038000,2.030000,2.026000,2.026000,2.024000,2.017000,2.008000,2.005000,2.003000,2.000000,1.990000,1.985000,1.984000,1.980000,1.974000,1.974000,1.984000,2.008000,2.026000,2.026000,0.000000,0.000000,0.000000,0.000000,0.000000,0.000000,0.000000,0.000000,0.000000,0.000000,0.000000,
0.000000,0.000000,0.000000,2.075000,2.064000,2.061000,2.059000,2.045000,2.037000,2.037000,2.033000,2.028000,2.026000,2.022000,2.017000,2.006000,2.005000,2.001000,2.000000,1.995000,1.985000,1.984000,1.980000,1.974000,1.971000,1.979000,1.996000,2.023000,2.028000,2.112000,0.000000,0.000000,0.000000,0.000000,0.000000,0.000000,0.000000,0.000000,0.000000,0.000000,
0.000000,0.000000,0.000000,2.071000,2.064000,2.059000,2.056000,2.049000,2.042000,2.037000,2.036000,2.030000,2.026000,2.022000,2.017000,2.009000,2.001000,2.000000,2.000000,1.995000,1.987000,1.984000,1.980000,1.974000,1.969000,1.975000,1.991000,2.017000,2.026000,2.024000,0.000000,0.000000,0.000000,0.000000,0.000000,0.000000,0.000000,0.000000,0.000000,0.000000,
0.000000,0.000000,0.000000,2.070000,2.064000,2.059000,2.056000,2.043000,2.040000,2.037000,2.033000,2.031000,2.027000,2.022000,2.017000,2.011000,2.005000,2.004000,2.000000,1.994000,1.989000,1.984000,1.979000,1.974000,1.969000,1.974000,1.985000,2.012000,2.026000,2.042000,0.000000,0.000000,0.000000,0.000000,0.000000,0.000000,0.000000,0.000000,0.000000,0.000000,
0.000000,0.000000,0.000000,2.064000,2.064000,2.060000,2.056000,2.042000,2.039000,2.037000,2.033000,2.031000,2.028000,2.022000,2.020000,2.011000,2.006000,2.001000,2.000000,1.990000,1.986000,1.984000,1.979000,1.974000,1.972000,1.974000,1.980000,2.005000,2.023000,2.042000,2.187000,0.000000,0.000000,0.000000,0.000000,0.000000,0.000000,0.000000,0.000000,0.000000,
0.000000,0.000000,0.000000,2.070000,2.064000,2.061000,2.056000,2.044000,2.039000,2.037000,2.033000,2.031000,2.026000,2.021000,2.018000,2.011000,2.010000,2.004000,2.000000,1.994000,1.985000,1.984000,1.979000,1.979000,1.974000,1.969000,1.972000,1.996000,2.015000,2.028000,2.191000,0.000000,0.000000,0.000000,0.000000,0.000000,0.000000,0.000000,0.000000,0.000000,
0.000000,0.000000,0.000000,1.583000,2.064000,2.061000,2.056000,2.044000,2.042000,2.039000,2.036000,2.032000,2.026000,2.022000,2.017000,2.011000,2.006000,2.005000,2.001000,1.999000,1.990000,1.984000,1.979000,1.979000,1.974000,1.969000,1.969000,1.980000,2.006000,2.026000,2.033000,0.000000,0.000000,0.000000,0.000000,0.000000,0.000000,0.000000,0.000000,0.000000,
0.000000,0.000000,0.000000,1.382000,2.064000,2.063000,2.056000,2.044000,2.042000,2.038000,2.037000,2.037000,2.027000,2.022000,2.020000,2.011000,2.006000,2.005000,2.005000,2.000000,1.990000,1.984000,1.980000,1.974000,1.974000,1.969000,1.964000,1.970000,2.005000,2.026000,2.068000,0.000000,0.000000,0.000000,0.000000,0.000000,0.000000,0.000000,0.000000,0.000000,
0.000000,0.000000,0.000000,0.000000,2.070000,2.064000,2.056000,2.047000,2.042000,2.037000,2.037000,2.037000,2.028000,2.025000,2.022000,2.015000,2.006000,2.005000,2.005000,2.000000,1.994000,1.985000,1.980000,1.979000,1.974000,1.965000,1.964000,1.969000,1.996000,2.021000,2.027000,0.000000,0.000000,0.000000,0.000000,0.000000,0.000000,0.000000,0.000000,0.000000,
0.000000,0.000000,0.000000,0.000000,2.065000,2.064000,2.056000,2.050000,2.042000,2.037000,2.037000,2.034000,2.028000,2.026000,2.022000,2.017000,2.006000,2.005000,2.001000,2.000000,1.995000,1.984000,1.983000,1.979000,1.974000,1.964000,1.964000,1.969000,1.989000,2.011000,2.030000,2.239000,0.000000,0.000000,0.000000,0.000000,0.000000,0.000000,0.000000,0.000000,
0.000000,0.000000,0.000000,0.000000,1.409000,2.064000,2.058000,2.050000,2.042000,2.037000,2.033000,2.031000,2.026000,2.026000,2.022000,2.017000,2.007000,2.005000,2.000000,2.000000,1.995000,1.985000,1.984000,1.979000,1.974000,1.968000,1.964000,1.964000,1.985000,2.006000,2.031000,2.236000,0.000000,0.000000,0.000000,0.000000,0.000000,0.000000,0.000000,0.000000,
0.000000,0.000000,0.000000,0.000000,0.000000,2.059000,2.059000,2.050000,2.042000,2.037000,2.036000,2.033000,2.026000,2.026000,2.021000,2.015000,2.006000,2.005000,2.000000,2.000000,1.994000,1.985000,1.984000,1.979000,1.979000,1.969000,1.964000,1.964000,1.972000,2.001000,2.031000,2.079000,0.000000,0.000000,0.000000,0.000000,0.000000,0.000000,0.000000,0.000000,
0.000000,0.000000,0.000000,0.000000,0.000000,2.059000,2.059000,2.050000,2.042000,2.039000,2.037000,2.033000,2.026000,2.026000,2.022000,2.015000,2.006000,2.005000,2.000000,1.995000,1.994000,1.990000,1.984000,1.979000,1.979000,1.973000,1.964000,1.964000,1.969000,1.990000,2.027000,2.032000,0.000000,0.000000,0.000000,0.000000,0.000000,0.000000,0.000000,0.000000,
0.000000,0.000000,0.000000,0.000000,0.000000,2.059000,2.054000,2.053000,2.044000,2.042000,2.037000,2.030000,2.026000,2.026000,2.022000,2.016000,2.010000,2.006000,2.001000,2.000000,1.990000,1.989000,1.985000,1.979000,1.979000,1.974000,1.964000,1.964000,1.969000,1.984000,2.016000,2.040000,2.311000,0.000000,0.000000,0.000000,0.000000,0.000000,0.000000,0.000000,
0.000000,0.000000,0.000000,0.000000,0.000000,0.000000,2.058000,2.055000,2.042000,2.042000,2.037000,2.037000,2.026000,2.026000,2.022000,2.020000,2.011000,2.009000,2.004000,2.000000,1.990000,1.984000,1.980000,1.979000,1.979000,1.974000,1.964000,1.964000,1.969000,1.979000,2.010000,2.031000,2.082000,0.000000,0.000000,0.000000,0.000000,0.000000,0.000000,0.000000,
0.000000,0.000000,0.000000,0.000000,0.000000,0.000000,2.059000,2.053000,2.044000,2.039000,2.037000,2.040000,2.032000,2.026000,2.021000,2.017000,2.015000,2.010000,2.005000,2.000000,1.994000,1.988000,1.983000,1.979000,1.979000,1.969000,1.969000,1.964000,1.964000,1.974000,2.005000,2.021000,2.031000,2.440000,0.000000,0.000000,0.000000,0.000000,0.000000,0.000000,
0.000000,0.000000,0.000000,0.000000,0.000000,0.000000,2.053000,2.053000,2.044000,2.042000,2.037000,2.037000,2.028000,2.026000,2.021000,2.015000,2.015000,2.010000,2.005000,2.000000,1.995000,1.990000,1.984000,1.979000,1.979000,1.969000,1.965000,1.964000,1.964000,1.974000,1.995000,2.016000,2.031000,1.904000,0.000000,0.000000,0.000000,0.000000,0.000000,0.000000,
0.000000,0.000000,0.000000,0.000000,0.000000,0.000000,2.053000,2.050000,2.042000,2.042000,2.037000,2.037000,2.026000,2.026000,2.022000,2.021000,2.015000,2.006000,2.005000,2.000000,1.995000,1.989000,1.984000,1.979000,1.979000,1.974000,1.964000,1.964000,1.964000,1.974000,1.985000,2.016000,2.031000,1.899000,0.000000,0.000000,0.000000,0.000000,0.000000,0.000000,
0.000000,0.000000,0.000000,0.000000,0.000000,0.000000,2.053000,2.050000,2.042000,2.042000,2.039000,2.037000,2.027000,2.026000,2.022000,2.021000,2.015000,2.011000,2.005000,2.001000,2.000000,1.990000,1.985000,1.979000,1.979000,1.974000,1.964000,1.964000,1.964000,1.969000,1.980000,2.006000,2.026000,2.019000,0.000000,0.000000,0.000000,0.000000,0.000000,0.000000,
0.000000,0.000000,0.000000,0.000000,0.000000,0.000000,0.000000,2.042000,2.044000,2.042000,2.039000,2.037000,2.026000,2.026000,2.022000,2.021000,2.011000,2.010000,2.005000,2.001000,2.000000,1.990000,1.985000,1.979000,1.979000,1.974000,1.969000,1.964000,1.964000,1.969000,1.975000,2.005000,2.022000,2.031000,2.540000,0.000000,0.000000,0.000000,0.000000,0.000000,
0.000000,0.000000,0.000000,0.000000,0.000000,0.000000,0.000000,2.037000,2.046000,2.042000,2.037000,2.037000,2.026000,2.026000,2.022000,2.021000,2.011000,2.010000,2.005000,2.000000,1.994000,1.990000,1.985000,1.984000,1.979000,1.979000,1.974000,1.964000,1.964000,1.964000,1.970000,1.995000,2.021000,2.028000,2.400000,0.000000,0.000000,0.000000,0.000000,0.000000,
0.000000,0.000000,0.000000,0.000000,0.000000,0.000000,0.000000,2.058000,2.048000,2.042000,2.039000,2.037000,2.033000,2.026000,2.022000,2.021000,2.015000,2.010000,2.005000,2.001000,1.994000,1.989000,1.985000,1.984000,1.979000,1.979000,1.964000,1.964000,1.964000,1.964000,1.969000,1.984000,2.001000,2.027000,2.048000,2.051000,0.000000,0.000000,0.000000,0.000000,
0.000000,0.000000,0.000000,0.000000,0.000000,0.000000,0.000000,2.091000,2.053000,2.044000,2.042000,2.042000,2.033000,2.026000,2.026000,2.021000,2.016000,2.011000,2.006000,2.005000,2.000000,1.990000,1.984000,1.984000,1.979000,1.979000,1.974000,1.964000,1.964000,1.964000,1.964000,1.975000,2.001000,2.017000,2.038000,2.042000,0.000000,0.000000,0.000000,0.000000,
0.000000,0.000000,0.000000,0.000000,0.000000,0.000000,0.000000,1.487000,2.052000,2.044000,2.042000,2.042000,2.033000,2.026000,2.026000,2.022000,2.021000,2.011000,2.006000,2.005000,2.000000,1.994000,1.985000,1.984000,1.980000,1.979000,1.974000,1.969000,1.964000,1.964000,1.960000,1.965000,2.000000,2.016000,2.037000,0.000000,0.000000,0.000000,0.000000,0.000000,
0.000000,0.000000,0.000000,0.000000,0.000000,0.000000,0.000000,2.695000,2.053000,2.048000,2.042000,2.042000,2.037000,2.027000,2.026000,2.026000,2.021000,2.016000,2.007000,2.005000,2.001000,1.995000,1.985000,1.984000,1.984000,1.979000,1.974000,1.964000,1.964000,1.964000,1.964000,1.965000,1.985000,2.005000,2.023000,2.047000,0.000000,0.000000,0.000000,0.000000,
0.000000,0.000000,0.000000,0.000000,0.000000,0.000000,0.000000,2.786000,2.529000,2.049000,2.042000,2.042000,2.037000,2.028000,2.026000,2.026000,2.021000,2.021000,2.012000,2.001000,2.000000,2.000000,1.990000,1.984000,1.984000,1.974000,1.974000,1.964000,1.964000,1.964000,1.964000,1.964000,1.980000,2.001000,2.021000,2.026000,0.000000,0.000000,0.000000,0.000000,
0.000000,0.000000,0.000000,0.000000,0.000000,0.000000,0.000000,0.000000,0.000000,1.995000,2.042000,2.042000,2.037000,2.031000,2.026000,2.026000,2.021000,2.016000,2.011000,2.005000,2.005000,1.999000,1.994000,1.989000,1.984000,1.979000,1.969000,1.969000,1.964000,1.964000,1.960000,1.960000,1.970000,2.000000,2.015000,2.021000,0.000000,0.000000,0.000000,0.000000,
0.000000,0.000000,0.000000,0.000000,0.000000,0.000000,0.000000,0.000000,0.000000,2.048000,2.045000,2.042000,2.039000,2.031000,2.026000,2.026000,2.026000,2.017000,2.011000,2.006000,2.005000,1.995000,1.993000,1.988000,1.984000,1.979000,1.970000,1.969000,1.968000,1.964000,1.960000,1.956000,1.965000,1.989000,2.011000,2.026000,0.000000,0.000000,0.000000,0.000000,
0.000000,0.000000,0.000000,0.000000,0.000000,0.000000,0.000000,2.957000,0.000000,1.535000,2.048000,2.044000,2.036000,2.031000,2.026000,2.026000,2.022000,2.021000,2.010000,2.005000,2.001000,1.995000,1.990000,1.984000,1.984000,1.979000,1.974000,1.968000,1.964000,1.964000,1.961000,1.961000,1.964000,1.973000,2.012000,2.026000,0.000000,0.000000,0.000000,0.000000,
0.000000,0.000000,0.000000,0.000000,0.000000,0.000000,0.000000,0.000000,2.090000,0.000000,1.968000,2.042000,2.034000,2.027000,2.026000,2.026000,2.022000,2.016000,2.011000,2.005000,2.000000,1.996000,1.994000,1.986000,1.984000,1.980000,1.969000,1.964000,1.964000,1.964000,1.964000,1.959000,1.960000,1.964000,1.975000,2.023000,0.000000,0.000000,0.000000,0.000000,
0.000000,0.000000,0.000000,0.000000,0.000000,0.000000,0.000000,0.000000,2.786000,0.000000,1.558000,2.042000,2.039000,2.027000,2.026000,2.025000,2.021000,2.016000,2.006000,2.005000,2.000000,2.000000,1.990000,1.989000,1.984000,1.984000,1.969000,1.965000,1.964000,1.964000,1.964000,1.956000,1.960000,1.964000,1.970000,1.771000,0.000000,0.000000,0.000000,0.000000,
0.000000,0.000000,0.000000,0.000000,0.000000,0.000000,0.000000,0.000000,0.000000,0.000000,1.937000,2.038000,2.033000,2.027000,2.022000,2.021000,2.021000,2.016000,2.006000,2.005000,2.002000,2.000000,1.990000,1.989000,1.984000,1.983000,1.974000,1.969000,1.964000,1.969000,1.964000,1.960000,1.959000,1.964000,1.968000,0.000000,0.000000,0.000000,0.000000,0.000000,
0.000000,0.000000,0.000000,0.000000,0.000000,0.000000,0.000000,0.000000,0.000000,0.000000,2.039000,2.041000,2.039000,2.027000,2.022000,2.021000,2.021000,2.015000,2.006000,2.005000,2.004000,1.999000,1.993000,1.988000,1.984000,1.980000,1.974000,1.969000,1.964000,1.968000,1.964000,1.960000,1.950000,1.687000,1.568000,0.000000,0.000000,0.000000,0.000000,0.000000,
0.000000,0.000000,0.000000,0.000000,0.000000,0.000000,0.000000,0.000000,0.000000,0.000000,2.218000,2.044000,2.039000,2.034000,2.029000,2.023000,2.020000,2.015000,2.010000,2.006000,2.001000,1.985000,1.977000,1.979000,1.979000,1.984000,1.980000,1.973000,1.964000,1.949000,1.635000,0.000000,0.000000,0.000000,0.000000,0.000000,0.000000,0.000000,0.000000,0.000000,
0.000000,0.000000,0.000000,0.000000,0.000000,0.000000,0.000000,0.000000,0.000000,0.000000,0.000000,2.042000,2.037000,2.037000,2.037000,2.024000,1.756000,1.674000,1.670000,1.950000,2.005000,1.991000,1.982000,1.996000,1.661000,2.001000,2.001000,2.005000,2.053000,1.972000,0.000000,0.000000,0.000000,0.000000,0.000000,0.000000,0.000000,0.000000,0.000000,0.000000,
0.000000,0.000000,0.000000,0.000000,0.000000,0.000000,0.000000,0.000000,0.000000,0.000000,0.000000,2.504000,1.664000,0.000000,0.000000,0.000000,0.000000,0.000000,0.000000,1.776000,2.011000,2.013000,1.170000,1.056000,1.059000,2.004000,2.000000,2.001000,2.053000,2.034000,0.000000,0.000000,1.049000,0.000000,0.000000,0.000000,0.000000,0.000000,0.000000,0.000000,
0.000000,0.000000,0.000000,0.000000,0.000000,0.000000,0.000000,0.000000,0.000000,0.000000,0.000000,0.000000,0.000000,0.000000,0.000000,0.000000,0.000000,0.000000,0.000000,1.788000,2.022000,2.021000,2.069000,2.074000,2.084000,2.000000,1.993000,1.984000,2.059000,2.057000,2.053000,2.038000,2.052000,1.919000,0.000000,0.000000,0.000000,0.000000,0.000000,0.000000,
0.000000,0.000000,0.000000,0.000000,0.000000,0.000000,0.000000,0.000000,1.571000,0.000000,0.000000,0.000000,0.000000,0.000000,0.000000,0.000000,0.000000,0.000000,0.000000,0.000000,2.027000,2.023000,2.063000,2.068000,2.068000,2.063000,1.992000,1.986000,2.045000,2.045000,2.033000,2.030000,2.041000,2.053000,0.000000,0.000000,0.000000,0.000000,0.000000,0.000000,
