40 40
0.000000 0.000000 0.000000 0.000000 0.000000 0.000000 0.000000 0.000000 0.000000 0.000000 0.000000 0.000000 0.000000 0.000000 0.000000 0.000000 0.000000 0.000000 0.000000 0.000000 0.000000 0.000000 0.000000 0.000000 0.000000 0.000000 0.000000 0.000000 0.000000 0.000000 0.000000 0.000000 0.000000 0.000000 0.000000 0.000000 0.000000 0.000000 0.000000 0.000000 
0.000000 0.000000 0.000000 0.000000 2.602000 2.622000 2.306000 2.105000 2.029000 2.029000 2.029000 1.785000 2.836000 0.000000 0.000000 2.125000 1.998000 1.986000 2.002000 2.013000 2.017000 2.027000 2.035000 2.039000 2.768000 2.755000 2.740000 2.740000 2.740000 2.749000 2.762000 2.762000 2.739000 2.737000 2.737000 0.000000 0.000000 0.000000 0.000000 0.000000 
0.000000 0.000000 0.000000 0.000000 2.606000 2.641000 2.646000 1.720000 1.326000 1.725000 1.217000 0.000000 0.000000 1.994000 2.000000 2.000000 1.993000 1.986000 1.995000 2.012000 2.023000 2.027000 2.027000 2.027000 2.786000 2.755000 2.740000 2.740000 2.740000 2.740000 2.740000 2.740000 2.734000 2.707000 2.701000 0.000000 0.000000 0.000000 0.000000 0.000000 
0.000000 0.000000 0.000000 0.000000 2.617000 2.632000 2.646000 1.735000 1.360000 1.730000 1.230000 1.936000 2.007000 1.977000 1.983000 1.983000 1.986000 1.986000 1.989000 2.003000 2.007000 2.018000 2.018000 2.026000 2.784000 2.745000 2.740000 2.740000 2.740000 2.740000 2.740000 2.740000 2.717000 2.678000 2.672000 0.000000 0.000000 0.000000 0.000000 0.000000 
0.000000 0.000000 0.000000 0.000000 2.624000 2.632000 2.646000 2.646000 2.082000 2.064000 2.033000 2.027000 2.007000 1.973000 1.973000 1.973000 1.986000 1.986000 1.986000 1.999000 2.002000 2.013000 2.013000 2.026000 2.764000 2.731000 2.719000 2.738000 2.762000 2.762000 2.733000 2.700000 2.670000 2.641000 2.629000 0.000000 0.000000 0.000000 0.000000 0.000000 
0.000000 0.000000 0.000000 0.000000 2.646000 2.646000 2.599000 2.129000 2.071000 2.065000 2.031000 2.015000 2.011000 1.995000 1.978000 1.973000 1.973000 1.973000 1.981000 1.999000 2.002000 2.013000 2.013000 2.024000 2.131000 2.692000 2.706000 2.716000 2.740000 2.740000 2.722000 2.670000 2.631000 2.598000 2.598000 0.000000 0.000000 0.000000 0.000000 0.000000 
0.000000 0.000000 0.000000 0.000000 2.646000 2.646000 2.292000 2.071000 2.069000 2.053000 2.027000 2.015000 2.011000 1.995000 1.978000 1.973000 1.973000 1.973000 1.981000 1.999000 2.001000 2.010000 2.013000 2.013000 2.086000 2.534000 2.683000 2.705000 2.732000 2.732000 2.690000 2.641000 2.579000 2.572000 2.572000 0.000000 0.000000 0.000000 0.000000 0.000000 
0.000000 0.000000 0.000000 0.000000 2.341000 2.308000 2.166000 2.071000 2.068000 2.054000 2.033000 2.022000 2.011000 1.995000 1.978000 1.973000 1.973000 1.973000 1.981000 1.991000 1.992000 2.002000 2.005000 2.012000 2.013000 2.111000 2.527000 2.677000 2.702000 2.696000 2.657000 2.612000 2.576000 2.552000 2.545000 0.000000 0.000000 0.000000 0.000000 0.000000 
0.000000 0.000000 0.000000 0.000000 2.166000 2.103000 2.084000 2.082000 2.067000 2.055000 2.037000 2.027000 2.023000 2.006000 1.990000 1.974000 1.973000 1.978000 1.985000 1.986000 1.988000 2.000000 2.000000 2.012000 2.011000 2.001000 2.441000 2.669000 2.689000 2.662000 2.634000 2.603000 2.576000 2.549000 2.525000 0.000000 0.000000 0.000000 0.000000 0.000000 
0.000000 0.000000 0.000000 0.000000 2.516000 2.093000 2.084000 2.083000 2.069000 2.056000 2.046000 2.029000 2.025000 2.013000 1.997000 1.975000 1.973000 1.973000 1.973000 1.985000 1.988000 2.000000 2.000000 2.012000 2.011000 2.003000 2.384000 2.640000 2.640000 2.605000 2.577000 2.557000 2.552000 2.534000 2.522000 0.000000 0.000000 0.000000 0.000000 0.000000 
0.000000 0.000000 0.000000 0.000000 2.133000 2.102000 2.089000 2.083000 2.081000 2.066000 2.052000 2.029000 2.026000 2.016000 2.008000 1.986000 1.978000 1.976000 1.973000 1.980000 1.987000 1.997000 2.000000 2.012000 2.013000 2.019000 2.027000 2.591000 2.624000 2.597000 2.553000 2.531000 2.525000 2.508000 2.508000 0.000000 0.000000 0.000000 0.000000 0.000000 
0.000000 0.000000 0.000000 0.000000 2.127000 2.117000 2.098000 2.084000 2.081000 2.069000 2.060000 2.038000 2.027000 2.022000 2.013000 2.001000 1.986000 1.981000 1.973000 1.973000 1.986000 1.992000 2.000000 2.012000 2.013000 2.019000 2.027000 2.229000 2.622000 2.594000 2.549000 2.518000 2.513000 2.496000 2.496000 0.000000 0.000000 0.000000 0.000000 0.000000 
0.000000 0.000000 0.000000 0.000000 2.128000 2.127000 2.117000 2.098000 2.083000 2.077000 2.060000 2.043000 2.038000 2.022000 2.013000 2.001000 1.986000 1.981000 1.973000 1.973000 1.976000 1.987000 1.996000 2.012000 2.013000 2.019000 2.027000 2.027000 2.171000 2.565000 2.539000 2.518000 2.513000 2.496000 2.496000 0.000000 0.000000 0.000000 0.000000 0.000000 
0.000000 0.000000 0.000000 0.000000 2.143000 2.137000 2.120000 2.113000 2.096000 2.078000 2.060000 2.055000 2.041000 2.028000 2.019000 2.013000 1.998000 1.981000 1.973000 1.973000 1.973000 1.978000 1.995000 2.010000 2.011000 2.013000 2.022000 2.027000 2.104000 2.516000 2.537000 2.518000 2.516000 2.508000 2.496000 0.000000 0.000000 0.000000 0.000000 0.000000 
0.000000 0.000000 0.000000 0.000000 2.876000 2.140000 2.130000 2.115000 2.096000 2.078000 2.060000 2.055000 2.053000 2.038000 2.029000 2.015000 1.998000 1.981000 1.973000 1.973000 1.968000 1.973000 1.990000 1.999000 2.002000 2.013000 2.022000 2.027000 2.027000 2.155000 2.469000 2.525000 2.516000 2.508000 2.496000 0.000000 0.000000 0.000000 0.000000 0.000000 
0.000000 0.000000 0.000000 0.000000 0.000000 2.997000 2.134000 2.115000 2.104000 2.078000 2.066000 2.064000 2.054000 2.047000 2.032000 2.015000 2.006000 1.993000 1.979000 1.973000 1.960000 1.962000 1.979000 1.999000 2.002000 2.013000 2.016000 2.026000 2.027000 2.027000 2.366000 2.537000 2.516000 2.508000 2.496000 0.000000 0.000000 0.000000 0.000000 0.000000 
0.000000 0.000000 0.000000 0.000000 0.000000 0.000000 2.134000 2.127000 2.109000 2.078000 2.069000 2.069000 2.055000 2.054000 2.037000 2.015000 2.013000 2.007000 1.983000 1.973000 1.960000 1.960000 1.977000 1.987000 2.000000 2.006000 2.013000 2.026000 2.029000 2.040000 2.074000 2.500000 2.516000 2.508000 2.496000 0.000000 0.000000 0.000000 0.000000 0.000000 
0.000000 0.000000 0.000000 0.000000 0.000000 0.000000 2.134000 2.128000 2.111000 2.094000 2.083000 2.072000 2.057000 2.055000 2.046000 2.029000 2.025000 2.014000 2.006000 1.976000 1.973000 1.973000 1.973000 1.985000 1.988000 1.999000 2.007000 2.013000 2.025000 2.032000 2.039000 2.442000 2.516000 2.508000 2.496000 0.000000 0.000000 0.000000 0.000000 0.000000 
0.000000 0.000000 0.000000 0.000000 0.000000 0.000000 2.462000 2.129000 2.113000 2.106000 2.091000 2.084000 2.068000 2.058000 2.046000 2.034000 2.027000 2.021000 2.013000 1.987000 1.973000 1.973000 1.973000 1.980000 1.986000 1.992000 2.000000 2.012000 2.015000 2.027000 2.027000 2.027000 2.516000 2.508000 2.496000 0.000000 0.000000 0.000000 0.000000 0.000000 
0.000000 0.000000 0.000000 0.000000 0.000000 0.000000 0.000000 2.300000 2.122000 2.113000 2.097000 2.084000 2.077000 2.064000 2.052000 2.034000 2.026000 2.016000 2.013000 2.001000 1.973000 1.970000 1.965000 1.972000 1.986000 1.992000 2.000000 2.012000 2.015000 2.027000 2.027000 2.027000 2.516000 2.508000 2.496000 0.000000 0.000000 0.000000 0.000000 0.000000 
0.000000 0.000000 0.000000 0.000000 0.000000 0.000000 0.000000 2.446000 2.126000 2.113000 2.094000 2.083000 2.081000 2.068000 2.060000 2.030000 2.025000 2.013000 2.013000 1.990000 1.973000 1.968000 1.960000 1.972000 1.986000 1.987000 1.996000 2.001000 2.013000 2.020000 2.027000 2.027000 2.148000 2.508000 2.496000 0.000000 0.000000 0.000000 0.000000 0.000000 
0.000000 0.000000 0.000000 0.000000 0.000000 0.000000 0.000000 2.746000 2.126000 2.115000 2.106000 2.085000 2.081000 2.069000 2.061000 2.043000 2.025000 2.013000 2.013000 1.991000 1.973000 1.968000 1.960000 1.972000 1.975000 1.986000 1.994000 2.000000 2.011000 2.018000 2.026000 2.027000 2.096000 2.463000 2.482000 0.000000 0.000000 0.000000 0.000000 0.000000 
0.000000 0.000000 0.000000 0.000000 0.000000 0.000000 0.000000 0.000000 2.128000 2.128000 2.118000 2.092000 2.082000 2.075000 2.071000 2.049000 2.031000 2.019000 2.015000 2.001000 1.978000 1.970000 1.965000 1.972000 1.974000 1.981000 1.984000 1.994000 2.001000 2.008000 2.017000 2.021000 2.022000 2.224000 2.482000 0.000000 0.000000 0.000000 0.000000 0.000000 
0.000000 0.000000 0.000000 0.000000 0.000000 0.000000 0.000000 0.000000 0.000000 2.128000 2.118000 2.100000 2.093000 2.089000 2.074000 2.065000 2.047000 2.027000 2.018000 2.009000 1.993000 1.978000 1.973000 1.973000 1.973000 1.973000 1.976000 1.985000 1.992000 2.000000 2.003000 2.012000 2.014000 2.085000 2.387000 0.000000 0.000000 0.000000 0.000000 0.000000 
0.000000 0.000000 0.000000 0.000000 0.000000 0.000000 0.000000 0.000000 0.000000 2.114000 2.122000 2.113000 2.110000 2.092000 2.082000 2.070000 2.053000 2.035000 2.018000 2.013000 1.998000 1.986000 1.985000 1.974000 1.973000 1.973000 1.973000 1.985000 1.986000 1.993000 2.000000 2.012000 2.013000 2.013000 2.349000 0.000000 0.000000 0.000000 0.000000 0.000000 
0.000000 0.000000 0.000000 0.000000 0.000000 0.000000 0.000000 0.000000 0.000000 2.347000 2.123000 2.115000 2.098000 2.092000 2.083000 2.073000 2.065000 2.038000 2.020000 2.013000 2.011000 1.995000 1.987000 1.974000 1.973000 1.973000 1.973000 1.985000 1.986000 1.992000 2.000000 2.012000 2.013000 2.013000 2.013000 0.000000 0.000000 0.000000 0.000000 0.000000 
0.000000 0.000000 0.000000 0.000000 0.000000 0.000000 0.000000 0.000000 0.000000 0.000000 2.128000 2.120000 2.103000 2.092000 2.083000 2.083000 2.067000 2.049000 2.032000 2.014000 2.012000 2.003000 1.995000 1.980000 1.973000 1.973000 1.973000 1.980000 1.981000 1.989000 1.998000 2.012000 2.013000 2.013000 2.013000 0.000000 0.000000 0.000000 0.000000 0.000000 
0.000000 0.000000 0.000000 0.000000 0.000000 0.000000 0.000000 0.000000 0.000000 0.000000 2.132000 2.128000 2.111000 2.092000 2.083000 2.083000 2.067000 2.049000 2.032000 2.023000 2.013000 2.011000 2.003000 1.987000 1.973000 1.969000 1.964000 1.972000 1.975000 1.986000 1.989000 2.003000 2.013000 2.013000 2.019000 0.000000 0.000000 0.000000 0.000000 0.000000 
0.000000 0.000000 0.000000 0.000000 0.000000 0.000000 0.000000 0.000000 0.000000 0.000000 2.882000 2.128000 2.113000 2.106000 2.088000 2.083000 2.067000 2.055000 2.036000 2.027000 2.013000 2.013000 2.005000 1.999000 1.983000 1.968000 1.960000 1.972000 1.973000 1.979000 1.986000 1.999000 2.013000 2.013000 2.014000 0.000000 0.000000 0.000000 0.000000 0.000000 
0.000000 0.000000 0.000000 0.000000 0.000000 0.000000 0.000000 0.000000 0.000000 0.000000 0.000000 2.184000 2.126000 2.109000 2.098000 2.085000 2.069000 2.063000 2.047000 2.031000 2.015000 2.013000 2.006000 2.000000 1.973000 1.968000 1.960000 1.972000 1.973000 1.977000 1.985000 1.986000 1.998000 2.005000 2.012000 0.000000 0.000000 0.000000 0.000000 0.000000 
0.000000 0.000000 0.000000 0.000000 0.000000 0.000000 0.000000 0.000000 0.000000 0.000000 0.000000 2.384000 2.128000 2.119000 2.104000 2.085000 2.069000 2.066000 2.057000 2.037000 2.025000 2.013000 2.013000 2.006000 1.978000 1.970000 1.965000 1.972000 1.968000 1.970000 1.978000 1.986000 1.988000 2.000000 2.005000 0.000000 0.000000 0.000000 0.000000 0.000000 
0.000000 0.000000 0.000000 0.000000 0.000000 0.000000 0.000000 0.000000 0.000000 0.000000 0.000000 2.384000 2.137000 2.126000 2.117000 2.095000 2.088000 2.081000 2.060000 2.030000 2.025000 2.013000 2.013000 2.013000 1.984000 1.973000 1.967000 1.964000 1.960000 1.965000 1.973000 1.985000 1.988000 2.000000 2.000000 0.000000 0.000000 0.000000 0.000000 0.000000 
0.000000 0.000000 0.000000 0.000000 0.000000 0.000000 0.000000 0.000000 0.000000 0.000000 0.000000 0.000000 2.143000 2.136000 2.127000 2.113000 2.098000 2.087000 2.060000 2.041000 2.027000 2.026000 2.017000 2.013000 1.997000 1.980000 1.964000 1.960000 1.960000 1.965000 1.973000 1.985000 1.988000 2.000000 2.008000 0.000000 0.000000 0.000000 0.000000 0.000000 
0.000000 0.000000 0.000000 0.000000 0.000000 0.000000 0.000000 0.000000 0.000000 0.000000 0.000000 0.000000 2.453000 2.137000 2.128000 2.117000 2.113000 2.100000 2.066000 2.045000 2.029000 2.021000 2.013000 2.001000 1.998000 1.981000 1.964000 1.960000 1.962000 1.973000 1.971000 1.971000 2.049000 2.384000 0.000000 0.000000 0.000000 0.000000 0.000000 0.000000 
0.000000 0.000000 0.000000 0.000000 0.000000 0.000000 0.000000 0.000000 0.000000 0.000000 0.000000 0.000000 0.000000 2.659000 2.128000 2.128000 2.111000 2.092000 2.078000 2.057000 2.039000 2.024000 2.015000 2.001000 1.999000 1.986000 1.970000 1.966000 1.967000 1.973000 1.964000 1.960000 0.000000 0.000000 0.000000 0.000000 0.000000 0.000000 0.000000 0.000000 
0.000000 0.000000 0.000000 0.000000 0.000000 0.000000 0.000000 0.000000 0.000000 0.000000 0.000000 0.000000 0.000000 0.000000 2.138000 2.129000 2.120000 2.096000 2.087000 2.066000 2.048000 2.033000 2.024000 2.010000 2.000000 1.998000 1.986000 1.982000 0.000000 0.000000 0.000000 0.000000 0.000000 0.000000 0.000000 0.000000 0.000000 0.000000 0.000000 0.000000 
0.000000 0.000000 0.000000 0.000000 0.000000 0.000000 0.000000 0.000000 0.000000 0.000000 0.000000 0.000000 0.000000 0.000000 2.850000 2.142000 2.126000 2.106000 2.088000 2.070000 2.068000 2.067000 0.000000 0.000000 0.000000 0.000000 0.000000 0.000000 0.000000 0.000000 0.000000 0.000000 0.000000 0.000000 0.000000 0.000000 0.000000 0.000000 0.000000 0.000000 
0.000000 0.000000 0.000000 0.000000 0.000000 0.000000 0.000000 0.000000 0.000000 0.000000 0.000000 0.000000 0.000000 0.000000 0.000000 2.399000 2.154000 2.122000 2.103000 2.085000 2.410000 0.000000 0.000000 0.000000 0.000000 0.000000 0.000000 0.000000 0.000000 0.000000 0.000000 0.000000 0.000000 0.000000 0.000000 0.000000 0.000000 0.000000 0.000000 0.000000 
0.000000 0.000000 0.000000 0.000000 0.000000 0.000000 0.000000 0.000000 0.000000 0.000000 0.000000 0.000000 0.000000 0.000000 0.000000 0.000000 0.000000 0.000000 0.000000 0.000000 0.000000 0.000000 0.000000 0.000000 0.000000 0.000000 0.000000 0.000000 0.000000 0.000000 0.000000 0.000000 0.000000 0.000000 0.000000 0.000000 0.000000 0.000000 0.000000 0.000000 
0.000000 0.000000 0.000000 0.000000 0.000000 0.000000 0.000000 0.000000 0.000000 0.000000 0.000000 0.000000 0.000000 0.000000 0.000000 0.000000 0.000000 0.000000 0.000000 0.000000 0.000000 0.000000 0.000000 0.000000 0.000000 0.000000 0.000000 0.000000 0.000000 0.000000 0.000000 0.000000 0.000000 0.000000 0.000000 0.000000 0.000000 0.000000 0.000000 0.000000 
