0.000000,0.000000,0.000000,0.000000,0.000000,0.000000,0.000000,1.900000,1.977000,1.973000,1.968000,1.671000,1.499000,1.972000,1.977000,1.980000,1.972000,0.000000,0.000000,0.000000,2.600000,1.980000,2.821000,0.000000,0.000000,0.000000,1.986000,1.983000,1.965000,0.000000,0.000000,1.873000,0.000000,0.000000,0.000000,0.000000,0.000000,0.000000,0.000000,0.000000,
0.000000,0.000000,0.000000,0.000000,0.000000,0.000000,0.000000,1.970000,1.970000,1.970000,1.970000,1.972000,1.975000,1.975000,1.975000,1.980000,1.973000,1.973000,1.978000,1.980000,1.980000,1.979000,1.982000,1.980000,1.980000,1.980000,1.982000,1.984000,1.985000,1.988000,1.986000,1.983000,0.000000,0.000000,0.000000,0.000000,0.000000,0.000000,0.000000,0.000000,
0.000000,0.000000,0.000000,0.000000,0.000000,0.000000,0.000000,1.970000,1.971000,1.970000,1.970000,1.972000,1.975000,1.976000,1.978000,1.980000,1.975000,1.978000,1.978000,1.980000,1.979000,1.978000,1.980000,1.980000,1.980000,1.980000,1.980000,1.980000,1.980000,1.983000,1.986000,1.986000,0.000000,0.000000,0.000000,0.000000,0.000000,0.000000,0.000000,0.000000,
0.000000,0.000000,0.000000,0.000000,0.000000,0.000000,0.000000,1.874000,1.972000,1.972000,1.972000,1.974000,1.976000,1.978000,1.980000,1.978000,1.980000,1.980000,1.980000,1.980000,1.980000,1.980000,1.980000,1.981000,1.983000,1.983000,1.983000,1.983000,1.983000,1.986000,1.986000,1.986000,0.000000,0.000000,0.000000,0.000000,0.000000,0.000000,0.000000,0.000000,
0.000000,0.000000,0.000000,0.000000,0.000000,0.000000,0.000000,1.974000,1.974000,1.973000,1.972000,1.976000,1.978000,1.978000,1.980000,1.980000,1.980000,1.980000,1.980000,1.981000,1.980000,1.980000,1.982000,1.983000,1.983000,1.983000,1.983000,1.983000,1.983000,1.986000,1.986000,1.986000,0.000000,0.000000,0.000000,0.000000,0.000000,0.000000,0.000000,0.000000,
0.000000,0.000000,0.000000,0.000000,0.000000,0.000000,0.000000,1.975000,1.973000,1.974000,1.972000,1.977000,1.978000,1.978000,1.980000,1.980000,1.980000,1.981000,1.983000,1.983000,1.983000,1.983000,1.983000,1.983000,1.983000,1.983000,1.983000,1.983000,1.983000,1.987000,1.989000,1.986000,0.000000,0.000000,0.000000,0.000000,0.000000,0.000000,0.000000,0.000000,
0.000000,0.000000,0.000000,0.000000,0.000000,0.000000,0.000000,1.843000,1.975000,1.975000,1.972000,1.978000,1.978000,1.978000,1.980000,1.982000,1.983000,1.983000,1.983000,1.983000,1.983000,1.980000,1.983000,1.983000,1.986000,1.986000,1.983000,1.983000,1.986000,1.987000,1.990000,1.986000,0.000000,0.000000,0.000000,0.000000,0.000000,0.000000,0.000000,0.000000,
0.000000,0.000000,0.000000,0.000000,0.000000,0.000000,0.000000,1.846000,1.978000,1.978000,1.976000,1.977000,1.978000,1.979000,1.983000,1.982000,1.984000,1.986000,1.985000,1.986000,1.983000,1.983000,1.983000,1.986000,1.986000,1.986000,1.986000,1.990000,1.988000,1.989000,1.991000,1.988000,0.000000,0.000000,0.000000,0.000000,0.000000,0.000000,0.000000,0.000000,
0.000000,0.000000,0.000000,0.000000,0.000000,0.000000,0.000000,1.979000,1.978000,1.978000,1.978000,1.978000,1.979000,1.981000,1.984000,1.983000,1.984000,1.986000,1.986000,1.984000,1.983000,1.984000,1.984000,1.989000,1.989000,1.988000,1.989000,1.989000,1.989000,1.989000,1.991000,1.989000,0.000000,0.000000,0.000000,0.000000,0.000000,0.000000,0.000000,0.000000,
0.000000,0.000000,0.000000,0.000000,0.000000,0.000000,0.000000,1.980000,1.978000,1.978000,1.978000,1.978000,1.980000,1.981000,1.989000,1.986000,1.984000,1.986000,1.989000,1.986000,1.986000,1.989000,1.989000,1.989000,1.989000,1.989000,1.989000,1.991000,1.989000,1.991000,1.991000,1.994000,0.000000,0.000000,0.000000,0.000000,0.000000,0.000000,0.000000,0.000000,
0.000000,0.000000,0.000000,0.000000,0.000000,0.000000,0.000000,1.868000,1.978000,1.978000,1.978000,1.980000,1.980000,1.981000,1.986000,1.987000,1.985000,1.986000,1.990000,1.989000,1.986000,1.989000,1.990000,1.991000,1.989000,1.989000,1.991000,1.991000,1.991000,1.994000,1.994000,1.994000,0.000000,0.000000,0.000000,0.000000,0.000000,0.000000,0.000000,0.000000,
0.000000,0.000000,0.000000,0.000000,0.000000,0.000000,0.000000,1.975000,1.980000,1.980000,1.979000,1.980000,1.980000,1.983000,1.986000,1.986000,1.986000,1.989000,1.991000,1.989000,1.989000,1.989000,1.991000,1.991000,1.991000,1.991000,1.991000,1.991000,1.991000,1.994000,1.996000,1.994000,0.000000,0.000000,0.000000,0.000000,0.000000,0.000000,0.000000,0.000000,
0.000000,0.000000,0.000000,0.000000,0.000000,0.000000,0.000000,1.848000,1.980000,1.980000,1.980000,1.980000,1.981000,1.984000,1.989000,1.984000,1.988000,1.989000,1.991000,1.991000,1.991000,1.991000,1.991000,1.992000,1.993000,1.991000,1.991000,1.994000,1.994000,1.994000,1.997000,1.914000,0.000000,0.000000,0.000000,0.000000,0.000000,0.000000,0.000000,0.000000,
0.000000,0.000000,0.000000,0.000000,0.000000,0.000000,0.000000,1.984000,1.980000,1.981000,1.980000,1.980000,1.983000,1.984000,1.989000,1.989000,1.990000,1.991000,1.991000,1.991000,1.991000,1.991000,1.991000,1.994000,1.994000,1.994000,1.994000,1.994000,1.994000,1.997000,2.000000,1.031000,0.000000,0.000000,0.000000,0.000000,0.000000,0.000000,0.000000,0.000000,
0.000000,0.000000,0.000000,0.000000,0.000000,0.000000,0.000000,1.986000,1.983000,1.982000,1.985000,1.985000,1.983000,1.987000,1.989000,1.991000,1.991000,1.991000,1.991000,1.992000,1.993000,1.991000,1.994000,1.994000,1.994000,1.994000,1.994000,1.994000,1.994000,1.997000,2.001000,1.729000,0.000000,0.000000,0.000000,0.000000,0.000000,0.000000,0.000000,0.000000,
0.000000,0.000000,0.000000,0.000000,0.000000,0.000000,0.000000,1.850000,1.982000,1.985000,1.986000,1.986000,1.987000,1.988000,1.990000,1.991000,1.990000,1.991000,1.992000,1.995000,1.994000,1.994000,1.994000,1.997000,1.994000,1.997000,1.994000,1.995000,1.994000,1.997000,2.000000,1.393000,0.000000,0.000000,0.000000,0.000000,0.000000,0.000000,0.000000,0.000000,
0.000000,0.000000,0.000000,0.000000,0.000000,0.000000,0.000000,1.853000,1.984000,1.984000,1.987000,1.986000,1.987000,1.990000,1.991000,1.991000,1.991000,1.991000,1.994000,1.994000,1.994000,1.994000,1.996000,1.997000,1.997000,1.997000,1.997000,1.997000,1.997000,2.000000,2.001000,1.016000,0.000000,0.000000,0.000000,0.000000,0.000000,0.000000,0.000000,0.000000,
0.000000,0.000000,0.000000,0.000000,0.000000,0.000000,0.000000,1.979000,1.986000,1.986000,1.986000,1.988000,1.989000,1.989000,1.991000,1.991000,1.991000,1.991000,1.994000,1.994000,1.994000,1.994000,1.997000,1.997000,1.997000,1.994000,1.999000,2.000000,1.997000,2.000000,2.003000,1.731000,0.000000,0.000000,0.000000,0.000000,0.000000,0.000000,0.000000,0.000000,
0.000000,0.000000,0.000000,0.000000,0.000000,0.000000,0.000000,1.986000,1.986000,1.986000,1.986000,1.988000,1.989000,1.989000,1.991000,1.991000,1.991000,1.994000,1.997000,1.995000,1.994000,1.999000,2.000000,1.999000,1.999000,1.997000,2.003000,2.001000,2.000000,2.003000,2.004000,1.016000,0.000000,0.000000,0.000000,0.000000,0.000000,0.000000,0.000000,0.000000,
0.000000,0.000000,0.000000,0.000000,0.000000,0.000000,0.000000,1.989000,1.986000,1.987000,1.989000,1.989000,1.989000,1.989000,1.992000,1.994000,1.992000,1.994000,1.998000,2.000000,1.999000,1.997000,2.001000,2.003000,2.002000,2.000000,2.000000,2.000000,2.003000,2.004000,2.004000,1.016000,0.000000,0.000000,0.000000,0.000000,0.000000,0.000000,0.000000,0.000000,
0.000000,0.000000,0.000000,0.000000,0.000000,0.000000,0.000000,1.853000,1.986000,1.989000,1.989000,1.989000,1.989000,1.990000,1.994000,1.994000,1.995000,1.997000,1.997000,1.997000,1.999000,1.997000,2.002000,2.000000,2.001000,2.003000,2.003000,2.003000,2.003000,2.005000,2.005000,1.016000,0.000000,0.000000,0.000000,0.000000,0.000000,0.000000,0.000000,0.000000,
0.000000,0.000000,0.000000,0.000000,0.000000,0.000000,0.000000,1.968000,1.989000,1.989000,1.989000,1.989000,1.989000,1.991000,1.994000,1.994000,1.997000,1.995000,1.997000,1.999000,2.000000,2.002000,2.003000,2.000000,2.003000,2.003000,2.003000,2.003000,2.003000,2.005000,2.008000,1.016000,0.000000,0.000000,0.000000,0.000000,0.000000,0.000000,0.000000,0.000000,
0.000000,0.000000,0.000000,0.000000,0.000000,0.000000,0.000000,1.991000,1.989000,1.989000,1.991000,1.991000,1.991000,1.992000,1.996000,1.996000,1.996000,1.999000,2.000000,2.002000,2.003000,2.003000,2.004000,2.003000,2.003000,2.003000,2.004000,2.003000,2.003000,2.005000,2.005000,1.731000,0.000000,0.000000,0.000000,0.000000,0.000000,0.000000,0.000000,0.000000,
0.000000,0.000000,0.000000,0.000000,0.000000,0.000000,0.000000,1.859000,1.991000,1.991000,1.991000,1.991000,1.991000,1.994000,1.997000,1.998000,2.000000,2.000000,2.003000,2.003000,2.003000,2.003000,2.003000,2.003000,2.003000,2.005000,2.005000,2.003000,2.003000,2.005000,2.008000,1.016000,0.000000,0.000000,0.000000,0.000000,0.000000,0.000000,0.000000,0.000000,
0.000000,0.000000,0.000000,0.000000,0.000000,0.000000,0.000000,1.860000,1.991000,1.993000,1.991000,1.991000,1.992000,1.995000,2.000000,2.003000,2.003000,2.003000,2.000000,2.003000,2.003000,2.003000,2.003000,2.003000,2.005000,2.005000,2.005000,2.005000,2.005000,2.008000,2.010000,1.016000,0.000000,0.000000,0.000000,0.000000,0.000000,0.000000,0.000000,0.000000,
0.000000,0.000000,0.000000,0.000000,0.000000,0.000000,0.000000,1.998000,1.994000,1.993000,1.991000,1.995000,1.993000,1.995000,2.002000,2.000000,2.001000,2.003000,2.003000,2.003000,2.004000,2.005000,2.005000,2.005000,2.005000,2.003000,2.003000,2.005000,2.005000,2.010000,2.009000,1.016000,0.000000,0.000000,0.000000,0.000000,0.000000,0.000000,0.000000,0.000000,
0.000000,0.000000,0.000000,0.000000,0.000000,0.000000,0.000000,1.865000,1.995000,1.994000,1.994000,1.994000,1.995000,1.998000,2.000000,2.000000,2.002000,2.003000,2.005000,2.003000,2.004000,2.005000,2.007000,2.005000,2.005000,2.005000,2.005000,2.008000,2.006000,2.011000,2.012000,1.016000,0.000000,0.000000,0.000000,0.000000,0.000000,0.000000,0.000000,0.000000,
0.000000,0.000000,0.000000,0.000000,0.000000,0.000000,0.000000,1.867000,2.001000,1.996000,1.994000,1.998000,1.998000,1.999000,2.003000,2.003000,2.003000,2.003000,2.005000,2.003000,2.005000,2.005000,2.005000,2.005000,2.005000,2.008000,2.008000,2.010000,2.008000,2.011000,2.015000,1.016000,0.000000,0.000000,0.000000,0.000000,0.000000,0.000000,0.000000,0.000000,
0.000000,0.000000,0.000000,0.000000,0.000000,0.000000,0.000000,1.997000,1.997000,2.000000,2.000000,2.000000,2.000000,2.001000,2.003000,2.003000,2.003000,2.005000,2.005000,2.005000,2.005000,2.005000,2.005000,2.005000,2.006000,2.011000,2.011000,2.011000,2.005000,2.013000,2.014000,1.088000,0.000000,0.000000,0.000000,0.000000,0.000000,0.000000,0.000000,0.000000,
0.000000,0.000000,0.000000,0.000000,0.000000,0.000000,0.000000,2.003000,2.000000,2.000000,2.000000,2.000000,2.000000,2.002000,2.003000,2.003000,2.005000,2.005000,2.008000,2.007000,2.007000,2.008000,2.008000,2.008000,2.011000,2.012000,2.011000,2.011000,2.010000,2.015000,2.014000,1.016000,0.000000,0.000000,0.000000,0.000000,0.000000,0.000000,0.000000,0.000000,
0.000000,0.000000,0.000000,0.000000,0.000000,0.000000,0.000000,2.000000,2.000000,2.001000,2.001000,2.000000,2.000000,2.003000,2.005000,2.003000,2.006000,2.005000,2.006000,2.005000,2.007000,2.010000,2.011000,2.010000,2.011000,2.011000,2.011000,2.013000,2.014000,2.017000,2.008000,1.016000,0.000000,0.000000,0.000000,0.000000,0.000000,0.000000,0.000000,0.000000,
0.000000,0.000000,0.000000,0.000000,0.000000,0.000000,0.000000,2.000000,2.000000,2.000000,2.003000,2.003000,2.003000,2.003000,2.005000,2.005000,2.006000,2.008000,2.008000,2.008000,2.011000,2.011000,2.011000,2.010000,2.011000,2.014000,2.014000,2.014000,2.014000,2.017000,2.017000,1.016000,0.000000,0.000000,0.000000,0.000000,0.000000,0.000000,0.000000,0.000000,
0.000000,0.000000,0.000000,0.000000,0.000000,0.000000,0.000000,1.893000,2.003000,2.003000,2.003000,2.003000,2.003000,2.004000,2.008000,2.005000,2.006000,2.008000,2.006000,2.008000,2.008000,2.011000,2.014000,2.014000,2.014000,2.014000,2.015000,2.014000,2.014000,2.019000,2.020000,1.016000,0.000000,0.000000,0.000000,0.000000,0.000000,0.000000,0.000000,0.000000,
0.000000,0.000000,0.000000,0.000000,0.000000,0.000000,0.000000,2.003000,2.001000,2.003000,2.004000,2.003000,2.003000,2.007000,2.008000,2.005000,2.005000,2.012000,2.011000,2.011000,2.010000,2.014000,2.014000,2.014000,2.015000,2.017000,2.017000,2.017000,2.017000,2.022000,2.017000,1.016000,0.000000,0.000000,0.000000,0.000000,0.000000,0.000000,0.000000,0.000000,
0.000000,0.000000,0.000000,0.000000,0.000000,0.000000,0.000000,2.179000,2.003000,2.003000,2.004000,2.003000,2.006000,2.008000,2.008000,2.008000,2.009000,2.011000,2.008000,2.014000,2.014000,2.014000,2.012000,2.014000,2.016000,2.017000,2.017000,2.017000,2.017000,2.021000,1.466000,1.016000,0.000000,0.000000,0.000000,0.000000,0.000000,0.000000,0.000000,0.000000,
0.000000,0.000000,0.000000,0.000000,0.000000,0.000000,0.000000,2.173000,2.004000,2.003000,2.000000,2.005000,2.006000,2.006000,2.008000,2.014000,2.014000,2.013000,2.003000,2.017000,2.014000,2.017000,2.014000,2.014000,2.012000,2.005000,2.019000,2.020000,2.026000,2.024000,1.465000,1.016000,0.000000,0.000000,0.000000,0.000000,0.000000,0.000000,0.000000,0.000000,
0.000000,0.000000,0.000000,0.000000,0.000000,0.000000,0.000000,0.000000,0.000000,0.000000,0.000000,0.000000,1.016000,1.185000,2.113000,2.038000,2.038000,2.121000,2.121000,2.117000,1.334000,2.101000,2.099000,2.025000,2.124000,0.000000,0.000000,0.000000,2.420000,1.016000,1.016000,1.016000,0.000000,0.000000,0.000000,0.000000,0.000000,0.000000,0.000000,0.000000,
0.000000,0.000000,0.000000,0.000000,0.000000,0.000000,0.000000,0.000000,0.000000,0.000000,0.000000,1.016000,1.016000,2.103000,2.097000,2.041000,2.063000,2.097000,2.097000,2.100000,2.100000,1.029000,2.113000,2.108000,2.112000,0.000000,0.000000,0.000000,0.000000,1.808000,1.437000,1.287000,0.000000,0.000000,0.000000,0.000000,0.000000,0.000000,0.000000,0.000000,
0.000000,0.000000,0.000000,0.000000,0.000000,0.000000,0.000000,0.000000,0.000000,0.000000,0.000000,1.016000,1.016000,2.074000,2.074000,2.032000,2.057000,2.075000,2.078000,2.077000,2.090000,1.204000,2.083000,2.075000,2.088000,0.000000,0.000000,0.000000,0.000000,0.000000,0.000000,0.000000,0.000000,0.000000,0.000000,0.000000,0.000000,0.000000,0.000000,0.000000,
0.000000,0.000000,0.000000,0.000000,0.000000,0.000000,0.000000,0.000000,1.016000,1.262000,1.256000,1.016000,1.016000,2.044000,2.057000,2.029000,2.044000,2.057000,2.055000,2.056000,2.057000,2.057000,2.051000,2.059000,2.055000,1.204000,0.000000,0.000000,0.000000,0.000000,0.000000,0.000000,0.000000,0.000000,0.000000,0.000000,0.000000,0.000000,0.000000,0.000000,
