40 40
0.000000 0.000000 0.000000 0.000000 0.000000 0.000000 0.000000 0.000000 0.000000 0.000000 0.000000 0.000000 0.000000 0.000000 0.000000 0.000000 0.000000 0.000000 0.000000 0.000000 0.000000 0.000000 0.000000 0.000000 0.000000 0.000000 0.000000 0.000000 0.000000 0.000000 0.000000 0.000000 0.000000 0.000000 0.000000 0.000000 0.000000 0.000000 0.000000 0.000000 
0.000000 0.000000 0.000000 0.000000 0.000000 0.000000 0.000000 0.000000 0.000000 0.000000 0.000000 0.000000 0.000000 0.000000 0.000000 0.000000 0.000000 0.000000 0.000000 0.000000 0.000000 0.000000 0.000000 0.000000 0.000000 0.000000 0.000000 0.000000 0.000000 0.000000 0.000000 0.000000 0.000000 0.000000 0.000000 0.000000 0.000000 0.000000 0.000000 0.000000 
0.000000 0.000000 0.000000 0.000000 0.000000 0.000000 0.000000 0.000000 0.000000 0.000000 0.000000 0.000000 0.000000 0.000000 0.000000 0.000000 0.000000 0.000000 0.000000 0.000000 0.000000 0.000000 0.000000 0.000000 0.000000 0.000000 0.000000 0.000000 0.000000 0.000000 0.000000 0.000000 0.000000 0.000000 0.000000 0.000000 0.000000 0.000000 0.000000 0.000000 
0.000000 0.000000 0.000000 0.000000 0.000000 0.000000 0.000000 0.000000 0.000000 0.000000 0.000000 0.000000 0.000000 0.000000 0.000000 0.000000 0.000000 0.000000 0.000000 0.000000 0.000000 0.000000 0.000000 0.000000 0.000000 0.000000 0.000000 0.000000 0.000000 0.000000 0.000000 0.000000 0.000000 0.000000 0.000000 0.000000 0.000000 0.000000 0.000000 0.000000 
0.000000 0.000000 0.000000 0.000000 0.000000 0.000000 0.000000 0.000000 0.000000 0.000000 0.000000 0.000000 0.000000 0.000000 0.000000 0.000000 0.000000 0.000000 0.000000 0.000000 0.000000 0.000000 0.000000 0.000000 0.000000 0.000000 0.000000 0.000000 0.000000 0.000000 0.000000 0.000000 0.000000 0.000000 0.000000 0.000000 0.000000 0.000000 0.000000 0.000000 
0.000000 0.000000 1.615000 1.224000 1.962000 1.958000 1.958000 1.957000 1.959000 1.968000 2.281000 2.918000 0.000000 0.000000 0.000000 0.000000 0.000000 0.000000 0.000000 0.000000 0.000000 0.000000 0.000000 0.000000 0.000000 0.000000 0.000000 0.000000 0.000000 0.000000 0.000000 0.000000 0.000000 0.000000 0.000000 0.000000 0.000000 0.000000 0.000000 0.000000 
0.000000 0.000000 0.000000 0.000000 1.641000 1.960000 1.958000 1.959000 1.961000 1.964000 1.964000 1.967000 1.970000 1.971000 1.972000 1.966000 0.000000 0.000000 0.000000 0.000000 0.000000 0.000000 0.000000 0.000000 0.000000 0.000000 0.000000 0.000000 0.000000 0.000000 0.000000 0.000000 0.000000 0.000000 0.000000 0.000000 0.000000 0.000000 0.000000 0.000000 
0.000000 0.000000 0.000000 0.000000 1.951000 1.963000 1.966000 1.964000 1.964000 1.964000 1.965000 1.967000 1.970000 1.970000 1.970000 1.970000 1.976000 1.981000 1.996000 0.000000 0.000000 0.000000 0.000000 0.000000 0.000000 0.000000 0.000000 0.000000 0.000000 0.000000 0.000000 0.000000 0.000000 0.000000 0.000000 0.000000 0.000000 0.000000 0.000000 0.000000 
0.000000 2.921000 0.000000 0.000000 1.967000 1.965000 1.967000 1.967000 1.967000 1.968000 1.968000 1.970000 1.970000 1.970000 1.970000 1.973000 1.976000 1.977000 1.979000 1.979000 1.979000 1.979000 1.985000 0.000000 0.000000 0.000000 0.000000 0.000000 0.000000 0.000000 0.000000 0.000000 0.000000 0.000000 0.000000 0.000000 0.000000 0.000000 0.000000 0.000000 
0.000000 0.000000 0.000000 1.543000 1.964000 1.965000 1.967000 1.967000 1.967000 1.970000 1.970000 1.970000 1.970000 1.971000 1.971000 1.973000 1.979000 1.976000 1.979000 1.979000 1.979000 1.980000 1.982000 1.980000 1.979000 1.980000 1.981000 0.000000 0.000000 0.000000 0.000000 0.000000 0.000000 0.000000 0.000000 0.000000 0.000000 0.000000 0.000000 0.000000 
0.000000 0.000000 0.000000 1.545000 1.966000 1.967000 1.967000 1.970000 1.970000 1.972000 1.972000 1.975000 1.975000 1.975000 1.976000 1.978000 1.979000 1.979000 1.980000 1.979000 1.981000 1.982000 1.982000 1.982000 1.982000 1.985000 1.984000 1.980000 1.987000 1.991000 2.281000 2.461000 0.000000 0.000000 0.000000 0.000000 0.000000 0.000000 0.000000 0.000000 
0.000000 0.000000 0.000000 1.547000 1.968000 1.970000 1.970000 1.971000 1.973000 1.973000 1.973000 1.976000 1.977000 1.979000 1.979000 1.979000 1.981000 1.982000 1.982000 1.982000 1.982000 1.982000 1.985000 1.985000 1.985000 1.987000 1.985000 1.982000 1.982000 1.988000 1.988000 1.988000 1.990000 1.993000 1.991000 0.000000 0.000000 0.000000 0.000000 0.000000 
0.000000 0.000000 0.000000 1.547000 1.970000 1.972000 1.973000 1.973000 1.973000 1.973000 1.976000 1.979000 1.979000 1.979000 1.982000 1.982000 1.982000 1.982000 1.982000 1.982000 1.982000 1.985000 1.985000 1.988000 1.988000 1.990000 1.988000 1.985000 1.985000 1.988000 1.988000 1.988000 1.988000 1.991000 1.991000 1.994000 1.992000 1.994000 2.094000 0.000000 
2.863000 0.000000 0.000000 1.969000 1.971000 1.973000 1.975000 1.975000 1.975000 1.979000 1.979000 1.980000 1.981000 1.982000 1.982000 1.982000 1.983000 1.988000 1.986000 1.987000 1.987000 1.988000 1.988000 1.989000 1.991000 1.991000 1.988000 1.988000 1.988000 1.988000 1.990000 1.988000 1.988000 1.991000 1.993000 1.992000 1.994000 1.995000 1.996000 1.996000 
1.559000 0.000000 1.106000 1.972000 1.974000 1.976000 1.977000 1.977000 1.979000 1.979000 1.982000 1.982000 1.982000 1.982000 1.985000 1.982000 1.986000 1.988000 1.987000 1.991000 1.990000 1.991000 1.991000 1.991000 1.991000 1.991000 1.990000 1.988000 1.988000 1.988000 1.991000 1.991000 1.991000 1.991000 1.994000 1.994000 1.994000 1.996000 1.997000 1.991000 
0.000000 0.000000 1.957000 1.976000 1.979000 1.979000 1.978000 1.979000 1.979000 1.981000 1.985000 1.982000 1.982000 1.985000 1.985000 1.985000 1.990000 1.990000 1.990000 1.991000 1.991000 1.993000 1.993000 1.993000 1.993000 1.994000 1.991000 1.991000 1.991000 1.991000 1.992000 1.994000 1.996000 1.994000 1.997000 1.997000 1.994000 1.996000 1.997000 1.997000 
0.000000 0.000000 1.980000 1.979000 1.980000 1.980000 1.980000 1.982000 1.982000 1.982000 1.982000 1.984000 1.985000 1.988000 1.988000 1.991000 1.991000 1.992000 1.993000 1.994000 1.994000 1.994000 1.994000 1.994000 1.995000 1.994000 1.991000 1.994000 1.995000 1.994000 1.994000 1.994000 1.996000 1.997000 1.998000 2.000000 2.000000 2.000000 2.000000 0.000000 
0.000000 0.000000 1.982000 1.982000 1.982000 1.982000 1.982000 1.982000 1.982000 1.982000 1.982000 1.983000 1.988000 1.991000 1.991000 1.991000 1.991000 1.994000 1.994000 1.994000 1.994000 1.994000 1.994000 1.995000 1.997000 1.995000 1.994000 1.997000 1.997000 1.997000 1.997000 1.997000 2.000000 2.000000 2.000000 2.000000 2.000000 2.004000 2.000000 0.000000 
0.000000 1.364000 1.982000 1.982000 1.982000 1.985000 1.984000 1.986000 1.988000 1.990000 1.991000 1.991000 1.991000 1.993000 1.993000 1.994000 1.993000 1.994000 1.994000 1.996000 1.999000 1.998000 1.997000 1.998000 2.000000 2.000000 1.999000 2.000000 1.999000 1.999000 2.000000 2.000000 2.000000 2.002000 2.002000 2.004000 2.004000 2.004000 1.626000 0.000000 
0.000000 1.363000 1.982000 1.982000 1.985000 1.987000 1.988000 1.988000 1.991000 1.991000 1.993000 1.993000 1.991000 1.994000 1.994000 1.994000 1.997000 1.997000 1.997000 1.997000 2.000000 2.000000 2.000000 2.002000 2.000000 2.003000 2.000000 2.000000 2.000000 2.000000 2.000000 2.001000 2.004000 2.004000 2.004000 2.004000 2.004000 2.004000 0.000000 0.000000 
0.000000 1.364000 1.982000 1.986000 1.987000 1.988000 1.989000 1.991000 1.992000 1.994000 1.994000 1.994000 1.994000 1.994000 1.994000 1.994000 1.999000 2.000000 1.997000 2.000000 2.003000 2.004000 2.004000 2.004000 2.004000 2.006000 2.000000 2.003000 2.004000 2.004000 2.003000 2.004000 2.004000 2.004000 2.004000 2.008000 2.010000 2.012000 1.448000 0.000000 
0.000000 1.986000 1.985000 1.987000 1.991000 1.991000 1.991000 1.992000 1.994000 1.994000 1.994000 1.997000 1.995000 1.996000 1.998000 1.999000 2.003000 2.004000 2.000000 2.001000 2.004000 2.006000 2.004000 2.006000 2.007000 2.007000 2.004000 2.004000 2.007000 2.008000 2.007000 2.008000 2.007000 2.007000 2.010000 2.011000 2.012000 2.010000 1.647000 0.000000 
0.000000 1.985000 1.988000 1.988000 1.991000 1.991000 1.992000 1.994000 1.994000 1.994000 1.996000 2.000000 2.000000 2.000000 2.004000 2.004000 2.004000 2.004000 2.004000 2.007000 2.007000 2.007000 2.007000 2.007000 2.007000 2.007000 2.007000 2.009000 2.010000 2.010000 2.012000 2.010000 2.010000 2.010000 2.013000 2.013000 2.013000 2.013000 0.000000 0.000000 
1.364000 1.990000 1.991000 1.994000 1.993000 1.992000 1.995000 1.997000 1.997000 1.997000 2.000000 2.004000 2.002000 2.003000 2.004000 2.004000 2.005000 2.007000 2.006000 2.007000 2.007000 2.009000 2.009000 2.010000 2.010000 2.010000 2.010000 2.010000 2.013000 2.011000 2.012000 2.013000 2.013000 2.013000 2.014000 2.016000 2.014000 1.209000 0.000000 0.000000 
1.995000 1.991000 1.991000 1.994000 1.994000 1.994000 1.995000 2.000000 2.000000 2.004000 2.004000 2.004000 2.004000 2.004000 2.004000 2.007000 2.007000 2.007000 2.007000 2.007000 2.010000 2.013000 2.010000 2.011000 2.013000 2.013000 2.013000 2.013000 2.013000 2.013000 2.013000 2.013000 2.013000 2.013000 2.016000 2.016000 2.020000 1.211000 0.000000 0.000000 
1.854000 1.994000 1.994000 1.994000 1.996000 1.997000 1.997000 2.003000 2.004000 2.004000 2.004000 2.004000 2.006000 2.007000 2.007000 2.008000 2.009000 2.011000 2.009000 2.010000 2.013000 2.013000 2.012000 2.014000 2.016000 2.016000 2.013000 2.015000 2.015000 2.015000 2.016000 2.016000 2.016000 2.016000 2.016000 2.020000 2.022000 1.046000 0.000000 1.739000 
1.991000 1.994000 1.997000 1.999000 2.001000 2.001000 2.000000 2.004000 2.004000 2.005000 2.004000 2.007000 2.007000 2.009000 2.011000 2.011000 2.011000 2.013000 2.013000 2.013000 2.016000 2.016000 2.016000 2.017000 2.020000 2.020000 2.016000 2.016000 2.017000 2.016000 2.016000 2.016000 2.019000 2.021000 2.020000 2.022000 2.033000 2.043000 1.382000 2.111000 
1.994000 1.997000 1.997000 2.000000 2.004000 2.004000 2.004000 2.007000 2.007000 2.007000 2.007000 2.007000 2.010000 2.012000 2.013000 2.013000 2.016000 2.016000 2.016000 2.016000 2.016000 2.016000 2.019000 2.020000 2.020000 2.020000 2.019000 2.019000 2.017000 2.020000 2.020000 2.020000 2.020000 2.024000 2.023000 2.024000 1.852000 0.000000 0.000000 0.000000 
0.000000 0.000000 2.028000 2.004000 2.004000 2.006000 2.007000 2.007000 2.007000 2.008000 2.010000 2.012000 2.014000 2.014000 2.016000 2.016000 2.016000 2.016000 2.016000 2.018000 2.020000 2.020000 2.020000 2.020000 2.020000 2.022000 2.021000 2.021000 2.021000 2.021000 2.024000 2.026000 2.025000 2.026000 2.026000 2.026000 0.000000 0.000000 0.000000 0.000000 
0.000000 0.000000 0.000000 0.000000 0.000000 2.875000 2.164000 2.017000 2.012000 2.016000 2.016000 2.013000 2.016000 2.016000 2.016000 2.016000 2.016000 2.020000 2.020000 2.020000 2.020000 2.020000 2.020000 2.021000 2.023000 2.023000 2.023000 2.023000 2.024000 2.026000 2.026000 2.026000 2.026000 2.026000 2.026000 1.993000 0.000000 0.000000 0.000000 0.000000 
0.000000 0.000000 0.000000 0.000000 0.000000 0.000000 0.000000 0.000000 0.000000 0.000000 0.000000 0.000000 2.181000 2.016000 2.016000 2.020000 2.020000 2.020000 2.020000 2.020000 2.020000 2.024000 2.025000 2.025000 2.026000 2.025000 2.026000 2.026000 2.026000 2.026000 2.026000 2.029000 2.029000 2.029000 2.028000 1.253000 1.661000 0.000000 0.000000 0.000000 
0.000000 0.000000 0.000000 0.000000 0.000000 0.000000 0.000000 0.000000 0.000000 0.000000 0.000000 0.000000 0.000000 0.000000 2.783000 2.243000 2.020000 2.760000 2.023000 2.024000 2.026000 2.026000 2.026000 2.026000 2.029000 2.029000 2.026000 2.027000 2.029000 2.029000 2.029000 2.029000 2.029000 2.031000 2.035000 0.000000 0.000000 0.000000 0.000000 1.857000 
0.000000 0.000000 0.000000 0.000000 0.000000 0.000000 0.000000 0.000000 0.000000 0.000000 0.000000 0.000000 0.000000 0.000000 0.000000 0.000000 0.000000 0.000000 0.000000 0.000000 2.030000 2.027000 2.028000 2.029000 2.032000 2.033000 2.029000 2.029000 2.031000 2.029000 2.032000 2.032000 2.033000 2.035000 1.160000 2.959000 0.000000 0.000000 0.000000 0.000000 
0.000000 0.000000 0.000000 0.000000 0.000000 0.000000 0.000000 0.000000 0.000000 0.000000 0.000000 0.000000 0.000000 0.000000 0.000000 0.000000 0.000000 0.000000 0.000000 0.000000 0.000000 0.000000 0.000000 0.000000 0.000000 0.000000 2.029000 2.029000 2.034000 2.031000 2.036000 2.036000 2.036000 2.039000 2.039000 0.000000 0.000000 0.000000 0.000000 0.000000 
0.000000 0.000000 0.000000 0.000000 0.000000 0.000000 0.000000 0.000000 0.000000 0.000000 0.000000 0.000000 0.000000 0.000000 0.000000 0.000000 0.000000 0.000000 0.000000 0.000000 0.000000 0.000000 0.000000 0.000000 0.000000 0.000000 0.000000 0.000000 0.000000 0.000000 2.039000 2.038000 2.036000 2.039000 0.000000 0.000000 0.000000 0.000000 0.000000 0.000000 
0.000000 0.000000 0.000000 0.000000 0.000000 0.000000 0.000000 0.000000 0.000000 0.000000 0.000000 0.000000 0.000000 0.000000 0.000000 0.000000 0.000000 0.000000 0.000000 0.000000 0.000000 0.000000 0.000000 0.000000 0.000000 0.000000 0.000000 0.000000 0.000000 0.000000 0.000000 0.000000 0.000000 0.000000 0.000000 0.000000 0.000000 0.000000 0.000000 0.000000 
0.000000 0.000000 0.000000 0.000000 0.000000 0.000000 0.000000 0.000000 0.000000 0.000000 0.000000 0.000000 0.000000 0.000000 0.000000 0.000000 0.000000 0.000000 0.000000 0.000000 0.000000 0.000000 0.000000 0.000000 0.000000 0.000000 0.000000 0.000000 0.000000 0.000000 0.000000 0.000000 0.000000 0.000000 0.000000 0.000000 0.000000 0.000000 0.000000 0.000000 
0.000000 0.000000 0.000000 0.000000 0.000000 0.000000 0.000000 0.000000 0.000000 0.000000 0.000000 0.000000 0.000000 0.000000 0.000000 0.000000 0.000000 0.000000 0.000000 0.000000 0.000000 0.000000 0.000000 0.000000 0.000000 0.000000 0.000000 0.000000 0.000000 0.000000 0.000000 0.000000 0.000000 0.000000 0.000000 0.000000 0.000000 0.000000 0.000000 0.000000 
0.000000 0.000000 0.000000 0.000000 0.000000 0.000000 0.000000 0.000000 0.000000 0.000000 0.000000 0.000000 0.000000 0.000000 0.000000 0.000000 0.000000 0.000000 0.000000 0.000000 0.000000 0.000000 0.000000 0.000000 0.000000 0.000000 0.000000 0.000000 0.000000 0.000000 0.000000 0.000000 0.000000 0.000000 0.000000 0.000000 0.000000 0.000000 0.000000 0.000000 
0.000000 0.000000 0.000000 0.000000 0.000000 0.000000 0.000000 0.000000 0.000000 0.000000 0.000000 0.000000 0.000000 0.000000 0.000000 0.000000 0.000000 0.000000 0.000000 0.000000 0.000000 0.000000 0.000000 0.000000 0.000000 0.000000 0.000000 0.000000 0.000000 0.000000 0.000000 0.000000 0.000000 0.000000 0.000000 0.000000 0.000000 0.000000 0.000000 0.000000 
