40 40
1.962000 1.962000 1.967000 1.969000 1.976000 1.988000 1.992000 2.037000 0.000000 0.000000 0.000000 0.000000 0.000000 0.000000 2.074000 1.992000 2.004000 2.017000 2.023000 2.023000 0.000000 0.000000 0.000000 0.000000 0.000000 0.000000 0.000000 0.000000 0.000000 0.000000 0.000000 0.000000 0.000000 0.000000 0.000000 0.000000 0.000000 0.000000 0.000000 0.000000 
1.963000 1.962000 1.962000 1.967000 1.104000 2.036000 2.046000 2.053000 0.000000 0.000000 0.000000 0.000000 0.000000 2.416000 1.995000 2.004000 2.009000 2.016000 2.018000 2.023000 0.000000 0.000000 0.000000 0.000000 0.000000 0.000000 0.000000 0.000000 0.000000 0.000000 0.000000 0.000000 0.000000 0.000000 0.000000 0.000000 0.000000 0.000000 0.000000 0.000000 
1.961000 1.960000 1.728000 0.000000 0.000000 0.000000 0.000000 0.000000 0.000000 0.000000 0.000000 1.998000 2.000000 2.000000 2.006000 2.015000 2.015000 2.015000 2.015000 2.023000 2.023000 0.000000 0.000000 0.000000 0.000000 0.000000 0.000000 0.000000 0.000000 0.000000 0.000000 0.000000 0.000000 0.000000 0.000000 0.000000 0.000000 0.000000 0.000000 0.000000 
1.959000 1.954000 0.000000 0.000000 0.000000 0.000000 0.000000 0.000000 0.000000 1.992000 1.998000 1.992000 2.000000 2.000000 2.002000 2.008000 2.015000 2.015000 2.015000 2.016000 2.016000 2.017000 0.000000 0.000000 0.000000 0.000000 0.000000 0.000000 0.000000 0.000000 0.000000 0.000000 0.000000 0.000000 0.000000 0.000000 0.000000 0.000000 0.000000 0.000000 
1.686000 0.000000 0.000000 0.000000 0.000000 0.000000 0.000000 1.718000 2.003000 1.992000 1.992000 1.992000 1.992000 1.997000 2.001000 2.003000 2.015000 2.015000 2.015000 2.015000 2.007000 2.007000 2.011000 0.000000 0.000000 0.000000 0.000000 0.000000 0.000000 0.000000 0.000000 0.000000 0.000000 0.000000 0.000000 0.000000 0.000000 0.000000 0.000000 0.000000 
0.000000 0.000000 0.000000 0.000000 0.000000 0.000000 0.000000 0.000000 1.995000 1.992000 1.992000 1.992000 1.992000 1.999000 1.999000 2.000000 2.007000 2.015000 2.015000 2.015000 2.015000 2.015000 2.015000 2.015000 0.000000 0.000000 0.000000 0.000000 0.000000 0.000000 0.000000 0.000000 0.000000 0.000000 0.000000 0.000000 0.000000 0.000000 0.000000 0.000000 
0.000000 0.000000 0.000000 0.000000 0.000000 1.093000 1.766000 1.993000 1.992000 1.992000 1.992000 1.992000 1.992000 1.992000 1.992000 2.000000 2.007000 2.015000 2.015000 2.015000 2.015000 2.020000 2.018000 2.015000 2.015000 0.000000 0.000000 0.000000 0.000000 0.000000 0.000000 0.000000 0.000000 0.000000 0.000000 0.000000 0.000000 0.000000 0.000000 0.000000 
0.000000 0.000000 0.000000 0.000000 0.000000 1.594000 1.992000 1.992000 1.992000 1.992000 1.992000 1.992000 1.992000 1.992000 1.992000 1.996000 2.007000 2.009000 2.015000 2.015000 2.015000 2.022000 2.023000 2.015000 2.015000 2.023000 0.000000 0.000000 0.000000 0.000000 0.000000 0.000000 0.000000 0.000000 0.000000 0.000000 0.000000 0.000000 0.000000 0.000000 
0.000000 0.000000 0.000000 0.000000 1.840000 1.992000 1.992000 1.992000 1.992000 1.992000 1.992000 1.992000 1.992000 1.992000 1.992000 1.992000 2.004000 2.007000 2.013000 2.015000 2.015000 2.021000 2.022000 2.015000 2.015000 2.023000 2.023000 0.000000 0.000000 0.000000 0.000000 0.000000 0.000000 0.000000 0.000000 0.000000 0.000000 0.000000 0.000000 0.000000 
0.000000 0.000000 1.780000 1.693000 1.984000 1.986000 1.992000 1.992000 1.992000 1.992000 1.992000 1.992000 1.992000 1.992000 1.992000 1.992000 2.004000 2.007000 2.007000 2.011000 2.015000 2.015000 2.015000 2.015000 2.015000 2.019000 2.023000 2.023000 0.000000 0.000000 0.000000 0.000000 0.000000 0.000000 0.000000 0.000000 0.000000 0.000000 0.000000 0.000000 
0.000000 0.000000 2.721000 1.981000 1.981000 1.983000 1.989000 1.989000 1.990000 1.989000 1.989000 1.990000 1.992000 1.992000 1.992000 1.992000 2.005000 2.005000 2.014000 2.015000 2.007000 2.007000 2.015000 2.015000 2.015000 2.018000 2.023000 2.021000 2.020000 0.000000 0.000000 0.000000 0.000000 0.000000 0.000000 0.000000 0.000000 0.000000 0.000000 0.000000 
0.000000 1.977000 1.969000 1.969000 1.976000 1.981000 1.984000 1.978000 1.977000 1.984000 1.984000 1.987000 1.992000 1.992000 1.992000 1.992000 2.003000 2.002000 2.014000 2.015000 2.014000 2.007000 2.015000 2.015000 2.015000 2.015000 2.015000 2.017000 2.020000 2.031000 0.000000 0.000000 0.000000 0.000000 0.000000 0.000000 0.000000 0.000000 0.000000 0.000000 
1.978000 1.977000 1.969000 1.969000 1.976000 1.977000 1.977000 1.981000 1.982000 1.984000 1.984000 1.987000 1.992000 1.992000 1.992000 1.992000 2.000000 2.003000 2.007000 2.011000 2.015000 2.015000 2.015000 2.015000 2.015000 2.015000 2.021000 2.017000 2.018000 2.023000 2.768000 0.000000 0.000000 0.000000 0.000000 0.000000 0.000000 0.000000 0.000000 0.000000 
1.969000 1.969000 1.969000 1.973000 1.977000 1.984000 1.984000 1.984000 1.984000 1.984000 1.984000 1.989000 1.992000 1.992000 1.992000 1.992000 2.000000 2.000000 2.006000 2.007000 2.007000 2.011000 2.012000 2.013000 2.015000 2.015000 2.020000 2.015000 2.015000 2.015000 2.015000 0.000000 0.000000 0.000000 0.000000 0.000000 0.000000 0.000000 0.000000 0.000000 
1.969000 1.969000 1.969000 1.977000 1.977000 1.984000 1.984000 1.984000 1.984000 1.984000 1.984000 1.992000 1.992000 1.992000 1.992000 1.992000 2.000000 2.000000 2.000000 2.000000 2.007000 2.007000 2.007000 2.007000 2.013000 2.015000 2.015000 2.015000 2.015000 2.015000 2.015000 2.050000 0.000000 0.000000 0.000000 0.000000 0.000000 0.000000 0.000000 0.000000 
1.962000 1.962000 1.966000 1.973000 1.977000 1.982000 1.984000 1.984000 1.984000 1.984000 1.984000 1.985000 1.992000 1.989000 1.989000 1.992000 2.000000 2.000000 2.000000 2.000000 2.007000 2.007000 2.007000 2.007000 2.013000 2.015000 2.015000 2.015000 2.015000 2.015000 2.015000 2.015000 2.022000 0.000000 0.000000 0.000000 0.000000 0.000000 0.000000 0.000000 
1.964000 1.964000 1.967000 1.971000 1.977000 1.980000 1.984000 1.984000 1.984000 1.984000 1.984000 1.984000 1.990000 1.986000 1.986000 1.990000 2.000000 2.000000 2.000000 2.000000 2.001000 2.007000 2.007000 2.007000 2.013000 2.013000 2.015000 2.015000 2.015000 2.015000 2.016000 2.017000 2.022000 2.023000 0.000000 0.000000 0.000000 0.000000 0.000000 0.000000 
0.000000 2.072000 1.976000 1.969000 1.970000 1.977000 1.984000 1.984000 1.984000 1.984000 1.984000 1.984000 1.984000 1.984000 1.984000 1.984000 2.000000 2.000000 2.000000 2.000000 2.000000 2.001000 2.007000 2.007000 2.008000 2.007000 2.015000 2.015000 2.015000 2.015000 2.023000 2.023000 2.023000 2.023000 2.024000 2.321000 0.000000 0.000000 0.000000 0.000000 
0.000000 0.000000 1.970000 1.969000 1.973000 1.981000 1.984000 1.984000 1.984000 1.984000 1.984000 1.984000 1.984000 1.987000 1.988000 1.992000 2.000000 2.000000 2.000000 2.000000 2.000000 2.003000 2.007000 2.007000 2.007000 2.007000 2.000000 2.010000 2.015000 2.015000 2.023000 2.023000 2.023000 2.023000 2.023000 2.027000 0.000000 0.000000 0.000000 0.000000 
0.000000 0.000000 2.540000 1.977000 1.977000 1.984000 1.984000 1.984000 1.984000 1.984000 1.984000 1.984000 1.984000 1.984000 1.987000 1.992000 1.999000 1.992000 1.999000 2.000000 2.006000 2.006000 2.006000 2.007000 2.007000 2.015000 2.015000 2.007000 2.010000 2.015000 2.015000 2.017000 2.022000 2.015000 2.023000 2.023000 2.029000 0.000000 0.000000 0.000000 
0.000000 0.000000 0.000000 0.000000 1.977000 1.981000 1.984000 1.984000 1.984000 1.984000 1.984000 1.984000 1.984000 1.984000 1.987000 1.992000 1.995000 1.992000 1.999000 2.000000 2.000000 2.000000 2.003000 2.007000 2.007000 2.008000 2.008000 2.007000 2.007000 2.015000 2.015000 2.015000 2.015000 2.019000 2.016000 2.022000 2.010000 2.483000 0.000000 0.000000 
0.000000 0.000000 0.000000 0.000000 0.000000 1.982000 1.984000 1.984000 1.984000 1.984000 1.984000 1.984000 1.984000 1.984000 1.984000 1.984000 2.000000 2.000000 2.000000 2.000000 2.000000 2.000000 2.000000 2.007000 2.007000 2.007000 2.007000 2.007000 2.008000 2.015000 2.015000 2.015000 2.015000 2.015000 2.015000 2.015000 2.007000 2.257000 0.000000 0.000000 
0.000000 0.000000 0.000000 0.000000 0.000000 2.342000 1.984000 1.984000 1.983000 1.983000 1.984000 1.984000 1.984000 1.984000 1.984000 1.984000 1.999000 2.000000 2.000000 2.000000 2.000000 2.000000 2.000000 2.007000 2.007000 2.007000 2.015000 2.007000 2.010000 2.015000 2.010000 2.009000 2.015000 2.015000 2.015000 2.016000 2.016000 2.023000 2.023000 0.000000 
0.000000 0.000000 0.000000 0.000000 0.000000 0.000000 0.000000 0.000000 1.977000 1.977000 1.979000 1.984000 1.984000 1.984000 1.984000 1.984000 1.992000 1.995000 2.000000 2.000000 2.000000 2.000000 2.000000 2.002000 2.002000 2.007000 2.009000 2.008000 2.008000 2.015000 2.007000 2.007000 2.014000 2.018000 2.021000 2.023000 2.023000 2.023000 2.023000 2.023000 
0.000000 0.000000 0.000000 0.000000 0.000000 0.000000 0.000000 0.000000 0.000000 1.397000 1.977000 1.984000 1.984000 1.984000 1.984000 1.984000 1.992000 1.996000 2.000000 2.000000 2.000000 2.000000 2.000000 2.000000 2.000000 2.003000 2.007000 2.007000 2.008000 2.015000 2.015000 2.010000 2.015000 2.019000 2.023000 2.020000 2.021000 2.023000 2.026000 2.026000 
0.000000 0.000000 0.000000 0.000000 0.000000 0.000000 0.000000 1.168000 0.000000 1.732000 0.000000 1.984000 1.984000 1.984000 1.984000 1.984000 1.992000 2.000000 2.000000 2.000000 2.000000 2.000000 2.000000 2.000000 2.000000 2.000000 2.000000 2.007000 2.007000 2.007000 2.007000 2.007000 2.014000 2.019000 2.015000 2.015000 2.019000 2.024000 2.031000 2.023000 
0.000000 0.000000 0.000000 0.000000 0.000000 0.000000 0.000000 0.000000 0.000000 0.000000 0.000000 1.979000 1.979000 1.984000 1.984000 1.984000 1.994000 2.000000 2.000000 2.000000 2.000000 2.000000 2.000000 2.000000 2.000000 2.000000 2.000000 2.007000 2.002000 2.007000 2.007000 2.007000 2.007000 2.009000 2.015000 2.017000 2.023000 2.024000 2.031000 2.013000 
0.000000 0.000000 0.000000 0.000000 0.000000 0.000000 0.000000 0.000000 0.000000 1.909000 0.000000 1.010000 1.977000 1.984000 1.984000 1.984000 1.992000 1.992000 1.992000 2.000000 2.000000 2.000000 2.000000 2.000000 2.000000 2.000000 2.000000 2.005000 2.002000 2.007000 2.007000 2.007000 2.007000 2.007000 2.009000 2.015000 2.018000 2.024000 2.031000 2.019000 
0.000000 0.000000 0.000000 0.000000 0.000000 0.000000 0.000000 0.000000 0.000000 0.000000 0.000000 0.000000 1.984000 1.984000 1.984000 1.984000 1.992000 1.992000 1.992000 1.996000 2.000000 2.000000 2.000000 2.000000 2.000000 2.000000 2.000000 2.000000 2.002000 2.007000 2.007000 2.007000 2.007000 2.011000 2.009000 2.015000 2.015000 2.031000 2.031000 0.000000 
0.000000 0.000000 0.000000 0.000000 0.000000 0.000000 0.000000 0.000000 0.000000 0.000000 0.000000 2.730000 1.987000 1.984000 1.984000 1.984000 1.992000 1.992000 1.992000 1.994000 1.998000 1.992000 2.000000 2.000000 2.000000 2.000000 2.000000 2.000000 2.001000 2.000000 2.000000 2.001000 2.007000 2.008000 2.008000 2.014000 0.000000 0.000000 0.000000 0.000000 
0.000000 0.000000 0.000000 0.000000 0.000000 0.000000 0.000000 0.000000 0.000000 0.000000 0.000000 0.000000 2.741000 1.977000 1.984000 1.984000 1.990000 1.992000 1.992000 1.992000 1.997000 1.992000 1.998000 2.000000 2.000000 2.000000 2.000000 2.000000 2.000000 2.000000 2.000000 2.000000 2.005000 2.000000 2.007000 2.789000 0.000000 0.000000 0.000000 0.000000 
0.000000 0.000000 0.000000 0.000000 0.000000 0.000000 0.000000 0.000000 0.000000 0.000000 0.000000 0.000000 0.000000 1.977000 1.984000 1.984000 1.984000 1.992000 1.992000 1.992000 1.992000 1.992000 1.992000 1.993000 1.998000 2.000000 2.000000 2.000000 2.000000 2.000000 2.000000 2.000000 2.000000 2.000000 2.627000 0.000000 0.000000 0.000000 0.000000 0.000000 
0.000000 0.000000 0.000000 0.000000 0.000000 0.000000 0.000000 0.000000 0.000000 0.000000 0.000000 0.000000 0.000000 0.000000 1.977000 1.984000 1.988000 1.992000 1.992000 1.992000 1.994000 1.996000 1.992000 1.996000 1.999000 2.000000 2.000000 2.000000 2.000000 2.000000 2.003000 2.000000 2.000000 0.000000 0.000000 0.000000 0.000000 0.000000 0.000000 0.000000 
0.000000 0.000000 0.000000 0.000000 0.000000 0.000000 0.000000 0.000000 0.000000 0.000000 0.000000 0.000000 0.000000 0.000000 2.373000 1.977000 1.992000 1.992000 1.992000 1.992000 1.994000 1.995000 1.994000 2.000000 2.000000 2.000000 2.000000 2.000000 2.000000 2.000000 2.000000 2.000000 2.600000 0.000000 0.000000 0.000000 0.000000 0.000000 0.000000 0.000000 
0.000000 0.000000 0.000000 0.000000 0.000000 0.000000 0.000000 0.000000 0.000000 0.000000 0.000000 0.000000 0.000000 0.000000 0.000000 0.000000 1.992000 1.992000 1.992000 1.992000 1.992000 1.993000 1.993000 1.993000 1.998000 2.000000 2.000000 2.000000 2.000000 2.000000 2.000000 2.000000 0.000000 0.000000 0.000000 0.000000 0.000000 0.000000 0.000000 0.000000 
0.000000 0.000000 0.000000 0.000000 0.000000 0.000000 0.000000 0.000000 0.000000 0.000000 0.000000 0.000000 0.000000 0.000000 0.000000 0.000000 0.000000 0.000000 1.992000 1.992000 1.992000 1.992000 1.992000 1.992000 1.995000 2.000000 2.000000 1.994000 1.992000 1.992000 2.988000 0.000000 0.000000 0.000000 0.000000 0.000000 0.000000 0.000000 0.000000 0.000000 
0.000000 0.000000 0.000000 0.000000 0.000000 0.000000 0.000000 0.000000 0.000000 0.000000 0.000000 0.000000 0.000000 0.000000 0.000000 0.000000 0.000000 0.000000 2.030000 1.992000 1.992000 1.992000 1.992000 1.993000 1.992000 1.992000 1.992000 1.994000 2.400000 2.400000 0.000000 0.000000 0.000000 0.000000 0.000000 0.000000 0.000000 0.000000 0.000000 0.000000 
0.000000 0.000000 0.000000 0.000000 0.000000 0.000000 0.000000 0.000000 0.000000 0.000000 0.000000 0.000000 0.000000 0.000000 0.000000 0.000000 0.000000 0.000000 0.000000 1.992000 1.992000 1.992000 1.992000 1.994000 1.992000 1.992000 1.992000 0.000000 0.000000 0.000000 0.000000 0.000000 0.000000 0.000000 0.000000 0.000000 0.000000 0.000000 0.000000 0.000000 
0.000000 0.000000 0.000000 0.000000 0.000000 0.000000 0.000000 0.000000 0.000000 0.000000 0.000000 0.000000 0.000000 0.000000 0.000000 0.000000 0.000000 0.000000 0.000000 0.000000 1.989000 1.992000 1.994000 1.995000 1.993000 1.992000 0.000000 0.000000 0.000000 0.000000 0.000000 0.000000 0.000000 0.000000 0.000000 0.000000 0.000000 0.000000 0.000000 0.000000 
0.000000 0.000000 0.000000 0.000000 0.000000 0.000000 0.000000 0.000000 0.000000 0.000000 0.000000 0.000000 0.000000 0.000000 0.000000 0.000000 0.000000 0.000000 0.000000 0.000000 1.986000 1.992000 1.992000 2.000000 1.994000 2.067000 0.000000 0.000000 0.000000 0.000000 0.000000 0.000000 0.000000 0.000000 0.000000 0.000000 0.000000 0.000000 0.000000 0.000000 
