40 40
0.000000 0.000000 0.000000 0.000000 0.000000 0.000000 0.000000 0.000000 0.000000 1.973000 1.973000 2.264000 0.000000 0.000000 0.000000 0.000000 0.000000 0.000000 0.000000 0.000000 0.000000 0.000000 0.000000 0.000000 0.000000 0.000000 0.000000 0.000000 0.000000 0.000000 1.962000 1.620000 0.000000 0.000000 0.000000 0.000000 0.000000 0.000000 0.000000 0.000000 
0.000000 0.000000 0.000000 0.000000 0.000000 0.000000 0.000000 1.027000 1.960000 1.963000 1.967000 1.964000 1.965000 1.968000 1.973000 1.973000 1.981000 1.981000 2.189000 0.000000 2.283000 1.983000 1.986000 1.991000 1.997000 1.993000 2.000000 2.002000 1.997000 2.005000 1.474000 1.039000 0.000000 0.000000 0.000000 0.000000 0.000000 0.000000 0.000000 0.000000 
0.000000 0.000000 0.000000 0.000000 0.000000 0.000000 0.000000 1.847000 1.958000 1.959000 1.960000 1.962000 1.967000 1.970000 1.972000 1.973000 1.975000 1.978000 1.981000 1.982000 1.985000 1.983000 1.983000 1.988000 1.989000 1.991000 1.992000 1.994000 1.994000 2.000000 2.000000 2.002000 0.000000 0.000000 0.000000 0.000000 0.000000 0.000000 0.000000 0.000000 
0.000000 0.000000 0.000000 0.000000 0.000000 0.000000 0.000000 1.733000 1.961000 1.960000 1.960000 1.965000 1.967000 1.968000 1.973000 1.973000 1.975000 1.978000 1.981000 1.981000 1.983000 1.983000 1.983000 1.986000 1.988000 1.991000 1.991000 1.994000 1.994000 2.000000 2.000000 2.002000 0.000000 0.000000 0.000000 0.000000 0.000000 0.000000 0.000000 0.000000 
0.000000 0.000000 0.000000 0.000000 0.000000 0.000000 0.000000 1.772000 1.961000 1.962000 1.962000 1.967000 1.967000 1.970000 1.973000 1.975000 1.975000 1.981000 1.981000 1.983000 1.985000 1.983000 1.986000 1.990000 1.991000 1.991000 1.992000 1.994000 1.994000 2.000000 2.003000 2.005000 0.000000 0.000000 0.000000 0.000000 0.000000 0.000000 0.000000 0.000000 
0.000000 0.000000 0.000000 0.000000 0.000000 0.000000 0.000000 1.851000 1.964000 1.962000 1.962000 1.967000 1.967000 1.971000 1.975000 1.980000 1.981000 1.981000 1.983000 1.983000 1.984000 1.987000 1.988000 1.991000 1.991000 1.993000 1.994000 1.994000 1.996000 2.002000 2.004000 2.005000 0.000000 0.000000 0.000000 0.000000 0.000000 0.000000 0.000000 0.000000 
0.000000 0.000000 0.000000 0.000000 0.000000 0.000000 0.000000 1.854000 1.965000 1.965000 1.965000 1.967000 1.969000 1.972000 1.976000 1.981000 1.981000 1.982000 1.983000 1.984000 1.985000 1.988000 1.991000 1.991000 1.991000 1.994000 1.994000 1.998000 2.000000 2.003000 2.005000 2.005000 0.000000 0.000000 0.000000 0.000000 0.000000 0.000000 0.000000 0.000000 
0.000000 0.000000 0.000000 0.000000 0.000000 0.000000 0.000000 1.853000 1.965000 1.965000 1.965000 1.967000 1.970000 1.975000 1.979000 1.981000 1.981000 1.982000 1.984000 1.986000 1.986000 1.989000 1.991000 1.994000 1.994000 1.994000 1.997000 1.998000 2.000000 2.005000 2.005000 2.006000 0.000000 0.000000 0.000000 0.000000 0.000000 0.000000 0.000000 0.000000 
0.000000 0.000000 0.000000 0.000000 0.000000 0.000000 0.000000 1.853000 1.965000 1.966000 1.967000 1.967000 1.972000 1.975000 1.981000 1.981000 1.981000 1.983000 1.983000 1.986000 1.986000 1.991000 1.991000 1.991000 1.994000 1.994000 1.997000 2.000000 2.001000 2.005000 2.008000 2.008000 0.000000 0.000000 0.000000 0.000000 0.000000 0.000000 0.000000 0.000000 
0.000000 0.000000 0.000000 0.000000 0.000000 0.000000 0.000000 1.286000 1.967000 1.967000 1.967000 1.970000 1.971000 1.975000 1.981000 1.981000 1.981000 1.984000 1.986000 1.989000 1.990000 1.991000 1.994000 1.994000 1.994000 1.994000 1.998000 2.002000 2.002000 2.007000 2.008000 2.008000 0.000000 0.000000 0.000000 0.000000 0.000000 0.000000 0.000000 0.000000 
0.000000 0.000000 0.000000 0.000000 0.000000 0.000000 0.000000 1.393000 1.967000 1.967000 1.967000 1.970000 1.970000 1.975000 1.981000 1.982000 1.983000 1.985000 1.989000 1.989000 1.991000 1.992000 1.994000 1.994000 1.997000 1.997000 2.000000 2.001000 2.002000 2.008000 2.008000 1.992000 0.000000 0.000000 0.000000 0.000000 0.000000 0.000000 0.000000 0.000000 
0.000000 0.000000 0.000000 0.000000 0.000000 0.000000 0.000000 1.853000 1.967000 1.970000 1.970000 1.973000 1.973000 1.978000 1.983000 1.983000 1.983000 1.986000 1.991000 1.989000 1.991000 1.994000 1.995000 1.997000 1.997000 2.001000 2.001000 2.003000 2.005000 2.008000 2.009000 1.979000 0.000000 0.000000 0.000000 0.000000 0.000000 0.000000 0.000000 0.000000 
0.000000 0.000000 0.000000 0.000000 0.000000 0.000000 0.000000 1.855000 1.970000 1.970000 1.970000 1.975000 1.977000 1.979000 1.981000 1.983000 1.983000 1.989000 1.991000 1.991000 1.991000 1.994000 1.995000 2.000000 2.000000 2.002000 2.002000 2.005000 2.005000 2.008000 2.011000 1.979000 0.000000 0.000000 0.000000 0.000000 0.000000 0.000000 0.000000 0.000000 
0.000000 0.000000 0.000000 0.000000 0.000000 0.000000 0.000000 1.855000 1.970000 1.970000 1.973000 1.975000 1.978000 1.980000 1.983000 1.983000 1.985000 1.991000 1.991000 1.991000 1.993000 1.994000 1.996000 2.000000 2.001000 2.003000 2.005000 2.005000 2.005000 2.011000 2.013000 1.976000 0.000000 0.000000 0.000000 0.000000 0.000000 0.000000 0.000000 0.000000 
0.000000 0.000000 0.000000 0.000000 0.000000 0.000000 0.000000 1.853000 1.970000 1.970000 1.973000 1.978000 1.978000 1.980000 1.983000 1.986000 1.986000 1.991000 1.991000 1.994000 1.994000 1.995000 1.998000 2.002000 2.002000 2.005000 2.005000 2.005000 2.005000 2.009000 2.014000 1.979000 0.000000 0.000000 0.000000 0.000000 0.000000 0.000000 0.000000 0.000000 
0.000000 0.000000 0.000000 0.000000 0.000000 0.000000 0.000000 1.849000 1.972000 1.971000 1.974000 1.975000 1.978000 1.982000 1.984000 1.986000 1.986000 1.990000 1.992000 1.994000 1.997000 2.000000 2.001000 2.002000 2.002000 2.005000 2.005000 2.006000 2.008000 2.011000 2.015000 1.982000 0.000000 0.000000 0.000000 0.000000 0.000000 0.000000 0.000000 0.000000 
0.000000 0.000000 0.000000 0.000000 0.000000 0.000000 0.000000 1.970000 1.973000 1.973000 1.978000 1.978000 1.978000 1.982000 1.986000 1.986000 1.991000 1.991000 1.992000 1.994000 1.997000 2.000000 2.000000 2.002000 2.004000 2.005000 2.006000 2.008000 2.008000 2.011000 2.015000 1.984000 0.000000 0.000000 0.000000 0.000000 0.000000 0.000000 0.000000 0.000000 
0.000000 0.000000 0.000000 0.000000 0.000000 0.000000 0.000000 1.967000 1.974000 1.974000 1.975000 1.978000 1.979000 1.982000 1.986000 1.988000 1.991000 1.991000 1.994000 1.994000 2.000000 2.000000 2.002000 2.005000 2.005000 2.005000 2.009000 2.011000 2.013000 2.015000 2.016000 1.984000 0.000000 0.000000 0.000000 0.000000 0.000000 0.000000 0.000000 0.000000 
0.000000 0.000000 0.000000 0.000000 0.000000 0.000000 0.000000 1.858000 1.973000 1.973000 1.977000 1.978000 1.979000 1.984000 1.986000 1.987000 1.991000 1.992000 1.996000 1.998000 2.002000 2.002000 2.002000 2.005000 2.005000 2.006000 2.011000 2.011000 2.014000 2.016000 2.016000 1.027000 0.000000 0.000000 0.000000 0.000000 0.000000 0.000000 0.000000 0.000000 
0.000000 0.000000 0.000000 0.000000 0.000000 0.000000 0.000000 1.858000 1.975000 1.976000 1.978000 1.981000 1.981000 1.984000 1.989000 1.989000 1.991000 1.993000 1.999000 2.000000 2.002000 2.002000 2.003000 2.005000 2.008000 2.008000 2.012000 2.014000 2.014000 2.016000 2.018000 1.027000 0.000000 0.000000 0.000000 0.000000 0.000000 0.000000 0.000000 0.000000 
0.000000 0.000000 0.000000 0.000000 0.000000 0.000000 0.000000 1.862000 1.978000 1.976000 1.978000 1.981000 1.981000 1.986000 1.986000 1.989000 1.991000 1.994000 1.995000 2.000000 2.001000 2.002000 2.005000 2.005000 2.008000 2.009000 2.011000 2.014000 2.014000 2.019000 2.019000 1.978000 0.000000 0.000000 0.000000 0.000000 0.000000 0.000000 0.000000 0.000000 
0.000000 0.000000 0.000000 0.000000 0.000000 0.000000 0.000000 1.978000 1.976000 1.978000 1.981000 1.981000 1.982000 1.987000 1.991000 1.991000 1.993000 1.996000 1.998000 2.002000 2.002000 2.005000 2.005000 2.008000 2.010000 2.011000 2.012000 2.014000 2.016000 2.019000 2.022000 1.990000 0.000000 0.000000 0.000000 0.000000 0.000000 0.000000 0.000000 0.000000 
0.000000 0.000000 0.000000 0.000000 0.000000 0.000000 0.000000 1.980000 1.978000 1.979000 1.981000 1.983000 1.984000 1.987000 1.990000 1.991000 1.994000 1.998000 2.000000 2.002000 2.003000 2.003000 2.005000 2.008000 2.012000 2.014000 2.014000 2.014000 2.016000 2.019000 2.022000 1.027000 0.000000 0.000000 0.000000 0.000000 0.000000 0.000000 0.000000 0.000000 
0.000000 0.000000 0.000000 0.000000 0.000000 0.000000 0.000000 1.865000 1.979000 1.981000 1.981000 1.983000 1.986000 1.990000 1.991000 1.992000 1.994000 1.997000 2.002000 2.002000 2.003000 2.005000 2.008000 2.009000 2.011000 2.012000 2.014000 2.014000 2.016000 2.021000 2.023000 1.027000 0.000000 0.000000 0.000000 0.000000 0.000000 0.000000 0.000000 0.000000 
0.000000 0.000000 0.000000 0.000000 0.000000 0.000000 0.000000 1.865000 1.981000 1.981000 1.981000 1.983000 1.989000 1.990000 1.992000 1.994000 1.996000 2.002000 2.002000 2.005000 2.005000 2.005000 2.009000 2.014000 2.014000 2.011000 2.014000 2.014000 2.016000 2.021000 2.027000 1.058000 0.000000 0.000000 0.000000 0.000000 0.000000 0.000000 0.000000 0.000000 
0.000000 0.000000 0.000000 0.000000 0.000000 0.000000 0.000000 1.865000 1.981000 1.981000 1.983000 1.986000 1.988000 1.990000 1.992000 1.994000 1.996000 2.002000 2.002000 2.002000 2.005000 2.005000 2.011000 2.011000 2.014000 2.014000 2.016000 2.016000 2.016000 2.023000 2.027000 1.993000 0.000000 0.000000 0.000000 0.000000 0.000000 0.000000 0.000000 0.000000 
0.000000 0.000000 0.000000 0.000000 0.000000 0.000000 0.000000 1.866000 1.982000 1.983000 1.983000 1.987000 1.989000 1.990000 1.994000 1.994000 1.998000 2.002000 2.002000 2.005000 2.005000 2.007000 2.012000 2.014000 2.014000 2.014000 2.016000 2.019000 2.022000 2.025000 2.028000 1.997000 0.000000 0.000000 0.000000 0.000000 0.000000 0.000000 0.000000 0.000000 
0.000000 0.000000 0.000000 0.000000 0.000000 0.000000 0.000000 1.984000 1.985000 1.985000 1.986000 1.989000 1.990000 1.991000 1.995000 2.000000 1.998000 2.002000 2.003000 2.005000 2.007000 2.008000 2.012000 2.014000 2.015000 2.016000 2.018000 2.020000 2.022000 2.028000 2.031000 1.998000 0.000000 0.000000 0.000000 0.000000 0.000000 0.000000 0.000000 0.000000 
0.000000 0.000000 0.000000 0.000000 0.000000 0.000000 0.000000 1.981000 1.986000 1.987000 1.989000 1.989000 1.991000 1.994000 1.997000 1.997000 2.002000 2.002000 2.005000 2.008000 2.008000 2.011000 2.014000 2.014000 2.016000 2.018000 2.019000 2.019000 2.024000 2.028000 2.031000 1.942000 0.000000 0.000000 0.000000 0.000000 0.000000 0.000000 0.000000 0.000000 
0.000000 0.000000 0.000000 0.000000 0.000000 0.000000 0.000000 1.986000 1.986000 1.989000 1.989000 1.989000 1.991000 1.994000 2.000000 2.002000 2.002000 2.005000 2.005000 2.008000 2.008000 2.014000 2.014000 2.016000 2.019000 2.019000 2.019000 2.022000 2.025000 2.031000 2.033000 1.027000 0.000000 0.000000 0.000000 0.000000 0.000000 0.000000 0.000000 0.000000 
0.000000 0.000000 0.000000 0.000000 0.000000 0.000000 0.000000 1.986000 1.988000 1.989000 1.991000 1.991000 1.992000 1.997000 2.000000 2.002000 2.004000 2.005000 2.008000 2.010000 2.011000 2.014000 2.014000 2.016000 2.019000 2.019000 2.022000 2.025000 2.027000 2.030000 2.033000 1.583000 0.000000 0.000000 0.000000 0.000000 0.000000 0.000000 0.000000 0.000000 
0.000000 0.000000 0.000000 0.000000 0.000000 0.000000 0.000000 1.872000 1.989000 1.990000 1.991000 1.991000 1.994000 1.997000 2.000000 2.002000 2.004000 2.006000 2.005000 2.008000 2.013000 2.014000 2.016000 2.017000 2.019000 2.020000 2.023000 2.025000 2.026000 2.031000 2.033000 1.027000 0.000000 0.000000 0.000000 0.000000 0.000000 0.000000 0.000000 0.000000 
0.000000 0.000000 0.000000 0.000000 0.000000 0.000000 0.000000 1.874000 1.989000 1.991000 1.991000 1.994000 1.997000 1.999000 2.002000 2.002000 2.004000 2.011000 2.008000 2.011000 2.011000 2.013000 2.017000 2.019000 2.022000 2.024000 2.025000 2.025000 2.030000 2.034000 2.032000 1.914000 0.000000 0.000000 0.000000 0.000000 0.000000 0.000000 0.000000 0.000000 
0.000000 0.000000 0.000000 0.000000 0.000000 0.000000 0.000000 1.876000 1.990000 1.991000 1.994000 1.994000 1.999000 2.001000 2.002000 2.002000 2.005000 2.008000 2.011000 2.011000 2.014000 2.016000 2.019000 2.022000 2.025000 2.025000 2.028000 2.028000 2.030000 2.037000 2.037000 1.027000 0.000000 0.000000 0.000000 0.000000 0.000000 0.000000 0.000000 0.000000 
0.000000 0.000000 0.000000 0.000000 0.000000 0.000000 0.000000 1.994000 1.990000 1.991000 1.994000 1.994000 1.999000 2.001000 2.004000 2.007000 2.008000 2.009000 2.013000 2.014000 2.016000 2.018000 2.019000 2.021000 2.022000 2.025000 2.028000 2.028000 2.030000 2.038000 2.034000 1.027000 0.000000 0.000000 0.000000 0.000000 0.000000 0.000000 0.000000 0.000000 
0.000000 0.000000 0.000000 0.000000 0.000000 0.000000 0.000000 1.989000 1.992000 1.992000 1.994000 1.992000 1.992000 2.002000 2.006000 2.008000 2.009000 2.007000 2.014000 2.014000 2.015000 2.020000 2.023000 2.023000 2.021000 2.027000 2.028000 2.028000 2.028000 1.682000 1.027000 1.027000 0.000000 0.000000 0.000000 0.000000 0.000000 0.000000 0.000000 0.000000 
0.000000 0.000000 0.000000 0.000000 0.000000 0.000000 0.000000 2.263000 2.043000 1.994000 1.995000 2.282000 2.306000 2.307000 2.044000 2.018000 2.018000 2.130000 2.026000 2.027000 2.121000 2.043000 2.038000 2.127000 1.284000 1.027000 1.027000 1.027000 1.027000 1.027000 1.027000 1.335000 0.000000 0.000000 0.000000 0.000000 0.000000 0.000000 0.000000 0.000000 
0.000000 0.000000 0.000000 0.000000 0.000000 0.000000 0.000000 0.000000 0.000000 0.000000 2.305000 2.296000 2.179000 2.101000 2.094000 2.031000 2.028000 2.108000 2.112000 2.114000 2.115000 2.074000 2.055000 2.109000 2.007000 1.027000 1.027000 1.027000 1.027000 1.027000 1.562000 0.000000 0.000000 0.000000 0.000000 0.000000 0.000000 0.000000 0.000000 0.000000 
0.000000 0.000000 0.000000 0.000000 0.000000 0.000000 0.000000 0.000000 2.642000 0.000000 2.288000 2.286000 2.084000 2.085000 2.085000 2.041000 2.034000 2.087000 2.088000 2.092000 2.099000 2.103000 2.091000 2.093000 2.098000 1.027000 1.027000 2.352000 1.027000 1.027000 1.639000 0.000000 0.000000 0.000000 0.000000 0.000000 0.000000 0.000000 0.000000 0.000000 
0.000000 0.000000 0.000000 0.000000 0.000000 0.000000 0.000000 1.027000 1.027000 1.027000 2.272000 2.272000 2.191000 2.066000 2.069000 2.040000 2.039000 2.065000 2.071000 2.071000 2.065000 1.850000 2.066000 2.073000 2.076000 1.027000 1.027000 0.000000 0.000000 0.000000 0.000000 0.000000 0.000000 0.000000 0.000000 0.000000 0.000000 0.000000 0.000000 0.000000 
