0.000000,0.000000,0.000000,0.000000,0.000000,0.000000,0.000000,0.000000,0.000000,0.000000,0.000000,0.000000,0.000000,0.000000,0.000000,0.000000,0.000000,0.000000,0.000000,0.000000,0.000000,0.000000,0.000000,0.000000,0.000000,0.000000,0.000000,0.000000,0.000000,0.000000,0.000000,0.000000,0.000000,0.000000,0.000000,0.000000,0.000000,0.000000,0.000000,0.000000,
0.000000,0.000000,0.000000,0.000000,0.000000,0.000000,0.000000,0.000000,0.000000,0.000000,0.000000,0.000000,0.000000,0.000000,0.000000,0.000000,0.000000,0.000000,0.000000,0.000000,0.000000,0.000000,0.000000,0.000000,0.000000,0.000000,0.000000,0.000000,0.000000,0.000000,0.000000,0.000000,0.000000,0.000000,0.000000,0.000000,0.000000,0.000000,0.000000,0.000000,
0.000000,0.000000,0.000000,0.000000,0.000000,0.000000,0.000000,0.000000,0.000000,0.000000,0.000000,0.000000,0.000000,0.000000,0.000000,0.000000,0.000000,0.000000,0.000000,0.000000,0.000000,0.000000,0.000000,0.000000,0.000000,0.000000,0.000000,0.000000,0.000000,0.000000,0.000000,0.000000,0.000000,0.000000,0.000000,0.000000,0.000000,0.000000,0.000000,0.000000,
0.000000,0.000000,0.000000,0.000000,0.000000,0.000000,0.000000,0.000000,0.000000,0.000000,0.000000,0.000000,0.000000,0.000000,0.000000,0.000000,0.000000,0.000000,0.000000,0.000000,0.000000,0.000000,0.000000,0.000000,0.000000,0.000000,0.000000,0.000000,0.000000,0.000000,0.000000,0.000000,0.000000,0.000000,0.000000,0.000000,0.000000,0.000000,0.000000,0.000000,
0.000000,0.000000,2.031000,2.021000,2.026000,2.056000,2.098000,2.092000,2.105000,2.132000,1.173000,1.173000,1.173000,1.173000,1.305000,2.019000,2.050000,2.063000,2.074000,2.081000,1.686000,0.000000,0.000000,0.000000,0.000000,0.000000,0.000000,0.000000,0.000000,0.000000,0.000000,0.000000,0.000000,0.000000,0.000000,0.000000,0.000000,0.000000,0.000000,0.000000,
0.000000,0.000000,2.031000,2.051000,2.061000,2.097000,2.053000,2.055000,1.173000,1.173000,1.173000,1.173000,1.342000,1.591000,2.025000,2.036000,2.046000,2.056000,2.067000,2.079000,2.084000,2.630000,0.000000,0.000000,0.000000,0.000000,0.000000,0.000000,0.000000,0.000000,0.000000,0.000000,0.000000,0.000000,0.000000,0.000000,0.000000,0.000000,0.000000,0.000000,
0.000000,0.000000,1.240000,2.077000,2.085000,2.112000,2.090000,2.053000,1.395000,1.173000,1.173000,1.777000,2.004000,2.010000,2.018000,2.030000,2.038000,2.047000,2.055000,2.067000,2.080000,2.085000,2.820000,2.857000,2.906000,0.000000,0.000000,0.000000,0.000000,0.000000,0.000000,0.000000,0.000000,0.000000,0.000000,0.000000,0.000000,0.000000,0.000000,0.000000,
0.000000,0.000000,1.189000,1.587000,2.111000,1.965000,2.067000,2.058000,2.042000,1.173000,1.228000,2.005000,2.002000,2.004000,2.013000,2.021000,2.029000,2.041000,2.051000,2.060000,2.073000,2.082000,1.322000,2.899000,2.886000,2.946000,2.957000,0.000000,0.000000,0.000000,0.000000,0.000000,0.000000,0.000000,0.000000,0.000000,0.000000,0.000000,0.000000,0.000000,
0.000000,0.000000,1.173000,2.070000,1.580000,1.173000,1.173000,1.173000,2.033000,2.021000,2.016000,2.008000,2.004000,2.004000,2.006000,2.018000,2.024000,2.034000,2.046000,2.054000,2.065000,2.074000,2.083000,1.259000,0.000000,0.000000,0.000000,0.000000,0.000000,0.000000,0.000000,0.000000,0.000000,0.000000,0.000000,0.000000,0.000000,0.000000,0.000000,0.000000,
0.000000,0.000000,1.173000,1.392000,2.077000,1.478000,1.173000,1.271000,2.024000,2.021000,2.017000,2.012000,2.005000,2.003000,2.003000,2.010000,2.019000,2.028000,2.039000,2.048000,2.059000,2.068000,2.077000,1.173000,2.444000,0.000000,0.000000,0.000000,0.000000,0.000000,0.000000,0.000000,0.000000,0.000000,0.000000,0.000000,0.000000,0.000000,0.000000,0.000000,
0.000000,0.000000,1.173000,1.173000,1.874000,2.078000,1.221000,2.036000,2.030000,2.024000,2.020000,2.016000,2.010000,2.004000,2.002000,2.004000,2.014000,2.022000,2.032000,2.041000,2.052000,2.060000,2.069000,2.086000,1.173000,0.000000,0.000000,0.000000,0.000000,0.000000,0.000000,0.000000,0.000000,2.597000,0.000000,0.000000,0.000000,0.000000,0.000000,0.000000,
0.000000,0.000000,1.173000,1.173000,1.173000,2.073000,2.048000,2.041000,2.035000,2.029000,2.026000,2.019000,2.014000,2.006000,2.002000,2.000000,2.006000,2.016000,2.027000,2.032000,2.045000,2.053000,2.064000,2.073000,2.008000,1.173000,0.000000,0.000000,0.000000,0.000000,0.000000,0.000000,0.000000,0.000000,0.000000,0.000000,0.000000,0.000000,0.000000,0.000000,
0.000000,0.000000,1.173000,1.173000,1.209000,2.051000,2.048000,2.043000,2.036000,2.033000,2.027000,2.021000,2.018000,2.012000,2.006000,2.000000,2.000000,2.007000,2.018000,2.027000,2.033000,2.043000,2.055000,2.065000,2.077000,1.478000,1.173000,0.000000,0.000000,0.000000,0.000000,0.000000,0.000000,0.000000,0.000000,0.000000,0.000000,0.000000,0.000000,0.000000,
0.000000,0.000000,1.173000,2.062000,2.062000,2.057000,2.053000,2.046000,2.039000,2.035000,2.030000,2.024000,2.018000,2.014000,2.010000,2.002000,2.000000,2.000000,2.009000,2.018000,2.027000,2.036000,2.045000,2.059000,2.070000,2.080000,1.186000,0.000000,0.000000,0.000000,0.000000,0.000000,0.000000,0.000000,0.000000,0.000000,0.000000,0.000000,0.000000,0.000000,
0.000000,0.000000,2.080000,2.072000,2.065000,2.061000,2.055000,2.051000,2.043000,2.037000,2.034000,2.028000,2.022000,2.018000,2.012000,2.005000,2.000000,1.998000,2.002000,2.012000,2.020000,2.029000,2.038000,2.054000,2.062000,2.074000,2.082000,1.173000,0.000000,0.000000,0.000000,0.000000,0.000000,0.000000,0.000000,0.000000,0.000000,0.000000,0.000000,0.000000,
0.000000,0.000000,2.081000,2.080000,2.069000,2.064000,2.059000,2.052000,2.048000,2.041000,2.037000,2.031000,2.025000,2.018000,2.015000,2.007000,2.001000,1.998000,2.000000,2.003000,2.014000,2.023000,2.033000,2.046000,2.055000,2.066000,2.077000,1.753000,1.173000,0.000000,0.000000,0.000000,0.000000,0.000000,0.000000,0.000000,0.000000,0.000000,0.000000,0.000000,
0.000000,0.000000,2.083000,2.080000,2.072000,2.069000,2.064000,2.057000,2.051000,2.044000,2.042000,2.034000,2.029000,2.022000,2.018000,2.011000,2.005000,1.999000,1.998000,2.002000,2.007000,2.019000,2.027000,2.040000,2.050000,2.059000,2.067000,2.077000,1.173000,0.000000,0.000000,0.000000,0.000000,0.000000,0.000000,0.000000,0.000000,0.000000,0.000000,0.000000,
0.000000,0.000000,2.089000,2.083000,2.078000,2.070000,2.067000,2.059000,2.054000,2.049000,2.044000,2.037000,2.031000,2.027000,2.020000,2.014000,2.010000,2.003000,1.999000,1.997000,2.002000,2.010000,2.019000,2.031000,2.042000,2.050000,2.061000,2.070000,2.081000,1.173000,0.000000,0.000000,0.000000,0.000000,0.000000,0.000000,0.000000,0.000000,0.000000,0.000000,
0.000000,0.000000,2.089000,2.088000,2.081000,2.073000,2.068000,2.061000,2.058000,2.053000,2.046000,2.044000,2.039000,2.030000,2.024000,2.018000,2.012000,2.006000,2.000000,1.996000,1.996000,2.001000,2.012000,2.021000,2.030000,2.041000,2.049000,2.063000,2.072000,2.083000,1.173000,0.000000,0.000000,0.000000,0.000000,0.000000,0.000000,0.000000,0.000000,0.000000,
0.000000,0.000000,1.472000,2.091000,2.084000,2.076000,2.070000,2.065000,2.060000,2.053000,2.051000,2.045000,2.039000,2.035000,2.027000,2.022000,2.016000,2.012000,2.004000,1.999000,1.995000,1.996000,2.006000,2.017000,2.024000,2.036000,2.046000,2.054000,2.065000,2.076000,1.173000,1.868000,0.000000,0.000000,0.000000,0.000000,0.000000,0.000000,0.000000,0.000000,
0.000000,0.000000,1.173000,1.173000,2.084000,2.081000,2.076000,2.068000,2.062000,2.060000,2.058000,2.047000,2.043000,2.037000,2.031000,2.026000,2.019000,2.014000,2.010000,2.002000,1.997000,1.994000,1.996000,2.012000,2.019000,2.026000,2.037000,2.053000,2.059000,2.068000,2.081000,1.173000,0.000000,0.000000,0.000000,0.000000,0.000000,0.000000,0.000000,0.000000,
0.000000,0.000000,1.173000,1.173000,1.731000,2.087000,2.079000,2.073000,2.066000,2.062000,2.059000,2.052000,2.045000,2.040000,2.035000,2.029000,2.021000,2.018000,2.012000,2.005000,2.002000,1.995000,1.994000,2.002000,2.015000,2.023000,2.030000,2.042000,2.053000,2.062000,2.073000,1.925000,1.173000,0.000000,0.000000,0.000000,0.000000,0.000000,0.000000,0.000000,
0.000000,0.000000,1.173000,1.173000,1.173000,2.020000,2.082000,2.078000,2.070000,2.065000,2.061000,2.055000,2.048000,2.045000,2.038000,2.031000,2.026000,2.019000,2.016000,2.009000,2.003000,1.999000,1.996000,1.997000,2.005000,2.016000,2.025000,2.036000,2.044000,2.055000,2.064000,2.076000,1.173000,2.540000,0.000000,0.000000,0.000000,0.000000,0.000000,0.000000,
0.000000,0.000000,1.173000,1.173000,1.173000,1.408000,2.088000,2.081000,2.075000,2.069000,2.064000,2.059000,2.053000,2.046000,2.042000,2.034000,2.030000,2.026000,2.019000,2.013000,2.006000,2.002000,1.997000,1.996000,1.999000,2.011000,2.017000,2.029000,2.039000,2.047000,2.056000,2.071000,2.075000,1.173000,0.000000,0.000000,0.000000,0.000000,0.000000,0.000000,
0.000000,0.000000,1.637000,0.000000,1.173000,1.173000,2.088000,2.084000,2.079000,2.072000,2.067000,2.061000,2.054000,2.053000,2.044000,2.039000,2.033000,2.029000,2.020000,2.017000,2.011000,2.005000,2.000000,1.998000,1.996000,2.001000,2.012000,2.020000,2.029000,2.039000,2.051000,2.061000,2.070000,1.173000,1.173000,0.000000,0.000000,0.000000,0.000000,0.000000,
0.000000,0.000000,1.642000,0.000000,1.173000,1.173000,1.880000,2.087000,2.081000,2.074000,2.071000,2.066000,2.059000,2.053000,2.046000,2.041000,2.034000,2.031000,2.027000,2.019000,2.013000,2.010000,2.004000,2.000000,1.996000,1.997000,2.005000,2.014000,2.022000,2.032000,2.041000,2.053000,2.062000,2.075000,1.264000,1.623000,0.000000,0.000000,0.000000,0.000000,
0.000000,0.000000,1.647000,0.000000,0.000000,1.173000,1.173000,1.803000,2.081000,2.077000,2.074000,2.070000,2.063000,2.056000,2.055000,2.045000,2.039000,2.035000,2.029000,2.022000,2.017000,2.011000,2.008000,2.000000,1.997000,1.996000,1.997000,2.008000,2.015000,2.026000,2.034000,2.048000,2.056000,2.066000,2.076000,1.173000,0.000000,0.000000,0.000000,0.000000,
0.000000,0.000000,1.647000,0.000000,0.000000,0.000000,1.173000,1.173000,2.082000,2.081000,2.079000,2.072000,2.065000,2.062000,2.055000,2.049000,2.045000,2.037000,2.031000,2.027000,2.021000,2.016000,2.010000,2.006000,2.000000,1.996000,1.996000,1.999000,2.009000,2.019000,2.028000,2.039000,2.051000,2.060000,2.069000,1.724000,1.173000,0.000000,0.000000,0.000000,
0.000000,0.000000,1.658000,0.000000,0.000000,0.000000,1.173000,1.173000,1.705000,2.086000,2.081000,2.074000,2.070000,2.064000,2.058000,2.052000,2.046000,2.041000,2.037000,2.028000,2.022000,2.019000,2.012000,2.008000,2.004000,1.999000,1.996000,1.996000,2.003000,2.014000,2.024000,2.031000,2.044000,2.054000,2.062000,2.072000,2.038000,0.000000,0.000000,0.000000,
0.000000,0.000000,1.653000,0.000000,0.000000,0.000000,0.000000,1.173000,1.173000,2.056000,2.083000,2.079000,2.073000,2.068000,2.060000,2.057000,2.052000,2.045000,2.040000,2.033000,2.027000,2.021000,2.016000,2.012000,2.006000,2.003000,1.998000,1.994000,1.998000,2.008000,2.016000,2.027000,2.033000,2.045000,2.050000,2.069000,2.076000,0.000000,0.000000,0.000000,
0.000000,0.000000,1.658000,0.000000,0.000000,0.000000,0.000000,0.000000,1.173000,1.173000,2.084000,2.083000,2.076000,2.071000,2.063000,2.060000,2.054000,2.047000,2.044000,2.034000,2.028000,2.027000,2.021000,2.018000,2.013000,2.005000,2.002000,1.996000,1.996000,1.999000,2.012000,2.019000,2.027000,2.038000,2.043000,2.057000,2.065000,0.000000,0.000000,0.000000,
0.000000,0.000000,1.668000,0.000000,0.000000,0.000000,0.000000,0.000000,1.173000,1.173000,2.092000,2.085000,2.079000,2.074000,2.067000,2.062000,2.056000,2.053000,2.044000,2.037000,2.035000,2.029000,2.024000,2.020000,2.013000,2.009000,2.004000,1.998000,1.995000,1.994000,2.000000,2.011000,2.019000,2.027000,2.037000,1.448000,2.421000,0.000000,0.000000,0.000000,
0.000000,0.000000,1.670000,0.000000,0.000000,0.000000,0.000000,0.000000,0.000000,1.173000,1.173000,2.083000,2.081000,2.076000,2.071000,2.064000,2.062000,2.055000,2.046000,2.043000,2.036000,2.031000,2.027000,2.023000,2.017000,2.014000,2.008000,2.002000,1.997000,1.992000,1.996000,2.002000,2.011000,2.020000,2.029000,1.693000,0.000000,0.000000,0.000000,0.000000,
0.000000,0.000000,1.676000,0.000000,0.000000,0.000000,0.000000,0.000000,0.000000,2.375000,1.173000,1.407000,2.087000,2.076000,2.074000,2.070000,2.063000,2.058000,2.052000,2.046000,2.041000,2.035000,2.029000,2.025000,2.020000,2.015000,2.012000,2.006000,1.998000,1.996000,1.996000,1.998000,2.005000,1.917000,1.173000,0.000000,0.000000,0.000000,0.000000,0.000000,
0.000000,0.000000,1.676000,0.000000,0.000000,0.000000,0.000000,0.000000,0.000000,0.000000,1.173000,1.173000,1.467000,2.080000,2.075000,2.071000,2.065000,2.061000,2.055000,2.051000,2.044000,2.037000,2.032000,2.030000,2.023000,2.019000,2.012000,2.008000,2.003000,1.999000,1.994000,1.995000,2.006000,1.173000,1.173000,0.000000,0.000000,0.000000,0.000000,0.000000,
0.000000,0.000000,0.000000,0.000000,0.000000,0.000000,0.000000,0.000000,0.000000,0.000000,0.000000,0.000000,0.000000,0.000000,0.000000,0.000000,0.000000,0.000000,0.000000,0.000000,0.000000,0.000000,0.000000,0.000000,0.000000,0.000000,0.000000,0.000000,0.000000,0.000000,0.000000,0.000000,0.000000,0.000000,0.000000,0.000000,0.000000,0.000000,0.000000,0.000000,
0.000000,0.000000,0.000000,0.000000,0.000000,0.000000,0.000000,0.000000,0.000000,0.000000,0.000000,0.000000,0.000000,0.000000,0.000000,0.000000,0.000000,0.000000,0.000000,0.000000,0.000000,0.000000,0.000000,0.000000,0.000000,0.000000,0.000000,0.000000,0.000000,0.000000,0.000000,0.000000,0.000000,0.000000,0.000000,0.000000,0.000000,0.000000,0.000000,0.000000,
0.000000,0.000000,0.000000,0.000000,0.000000,0.000000,0.000000,0.000000,0.000000,0.000000,0.000000,0.000000,0.000000,0.000000,0.000000,0.000000,0.000000,0.000000,0.000000,0.000000,0.000000,0.000000,0.000000,0.000000,0.000000,0.000000,0.000000,0.000000,0.000000,0.000000,0.000000,0.000000,0.000000,0.000000,0.000000,0.000000,0.000000,0.000000,0.000000,0.000000,
0.000000,0.000000,0.000000,0.000000,0.000000,0.000000,0.000000,0.000000,0.000000,0.000000,0.000000,0.000000,0.000000,0.000000,0.000000,0.000000,0.000000,0.000000,0.000000,0.000000,0.000000,0.000000,0.000000,0.000000,0.000000,0.000000,0.000000,0.000000,0.000000,0.000000,0.000000,0.000000,0.000000,0.000000,0.000000,0.000000,0.000000,0.000000,0.000000,0.000000,
0.000000,0.000000,0.000000,0.000000,0.000000,0.000000,0.000000,0.000000,0.000000,0.000000,0.000000,0.000000,0.000000,0.000000,0.000000,0.000000,0.000000,0.000000,0.000000,0.000000,0.000000,0.000000,0.000000,0.000000,0.000000,0.000000,0.000000,0.000000,0.000000,0.000000,0.000000,0.000000,0.000000,0.000000,0.000000,0.000000,0.000000,0.000000,0.000000,0.000000,
