40 40
0.000000 0.000000 0.000000 0.000000 0.000000 0.000000 2.881000 2.023000 1.983000 1.979000 1.980000 1.985000 1.989000 1.989000 1.995000 1.995000 1.995000 2.006000 2.009000 2.011000 2.011000 2.016000 2.020000 2.029000 2.029000 2.036000 2.040000 2.045000 2.046000 2.048000 2.052000 2.058000 0.000000 0.000000 0.000000 0.000000 0.000000 0.000000 0.000000 0.000000 
0.000000 0.000000 0.000000 0.000000 0.000000 0.000000 2.870000 2.027000 1.988000 1.984000 1.984000 1.984000 1.989000 1.989000 1.995000 1.995000 2.000000 2.004000 2.006000 2.011000 2.011000 2.011000 2.017000 2.029000 2.029000 2.036000 2.040000 2.042000 2.052000 2.052000 2.052000 2.063000 0.000000 0.000000 0.000000 0.000000 0.000000 0.000000 0.000000 0.000000 
0.000000 0.000000 0.000000 0.000000 0.000000 0.000000 2.041000 2.027000 1.996000 1.982000 1.978000 1.984000 1.989000 1.989000 1.995000 2.000000 2.000000 2.000000 2.006000 2.006000 2.011000 2.011000 2.014000 2.026000 2.029000 2.033000 2.040000 2.040000 2.046000 2.052000 2.052000 2.058000 0.000000 0.000000 0.000000 0.000000 0.000000 0.000000 0.000000 0.000000 
0.000000 0.000000 0.000000 0.000000 0.000000 0.000000 2.046000 2.029000 1.996000 1.982000 1.978000 1.984000 1.989000 1.989000 1.989000 1.999000 2.000000 2.006000 2.006000 2.010000 2.011000 2.011000 2.017000 2.026000 2.029000 2.033000 2.040000 2.040000 2.046000 2.052000 2.052000 2.058000 0.000000 0.000000 0.000000 0.000000 0.000000 0.000000 0.000000 0.000000 
0.000000 0.000000 0.000000 0.000000 0.000000 0.000000 2.043000 2.029000 2.002000 1.984000 1.984000 1.984000 1.985000 1.989000 1.989000 1.995000 2.005000 2.006000 2.010000 2.011000 2.011000 2.011000 2.014000 2.026000 2.029000 2.031000 2.040000 2.040000 2.046000 2.047000 2.052000 2.052000 0.000000 0.000000 0.000000 0.000000 0.000000 0.000000 0.000000 0.000000 
0.000000 0.000000 0.000000 0.000000 0.000000 0.000000 2.046000 2.032000 2.005000 1.982000 1.979000 1.980000 1.984000 1.989000 1.994000 1.996000 2.001000 2.005000 2.006000 2.010000 2.011000 2.011000 2.011000 2.026000 2.029000 2.031000 2.040000 2.040000 2.042000 2.046000 2.052000 2.052000 0.000000 0.000000 0.000000 0.000000 0.000000 0.000000 0.000000 0.000000 
0.000000 0.000000 0.000000 0.000000 0.000000 0.000000 2.052000 2.037000 2.014000 1.987000 1.982000 1.978000 1.984000 1.989000 1.995000 1.995000 2.000000 2.000000 2.006000 2.007000 2.010000 2.011000 2.014000 2.026000 2.029000 2.031000 2.040000 2.040000 2.040000 2.042000 2.052000 2.052000 2.052000 0.000000 0.000000 0.000000 0.000000 0.000000 0.000000 0.000000 
0.000000 0.000000 0.000000 0.000000 0.000000 0.000000 2.722000 2.041000 2.016000 1.988000 1.983000 1.979000 1.984000 1.984000 1.989000 1.995000 2.000000 2.005000 2.006000 2.006000 2.009000 2.011000 2.012000 2.024000 2.026000 2.031000 2.040000 2.040000 2.041000 2.045000 2.052000 2.052000 2.047000 0.000000 0.000000 0.000000 0.000000 0.000000 0.000000 0.000000 
0.000000 0.000000 0.000000 0.000000 0.000000 0.000000 2.907000 2.035000 2.017000 1.988000 1.984000 1.984000 1.984000 1.989000 1.989000 1.995000 1.999000 2.001000 2.006000 2.006000 2.009000 2.011000 2.011000 2.020000 2.026000 2.031000 2.037000 2.040000 2.041000 2.046000 2.046000 2.046000 2.040000 0.000000 0.000000 0.000000 0.000000 0.000000 0.000000 0.000000 
0.000000 0.000000 0.000000 0.000000 0.000000 0.000000 2.892000 2.034000 2.017000 1.990000 1.984000 1.984000 1.984000 1.989000 1.989000 1.991000 1.999000 2.000000 2.005000 2.006000 2.009000 2.011000 2.011000 2.020000 2.026000 2.031000 2.036000 2.040000 2.040000 2.041000 2.046000 2.052000 2.052000 0.000000 0.000000 0.000000 0.000000 0.000000 0.000000 0.000000 
0.000000 0.000000 0.000000 0.000000 0.000000 0.000000 2.881000 2.035000 2.013000 1.994000 1.984000 1.984000 1.985000 1.989000 1.989000 1.989000 1.999000 2.000000 2.000000 2.006000 2.007000 2.011000 2.011000 2.015000 2.024000 2.031000 2.034000 2.040000 2.040000 2.041000 2.046000 2.052000 2.052000 0.000000 0.000000 0.000000 0.000000 0.000000 0.000000 0.000000 
0.000000 0.000000 0.000000 0.000000 0.000000 0.000000 0.000000 2.047000 2.017000 1.992000 1.978000 1.981000 1.984000 1.984000 1.989000 1.989000 1.997000 1.997000 1.999000 2.006000 2.006000 2.011000 2.011000 2.011000 2.022000 2.031000 2.034000 2.038000 2.040000 2.041000 2.052000 2.052000 2.052000 0.000000 0.000000 0.000000 0.000000 0.000000 0.000000 0.000000 
0.000000 0.000000 0.000000 0.000000 0.000000 0.000000 0.000000 2.050000 2.029000 1.994000 1.980000 1.979000 1.984000 1.984000 1.987000 1.989000 1.989000 1.994000 1.999000 2.006000 2.006000 2.011000 2.011000 2.014000 2.026000 2.031000 2.034000 2.036000 2.040000 2.043000 2.049000 2.052000 2.052000 0.000000 0.000000 0.000000 0.000000 0.000000 0.000000 0.000000 
0.000000 0.000000 0.000000 0.000000 0.000000 0.000000 0.000000 2.045000 2.030000 1.999000 1.983000 1.981000 1.984000 1.984000 1.984000 1.989000 1.989000 1.994000 1.999000 2.006000 2.006000 2.011000 2.011000 2.014000 2.023000 2.031000 2.034000 2.036000 2.040000 2.046000 2.046000 2.052000 2.054000 0.000000 0.000000 0.000000 0.000000 0.000000 0.000000 0.000000 
0.000000 0.000000 0.000000 0.000000 0.000000 0.000000 0.000000 2.395000 2.030000 2.004000 1.982000 1.976000 1.982000 1.984000 1.984000 1.989000 1.989000 1.994000 1.995000 2.003000 2.006000 2.011000 2.011000 2.011000 2.017000 2.027000 2.034000 2.034000 2.040000 2.044000 2.046000 2.050000 2.058000 0.000000 0.000000 0.000000 0.000000 0.000000 0.000000 0.000000 
0.000000 0.000000 0.000000 0.000000 0.000000 0.000000 0.000000 2.975000 2.030000 2.008000 1.981000 1.973000 1.978000 1.984000 1.984000 1.989000 1.989000 1.989000 1.995000 2.000000 2.006000 2.009000 2.011000 2.011000 2.013000 2.021000 2.031000 2.034000 2.040000 2.040000 2.044000 2.046000 2.044000 0.000000 0.000000 0.000000 0.000000 0.000000 0.000000 0.000000 
0.000000 0.000000 0.000000 0.000000 0.000000 0.000000 0.000000 2.970000 2.030000 2.008000 1.981000 1.974000 1.984000 1.984000 1.984000 1.989000 1.989000 1.989000 1.999000 2.004000 2.006000 2.009000 2.011000 2.011000 2.011000 2.023000 2.034000 2.034000 2.039000 2.040000 2.040000 2.046000 2.040000 0.000000 0.000000 0.000000 0.000000 0.000000 0.000000 0.000000 
0.000000 0.000000 0.000000 0.000000 0.000000 0.000000 0.000000 1.370000 2.031000 2.010000 1.977000 1.976000 1.984000 1.984000 1.984000 1.984000 1.989000 1.989000 1.998000 2.003000 2.006000 2.006000 2.011000 2.011000 2.014000 2.023000 2.034000 2.034000 2.035000 2.040000 2.040000 2.046000 2.041000 2.041000 0.000000 0.000000 0.000000 0.000000 0.000000 0.000000 
0.000000 0.000000 0.000000 0.000000 0.000000 0.000000 0.000000 2.058000 2.037000 2.013000 1.978000 1.978000 1.984000 1.983000 1.984000 1.984000 1.989000 1.989000 1.995000 2.000000 2.006000 2.006000 2.009000 2.011000 2.013000 2.025000 2.034000 2.034000 2.034000 2.040000 2.040000 2.046000 2.052000 0.000000 0.000000 0.000000 0.000000 0.000000 0.000000 0.000000 
0.000000 0.000000 0.000000 0.000000 0.000000 0.000000 0.000000 2.982000 2.042000 2.013000 1.983000 1.973000 1.978000 1.978000 1.984000 1.989000 1.989000 1.989000 1.994000 1.998000 2.006000 2.006000 2.009000 2.011000 2.011000 2.025000 2.034000 2.034000 2.035000 2.040000 2.040000 2.046000 2.046000 0.000000 0.000000 0.000000 0.000000 0.000000 0.000000 0.000000 
0.000000 0.000000 0.000000 0.000000 0.000000 0.000000 0.000000 2.980000 2.048000 2.019000 1.982000 1.973000 1.978000 1.978000 1.984000 1.989000 1.989000 1.989000 1.989000 1.995000 2.004000 2.006000 2.009000 2.011000 2.014000 2.022000 2.031000 2.034000 2.034000 2.035000 2.040000 2.040000 2.046000 2.046000 0.000000 0.000000 0.000000 0.000000 0.000000 0.000000 
0.000000 0.000000 0.000000 0.000000 0.000000 0.000000 0.000000 2.978000 2.048000 2.009000 1.977000 1.968000 1.974000 1.978000 1.978000 1.984000 1.988000 1.989000 1.989000 1.993000 2.004000 2.006000 2.009000 2.011000 2.014000 2.022000 2.029000 2.034000 2.034000 2.034000 2.040000 2.040000 2.046000 2.046000 0.000000 0.000000 0.000000 0.000000 0.000000 0.000000 
0.000000 0.000000 0.000000 0.000000 0.000000 0.000000 0.000000 0.000000 2.044000 2.011000 1.977000 1.968000 1.973000 1.978000 1.983000 1.984000 1.988000 1.989000 1.989000 1.997000 2.004000 2.006000 2.006000 2.009000 2.011000 2.019000 2.029000 2.034000 2.039000 2.040000 2.040000 2.046000 2.046000 2.052000 0.000000 0.000000 0.000000 0.000000 0.000000 0.000000 
0.000000 0.000000 0.000000 0.000000 0.000000 0.000000 0.000000 0.000000 2.044000 2.009000 1.977000 1.968000 1.973000 1.978000 1.984000 1.984000 1.985000 1.988000 1.989000 1.993000 2.000000 2.004000 2.006000 2.011000 2.011000 2.015000 2.029000 2.034000 2.035000 2.040000 2.040000 2.041000 2.047000 2.053000 0.000000 0.000000 0.000000 0.000000 0.000000 0.000000 
0.000000 0.000000 0.000000 0.000000 0.000000 0.000000 0.000000 0.000000 2.036000 2.012000 1.982000 1.973000 1.974000 1.984000 1.979000 1.984000 1.984000 1.988000 1.989000 1.993000 1.998000 2.004000 2.006000 2.009000 2.011000 2.015000 2.025000 2.034000 2.034000 2.040000 2.040000 2.040000 2.046000 2.052000 0.000000 0.000000 0.000000 0.000000 0.000000 0.000000 
0.000000 0.000000 0.000000 0.000000 0.000000 0.000000 0.000000 0.000000 2.031000 2.012000 1.985000 1.973000 1.973000 1.978000 1.978000 1.978000 1.984000 1.988000 1.989000 1.993000 2.000000 2.006000 2.006000 2.007000 2.011000 2.019000 2.029000 2.034000 2.034000 2.040000 2.040000 2.040000 2.046000 2.052000 0.000000 0.000000 0.000000 0.000000 0.000000 0.000000 
0.000000 0.000000 0.000000 0.000000 0.000000 0.000000 0.000000 0.000000 2.033000 2.021000 1.986000 1.969000 1.968000 1.973000 1.973000 1.978000 1.984000 1.985000 1.988000 1.995000 1.999000 2.004000 2.006000 2.008000 2.012000 2.019000 2.029000 2.031000 2.034000 2.035000 2.040000 2.040000 2.046000 2.048000 0.000000 0.000000 0.000000 0.000000 0.000000 0.000000 
0.000000 0.000000 0.000000 0.000000 0.000000 0.000000 0.000000 0.000000 2.657000 2.024000 1.985000 1.968000 1.968000 1.968000 1.973000 1.978000 1.984000 1.984000 1.991000 1.995000 1.995000 2.000000 2.004000 2.006000 2.011000 2.019000 2.023000 2.030000 2.034000 2.040000 2.040000 2.046000 2.046000 2.050000 0.000000 0.000000 0.000000 0.000000 0.000000 0.000000 
0.000000 0.000000 0.000000 0.000000 0.000000 0.000000 0.000000 0.000000 0.000000 2.020000 1.996000 1.970000 1.968000 1.973000 1.973000 1.981000 1.984000 1.988000 1.989000 1.992000 1.995000 1.998000 2.003000 2.007000 2.011000 2.019000 2.023000 2.029000 2.034000 2.040000 2.040000 2.046000 2.052000 2.052000 0.000000 0.000000 0.000000 0.000000 0.000000 0.000000 
0.000000 0.000000 0.000000 0.000000 0.000000 0.000000 0.000000 0.000000 2.544000 2.025000 2.001000 1.973000 1.970000 1.973000 1.976000 1.978000 1.984000 1.984000 1.986000 1.989000 1.989000 1.998000 2.005000 2.008000 2.011000 2.017000 2.023000 2.030000 2.035000 2.040000 2.040000 2.049000 2.055000 2.046000 0.000000 0.000000 0.000000 0.000000 0.000000 0.000000 
0.000000 0.000000 0.000000 0.000000 0.000000 0.000000 0.000000 0.000000 2.479000 2.027000 2.001000 1.972000 1.968000 1.971000 1.968000 1.978000 1.983000 1.984000 1.986000 1.989000 1.989000 1.998000 2.006000 2.007000 2.010000 2.013000 2.017000 2.025000 2.034000 2.823000 0.000000 0.000000 0.000000 0.000000 0.000000 0.000000 0.000000 0.000000 0.000000 0.000000 
0.000000 0.000000 0.000000 0.000000 0.000000 0.000000 2.338000 2.341000 2.341000 2.110000 1.998000 1.974000 1.968000 1.968000 1.968000 1.978000 1.981000 1.984000 1.988000 1.989000 1.989000 1.997000 1.996000 1.995000 2.006000 2.014000 2.228000 0.000000 0.000000 0.000000 0.000000 0.000000 0.000000 0.000000 0.000000 0.000000 0.000000 0.000000 0.000000 0.000000 
0.000000 0.000000 0.000000 0.000000 0.000000 0.000000 2.341000 2.341000 2.341000 2.274000 1.988000 1.977000 1.972000 1.968000 1.968000 1.976000 1.971000 1.976000 1.987000 2.000000 1.990000 1.984000 1.986000 2.003000 0.000000 2.036000 2.565000 0.000000 0.000000 0.000000 0.000000 0.000000 0.000000 0.000000 0.000000 0.000000 0.000000 0.000000 0.000000 0.000000 
0.000000 0.000000 0.000000 0.000000 0.000000 0.000000 2.346000 2.341000 2.343000 2.348000 2.267000 1.979000 1.977000 1.969000 1.968000 1.972000 1.962000 1.996000 2.015000 2.017000 2.015000 2.108000 2.108000 2.104000 2.581000 0.000000 0.000000 0.000000 0.000000 0.000000 0.000000 0.000000 0.000000 0.000000 0.000000 0.000000 0.000000 0.000000 0.000000 0.000000 
0.000000 0.000000 0.000000 0.000000 0.000000 0.000000 0.000000 0.000000 2.347000 2.341000 2.352000 2.357000 2.352000 2.352000 2.350000 2.350000 1.835000 2.082000 2.053000 2.014000 2.011000 2.103000 2.101000 2.098000 2.077000 2.055000 2.486000 0.000000 0.000000 0.000000 0.000000 0.000000 0.000000 0.000000 0.000000 0.000000 0.000000 0.000000 0.000000 0.000000 
0.000000 0.000000 0.000000 0.000000 0.000000 0.000000 0.000000 0.000000 0.000000 0.000000 0.000000 2.350000 2.350000 2.350000 2.350000 2.308000 2.097000 2.071000 2.071000 2.011000 2.013000 2.077000 2.074000 2.053000 2.043000 2.044000 2.043000 2.433000 0.000000 0.000000 0.000000 0.000000 0.000000 0.000000 0.000000 0.000000 0.000000 0.000000 0.000000 0.000000 
0.000000 0.000000 0.000000 0.000000 0.000000 0.000000 0.000000 0.000000 0.000000 0.000000 0.000000 0.000000 0.000000 2.350000 2.322000 2.065000 2.057000 2.052000 2.034000 2.025000 2.027000 2.044000 2.045000 2.031000 2.031000 2.026000 2.021000 2.020000 2.029000 2.274000 0.000000 0.000000 0.000000 0.000000 0.000000 0.000000 0.000000 0.000000 0.000000 0.000000 
0.000000 0.000000 0.000000 0.000000 0.000000 0.000000 0.000000 0.000000 0.000000 0.000000 0.000000 0.000000 0.000000 0.000000 2.077000 2.064000 2.046000 2.033000 2.033000 2.023000 2.015000 2.006000 2.006000 2.011000 2.011000 2.011000 2.015000 2.013000 2.018000 2.023000 0.000000 0.000000 0.000000 0.000000 0.000000 0.000000 0.000000 0.000000 0.000000 0.000000 
0.000000 0.000000 0.000000 0.000000 0.000000 0.000000 0.000000 0.000000 0.000000 0.000000 0.000000 0.000000 0.000000 0.000000 2.083000 2.059000 2.021000 2.001000 1.984000 1.985000 1.988000 1.989000 1.993000 1.998000 1.995000 2.002000 2.006000 2.013000 2.017000 2.018000 2.181000 0.000000 0.000000 0.000000 0.000000 0.000000 0.000000 0.000000 0.000000 0.000000 
0.000000 0.000000 0.000000 0.000000 0.000000 0.000000 0.000000 0.000000 0.000000 0.000000 0.000000 0.000000 0.000000 0.000000 0.000000 2.058000 2.013000 1.991000 1.979000 1.978000 1.982000 1.989000 1.989000 1.989000 1.989000 1.997000 2.006000 2.011000 2.013000 2.017000 2.030000 0.000000 0.000000 0.000000 0.000000 0.000000 0.000000 0.000000 0.000000 0.000000 
