40 40
0.000000 0.000000 0.000000 0.000000 0.000000 0.000000 0.000000 0.000000 0.000000 0.000000 0.000000 0.000000 0.000000 0.000000 0.000000 0.000000 0.000000 0.000000 0.000000 0.000000 0.000000 0.000000 0.000000 0.000000 0.000000 0.000000 0.000000 0.000000 0.000000 0.000000 0.000000 0.000000 0.000000 0.000000 0.000000 0.000000 0.000000 0.000000 0.000000 0.000000 
0.000000 0.000000 0.000000 0.000000 0.000000 2.000000 2.000000 2.000000 2.000000 2.000000 2.000000 2.000000 2.000000 2.000000 2.000000 2.000000 1.975000 1.967000 1.956000 1.931000 1.906000 1.882000 1.875000 1.875000 1.881000 1.905000 1.905000 1.924000 1.949000 1.967000 2.036000 0.000000 0.000000 0.000000 0.000000 0.000000 0.000000 0.000000 0.000000 0.000000 
0.000000 0.000000 0.000000 0.000000 0.000000 2.000000 2.000000 2.000000 2.000000 2.000000 2.000000 2.000000 2.000000 2.000000 2.000000 2.000000 1.975000 1.955000 1.942000 1.931000 1.906000 1.898000 1.884000 1.875000 1.881000 1.905000 1.905000 1.924000 1.949000 1.967000 2.036000 0.000000 0.000000 0.000000 0.000000 0.000000 0.000000 0.000000 0.000000 0.000000 
0.000000 0.000000 0.000000 0.000000 0.000000 2.016000 2.016000 2.016000 2.016000 2.014000 2.001000 2.000000 2.000000 2.000000 2.000000 2.000000 1.975000 1.950000 1.936000 1.933000 1.921000 1.909000 1.896000 1.884000 1.878000 1.890000 1.890000 1.908000 1.939000 1.967000 2.001000 0.000000 0.000000 0.000000 0.000000 0.000000 0.000000 0.000000 0.000000 0.000000 
0.000000 0.000000 0.000000 0.000000 0.000000 2.032000 2.032000 2.038000 2.039000 2.028000 2.002000 2.000000 2.000000 2.000000 2.000000 2.000000 1.975000 1.950000 1.936000 1.936000 1.936000 1.912000 1.905000 1.893000 1.875000 1.875000 1.875000 1.893000 1.926000 1.959000 1.967000 1.967000 0.000000 0.000000 0.000000 0.000000 0.000000 0.000000 0.000000 0.000000 
0.000000 0.000000 0.000000 0.000000 0.000000 2.036000 2.036000 2.051000 2.055000 2.029000 2.006000 2.001000 2.000000 2.000000 2.000000 2.000000 1.975000 1.950000 1.936000 1.936000 1.936000 1.912000 1.905000 1.895000 1.879000 1.879000 1.879000 1.897000 1.920000 1.943000 1.967000 1.967000 0.000000 0.000000 0.000000 0.000000 0.000000 0.000000 0.000000 0.000000 
0.000000 0.000000 0.000000 0.000000 0.000000 2.063000 2.063000 2.065000 2.055000 2.032000 2.030000 2.008000 2.000000 2.000000 2.000000 2.000000 1.975000 1.950000 1.936000 1.936000 1.936000 1.912000 1.905000 1.904000 1.903000 1.903000 1.903000 1.921000 1.935000 1.943000 1.967000 1.967000 0.000000 0.000000 0.000000 0.000000 0.000000 0.000000 0.000000 0.000000 
0.000000 0.000000 0.000000 0.000000 0.000000 2.091000 2.091000 2.091000 2.072000 2.032000 2.032000 2.009000 2.000000 2.000000 2.000000 2.000000 1.975000 1.950000 1.936000 1.936000 1.936000 1.930000 1.928000 1.928000 1.928000 1.928000 1.928000 1.946000 1.959000 1.960000 1.967000 1.967000 0.000000 0.000000 0.000000 0.000000 0.000000 0.000000 0.000000 0.000000 
0.000000 0.000000 0.000000 0.000000 0.000000 2.100000 2.100000 2.100000 2.078000 2.032000 2.032000 2.009000 2.000000 2.000000 2.000000 2.000000 1.988000 1.967000 1.953000 1.950000 1.936000 1.936000 1.936000 1.936000 1.936000 1.936000 1.936000 1.955000 1.967000 1.967000 1.967000 1.967000 0.000000 0.000000 0.000000 0.000000 0.000000 0.000000 0.000000 0.000000 
0.000000 0.000000 0.000000 0.000000 0.000000 2.100000 2.100000 2.100000 2.082000 2.042000 2.033000 2.009000 2.000000 2.000000 2.000000 2.000000 2.000000 1.982000 1.967000 1.962000 1.937000 1.936000 1.930000 1.925000 1.925000 1.925000 1.934000 1.962000 1.974000 1.967000 1.967000 1.967000 0.000000 0.000000 0.000000 0.000000 0.000000 0.000000 0.000000 0.000000 
0.000000 0.000000 0.000000 0.000000 0.000000 2.100000 2.100000 2.097000 2.086000 2.062000 2.035000 2.009000 2.000000 2.000000 2.000000 2.000000 2.000000 1.982000 1.967000 1.963000 1.941000 1.937000 1.918000 1.905000 1.905000 1.905000 1.930000 1.975000 1.988000 1.971000 1.967000 1.967000 0.000000 0.000000 0.000000 0.000000 0.000000 0.000000 0.000000 0.000000 
0.000000 0.000000 0.000000 0.000000 0.000000 2.100000 2.100000 2.083000 2.067000 2.062000 2.035000 2.009000 2.000000 2.000000 2.000000 2.000000 2.000000 1.982000 1.967000 1.967000 1.965000 1.943000 1.918000 1.905000 1.905000 1.905000 1.930000 1.975000 1.999000 1.992000 1.967000 1.967000 0.000000 0.000000 0.000000 0.000000 0.000000 0.000000 0.000000 0.000000 
0.000000 0.000000 0.000000 0.000000 0.000000 0.000000 2.863000 2.083000 2.066000 2.062000 2.035000 2.026000 2.011000 2.000000 2.000000 2.000000 2.000000 1.982000 1.967000 1.967000 1.967000 1.961000 1.941000 1.928000 1.928000 1.928000 1.934000 1.960000 1.985000 1.988000 1.944000 1.944000 0.000000 0.000000 0.000000 0.000000 0.000000 0.000000 0.000000 0.000000 
0.000000 0.000000 0.000000 0.000000 0.000000 0.000000 2.547000 2.073000 2.047000 2.045000 2.033000 2.032000 2.024000 2.012000 2.000000 2.000000 2.000000 1.992000 1.985000 1.985000 1.985000 1.971000 1.949000 1.936000 1.936000 1.936000 1.950000 1.962000 1.981000 1.986000 1.936000 1.936000 0.000000 0.000000 0.000000 0.000000 0.000000 0.000000 0.000000 0.000000 
0.000000 0.000000 0.000000 0.000000 0.000000 2.100000 2.100000 2.065000 2.032000 2.032000 2.032000 2.032000 2.032000 2.021000 2.000000 2.000000 2.000000 2.000000 2.000000 1.998000 1.988000 1.963000 1.944000 1.936000 1.936000 1.936000 1.961000 1.967000 1.976000 1.979000 1.947000 1.947000 0.000000 0.000000 0.000000 0.000000 0.000000 0.000000 0.000000 0.000000 
0.000000 0.000000 0.000000 0.000000 0.000000 2.100000 2.100000 2.065000 2.032000 2.032000 2.032000 2.032000 2.032000 2.021000 2.000000 2.000000 2.000000 2.000000 2.000000 1.994000 1.968000 1.943000 1.933000 1.931000 1.932000 1.936000 1.957000 1.965000 1.967000 1.967000 1.967000 1.967000 0.000000 0.000000 0.000000 0.000000 0.000000 0.000000 0.000000 0.000000 
0.000000 0.000000 0.000000 0.000000 0.000000 2.100000 2.100000 2.065000 2.032000 2.032000 2.032000 2.032000 2.032000 2.021000 2.000000 2.000000 2.000000 2.000000 2.000000 1.994000 1.968000 1.943000 1.918000 1.906000 1.912000 1.936000 1.937000 1.955000 1.967000 1.967000 1.967000 1.967000 0.000000 0.000000 0.000000 0.000000 0.000000 0.000000 0.000000 0.000000 
0.000000 0.000000 0.000000 0.000000 0.000000 2.100000 2.100000 2.065000 2.032000 2.032000 2.032000 2.032000 2.032000 2.021000 2.000000 2.000000 2.000000 2.000000 2.000000 1.994000 1.968000 1.943000 1.918000 1.905000 1.911000 1.936000 1.936000 1.970000 1.982000 1.967000 1.967000 1.967000 0.000000 0.000000 0.000000 0.000000 0.000000 0.000000 0.000000 0.000000 
0.000000 0.000000 0.000000 0.000000 0.000000 2.100000 2.100000 2.075000 2.046000 2.032000 2.032000 2.032000 2.032000 2.021000 2.000000 2.000000 2.000000 2.000000 2.000000 1.994000 1.968000 1.943000 1.918000 1.905000 1.911000 1.936000 1.936000 1.975000 1.986000 1.963000 1.949000 1.949000 0.000000 0.000000 0.000000 0.000000 0.000000 0.000000 0.000000 0.000000 
0.000000 0.000000 0.000000 0.000000 0.000000 0.000000 2.476000 2.083000 2.055000 2.032000 2.032000 2.032000 2.025000 2.013000 2.000000 2.000000 2.000000 2.000000 2.000000 1.994000 1.968000 1.943000 1.918000 1.905000 1.909000 1.924000 1.934000 1.967000 1.979000 1.960000 1.936000 1.936000 0.000000 0.000000 0.000000 0.000000 0.000000 0.000000 0.000000 0.000000 
0.000000 0.000000 0.000000 0.000000 0.000000 0.000000 0.000000 2.079000 2.055000 2.032000 2.032000 2.032000 2.015000 2.000000 2.000000 2.000000 2.000000 2.000000 2.000000 1.994000 1.968000 1.943000 1.918000 1.905000 1.905000 1.905000 1.925000 1.952000 1.967000 1.960000 1.936000 1.936000 0.000000 0.000000 0.000000 0.000000 0.000000 0.000000 0.000000 0.000000 
0.000000 0.000000 0.000000 0.000000 0.000000 0.000000 0.000000 2.066000 2.055000 2.032000 2.032000 2.032000 2.015000 2.000000 2.000000 2.000000 2.000000 2.000000 2.000000 1.994000 1.968000 1.943000 1.918000 1.905000 1.905000 1.905000 1.905000 1.943000 1.967000 1.960000 1.936000 1.936000 0.000000 0.000000 0.000000 0.000000 0.000000 0.000000 0.000000 0.000000 
0.000000 0.000000 0.000000 0.000000 0.000000 0.000000 0.000000 2.052000 2.037000 2.032000 2.032000 2.032000 2.029000 2.017000 2.000000 2.000000 2.000000 2.000000 1.990000 1.972000 1.967000 1.943000 1.918000 1.905000 1.905000 1.905000 1.905000 1.943000 1.967000 1.966000 1.961000 1.961000 0.000000 0.000000 0.000000 0.000000 0.000000 0.000000 0.000000 0.000000 
0.000000 0.000000 0.000000 0.000000 0.000000 0.000000 2.466000 2.049000 2.032000 2.032000 2.032000 2.032000 2.032000 2.021000 2.000000 2.000000 2.000000 2.000000 1.988000 1.964000 1.949000 1.939000 1.918000 1.905000 1.905000 1.905000 1.920000 1.950000 1.967000 1.967000 1.967000 1.967000 0.000000 0.000000 0.000000 0.000000 0.000000 0.000000 0.000000 0.000000 
0.000000 0.000000 0.000000 0.000000 0.000000 2.121000 2.082000 2.056000 2.042000 2.032000 2.032000 2.032000 2.032000 2.021000 2.000000 2.000000 2.000000 2.000000 1.988000 1.962000 1.937000 1.926000 1.913000 1.905000 1.905000 1.905000 1.920000 1.950000 1.967000 1.967000 1.967000 1.957000 2.822000 0.000000 0.000000 0.000000 0.000000 0.000000 0.000000 0.000000 
0.000000 0.000000 0.000000 0.000000 0.000000 2.093000 2.074000 2.066000 2.055000 2.032000 2.032000 2.032000 2.028000 2.017000 2.000000 2.000000 2.000000 2.000000 1.988000 1.963000 1.943000 1.913000 1.905000 1.905000 1.905000 1.905000 1.905000 1.943000 1.967000 1.966000 1.960000 1.940000 1.936000 1.936000 0.000000 0.000000 0.000000 0.000000 0.000000 0.000000 
0.000000 0.000000 0.000000 0.000000 0.000000 2.066000 2.066000 2.065000 2.055000 2.032000 2.032000 2.032000 2.015000 2.000000 2.000000 2.000000 2.000000 2.000000 1.988000 1.967000 1.967000 1.919000 1.905000 1.905000 1.905000 1.905000 1.905000 1.943000 1.967000 1.960000 1.936000 1.936000 1.936000 1.936000 0.000000 0.000000 0.000000 0.000000 0.000000 0.000000 
0.000000 0.000000 0.000000 0.000000 0.000000 2.066000 2.046000 2.038000 2.036000 2.032000 2.032000 2.032000 2.015000 2.000000 2.000000 2.000000 2.000000 2.000000 1.988000 1.967000 1.967000 1.939000 1.916000 1.905000 1.905000 1.905000 1.905000 1.943000 1.967000 1.960000 1.936000 1.936000 1.936000 1.936000 0.000000 0.000000 0.000000 0.000000 0.000000 0.000000 
0.000000 0.000000 0.000000 0.000000 0.000000 2.066000 2.042000 2.032000 2.032000 2.032000 2.032000 2.032000 2.026000 2.013000 2.000000 2.000000 2.000000 2.000000 1.988000 1.967000 1.967000 1.943000 1.918000 1.905000 1.905000 1.905000 1.905000 1.943000 1.967000 1.960000 1.936000 1.936000 1.936000 1.936000 0.000000 0.000000 0.000000 0.000000 0.000000 0.000000 
0.000000 0.000000 0.000000 0.000000 0.000000 2.066000 2.052000 2.039000 2.032000 2.032000 2.032000 2.032000 2.032000 2.021000 2.000000 2.000000 2.000000 2.000000 1.988000 1.967000 1.967000 1.943000 1.918000 1.905000 1.905000 1.905000 1.905000 1.943000 1.967000 1.963000 1.949000 1.938000 1.936000 1.936000 0.000000 0.000000 0.000000 0.000000 0.000000 0.000000 
0.000000 0.000000 0.000000 0.000000 0.000000 2.066000 2.066000 2.049000 2.032000 2.032000 2.032000 2.032000 2.032000 2.024000 2.008000 2.008000 2.002000 2.000000 1.988000 1.967000 1.967000 1.943000 1.918000 1.905000 1.905000 1.905000 1.905000 1.938000 1.963000 1.967000 1.967000 1.948000 1.943000 1.943000 0.000000 0.000000 0.000000 0.000000 0.000000 0.000000 
0.000000 0.000000 0.000000 0.000000 0.000000 2.066000 2.066000 2.049000 2.032000 2.032000 2.032000 2.032000 2.032000 2.032000 2.031000 2.031000 2.006000 1.999000 1.987000 1.967000 1.966000 1.943000 1.918000 1.905000 1.905000 1.905000 1.905000 1.924000 1.949000 1.967000 1.967000 1.969000 1.971000 1.971000 0.000000 0.000000 0.000000 0.000000 0.000000 0.000000 
0.000000 0.000000 0.000000 0.000000 0.000000 2.066000 2.066000 2.049000 2.032000 2.032000 2.032000 2.032000 2.032000 2.023000 2.005000 2.005000 1.980000 1.972000 1.970000 1.963000 1.941000 1.937000 1.918000 1.905000 1.905000 1.905000 1.905000 1.924000 1.949000 1.967000 1.968000 2.012000 2.040000 2.051000 0.000000 0.000000 0.000000 0.000000 0.000000 0.000000 
0.000000 0.000000 0.000000 0.000000 0.000000 2.088000 2.088000 2.071000 2.047000 2.032000 2.032000 2.032000 2.032000 2.021000 2.000000 2.000000 1.975000 1.967000 1.967000 1.962000 1.937000 1.936000 1.918000 1.905000 1.905000 1.905000 1.905000 1.924000 1.940000 1.947000 1.948000 2.017000 2.067000 2.088000 0.000000 0.000000 0.000000 0.000000 0.000000 0.000000 
0.000000 0.000000 0.000000 0.000000 0.000000 2.100000 2.100000 2.083000 2.060000 2.046000 2.033000 2.032000 2.024000 2.011000 1.998000 1.986000 1.971000 1.967000 1.967000 1.959000 1.923000 1.922000 1.912000 1.905000 1.905000 1.905000 1.905000 1.924000 1.936000 1.936000 1.963000 0.000000 0.000000 0.000000 0.000000 0.000000 0.000000 0.000000 0.000000 0.000000 
0.000000 0.000000 0.000000 0.000000 0.000000 2.934000 2.344000 2.083000 2.063000 2.054000 2.034000 2.032000 2.015000 1.997000 1.988000 1.968000 1.967000 1.967000 1.964000 1.949000 1.899000 1.897000 1.902000 1.905000 1.907000 1.913000 1.913000 1.927000 1.936000 1.936000 1.994000 0.000000 0.000000 0.000000 0.000000 0.000000 0.000000 0.000000 0.000000 0.000000 
0.000000 0.000000 0.000000 0.000000 0.000000 0.000000 0.000000 2.303000 2.207000 2.032000 2.032000 2.032000 2.015000 1.989000 1.967000 1.967000 1.967000 1.967000 1.956000 1.925000 1.875000 1.873000 1.892000 1.905000 1.911000 1.938000 1.938000 2.076000 2.166000 2.165000 2.212000 0.000000 0.000000 0.000000 0.000000 0.000000 0.000000 0.000000 0.000000 0.000000 
0.000000 0.000000 0.000000 0.000000 0.000000 0.000000 0.000000 0.000000 0.000000 2.032000 2.032000 2.032000 2.015000 1.989000 1.967000 1.967000 1.967000 1.967000 1.956000 1.921000 1.851000 1.849000 1.882000 1.905000 1.916000 1.963000 1.963000 0.000000 0.000000 0.000000 0.000000 0.000000 0.000000 0.000000 0.000000 0.000000 0.000000 0.000000 0.000000 0.000000 
0.000000 0.000000 0.000000 0.000000 0.000000 0.000000 0.000000 0.000000 0.000000 0.000000 0.000000 0.000000 0.000000 0.000000 0.000000 0.000000 0.000000 0.000000 0.000000 0.000000 0.000000 0.000000 0.000000 0.000000 0.000000 0.000000 0.000000 0.000000 0.000000 0.000000 0.000000 0.000000 0.000000 0.000000 0.000000 0.000000 0.000000 0.000000 0.000000 0.000000 
0.000000 0.000000 0.000000 0.000000 0.000000 0.000000 0.000000 0.000000 0.000000 0.000000 0.000000 0.000000 0.000000 0.000000 0.000000 0.000000 0.000000 0.000000 0.000000 0.000000 0.000000 0.000000 0.000000 0.000000 0.000000 0.000000 0.000000 0.000000 0.000000 0.000000 0.000000 0.000000 0.000000 0.000000 0.000000 0.000000 0.000000 0.000000 0.000000 0.000000 
