0.000000,0.000000,0.000000,0.000000,0.000000,0.000000,0.000000,0.000000,0.000000,0.000000,0.000000,0.000000,0.000000,0.000000,0.000000,0.000000,0.000000,0.000000,0.000000,0.000000,0.000000,0.000000,0.000000,0.000000,0.000000,0.000000,0.000000,0.000000,0.000000,0.000000,0.000000,0.000000,0.000000,0.000000,0.000000,0.000000,0.000000,0.000000,0.000000,0.000000,
1.279000,1.279000,1.278000,1.277000,1.277000,1.276000,1.276000,1.275000,1.275000,1.275000,1.274000,1.274000,1.273000,1.272000,1.273000,1.272000,1.271000,1.270000,1.269000,1.269000,1.269000,1.269000,1.268000,1.267000,1.267000,1.266000,1.265000,1.264000,1.263000,1.264000,1.265000,1.264000,1.264000,1.263000,1.261000,1.257000,1.255000,1.254000,1.254000,1.257000,
1.281000,1.280000,1.279000,1.278000,1.278000,1.277000,1.276000,1.276000,1.275000,1.275000,1.275000,1.275000,1.274000,1.273000,1.273000,1.273000,1.272000,1.271000,1.271000,1.269000,1.269000,1.269000,1.268000,1.267000,1.267000,1.268000,1.267000,1.266000,1.265000,1.265000,1.265000,1.264000,1.264000,1.265000,1.264000,1.262000,1.257000,1.255000,1.255000,1.273000,
1.282000,1.280000,1.280000,1.279000,1.279000,1.279000,1.278000,1.277000,1.276000,1.276000,1.276000,1.275000,1.274000,1.274000,1.274000,1.273000,1.273000,1.272000,1.272000,1.271000,1.270000,1.270000,1.269000,1.268000,1.267000,1.268000,1.268000,1.267000,1.267000,1.267000,1.267000,1.266000,1.265000,1.265000,1.265000,1.265000,1.263000,1.268000,1.274000,1.272000,
1.282000,1.282000,1.280000,1.280000,1.279000,1.279000,1.279000,1.279000,1.278000,1.278000,1.278000,1.276000,1.276000,1.275000,1.274000,1.273000,1.273000,1.273000,1.273000,1.272000,1.271000,1.270000,1.269000,1.269000,1.269000,1.268000,1.268000,1.268000,1.268000,1.267000,1.268000,1.267000,1.266000,1.265000,1.265000,1.266000,1.269000,1.272000,1.269000,1.268000,
1.283000,1.283000,1.282000,1.281000,1.280000,1.280000,1.280000,1.280000,1.279000,1.278000,1.278000,1.278000,1.277000,1.276000,1.276000,1.275000,1.274000,1.273000,1.273000,1.273000,1.272000,1.271000,1.270000,1.269000,1.270000,1.269000,1.269000,1.268000,1.268000,1.268000,1.268000,1.268000,1.268000,1.272000,1.274000,1.273000,1.272000,1.270000,1.268000,1.268000,
1.284000,1.284000,1.282000,1.282000,1.280000,1.280000,1.280000,1.279000,1.279000,1.279000,1.279000,1.278000,1.278000,1.279000,1.277000,1.277000,1.276000,1.274000,1.274000,1.273000,1.273000,1.273000,1.271000,1.270000,1.271000,1.270000,1.270000,1.270000,1.269000,1.269000,1.268000,1.268000,1.275000,1.273000,1.273000,1.271000,1.271000,1.269000,1.268000,1.268000,
1.284000,1.284000,1.284000,1.283000,1.282000,1.281000,1.281000,1.280000,1.279000,1.280000,1.279000,1.279000,1.279000,1.279000,1.279000,1.277000,1.277000,1.276000,1.275000,1.274000,1.273000,1.273000,1.273000,1.273000,1.273000,1.273000,1.272000,1.272000,1.270000,1.280000,1.278000,1.278000,1.274000,1.272000,1.271000,1.272000,1.271000,1.271000,1.944000,1.940000,
1.286000,1.285000,1.284000,1.284000,1.284000,1.283000,1.282000,1.281000,1.281000,1.280000,1.281000,1.280000,1.279000,1.279000,1.279000,1.278000,1.277000,1.277000,1.276000,1.276000,1.275000,1.274000,1.273000,1.273000,1.274000,1.273000,1.273000,1.282000,1.278000,1.276000,1.275000,1.275000,1.273000,1.271000,1.271000,1.817000,1.958000,1.953000,1.949000,1.944000,
1.287000,1.286000,1.285000,1.285000,1.284000,1.283000,1.283000,1.282000,1.282000,1.281000,1.280000,1.280000,1.280000,1.280000,1.278000,1.278000,1.278000,1.278000,1.278000,1.277000,1.276000,1.276000,1.275000,1.276000,1.277000,1.284000,1.281000,1.279000,1.275000,1.275000,1.275000,1.275000,1.331000,1.961000,1.953000,1.953000,1.953000,1.953000,1.950000,1.945000,
1.288000,1.287000,1.287000,1.285000,1.284000,1.284000,1.283000,1.283000,1.283000,1.283000,1.281000,1.281000,1.281000,1.282000,1.279000,1.279000,1.279000,1.279000,1.279000,1.278000,1.277000,1.279000,1.284000,1.283000,1.281000,1.280000,1.279000,1.277000,1.275000,1.275000,1.338000,1.428000,1.967000,1.964000,1.958000,1.954000,1.954000,1.953000,1.953000,1.953000,
1.289000,1.288000,1.287000,1.286000,1.286000,1.285000,1.285000,1.284000,1.283000,1.283000,1.283000,1.282000,1.282000,1.282000,1.281000,1.280000,1.281000,1.280000,1.279000,1.280000,1.281000,1.287000,1.282000,1.280000,1.280000,1.279000,1.279000,1.278000,1.277000,1.643000,1.967000,1.967000,1.967000,1.961000,1.958000,1.958000,1.958000,1.958000,1.953000,1.954000,
1.291000,1.290000,1.288000,1.287000,1.287000,1.286000,1.286000,1.285000,1.285000,1.283000,1.283000,1.282000,1.282000,1.282000,1.282000,1.282000,1.282000,1.283000,1.285000,1.286000,1.285000,1.282000,1.281000,1.281000,1.279000,1.279000,1.280000,1.617000,1.972000,1.972000,1.968000,1.967000,1.967000,1.964000,1.959000,1.958000,1.958000,1.958000,1.958000,1.958000,
1.292000,1.291000,1.290000,1.288000,1.288000,1.287000,1.287000,1.286000,1.286000,1.285000,1.285000,1.284000,1.284000,1.284000,1.283000,1.284000,1.286000,1.287000,1.286000,1.284000,1.284000,1.282000,1.281000,1.281000,1.280000,1.602000,1.976000,1.976000,1.972000,1.972000,1.971000,1.971000,1.970000,1.967000,1.965000,1.961000,1.960000,1.958000,1.958000,1.958000,
1.292000,1.292000,1.291000,1.290000,1.289000,1.288000,1.287000,1.287000,1.287000,1.286000,1.285000,1.286000,1.289000,1.291000,1.293000,1.289000,1.288000,1.287000,1.285000,1.284000,1.284000,1.284000,1.654000,1.985000,1.976000,1.976000,1.976000,1.976000,1.972000,1.972000,1.972000,1.972000,1.972000,1.972000,1.967000,1.966000,1.965000,1.963000,1.958000,1.958000,
1.293000,1.292000,1.292000,1.292000,1.291000,1.289000,1.289000,1.288000,1.288000,1.287000,1.286000,1.299000,1.294000,1.291000,1.289000,1.288000,1.288000,1.287000,1.287000,1.712000,1.996000,1.987000,1.990000,1.986000,1.981000,1.979000,1.979000,1.976000,1.976000,1.976000,1.975000,1.973000,1.972000,1.972000,1.968000,1.967000,1.970000,1.970000,1.965000,1.960000,
1.294000,1.293000,1.292000,1.293000,1.292000,1.291000,1.291000,1.290000,1.296000,1.294000,1.296000,1.295000,1.292000,1.290000,1.289000,1.289000,1.454000,1.767000,1.998000,1.994000,1.991000,1.991000,1.991000,1.986000,1.981000,1.981000,1.977000,1.976000,1.976000,1.976000,1.976000,1.976000,1.975000,1.972000,1.972000,1.972000,1.972000,1.972000,1.967000,0.000000,
1.295000,1.295000,1.294000,1.293000,1.293000,1.292000,1.295000,1.297000,1.297000,1.294000,1.293000,1.293000,1.291000,1.291000,1.291000,1.868000,1.996000,1.996000,1.996000,1.995000,1.991000,1.991000,1.991000,1.991000,1.986000,1.981000,1.980000,1.980000,1.980000,1.980000,1.980000,1.980000,1.978000,1.976000,1.976000,1.977000,1.975000,0.000000,0.000000,0.000000,
1.295000,1.296000,1.295000,1.295000,1.295000,1.297000,1.297000,1.295000,1.295000,1.293000,1.293000,1.293000,1.317000,1.885000,2.005000,1.999000,1.996000,1.996000,1.996000,1.996000,1.996000,1.992000,1.991000,1.991000,1.990000,1.986000,1.986000,1.990000,1.986000,1.986000,1.985000,1.981000,1.981000,1.981000,1.985000,0.000000,0.000000,0.000000,0.000000,0.000000,
1.296000,1.296000,1.297000,1.298000,1.299000,1.298000,1.296000,1.296000,1.295000,1.293000,1.293000,1.941000,2.010000,2.009000,2.005000,2.000000,1.996000,2.000000,2.000000,1.998000,1.996000,1.996000,1.996000,1.992000,1.991000,1.991000,1.991000,1.991000,1.991000,1.986000,1.981000,1.981000,1.986000,0.000000,0.000000,0.000000,0.000000,0.000000,0.000000,0.000000,
1.302000,1.302000,1.300000,1.300000,1.299000,1.297000,1.296000,1.296000,1.297000,2.000000,2.010000,2.010000,2.010000,2.010000,2.009000,2.005000,2.000000,2.000000,2.000000,2.000000,1.997000,1.996000,1.996000,1.996000,1.991000,1.996000,1.995000,1.991000,1.988000,1.981000,1.981000,0.000000,0.000000,0.000000,0.000000,0.000000,0.000000,0.000000,0.000000,0.000000,
1.302000,1.302000,1.300000,1.299000,1.299000,1.689000,2.022000,2.025000,2.020000,2.015000,2.015000,2.010000,2.010000,2.011000,2.010000,2.010000,2.005000,2.003000,2.000000,2.002000,1.998000,1.996000,1.996000,1.996000,1.996000,1.991000,2.007000,1.996000,2.099000,0.000000,0.000000,0.000000,0.000000,0.000000,0.000000,0.000000,0.000000,0.000000,0.000000,0.000000,
1.302000,1.302000,1.396000,1.622000,2.025000,2.025000,2.020000,2.020000,2.016000,2.016000,2.015000,2.011000,2.010000,2.010000,2.010000,2.010000,2.010000,2.010000,2.010000,2.008000,2.001000,1.997000,1.997000,2.004000,2.005000,0.000000,0.000000,0.000000,0.000000,0.000000,0.000000,0.000000,0.000000,0.000000,0.000000,0.000000,0.000000,0.000000,0.000000,0.000000,
1.456000,2.036000,2.031000,2.030000,2.030000,2.030000,2.023000,2.020000,2.020000,2.020000,2.015000,2.015000,2.015000,2.011000,2.010000,2.010000,2.010000,2.010000,2.010000,2.010000,2.010000,2.285000,0.000000,0.000000,0.000000,0.000000,0.000000,0.000000,0.000000,0.000000,0.000000,0.000000,0.000000,0.000000,0.000000,0.000000,0.000000,0.000000,0.000000,0.000000,
2.040000,2.036000,2.034000,2.030000,2.030000,2.030000,2.028000,2.025000,2.025000,2.021000,2.020000,2.017000,2.015000,2.015000,2.015000,2.014000,2.010000,2.012000,2.177000,2.866000,0.000000,0.000000,0.000000,0.000000,0.000000,0.000000,0.000000,0.000000,0.000000,0.000000,0.000000,0.000000,0.000000,0.000000,0.000000,0.000000,0.000000,0.000000,0.000000,0.000000,
2.036000,2.036000,2.032000,2.032000,2.033000,2.030000,2.027000,2.026000,2.025000,2.025000,2.022000,2.020000,2.020000,2.015000,2.015000,2.014000,2.010000,2.706000,0.000000,0.000000,0.000000,0.000000,0.000000,0.000000,0.000000,0.000000,0.000000,0.000000,0.000000,0.000000,0.000000,0.000000,0.000000,0.000000,0.000000,0.000000,0.000000,0.000000,0.000000,0.000000,
2.036000,2.036000,2.036000,2.036000,2.033000,2.030000,2.030000,2.030000,2.028000,2.025000,2.025000,2.022000,2.022000,2.023000,2.527000,0.000000,0.000000,0.000000,0.000000,0.000000,0.000000,0.000000,0.000000,0.000000,0.000000,0.000000,0.000000,0.000000,0.000000,0.000000,0.000000,0.000000,0.000000,0.000000,0.000000,0.000000,0.000000,0.000000,0.000000,0.000000,
2.040000,2.037000,2.039000,2.039000,2.036000,2.033000,2.035000,2.032000,2.030000,2.030000,2.030000,2.030000,2.449000,2.882000,2.931000,2.983000,0.000000,0.000000,0.000000,0.000000,0.000000,0.000000,0.000000,0.000000,0.000000,0.000000,0.000000,0.000000,0.000000,0.000000,0.000000,0.000000,0.000000,0.000000,0.000000,0.000000,0.000000,0.000000,0.000000,0.000000,
2.041000,2.042000,2.043000,2.039000,2.036000,2.036000,2.036000,2.034000,2.321000,2.034000,2.443000,2.772000,2.838000,2.889000,2.926000,0.000000,0.000000,0.000000,0.000000,0.000000,0.000000,0.000000,0.000000,0.000000,0.000000,0.000000,0.000000,0.000000,0.000000,0.000000,0.000000,0.000000,0.000000,0.000000,0.000000,0.000000,0.000000,0.000000,0.000000,0.000000,
2.044000,2.045000,2.046000,2.040000,2.036000,2.042000,2.039000,2.309000,2.677000,2.709000,2.724000,0.000000,0.000000,0.000000,0.000000,0.000000,0.000000,0.000000,0.000000,0.000000,0.000000,0.000000,0.000000,0.000000,0.000000,0.000000,0.000000,0.000000,0.000000,0.000000,0.000000,0.000000,0.000000,0.000000,0.000000,0.000000,0.000000,0.000000,0.000000,0.000000,
2.050000,2.051000,2.048000,2.041000,2.041000,2.048000,2.480000,2.641000,0.000000,0.000000,0.000000,0.000000,0.000000,0.000000,0.000000,0.000000,0.000000,0.000000,0.000000,0.000000,0.000000,0.000000,0.000000,0.000000,0.000000,0.000000,0.000000,0.000000,0.000000,0.000000,0.000000,0.000000,0.000000,0.000000,0.000000,0.000000,0.000000,0.000000,0.000000,0.000000,
2.050000,2.048000,2.051000,0.000000,0.000000,0.000000,0.000000,0.000000,0.000000,0.000000,0.000000,0.000000,0.000000,0.000000,0.000000,0.000000,0.000000,0.000000,0.000000,0.000000,0.000000,0.000000,0.000000,0.000000,0.000000,0.000000,0.000000,0.000000,0.000000,0.000000,0.000000,0.000000,0.000000,0.000000,0.000000,0.000000,0.000000,0.000000,0.000000,0.000000,
2.519000,0.000000,0.000000,0.000000,0.000000,0.000000,0.000000,0.000000,0.000000,0.000000,0.000000,0.000000,0.000000,0.000000,0.000000,0.000000,0.000000,0.000000,0.000000,0.000000,0.000000,0.000000,0.000000,0.000000,0.000000,0.000000,0.000000,0.000000,0.000000,0.000000,0.000000,0.000000,0.000000,0.000000,0.000000,0.000000,0.000000,0.000000,0.000000,0.000000,
0.000000,0.000000,0.000000,0.000000,0.000000,0.000000,0.000000,0.000000,0.000000,0.000000,0.000000,0.000000,0.000000,0.000000,0.000000,0.000000,0.000000,0.000000,0.000000,0.000000,0.000000,0.000000,0.000000,0.000000,0.000000,0.000000,0.000000,0.000000,0.000000,0.000000,0.000000,0.000000,0.000000,0.000000,0.000000,0.000000,0.000000,0.000000,0.000000,0.000000,
0.000000,0.000000,0.000000,0.000000,0.000000,0.000000,0.000000,0.000000,0.000000,0.000000,0.000000,0.000000,0.000000,0.000000,0.000000,0.000000,0.000000,0.000000,0.000000,0.000000,0.000000,0.000000,0.000000,0.000000,0.000000,0.000000,0.000000,0.000000,0.000000,0.000000,0.000000,0.000000,0.000000,0.000000,0.000000,0.000000,0.000000,0.000000,0.000000,0.000000,
0.000000,0.000000,0.000000,0.000000,0.000000,0.000000,0.000000,0.000000,0.000000,0.000000,0.000000,0.000000,0.000000,0.000000,0.000000,0.000000,0.000000,0.000000,0.000000,0.000000,0.000000,0.000000,0.000000,0.000000,0.000000,0.000000,0.000000,0.000000,0.000000,0.000000,0.000000,0.000000,0.000000,0.000000,0.000000,0.000000,0.000000,0.000000,0.000000,0.000000,
0.000000,0.000000,0.000000,0.000000,0.000000,0.000000,0.000000,0.000000,0.000000,0.000000,0.000000,0.000000,0.000000,0.000000,0.000000,0.000000,0.000000,0.000000,0.000000,0.000000,0.000000,0.000000,0.000000,0.000000,0.000000,0.000000,0.000000,0.000000,0.000000,0.000000,0.000000,0.000000,0.000000,0.000000,0.000000,0.000000,0.000000,0.000000,0.000000,0.000000,
0.000000,0.000000,0.000000,0.000000,0.000000,0.000000,0.000000,0.000000,0.000000,0.000000,0.000000,0.000000,0.000000,0.000000,0.000000,0.000000,0.000000,0.000000,0.000000,0.000000,0.000000,0.000000,0.000000,0.000000,0.000000,0.000000,0.000000,0.000000,0.000000,0.000000,0.000000,0.000000,0.000000,0.000000,0.000000,0.000000,0.000000,0.000000,0.000000,0.000000,
0.000000,0.000000,0.000000,0.000000,0.000000,0.000000,0.000000,0.000000,0.000000,0.000000,0.000000,0.000000,0.000000,0.000000,0.000000,0.000000,0.000000,0.000000,0.000000,0.000000,0.000000,0.000000,0.000000,0.000000,0.000000,0.000000,0.000000,0.000000,0.000000,0.000000,0.000000,0.000000,0.000000,0.000000,0.000000,0.000000,0.000000,0.000000,0.000000,0.000000,
0.000000,0.000000,0.000000,0.000000,0.000000,0.000000,0.000000,0.000000,0.000000,0.000000,0.000000,0.000000,0.000000,0.000000,0.000000,0.000000,0.000000,0.000000,0.000000,0.000000,0.000000,0.000000,0.000000,0.000000,0.000000,0.000000,0.000000,0.000000,0.000000,0.000000,0.000000,0.000000,0.000000,0.000000,0.000000,0.000000,0.000000,0.000000,0.000000,0.000000,
