0.000000,0.000000,0.000000,0.000000,0.000000,0.000000,0.000000,0.000000,0.000000,0.000000,0.000000,0.000000,0.000000,0.000000,0.000000,0.000000,0.000000,0.000000,0.000000,0.000000,0.000000,0.000000,0.000000,0.000000,0.000000,0.000000,0.000000,0.000000,0.000000,0.000000,0.000000,0.000000,0.000000,0.000000,0.000000,0.000000,0.000000,0.000000,0.000000,0.000000,
0.000000,0.000000,0.000000,0.000000,0.000000,0.000000,0.000000,0.000000,0.000000,0.000000,0.000000,2.184000,2.049000,2.049000,2.053000,2.053000,2.061000,2.053000,2.770000,2.769000,2.769000,2.780000,2.771000,2.767000,2.037000,2.764000,2.767000,2.775000,2.783000,0.000000,0.000000,0.000000,0.000000,0.000000,0.000000,0.000000,0.000000,0.000000,0.000000,0.000000,
0.000000,0.000000,0.000000,0.000000,0.000000,0.000000,0.000000,0.000000,0.000000,1.959000,2.055000,2.050000,2.052000,2.050000,2.056000,2.053000,2.053000,2.048000,2.046000,2.045000,2.045000,2.041000,2.041000,2.041000,2.041000,2.037000,2.037000,2.037000,2.034000,2.030000,2.032000,2.029000,2.026000,0.000000,0.000000,0.000000,0.000000,0.000000,0.000000,0.000000,
0.000000,0.000000,0.000000,0.000000,0.000000,0.000000,0.000000,0.000000,2.463000,0.000000,2.048000,2.049000,2.049000,2.046000,2.049000,2.049000,2.047000,2.042000,2.041000,2.045000,2.042000,2.041000,2.039000,2.037000,2.037000,2.038000,2.035000,2.033000,2.035000,2.029000,2.028000,2.026000,2.026000,2.030000,0.000000,0.000000,0.000000,0.000000,0.000000,0.000000,
0.000000,0.000000,0.000000,0.000000,0.000000,0.000000,0.000000,0.000000,2.448000,0.000000,2.049000,2.049000,2.048000,2.045000,2.045000,2.045000,2.041000,2.041000,2.041000,2.041000,2.041000,2.041000,2.037000,2.037000,2.037000,2.033000,2.033000,2.031000,2.030000,2.028000,2.026000,2.022000,2.025000,1.965000,0.000000,0.000000,0.000000,0.000000,0.000000,0.000000,
0.000000,0.000000,0.000000,0.000000,0.000000,0.000000,0.000000,0.000000,0.000000,0.000000,2.048000,2.045000,2.045000,2.043000,2.043000,2.041000,2.041000,2.041000,2.041000,2.037000,2.037000,2.037000,2.035000,2.033000,2.031000,2.027000,2.026000,2.026000,2.026000,2.023000,2.022000,2.022000,2.025000,0.000000,0.000000,0.000000,0.000000,0.000000,0.000000,0.000000,
0.000000,0.000000,0.000000,0.000000,0.000000,0.000000,0.000000,0.000000,0.000000,0.000000,2.045000,2.042000,2.042000,2.039000,2.041000,2.041000,2.041000,2.037000,2.037000,2.037000,2.037000,2.037000,2.033000,2.030000,2.030000,2.026000,2.026000,2.026000,2.023000,2.022000,2.018000,2.018000,2.025000,2.051000,0.000000,0.000000,0.000000,0.000000,0.000000,0.000000,
0.000000,0.000000,0.000000,0.000000,0.000000,0.000000,0.000000,0.000000,0.000000,2.007000,2.043000,2.040000,2.040000,2.038000,2.040000,2.037000,2.037000,2.037000,2.037000,2.037000,2.035000,2.032000,2.030000,2.030000,2.028000,2.025000,2.025000,2.022000,2.022000,2.022000,2.018000,2.015000,2.020000,2.070000,0.000000,0.000000,0.000000,0.000000,0.000000,0.000000,
0.000000,0.000000,0.000000,0.000000,0.000000,0.000000,0.000000,1.923000,0.000000,2.001000,2.037000,2.037000,2.037000,2.037000,2.037000,2.037000,2.037000,2.033000,2.034000,2.033000,2.033000,2.030000,2.027000,2.027000,2.025000,2.022000,2.022000,2.022000,2.018000,2.016000,2.016000,2.015000,2.015000,2.069000,0.000000,0.000000,0.000000,0.000000,0.000000,0.000000,
0.000000,0.000000,0.000000,0.000000,0.000000,0.000000,0.000000,0.000000,0.000000,2.007000,2.037000,2.034000,2.033000,2.033000,2.037000,2.037000,2.037000,2.032000,2.032000,2.030000,2.030000,2.026000,2.026000,2.026000,2.022000,2.022000,2.022000,2.020000,2.015000,2.013000,2.011000,2.012000,2.023000,2.057000,0.000000,0.000000,0.000000,0.000000,0.000000,0.000000,
0.000000,0.000000,0.000000,0.000000,0.000000,0.000000,0.000000,0.000000,0.000000,2.037000,2.035000,2.033000,2.032000,2.030000,2.037000,2.032000,2.032000,2.030000,2.028000,2.028000,2.026000,2.024000,2.024000,2.026000,2.022000,2.022000,2.018000,2.017000,2.015000,2.011000,2.009000,2.011000,2.027000,1.977000,0.000000,0.000000,0.000000,0.000000,0.000000,0.000000,
0.000000,0.000000,0.000000,0.000000,0.000000,0.000000,0.000000,0.000000,1.470000,2.033000,2.030000,2.033000,2.029000,2.026000,2.030000,2.026000,2.026000,2.026000,2.026000,2.022000,2.022000,2.022000,2.022000,2.022000,2.018000,2.015000,2.011000,2.011000,2.011000,2.007000,2.007000,2.007000,2.033000,2.039000,0.000000,0.000000,0.000000,0.000000,0.000000,0.000000,
0.000000,0.000000,0.000000,0.000000,0.000000,0.000000,0.000000,0.000000,0.000000,2.033000,2.030000,2.030000,2.026000,2.025000,2.026000,2.026000,2.022000,2.023000,2.025000,2.022000,2.022000,2.022000,2.018000,2.015000,2.013000,2.011000,2.011000,2.010000,2.007000,2.007000,2.005000,2.007000,2.038000,2.053000,0.000000,0.000000,0.000000,0.000000,0.000000,0.000000,
0.000000,0.000000,0.000000,0.000000,0.000000,0.000000,0.000000,0.000000,1.517000,2.027000,2.030000,2.027000,2.025000,2.022000,2.026000,2.026000,2.022000,2.022000,2.022000,2.021000,2.019000,2.019000,2.017000,2.015000,2.011000,2.011000,2.008000,2.007000,2.007000,2.005000,2.004000,2.007000,2.015000,0.000000,0.000000,0.000000,0.000000,0.000000,0.000000,0.000000,
0.000000,0.000000,0.000000,0.000000,0.000000,0.000000,0.000000,0.000000,1.522000,2.027000,2.026000,2.023000,2.022000,2.022000,2.022000,2.021000,2.021000,2.022000,2.019000,2.017000,2.014000,2.014000,2.011000,2.011000,2.011000,2.008000,2.007000,2.007000,2.004000,1.999000,1.999000,2.000000,0.000000,0.000000,0.000000,0.000000,0.000000,0.000000,0.000000,0.000000,
0.000000,0.000000,0.000000,0.000000,0.000000,0.000000,0.000000,0.000000,1.514000,2.023000,2.023000,2.020000,2.019000,2.019000,2.022000,2.017000,2.015000,2.018000,2.016000,2.015000,2.011000,2.011000,2.011000,2.011000,2.007000,2.007000,2.005000,2.002000,2.000000,1.997000,1.997000,1.998000,0.000000,0.000000,0.000000,0.000000,0.000000,0.000000,0.000000,0.000000,
0.000000,0.000000,0.000000,0.000000,0.000000,0.000000,1.867000,0.000000,2.005000,2.018000,2.022000,2.018000,2.017000,2.015000,2.018000,2.016000,2.015000,2.015000,2.015000,2.014000,2.011000,2.011000,2.009000,2.007000,2.007000,2.004000,2.000000,1.997000,1.997000,1.997000,1.993000,1.998000,1.279000,0.000000,0.000000,0.000000,0.000000,0.000000,0.000000,0.000000,
0.000000,0.000000,0.000000,0.000000,0.000000,0.000000,1.444000,0.000000,2.022000,2.018000,2.018000,2.017000,2.015000,2.013000,2.011000,2.011000,2.011000,2.011000,2.011000,2.011000,2.007000,2.007000,2.006000,2.006000,2.004000,2.004000,1.997000,1.997000,1.997000,1.993000,1.993000,1.998000,0.000000,0.000000,0.000000,0.000000,0.000000,0.000000,0.000000,0.000000,
0.000000,0.000000,0.000000,0.000000,0.000000,0.000000,0.000000,0.000000,2.018000,2.018000,2.015000,2.015000,2.011000,2.008000,2.011000,2.011000,2.011000,2.008000,2.007000,2.007000,2.007000,2.004000,2.001000,2.001000,1.997000,1.997000,1.997000,1.993000,1.994000,1.993000,1.993000,1.778000,0.000000,0.000000,0.000000,0.000000,0.000000,0.000000,0.000000,0.000000,
0.000000,0.000000,0.000000,0.000000,0.000000,0.000000,0.000000,1.040000,2.019000,2.015000,2.011000,2.010000,2.007000,2.007000,2.007000,2.007000,2.007000,2.007000,2.004000,2.004000,2.000000,1.999000,1.997000,1.999000,1.997000,1.996000,1.993000,1.992000,1.992000,1.988000,1.987000,1.741000,0.000000,1.067000,0.000000,0.000000,0.000000,0.000000,0.000000,0.000000,
0.000000,0.000000,0.000000,0.000000,0.000000,0.000000,0.000000,1.040000,2.016000,2.011000,2.008000,2.007000,2.007000,2.005000,2.007000,2.007000,2.007000,2.007000,2.004000,2.000000,1.997000,1.997000,1.997000,1.997000,1.993000,1.993000,1.993000,1.989000,1.987000,1.986000,1.989000,1.747000,0.000000,1.067000,0.000000,0.000000,0.000000,0.000000,0.000000,0.000000,
0.000000,0.000000,0.000000,0.000000,0.000000,0.000000,0.000000,1.158000,2.011000,2.007000,2.007000,2.004000,2.004000,2.004000,2.007000,2.004000,2.007000,2.006000,2.001000,1.997000,1.997000,1.997000,1.997000,1.993000,1.993000,1.993000,1.989000,1.989000,1.982000,1.982000,1.985000,1.746000,0.000000,1.367000,0.000000,0.000000,0.000000,0.000000,0.000000,0.000000,
0.000000,0.000000,0.000000,0.000000,0.000000,0.000000,0.000000,2.005000,2.005000,2.005000,2.004000,2.002000,2.004000,2.004000,2.004000,2.002000,2.000000,1.998000,1.997000,1.997000,1.997000,1.993000,1.995000,1.993000,1.993000,1.988000,1.984000,1.985000,1.982000,1.982000,1.982000,1.742000,0.000000,0.000000,0.000000,0.000000,0.000000,0.000000,0.000000,0.000000,
0.000000,0.000000,0.000000,0.000000,0.000000,0.000000,0.000000,2.004000,2.004000,2.000000,2.000000,2.000000,1.997000,1.993000,1.997000,1.997000,1.997000,1.993000,1.996000,1.996000,1.993000,1.993000,1.993000,1.989000,1.989000,1.987000,1.982000,1.982000,1.979000,1.979000,1.981000,0.000000,0.000000,0.000000,0.000000,0.000000,0.000000,0.000000,0.000000,0.000000,
0.000000,0.000000,0.000000,0.000000,0.000000,0.000000,1.887000,1.999000,2.002000,1.997000,1.998000,1.997000,1.993000,1.993000,1.997000,1.995000,1.993000,1.993000,1.992000,1.991000,1.988000,1.989000,1.990000,1.985000,1.986000,1.983000,1.982000,1.980000,1.979000,1.979000,1.979000,0.000000,0.000000,0.000000,0.000000,0.000000,0.000000,0.000000,0.000000,0.000000,
0.000000,0.000000,0.000000,0.000000,0.000000,0.000000,1.085000,1.997000,1.995000,1.994000,1.997000,1.993000,1.993000,1.993000,1.994000,1.993000,1.993000,1.990000,1.989000,1.985000,1.983000,1.986000,1.983000,1.982000,1.981000,1.979000,1.979000,1.979000,1.979000,1.976000,1.978000,0.000000,0.000000,0.000000,0.000000,0.000000,0.000000,0.000000,0.000000,0.000000,
0.000000,0.000000,0.000000,0.000000,0.000000,0.000000,0.000000,1.997000,1.994000,1.993000,1.993000,1.993000,1.990000,1.992000,1.992000,1.993000,1.993000,1.989000,1.987000,1.985000,1.982000,1.982000,1.979000,1.981000,1.979000,1.978000,1.976000,1.975000,1.975000,1.972000,1.978000,0.000000,0.000000,0.000000,0.000000,0.000000,0.000000,0.000000,0.000000,0.000000,
0.000000,0.000000,0.000000,0.000000,0.000000,0.000000,1.677000,1.994000,1.993000,1.993000,1.993000,1.989000,1.989000,1.987000,1.989000,1.992000,1.989000,1.987000,1.986000,1.982000,1.980000,1.982000,1.979000,1.979000,1.976000,1.976000,1.976000,1.970000,1.972000,1.969000,1.413000,0.000000,1.974000,0.000000,0.000000,0.000000,0.000000,0.000000,0.000000,0.000000,
0.000000,0.000000,0.000000,0.000000,0.000000,0.000000,1.671000,1.989000,1.991000,1.989000,1.989000,1.986000,1.986000,1.986000,1.986000,1.986000,1.982000,1.982000,1.980000,1.976000,1.976000,1.979000,1.976000,1.978000,1.975000,1.972000,1.972000,1.969000,1.969000,1.969000,1.103000,0.000000,2.615000,0.000000,0.000000,0.000000,0.000000,0.000000,0.000000,0.000000,
0.000000,0.000000,0.000000,0.000000,0.000000,0.000000,1.988000,1.987000,1.987000,1.986000,1.986000,1.982000,1.981000,1.983000,1.986000,1.982000,1.982000,1.980000,1.979000,1.976000,1.976000,1.979000,1.976000,1.976000,1.972000,1.969000,1.969000,1.966000,1.965000,1.965000,1.102000,0.000000,0.000000,0.000000,0.000000,0.000000,0.000000,0.000000,0.000000,0.000000,
0.000000,0.000000,0.000000,0.000000,0.000000,0.000000,1.989000,1.982000,1.984000,1.986000,1.984000,1.982000,1.979000,1.979000,1.982000,1.979000,1.979000,1.979000,1.979000,1.976000,1.976000,1.976000,1.972000,1.972000,1.969000,1.969000,1.965000,1.965000,1.965000,1.965000,1.103000,0.000000,2.579000,0.000000,0.000000,0.000000,0.000000,0.000000,0.000000,0.000000,
0.000000,0.000000,0.000000,0.000000,0.000000,0.000000,1.987000,1.982000,1.982000,1.985000,1.983000,1.979000,1.979000,1.976000,1.979000,1.979000,1.979000,1.978000,1.976000,1.976000,1.975000,1.972000,1.969000,1.969000,1.965000,1.965000,1.965000,1.965000,1.965000,1.966000,0.000000,0.000000,1.433000,0.000000,0.000000,0.000000,0.000000,0.000000,0.000000,0.000000,
0.000000,0.000000,0.000000,0.000000,0.000000,0.000000,1.982000,1.982000,1.979000,1.979000,1.979000,1.976000,1.976000,1.976000,1.976000,1.972000,1.977000,1.977000,1.973000,1.972000,1.970000,1.969000,1.966000,1.965000,1.965000,1.965000,1.963000,1.962000,1.960000,1.964000,0.000000,0.000000,0.000000,0.000000,0.000000,0.000000,0.000000,0.000000,0.000000,0.000000,
0.000000,0.000000,0.000000,0.000000,0.000000,0.000000,1.987000,1.979000,1.976000,1.976000,1.976000,1.976000,1.977000,1.978000,1.976000,1.972000,1.972000,1.972000,1.971000,1.971000,1.965000,1.965000,1.965000,1.962000,1.962000,1.962000,1.961000,1.955000,1.955000,1.957000,0.000000,0.000000,0.000000,0.000000,0.000000,0.000000,0.000000,0.000000,0.000000,0.000000,
0.000000,0.000000,0.000000,0.000000,0.000000,0.000000,0.000000,0.000000,0.000000,0.000000,1.972000,1.976000,1.984000,1.978000,1.981000,1.973000,1.969000,1.967000,1.968000,1.969000,1.967000,1.965000,1.963000,1.962000,1.962000,1.959000,1.959000,1.955000,1.955000,1.957000,1.102000,0.000000,0.000000,0.000000,0.000000,0.000000,0.000000,0.000000,0.000000,0.000000,
0.000000,0.000000,0.000000,0.000000,0.000000,0.000000,0.000000,0.000000,0.000000,0.000000,1.998000,1.515000,0.000000,0.000000,0.000000,0.000000,0.000000,0.000000,0.000000,1.969000,1.969000,1.969000,0.000000,0.000000,1.954000,1.944000,1.973000,1.953000,1.949000,1.949000,1.947000,0.000000,0.000000,0.000000,0.000000,0.000000,0.000000,0.000000,0.000000,0.000000,
0.000000,0.000000,0.000000,0.000000,0.000000,0.000000,0.000000,0.000000,0.000000,0.000000,0.000000,0.000000,0.000000,0.000000,0.000000,0.000000,0.000000,0.000000,0.000000,1.511000,1.980000,2.025000,0.000000,0.000000,0.000000,0.000000,0.000000,0.000000,2.595000,2.891000,0.000000,0.000000,0.000000,0.000000,0.000000,0.000000,0.000000,0.000000,0.000000,0.000000,
0.000000,0.000000,0.000000,0.000000,0.000000,0.000000,0.000000,0.000000,0.000000,0.000000,0.000000,0.000000,0.000000,0.000000,0.000000,0.000000,0.000000,0.000000,0.000000,1.422000,1.979000,2.022000,0.000000,0.000000,0.000000,2.728000,0.000000,0.000000,0.000000,0.000000,0.000000,0.000000,0.000000,0.000000,0.000000,0.000000,0.000000,0.000000,0.000000,0.000000,
0.000000,0.000000,0.000000,0.000000,0.000000,0.000000,0.000000,0.000000,0.000000,0.000000,0.000000,0.000000,0.000000,0.000000,0.000000,0.000000,0.000000,0.000000,0.000000,1.509000,1.976000,2.024000,0.000000,0.000000,0.000000,0.000000,0.000000,0.000000,0.000000,0.000000,0.000000,0.000000,0.000000,0.000000,0.000000,0.000000,0.000000,0.000000,0.000000,0.000000,
0.000000,0.000000,0.000000,0.000000,0.000000,0.000000,0.000000,0.000000,0.000000,0.000000,0.000000,0.000000,0.000000,0.000000,0.000000,0.000000,0.000000,0.000000,0.000000,0.000000,0.000000,0.000000,0.000000,0.000000,0.000000,0.000000,0.000000,0.000000,0.000000,0.000000,0.000000,0.000000,0.000000,0.000000,0.000000,0.000000,0.000000,0.000000,0.000000,0.000000,
