40 40
0.000000 0.000000 0.000000 0.000000 0.000000 0.000000 0.000000 0.000000 0.000000 0.000000 0.000000 0.000000 0.000000 0.000000 0.000000 0.000000 0.000000 0.000000 0.000000 0.000000 0.000000 0.000000 0.000000 0.000000 0.000000 0.000000 0.000000 0.000000 0.000000 0.000000 0.000000 0.000000 0.000000 0.000000 0.000000 0.000000 0.000000 0.000000 0.000000 0.000000 
0.000000 0.000000 0.000000 0.000000 0.000000 0.000000 0.000000 2.058000 2.058000 2.055000 2.053000 2.046000 2.041000 2.311000 2.975000 2.907000 2.906000 2.945000 2.944000 2.942000 2.953000 2.993000 0.000000 2.291000 1.960000 0.000000 1.989000 1.989000 2.910000 0.000000 0.000000 1.170000 0.000000 0.000000 0.000000 0.000000 0.000000 0.000000 0.000000 0.000000 
0.000000 0.000000 0.000000 0.000000 0.000000 0.000000 0.000000 2.058000 2.057000 2.051000 2.041000 2.036000 2.033000 2.029000 2.023000 2.012000 2.012000 2.012000 2.010000 2.008000 2.004000 2.004000 1.983000 1.978000 1.977000 1.978000 1.981000 1.969000 1.968000 1.969000 2.009000 2.037000 2.038000 0.000000 0.000000 0.000000 0.000000 0.000000 0.000000 0.000000 
0.000000 0.000000 0.000000 0.000000 0.000000 0.000000 1.269000 2.063000 2.057000 2.051000 2.040000 2.031000 2.028000 2.025000 2.019000 2.012000 2.012000 2.006000 2.006000 2.000000 2.000000 1.999000 1.988000 1.987000 1.984000 1.981000 1.975000 1.969000 1.963000 1.967000 1.998000 2.033000 2.037000 0.000000 0.000000 0.000000 0.000000 0.000000 0.000000 0.000000 
0.000000 0.000000 0.000000 0.000000 0.000000 0.000000 2.065000 2.063000 2.058000 2.051000 2.046000 2.031000 2.028000 2.025000 2.019000 2.012000 2.012000 2.006000 2.006000 2.000000 2.000000 1.994000 1.987000 1.987000 1.984000 1.979000 1.974000 1.969000 1.963000 1.963000 2.001000 2.022000 2.025000 0.000000 0.000000 0.000000 0.000000 0.000000 0.000000 0.000000 
0.000000 0.000000 0.000000 0.000000 0.000000 0.000000 1.863000 2.058000 2.057000 2.051000 2.046000 2.035000 2.030000 2.028000 2.024000 2.017000 2.012000 2.008000 2.006000 2.000000 2.000000 1.994000 1.987000 1.983000 1.981000 1.973000 1.969000 1.964000 1.963000 1.974000 2.001000 2.021000 2.593000 0.000000 0.000000 0.000000 0.000000 0.000000 0.000000 0.000000 
0.000000 0.000000 0.000000 0.000000 0.000000 0.000000 2.058000 2.059000 2.058000 2.051000 2.051000 2.045000 2.031000 2.029000 2.025000 2.019000 2.012000 2.007000 2.006000 2.000000 2.000000 1.994000 1.987000 1.983000 1.981000 1.975000 1.969000 1.963000 1.963000 1.976000 2.001000 2.024000 0.000000 0.000000 0.000000 0.000000 0.000000 0.000000 0.000000 0.000000 
0.000000 0.000000 0.000000 0.000000 0.000000 0.000000 2.061000 2.062000 2.061000 2.051000 2.049000 2.036000 2.031000 2.025000 2.025000 2.019000 2.007000 2.006000 2.003000 2.000000 2.000000 1.994000 1.988000 1.983000 1.981000 1.975000 1.972000 1.963000 1.963000 1.980000 2.004000 2.026000 2.031000 0.000000 0.000000 0.000000 0.000000 0.000000 0.000000 0.000000 
0.000000 0.000000 0.000000 0.000000 0.000000 0.000000 1.181000 2.065000 2.058000 2.051000 2.045000 2.041000 2.031000 2.028000 2.025000 2.019000 2.012000 2.006000 2.003000 2.000000 2.000000 1.994000 1.987000 1.983000 1.981000 1.976000 1.970000 1.963000 1.963000 1.986000 2.008000 2.027000 2.038000 0.000000 0.000000 0.000000 0.000000 0.000000 0.000000 0.000000 
0.000000 0.000000 0.000000 0.000000 0.000000 0.000000 1.460000 0.000000 2.057000 2.051000 2.045000 2.041000 2.031000 2.025000 2.025000 2.019000 2.012000 2.006000 2.003000 2.000000 2.000000 1.994000 1.988000 1.983000 1.981000 1.975000 1.973000 1.963000 1.963000 1.986000 2.009000 2.021000 2.025000 0.000000 0.000000 0.000000 0.000000 0.000000 0.000000 0.000000 
0.000000 0.000000 0.000000 0.000000 0.000000 0.000000 0.000000 2.030000 2.057000 2.051000 2.046000 2.038000 2.031000 2.025000 2.024000 2.019000 2.007000 2.002000 2.000000 2.000000 2.000000 1.994000 1.987000 1.987000 1.981000 1.975000 1.969000 1.963000 1.963000 1.978000 2.004000 2.021000 2.025000 0.000000 0.000000 0.000000 0.000000 0.000000 0.000000 0.000000 
0.000000 0.000000 0.000000 0.000000 0.000000 0.000000 0.000000 2.064000 2.057000 2.051000 2.046000 2.034000 2.031000 2.025000 2.025000 2.019000 2.007000 2.005000 2.000000 2.000000 1.999000 1.994000 1.987000 1.984000 1.981000 1.978000 1.968000 1.963000 1.963000 1.978000 2.001000 2.017000 2.025000 0.000000 0.000000 0.000000 0.000000 0.000000 0.000000 0.000000 
0.000000 0.000000 0.000000 0.000000 0.000000 0.000000 2.065000 2.065000 2.057000 2.051000 2.049000 2.035000 2.031000 2.025000 2.024000 2.019000 2.010000 2.006000 2.000000 2.000000 2.003000 1.994000 1.988000 1.983000 1.979000 1.971000 1.968000 1.963000 1.966000 1.979000 2.003000 2.022000 2.031000 0.000000 0.000000 0.000000 0.000000 0.000000 0.000000 0.000000 
0.000000 0.000000 0.000000 0.000000 0.000000 0.000000 1.629000 2.058000 2.057000 2.051000 2.046000 2.034000 2.031000 2.025000 2.024000 2.019000 2.013000 2.004000 2.000000 2.000000 2.000000 1.991000 1.988000 1.987000 1.978000 1.969000 1.965000 1.963000 1.968000 1.984000 2.005000 2.028000 2.038000 0.000000 0.000000 0.000000 0.000000 0.000000 0.000000 0.000000 
0.000000 0.000000 0.000000 0.000000 0.000000 0.000000 1.484000 2.063000 2.057000 2.051000 2.040000 2.031000 2.031000 2.025000 2.024000 2.012000 2.012000 2.003000 2.000000 2.000000 1.999000 1.987000 1.987000 1.987000 1.981000 1.973000 1.965000 1.963000 1.968000 1.984000 2.007000 2.028000 2.036000 0.000000 0.000000 0.000000 0.000000 0.000000 0.000000 0.000000 
0.000000 0.000000 0.000000 0.000000 0.000000 0.000000 0.000000 2.063000 2.057000 2.051000 2.040000 2.031000 2.031000 2.025000 2.025000 2.019000 2.013000 2.006000 2.001000 2.000000 1.999000 1.988000 1.987000 1.983000 1.981000 1.979000 1.968000 1.963000 1.963000 1.984000 2.003000 2.014000 2.018000 0.000000 0.000000 0.000000 0.000000 0.000000 0.000000 0.000000 
0.000000 0.000000 0.000000 0.000000 0.000000 0.000000 2.058000 2.058000 2.058000 2.051000 2.040000 2.034000 2.028000 2.025000 2.025000 2.019000 2.012000 2.006000 2.003000 2.000000 2.005000 1.994000 1.987000 1.983000 1.981000 1.979000 1.968000 1.963000 1.963000 1.982000 2.003000 2.012000 2.012000 0.000000 0.000000 0.000000 0.000000 0.000000 0.000000 0.000000 
0.000000 0.000000 0.000000 0.000000 0.000000 0.000000 2.058000 2.058000 2.057000 2.051000 2.040000 2.034000 2.028000 2.025000 2.025000 2.019000 2.012000 2.002000 2.000000 1.994000 1.994000 1.994000 1.987000 1.983000 1.981000 1.979000 1.968000 1.963000 1.963000 1.978000 2.001000 2.012000 2.012000 0.000000 0.000000 0.000000 0.000000 0.000000 0.000000 0.000000 
0.000000 0.000000 0.000000 0.000000 0.000000 0.000000 1.450000 2.058000 2.057000 2.051000 2.038000 2.032000 2.028000 2.025000 2.019000 2.014000 2.012000 2.002000 2.000000 1.994000 1.993000 1.987000 1.987000 1.987000 1.979000 1.973000 1.963000 1.963000 1.963000 1.982000 2.003000 2.019000 2.023000 0.000000 0.000000 0.000000 0.000000 0.000000 0.000000 0.000000 
0.000000 0.000000 0.000000 0.000000 0.000000 0.000000 2.590000 2.058000 2.054000 2.045000 2.038000 2.031000 2.028000 2.025000 2.015000 2.012000 2.007000 2.002000 2.000000 2.000000 1.993000 1.987000 1.987000 1.987000 1.978000 1.973000 1.963000 1.957000 1.962000 1.983000 2.003000 2.021000 2.025000 0.000000 0.000000 0.000000 0.000000 0.000000 0.000000 0.000000 
0.000000 0.000000 0.000000 0.000000 0.000000 0.000000 2.852000 2.058000 2.051000 2.039000 2.033000 2.031000 2.028000 2.024000 2.015000 2.012000 2.007000 2.001000 2.000000 2.000000 1.993000 1.987000 1.987000 1.985000 1.978000 1.973000 1.968000 1.963000 1.963000 1.982000 2.003000 2.020000 2.025000 0.000000 0.000000 0.000000 0.000000 0.000000 0.000000 0.000000 
0.000000 0.000000 0.000000 0.000000 0.000000 0.000000 1.178000 2.058000 2.050000 2.045000 2.033000 2.031000 2.028000 2.024000 2.019000 2.019000 2.008000 2.000000 2.000000 2.000000 1.994000 1.987000 1.987000 1.981000 1.977000 1.973000 1.968000 1.963000 1.963000 1.978000 2.003000 2.014000 0.000000 0.000000 0.000000 0.000000 0.000000 0.000000 0.000000 0.000000 
0.000000 0.000000 0.000000 0.000000 0.000000 0.000000 0.000000 2.058000 2.057000 2.045000 2.033000 2.031000 2.031000 2.023000 2.019000 2.019000 2.007000 2.002000 2.000000 2.000000 1.999000 1.994000 1.987000 1.981000 1.975000 1.973000 1.963000 1.963000 1.963000 1.978000 2.003000 2.021000 2.025000 0.000000 0.000000 0.000000 0.000000 0.000000 0.000000 0.000000 
0.000000 0.000000 0.000000 0.000000 0.000000 0.000000 0.000000 2.052000 2.050000 2.045000 2.039000 2.031000 2.031000 2.025000 2.019000 2.012000 2.006000 2.002000 2.000000 2.000000 1.999000 1.987000 1.987000 1.981000 1.975000 1.975000 1.968000 1.963000 1.963000 1.984000 2.006000 2.021000 2.025000 0.000000 0.000000 0.000000 0.000000 0.000000 0.000000 0.000000 
0.000000 0.000000 0.000000 0.000000 0.000000 0.000000 1.175000 2.051000 2.050000 2.045000 2.040000 2.031000 2.029000 2.024000 2.019000 2.012000 2.006000 2.002000 2.000000 2.000000 1.994000 1.987000 1.987000 1.983000 1.980000 1.970000 1.963000 1.963000 1.963000 1.982000 2.007000 2.029000 2.045000 0.000000 0.000000 0.000000 0.000000 0.000000 0.000000 0.000000 
0.000000 0.000000 0.000000 0.000000 0.000000 0.000000 1.175000 1.568000 2.051000 2.045000 2.040000 2.031000 2.026000 2.023000 2.018000 2.012000 2.006000 2.002000 2.000000 2.000000 1.996000 1.987000 1.987000 1.985000 1.979000 1.967000 1.963000 1.963000 1.963000 1.983000 2.007000 2.029000 2.038000 0.000000 0.000000 0.000000 0.000000 0.000000 0.000000 0.000000 
0.000000 0.000000 0.000000 0.000000 0.000000 0.000000 1.178000 2.054000 2.051000 2.043000 2.036000 2.031000 2.025000 2.023000 2.018000 2.012000 2.006000 2.002000 2.000000 2.000000 1.998000 1.987000 1.982000 1.981000 1.978000 1.967000 1.963000 1.963000 1.968000 1.984000 2.007000 2.024000 2.035000 0.000000 0.000000 0.000000 0.000000 0.000000 0.000000 0.000000 
0.000000 0.000000 0.000000 0.000000 0.000000 0.000000 1.175000 2.053000 2.050000 2.038000 2.031000 2.031000 2.025000 2.024000 2.019000 2.012000 2.007000 2.006000 2.000000 2.000000 1.998000 1.987000 1.987000 1.983000 1.978000 1.967000 1.963000 1.963000 1.968000 1.979000 2.004000 2.023000 2.030000 0.000000 0.000000 0.000000 0.000000 0.000000 0.000000 0.000000 
0.000000 0.000000 0.000000 0.000000 0.000000 0.000000 1.178000 2.056000 2.045000 2.038000 2.031000 2.031000 2.025000 2.025000 2.024000 2.012000 2.006000 2.005000 2.000000 2.000000 1.999000 1.987000 1.987000 1.983000 1.978000 1.973000 1.963000 1.963000 1.968000 1.984000 2.007000 2.021000 2.024000 0.000000 0.000000 0.000000 0.000000 0.000000 0.000000 0.000000 
0.000000 0.000000 0.000000 0.000000 0.000000 0.000000 1.178000 2.051000 2.045000 2.038000 2.031000 2.031000 2.028000 2.025000 2.023000 2.006000 2.006000 2.000000 2.000000 2.000000 1.994000 1.987000 1.987000 1.983000 1.981000 1.973000 1.963000 1.963000 1.963000 1.984000 2.009000 2.012000 2.012000 0.000000 0.000000 0.000000 0.000000 0.000000 0.000000 0.000000 
0.000000 0.000000 0.000000 0.000000 0.000000 0.000000 1.385000 2.056000 2.049000 2.045000 2.033000 2.031000 2.030000 2.025000 2.019000 2.006000 2.006000 2.006000 2.000000 2.000000 1.995000 1.987000 1.987000 1.981000 1.981000 1.977000 1.963000 1.963000 1.967000 1.988000 2.009000 2.021000 2.030000 0.000000 0.000000 0.000000 0.000000 0.000000 0.000000 0.000000 
0.000000 0.000000 0.000000 0.000000 0.000000 0.000000 2.078000 2.056000 2.051000 2.045000 2.038000 2.031000 2.029000 2.024000 2.011000 2.006000 2.006000 2.006000 2.000000 2.000000 1.994000 1.991000 1.987000 1.981000 1.981000 1.973000 1.963000 1.963000 1.972000 1.985000 2.007000 2.024000 2.031000 0.000000 0.000000 0.000000 0.000000 0.000000 0.000000 0.000000 
0.000000 0.000000 0.000000 0.000000 0.000000 0.000000 2.058000 2.058000 2.051000 2.045000 2.038000 2.031000 2.028000 2.021000 2.014000 2.009000 2.006000 2.006000 2.002000 2.000000 1.999000 1.987000 1.987000 1.984000 1.981000 1.973000 1.968000 1.966000 1.974000 1.981000 2.004000 2.027000 2.031000 0.000000 0.000000 0.000000 0.000000 0.000000 0.000000 0.000000 
0.000000 0.000000 0.000000 0.000000 0.000000 0.000000 2.053000 2.056000 2.051000 2.045000 2.033000 2.027000 2.025000 2.017000 2.012000 2.006000 2.006000 2.006000 2.000000 2.000000 2.000000 1.994000 1.987000 1.983000 1.981000 1.973000 1.969000 1.969000 1.974000 1.985000 2.004000 2.027000 2.038000 0.000000 0.000000 0.000000 0.000000 0.000000 0.000000 0.000000 
0.000000 0.000000 0.000000 0.000000 0.000000 0.000000 2.052000 2.050000 2.045000 2.045000 2.033000 2.027000 2.025000 2.019000 2.018000 2.006000 2.006000 2.006000 2.000000 2.000000 2.000000 1.994000 1.987000 1.983000 1.981000 1.976000 1.963000 1.968000 1.974000 1.985000 2.004000 2.031000 2.031000 0.000000 0.000000 0.000000 0.000000 0.000000 0.000000 0.000000 
0.000000 0.000000 0.000000 0.000000 0.000000 0.000000 0.000000 2.045000 2.045000 2.039000 2.033000 2.027000 2.025000 2.023000 2.018000 2.006000 2.006000 2.002000 2.000000 2.000000 1.999000 1.994000 1.987000 1.981000 1.978000 1.973000 1.963000 1.963000 1.974000 1.990000 2.007000 2.030000 2.038000 0.000000 0.000000 0.000000 0.000000 0.000000 0.000000 0.000000 
0.000000 0.000000 0.000000 0.000000 0.000000 0.000000 0.000000 0.000000 0.000000 2.049000 2.348000 2.031000 2.019000 2.025000 2.022000 2.006000 2.006000 2.005000 2.000000 2.000000 1.995000 1.988000 1.987000 1.981000 1.978000 1.970000 1.963000 1.969000 1.974000 1.985000 1.997000 2.014000 0.000000 0.000000 0.000000 0.000000 0.000000 0.000000 0.000000 0.000000 
0.000000 0.000000 0.000000 0.000000 0.000000 0.000000 0.000000 0.000000 0.000000 0.000000 0.000000 0.000000 0.000000 0.000000 2.029000 2.027000 2.018000 2.010000 1.527000 2.000000 1.994000 1.991000 1.987000 1.982000 1.980000 1.973000 1.969000 1.969000 1.969000 1.976000 1.988000 0.000000 0.000000 0.000000 0.000000 0.000000 0.000000 0.000000 0.000000 0.000000 
0.000000 0.000000 0.000000 0.000000 0.000000 0.000000 0.000000 0.000000 0.000000 0.000000 0.000000 0.000000 0.000000 0.000000 0.000000 2.072000 2.025000 2.025000 2.010000 0.000000 1.994000 1.994000 1.988000 1.983000 1.981000 1.975000 1.974000 1.969000 1.964000 1.967000 2.829000 0.000000 0.000000 0.000000 0.000000 0.000000 0.000000 0.000000 0.000000 0.000000 
0.000000 0.000000 0.000000 0.000000 0.000000 0.000000 0.000000 0.000000 0.000000 0.000000 0.000000 0.000000 0.000000 0.000000 0.000000 0.000000 0.000000 0.000000 0.000000 0.000000 0.000000 0.000000 0.000000 0.000000 0.000000 0.000000 0.000000 0.000000 0.000000 0.000000 0.000000 0.000000 0.000000 0.000000 0.000000 0.000000 0.000000 0.000000 0.000000 0.000000 
