40 40
0.000000 0.000000 0.000000 0.000000 0.000000 0.000000 0.000000 0.000000 0.000000 0.000000 0.000000 0.000000 0.000000 0.000000 0.000000 0.000000 0.000000 0.000000 0.000000 0.000000 0.000000 0.000000 0.000000 0.000000 0.000000 0.000000 0.000000 0.000000 0.000000 0.000000 0.000000 0.000000 0.000000 0.000000 0.000000 0.000000 0.000000 0.000000 0.000000 0.000000 
0.000000 0.000000 0.000000 0.000000 0.000000 0.000000 0.000000 0.000000 0.000000 0.000000 1.997000 1.993000 2.001000 2.623000 2.703000 2.000000 2.606000 2.602000 2.588000 2.597000 2.600000 2.490000 2.006000 2.599000 2.015000 2.601000 2.601000 2.067000 2.035000 2.034000 2.577000 2.606000 0.000000 0.000000 0.000000 0.000000 0.000000 0.000000 0.000000 0.000000 
0.000000 0.000000 0.000000 0.000000 0.000000 0.000000 0.000000 1.741000 2.022000 1.995000 1.987000 1.987000 1.987000 1.990000 1.994000 1.994000 1.997000 2.000000 2.000000 2.001000 2.004000 2.004000 2.010000 2.011000 2.014000 2.018000 2.018000 2.025000 2.028000 2.029000 2.030000 2.030000 2.029000 0.000000 0.000000 0.000000 0.000000 0.000000 0.000000 0.000000 
0.000000 0.000000 0.000000 0.000000 0.000000 0.000000 0.000000 1.944000 2.040000 1.990000 1.987000 1.987000 1.989000 1.990000 1.991000 1.994000 1.999000 1.999000 1.998000 2.002000 2.004000 2.006000 2.007000 2.011000 2.015000 2.018000 2.018000 2.025000 2.025000 2.029000 2.032000 2.030000 2.029000 0.000000 0.000000 0.000000 0.000000 0.000000 0.000000 0.000000 
0.000000 0.000000 0.000000 0.000000 0.000000 0.000000 0.000000 2.059000 2.038000 1.990000 1.987000 1.987000 1.990000 1.990000 1.990000 1.995000 1.997000 1.998000 2.000000 2.000000 2.004000 2.007000 2.007000 2.011000 2.015000 2.015000 2.018000 2.022000 2.025000 2.033000 2.033000 2.030000 2.029000 0.000000 0.000000 0.000000 0.000000 0.000000 0.000000 0.000000 
0.000000 0.000000 0.000000 0.000000 0.000000 0.000000 0.000000 2.070000 2.026000 1.993000 1.987000 1.987000 1.990000 1.991000 1.994000 1.994000 1.997000 1.998000 2.000000 2.000000 2.004000 2.005000 2.008000 2.013000 2.015000 2.017000 2.017000 2.022000 2.027000 2.030000 2.033000 2.027000 2.025000 0.000000 0.000000 0.000000 0.000000 0.000000 0.000000 0.000000 
0.000000 0.000000 0.000000 0.000000 0.000000 0.000000 0.000000 0.000000 2.030000 1.994000 1.987000 1.987000 1.987000 1.990000 1.990000 1.992000 1.994000 2.000000 2.000000 2.001000 2.004000 2.007000 2.007000 2.011000 2.015000 2.018000 2.018000 2.022000 2.027000 2.032000 2.033000 2.033000 0.000000 0.000000 0.000000 0.000000 0.000000 0.000000 0.000000 0.000000 
0.000000 0.000000 0.000000 0.000000 0.000000 0.000000 0.000000 1.326000 2.026000 1.991000 1.983000 1.987000 1.990000 1.990000 1.990000 1.994000 1.997000 1.998000 2.000000 2.004000 2.004000 2.007000 2.007000 2.011000 2.016000 2.017000 2.018000 2.022000 2.025000 2.029000 2.029000 2.029000 2.029000 0.000000 0.000000 0.000000 0.000000 0.000000 0.000000 0.000000 
0.000000 0.000000 0.000000 0.000000 0.000000 0.000000 0.000000 1.743000 2.026000 1.991000 1.983000 1.985000 1.990000 1.990000 1.990000 1.992000 1.997000 2.000000 2.000000 2.001000 2.004000 2.007000 2.007000 2.011000 2.016000 2.015000 2.018000 2.022000 2.025000 2.028000 2.029000 2.029000 0.000000 0.000000 0.000000 0.000000 0.000000 0.000000 0.000000 0.000000 
0.000000 0.000000 0.000000 0.000000 0.000000 0.000000 0.000000 1.256000 2.031000 1.990000 1.983000 1.987000 1.987000 1.990000 1.990000 1.992000 1.997000 1.999000 2.000000 2.001000 2.004000 2.005000 2.007000 2.011000 2.015000 2.015000 2.018000 2.022000 2.026000 2.027000 2.028000 2.030000 0.000000 0.000000 0.000000 0.000000 0.000000 0.000000 0.000000 0.000000 
0.000000 0.000000 0.000000 0.000000 0.000000 0.000000 0.000000 2.015000 2.032000 1.989000 1.983000 1.987000 1.987000 1.990000 1.990000 1.994000 1.994000 1.994000 2.000000 2.000000 2.003000 2.005000 2.007000 2.008000 2.015000 2.018000 2.018000 2.022000 2.023000 2.029000 2.029000 2.033000 2.033000 0.000000 0.000000 0.000000 0.000000 0.000000 0.000000 0.000000 
0.000000 0.000000 0.000000 0.000000 0.000000 0.000000 0.000000 2.056000 2.032000 1.992000 1.987000 1.987000 1.987000 1.987000 1.990000 1.993000 1.994000 1.994000 1.997000 2.000000 2.004000 2.004000 2.007000 2.011000 2.013000 2.015000 2.018000 2.022000 2.023000 2.028000 2.028000 2.029000 2.033000 0.000000 0.000000 0.000000 0.000000 0.000000 0.000000 0.000000 
0.000000 0.000000 0.000000 0.000000 0.000000 0.000000 0.000000 1.812000 2.034000 1.989000 1.983000 1.987000 1.987000 1.987000 1.990000 1.990000 1.994000 1.996000 1.999000 2.003000 2.004000 2.004000 2.006000 2.007000 2.014000 2.011000 2.018000 2.022000 2.022000 2.023000 2.026000 2.030000 0.000000 0.000000 0.000000 0.000000 0.000000 0.000000 0.000000 0.000000 
0.000000 0.000000 0.000000 0.000000 0.000000 0.000000 0.000000 1.534000 2.026000 1.989000 1.987000 1.987000 1.987000 1.988000 1.990000 1.990000 1.997000 1.997000 2.000000 2.003000 2.003000 2.004000 2.007000 2.010000 2.014000 2.015000 2.016000 2.022000 2.022000 2.023000 2.029000 2.029000 0.000000 0.000000 0.000000 0.000000 0.000000 0.000000 0.000000 0.000000 
0.000000 0.000000 0.000000 0.000000 0.000000 0.000000 0.000000 0.000000 2.026000 1.992000 1.987000 1.987000 1.987000 1.987000 1.990000 1.990000 1.994000 1.997000 2.000000 2.000000 2.002000 2.004000 2.004000 2.007000 2.015000 2.015000 2.016000 2.022000 2.022000 2.022000 2.030000 2.026000 1.713000 0.000000 0.000000 0.000000 0.000000 0.000000 0.000000 0.000000 
0.000000 0.000000 0.000000 0.000000 0.000000 0.000000 0.000000 0.000000 2.029000 1.990000 1.983000 1.987000 1.987000 1.988000 1.990000 1.992000 1.994000 1.997000 1.997000 2.000000 2.003000 2.004000 2.004000 2.011000 2.015000 2.015000 2.016000 2.022000 2.022000 2.025000 2.026000 2.025000 0.000000 0.000000 0.000000 0.000000 0.000000 0.000000 0.000000 0.000000 
0.000000 0.000000 0.000000 0.000000 0.000000 0.000000 0.000000 2.064000 2.029000 1.993000 1.983000 1.982000 1.987000 1.987000 1.987000 1.990000 1.994000 1.994000 1.997000 2.000000 2.003000 2.004000 2.006000 2.007000 2.011000 2.015000 2.018000 2.022000 2.024000 2.025000 2.026000 2.029000 0.000000 0.000000 0.000000 0.000000 0.000000 0.000000 0.000000 0.000000 
0.000000 0.000000 0.000000 0.000000 0.000000 0.000000 0.000000 1.663000 2.031000 1.996000 1.983000 1.982000 1.987000 1.987000 1.987000 1.990000 1.994000 1.994000 1.996000 2.000000 2.000000 2.004000 2.006000 2.007000 2.011000 2.015000 2.016000 2.022000 2.022000 2.022000 2.025000 2.032000 0.000000 0.000000 0.000000 0.000000 0.000000 0.000000 0.000000 0.000000 
0.000000 0.000000 0.000000 0.000000 0.000000 0.000000 0.000000 0.000000 2.034000 1.993000 1.983000 1.983000 1.987000 1.987000 1.987000 1.990000 1.994000 1.993000 1.993000 1.998000 2.000000 2.004000 2.007000 2.011000 2.015000 2.015000 2.016000 2.022000 2.022000 2.022000 2.025000 2.029000 0.000000 0.000000 0.000000 0.000000 0.000000 0.000000 0.000000 0.000000 
0.000000 0.000000 0.000000 0.000000 0.000000 0.000000 0.000000 1.729000 2.039000 1.992000 1.983000 1.985000 1.987000 1.987000 1.987000 1.990000 1.994000 1.994000 1.996000 2.000000 2.000000 2.004000 2.010000 2.007000 2.013000 2.015000 2.015000 2.022000 2.022000 2.022000 2.025000 2.029000 0.000000 0.000000 0.000000 0.000000 0.000000 0.000000 0.000000 0.000000 
0.000000 0.000000 0.000000 0.000000 0.000000 0.000000 0.000000 1.749000 2.037000 1.993000 1.983000 1.984000 1.987000 1.987000 1.987000 1.990000 1.990000 1.996000 1.999000 1.999000 2.000000 2.004000 2.005000 2.009000 2.011000 2.015000 2.015000 2.022000 2.022000 2.023000 2.028000 2.029000 1.448000 0.000000 0.000000 0.000000 0.000000 0.000000 0.000000 0.000000 
0.000000 0.000000 0.000000 0.000000 0.000000 0.000000 0.000000 1.749000 2.035000 1.995000 1.980000 1.983000 1.987000 1.987000 1.987000 1.990000 1.990000 1.994000 1.997000 2.000000 2.000000 2.004000 2.004000 2.007000 2.013000 2.015000 2.016000 2.022000 2.018000 2.022000 2.023000 2.029000 2.029000 0.000000 0.000000 0.000000 0.000000 0.000000 0.000000 0.000000 
0.000000 0.000000 0.000000 0.000000 0.000000 0.000000 0.000000 0.000000 2.031000 1.996000 1.980000 1.980000 1.983000 1.987000 1.990000 1.990000 1.994000 1.994000 1.997000 2.000000 1.999000 2.004000 2.006000 2.007000 2.013000 2.015000 2.016000 2.022000 2.022000 2.022000 2.023000 2.029000 2.029000 0.000000 0.000000 0.000000 0.000000 0.000000 0.000000 0.000000 
0.000000 0.000000 0.000000 0.000000 0.000000 0.000000 0.000000 0.000000 2.033000 1.992000 1.980000 1.979000 1.983000 1.987000 1.987000 1.990000 1.994000 1.994000 1.996000 1.999000 1.997000 2.004000 2.006000 2.007000 2.013000 2.015000 2.018000 2.022000 2.022000 2.022000 2.024000 2.030000 2.029000 0.000000 0.000000 0.000000 0.000000 0.000000 0.000000 0.000000 
0.000000 0.000000 0.000000 0.000000 0.000000 0.000000 0.000000 2.073000 2.030000 1.996000 1.980000 1.977000 1.983000 1.986000 1.987000 1.990000 1.994000 1.994000 1.996000 1.998000 2.000000 2.004000 2.004000 2.007000 2.013000 2.015000 2.015000 2.018000 2.021000 2.022000 2.024000 2.029000 1.668000 0.000000 0.000000 0.000000 0.000000 0.000000 0.000000 0.000000 
0.000000 0.000000 0.000000 0.000000 0.000000 0.000000 0.000000 1.817000 2.030000 1.999000 1.983000 1.981000 1.983000 1.987000 1.989000 1.989000 1.990000 1.997000 1.997000 1.998000 2.000000 2.004000 2.004000 2.007000 2.011000 2.012000 2.015000 2.018000 2.021000 2.025000 2.028000 2.029000 2.029000 0.000000 0.000000 0.000000 0.000000 0.000000 0.000000 0.000000 
0.000000 0.000000 0.000000 0.000000 0.000000 0.000000 0.000000 1.114000 2.035000 1.995000 1.980000 1.980000 1.983000 1.987000 1.987000 1.990000 1.993000 1.994000 1.999000 1.998000 2.000000 2.003000 2.004000 2.007000 2.011000 2.011000 2.015000 2.018000 2.020000 2.025000 2.028000 2.033000 2.033000 0.000000 0.000000 0.000000 0.000000 0.000000 0.000000 0.000000 
0.000000 0.000000 0.000000 0.000000 0.000000 0.000000 0.000000 1.744000 2.040000 1.993000 1.983000 1.980000 1.983000 1.987000 1.987000 1.990000 1.990000 1.991000 1.997000 2.000000 2.000000 2.000000 2.004000 2.007000 2.009000 2.011000 2.015000 2.018000 2.022000 2.025000 2.025000 2.028000 2.029000 0.000000 0.000000 0.000000 0.000000 0.000000 0.000000 0.000000 
0.000000 0.000000 0.000000 0.000000 0.000000 0.000000 0.000000 1.743000 2.033000 1.993000 1.983000 1.980000 1.986000 1.987000 1.989000 1.990000 1.994000 1.993000 1.995000 2.000000 2.000000 2.001000 2.004000 2.007000 2.011000 2.011000 2.014000 2.018000 2.022000 2.022000 2.023000 2.028000 2.033000 0.000000 0.000000 0.000000 0.000000 0.000000 0.000000 0.000000 
0.000000 0.000000 0.000000 0.000000 0.000000 0.000000 0.000000 1.223000 2.029000 2.000000 1.980000 1.980000 1.983000 1.985000 1.987000 1.989000 1.991000 1.994000 1.994000 1.997000 1.999000 2.004000 2.004000 2.004000 2.009000 2.011000 2.011000 2.018000 2.022000 2.022000 2.022000 2.022000 2.028000 0.000000 0.000000 0.000000 0.000000 0.000000 0.000000 0.000000 
0.000000 0.000000 0.000000 0.000000 0.000000 0.000000 0.000000 1.761000 2.031000 1.999000 1.980000 1.980000 1.983000 1.987000 1.987000 1.990000 1.990000 1.994000 1.996000 1.998000 2.000000 2.001000 2.004000 2.004000 2.007000 2.011000 2.015000 2.018000 2.020000 2.021000 2.022000 2.024000 2.029000 0.000000 0.000000 0.000000 0.000000 0.000000 0.000000 0.000000 
0.000000 0.000000 0.000000 0.000000 0.000000 0.000000 0.000000 1.758000 2.031000 1.997000 1.980000 1.980000 1.980000 1.981000 1.987000 1.988000 1.990000 1.990000 1.996000 2.000000 2.000000 2.004000 2.004000 2.004000 2.007000 2.007000 2.013000 2.018000 2.018000 2.022000 2.022000 2.025000 2.033000 0.000000 0.000000 0.000000 0.000000 0.000000 0.000000 0.000000 
0.000000 0.000000 0.000000 0.000000 0.000000 0.000000 0.000000 1.758000 2.030000 1.997000 1.980000 1.977000 1.977000 1.980000 1.983000 1.988000 1.990000 1.990000 1.993000 1.997000 2.000000 2.001000 2.004000 2.004000 2.006000 2.011000 2.015000 2.018000 2.020000 2.022000 2.022000 2.025000 2.033000 0.000000 0.000000 0.000000 0.000000 0.000000 0.000000 0.000000 
0.000000 0.000000 0.000000 0.000000 0.000000 0.000000 0.000000 1.758000 2.051000 1.991000 1.977000 1.977000 1.980000 1.981000 1.983000 1.987000 1.987000 1.990000 1.992000 1.995000 1.998000 2.000000 2.000000 2.000000 2.006000 2.011000 2.015000 2.018000 2.018000 2.022000 2.022000 2.024000 2.024000 0.000000 0.000000 0.000000 0.000000 0.000000 0.000000 0.000000 
0.000000 0.000000 0.000000 0.000000 0.000000 0.000000 0.000000 0.000000 2.058000 1.990000 1.977000 1.977000 1.980000 1.981000 1.987000 1.987000 1.987000 1.990000 1.990000 1.994000 1.999000 2.000000 2.002000 2.004000 2.008000 2.011000 2.013000 2.018000 2.018000 2.022000 2.022000 2.022000 2.022000 0.000000 0.000000 0.000000 0.000000 0.000000 0.000000 0.000000 
0.000000 0.000000 0.000000 0.000000 0.000000 0.000000 0.000000 0.000000 0.000000 1.995000 1.975000 1.977000 1.980000 1.983000 1.980000 1.987000 1.990000 1.990000 1.994000 1.996000 1.999000 2.001000 2.004000 2.004000 2.004000 2.007000 2.008000 2.018000 2.020000 2.022000 2.018000 2.021000 2.814000 0.000000 0.000000 0.000000 0.000000 0.000000 0.000000 0.000000 
0.000000 0.000000 0.000000 0.000000 0.000000 0.000000 0.000000 0.000000 0.000000 1.988000 1.973000 1.977000 1.977000 1.983000 1.986000 1.985000 1.987000 1.988000 1.993000 1.997000 1.994000 1.998000 2.004000 2.007000 1.485000 0.000000 0.000000 0.000000 0.000000 0.000000 0.000000 0.000000 0.000000 0.000000 0.000000 0.000000 0.000000 0.000000 0.000000 0.000000 
0.000000 0.000000 0.000000 0.000000 0.000000 0.000000 0.000000 0.000000 0.000000 0.000000 1.978000 1.977000 1.980000 1.985000 1.983000 1.987000 1.987000 1.993000 2.001000 1.661000 1.660000 0.000000 0.000000 0.000000 0.000000 0.000000 0.000000 0.000000 0.000000 0.000000 0.000000 0.000000 0.000000 0.000000 0.000000 0.000000 0.000000 0.000000 0.000000 0.000000 
0.000000 0.000000 0.000000 0.000000 0.000000 0.000000 0.000000 0.000000 0.000000 0.000000 1.980000 2.768000 0.000000 0.000000 1.583000 0.000000 0.000000 2.017000 2.014000 1.733000 0.000000 0.000000 0.000000 0.000000 0.000000 0.000000 2.612000 0.000000 0.000000 0.000000 0.000000 0.000000 0.000000 0.000000 0.000000 0.000000 0.000000 0.000000 0.000000 0.000000 
0.000000 0.000000 0.000000 0.000000 0.000000 0.000000 0.000000 0.000000 0.000000 0.000000 0.000000 0.000000 0.000000 0.000000 0.000000 0.000000 0.000000 0.000000 0.000000 0.000000 0.000000 0.000000 0.000000 0.000000 0.000000 0.000000 0.000000 0.000000 0.000000 0.000000 0.000000 0.000000 0.000000 0.000000 0.000000 0.000000 0.000000 0.000000 0.000000 0.000000 
