0.000000,0.000000,0.000000,0.000000,0.000000,0.000000,0.000000,0.000000,0.000000,0.000000,0.000000,0.000000,0.000000,0.000000,0.000000,0.000000,0.000000,2.986000,2.976000,2.967000,2.957000,2.948000,2.922000,2.703000,2.484000,2.289000,2.179000,2.070000,1.997000,1.990000,1.982000,1.953000,1.901000,1.850000,1.832000,1.832000,1.832000,1.832000,0.000000,0.000000,
0.000000,0.000000,0.000000,0.000000,0.000000,0.000000,0.000000,0.000000,0.000000,0.000000,0.000000,0.000000,0.000000,0.000000,0.000000,0.000000,0.000000,0.000000,0.000000,2.968000,2.933000,2.897000,2.846000,2.609000,2.372000,2.173000,2.108000,2.042000,1.990000,1.962000,1.934000,1.904000,1.873000,1.843000,1.832000,1.832000,1.832000,1.832000,0.000000,0.000000,
0.000000,0.000000,0.000000,0.000000,0.000000,0.000000,0.000000,0.000000,0.000000,0.000000,0.000000,0.000000,0.000000,0.000000,0.000000,0.000000,0.000000,0.000000,0.000000,2.970000,2.908000,2.847000,2.770000,2.515000,2.260000,2.058000,2.036000,2.014000,1.982000,1.934000,1.885000,1.856000,1.846000,1.836000,1.832000,1.832000,1.832000,1.832000,0.000000,0.000000,
0.000000,0.000000,0.000000,0.000000,0.000000,0.000000,0.000000,0.000000,0.000000,0.000000,0.000000,0.000000,0.000000,0.000000,0.000000,0.000000,0.000000,0.000000,2.989000,2.899000,2.814000,2.729000,2.633000,2.405000,2.177000,1.998000,1.987000,1.977000,1.953000,1.904000,1.856000,1.832000,1.832000,1.832000,1.832000,1.832000,1.832000,1.832000,0.000000,0.000000,
0.000000,0.000000,0.000000,0.000000,0.000000,0.000000,0.000000,0.000000,0.000000,0.000000,0.000000,0.000000,0.000000,0.000000,0.000000,0.000000,0.000000,2.982000,2.869000,2.755000,2.650000,2.545000,2.436000,2.279000,2.122000,1.993000,1.962000,1.931000,1.901000,1.873000,1.846000,1.832000,1.832000,1.832000,1.832000,1.832000,1.832000,1.832000,0.000000,0.000000,
0.000000,0.000000,0.000000,0.000000,0.000000,0.000000,0.000000,0.000000,0.000000,0.000000,0.000000,0.000000,0.000000,0.000000,0.000000,0.000000,0.000000,2.885000,2.749000,2.612000,2.486000,2.361000,2.239000,2.153000,2.067000,1.988000,1.937000,1.885000,1.850000,1.843000,1.836000,1.832000,1.832000,1.832000,1.832000,1.832000,1.832000,1.832000,0.000000,0.000000,
0.000000,0.000000,0.000000,0.000000,0.000000,0.000000,0.000000,0.000000,0.000000,0.000000,0.000000,0.000000,0.000000,0.000000,0.000000,2.991000,2.930000,2.793000,2.635000,2.477000,2.358000,2.242000,2.132000,2.084000,2.037000,1.987000,1.928000,1.869000,1.832000,1.832000,1.832000,1.832000,1.832000,1.832000,1.832000,1.832000,1.832000,1.832000,0.000000,0.000000,
0.000000,0.000000,0.000000,0.000000,0.000000,0.000000,0.000000,0.000000,0.000000,0.000000,0.000000,0.000000,2.996000,2.953000,2.916000,2.883000,2.850000,2.702000,2.524000,2.346000,2.249000,2.158000,2.072000,2.046000,2.020000,1.987000,1.928000,1.869000,1.832000,1.832000,1.832000,1.832000,1.832000,1.832000,1.832000,1.832000,1.832000,1.832000,0.000000,0.000000,
0.000000,2.982000,2.982000,2.982000,2.982000,2.982000,2.982000,2.982000,2.982000,2.982000,2.982000,2.947000,2.878000,2.809000,2.781000,2.775000,2.770000,2.612000,2.413000,2.215000,2.140000,2.074000,2.012000,2.008000,2.003000,1.987000,1.928000,1.869000,1.832000,1.832000,1.832000,1.832000,1.832000,1.832000,1.832000,1.832000,1.832000,1.832000,0.000000,0.000000,
0.000000,2.966000,2.966000,2.966000,2.966000,2.966000,2.966000,2.966000,2.959000,2.938000,2.917000,2.880000,2.826000,2.772000,2.717000,2.661000,2.604000,2.464000,2.300000,2.137000,2.085000,2.041000,2.000000,2.000000,2.000000,1.987000,1.928000,1.869000,1.832000,1.832000,1.832000,1.832000,1.832000,1.832000,1.356000,0.000000,0.000000,0.000000,0.000000,0.000000,
0.000000,2.966000,2.966000,2.966000,2.966000,2.966000,2.966000,2.966000,2.949000,2.902000,2.856000,2.818000,2.791000,2.763000,2.671000,2.544000,2.417000,2.300000,2.186000,2.073000,2.044000,2.021000,2.000000,2.000000,2.000000,1.987000,1.928000,1.869000,1.832000,1.832000,1.832000,1.832000,1.832000,1.832000,0.000000,0.000000,0.000000,0.000000,0.000000,0.000000,
0.000000,2.966000,2.966000,2.966000,2.966000,2.966000,2.966000,2.966000,2.940000,2.867000,2.794000,2.757000,2.755000,2.754000,2.625000,2.427000,2.229000,2.137000,2.073000,2.008000,2.003000,2.001000,2.000000,2.000000,2.000000,1.987000,1.928000,1.869000,1.832000,1.832000,1.832000,1.832000,1.832000,1.832000,0.000000,0.000000,0.000000,0.000000,0.000000,0.000000,
0.000000,2.966000,2.966000,2.966000,2.966000,2.961000,2.936000,2.912000,2.870000,2.797000,2.723000,2.676000,2.654000,2.632000,2.522000,2.365000,2.208000,2.126000,2.065000,2.004000,2.000000,2.000000,2.000000,2.000000,2.000000,1.987000,1.928000,1.869000,1.832000,1.832000,1.832000,1.393000,0.000000,0.000000,0.000000,0.000000,0.000000,0.000000,0.000000,0.000000,
0.000000,2.966000,2.966000,2.966000,2.966000,2.955000,2.905000,2.854000,2.796000,2.724000,2.652000,2.594000,2.548000,2.502000,2.415000,2.307000,2.198000,2.126000,2.065000,2.004000,2.000000,2.000000,2.000000,2.000000,2.000000,1.987000,1.928000,1.869000,1.832000,1.832000,1.832000,0.000000,0.000000,0.000000,0.000000,0.000000,0.000000,0.000000,0.000000,0.000000,
0.000000,2.966000,2.966000,2.966000,2.966000,2.950000,2.875000,2.801000,2.727000,2.655000,2.582000,2.513000,2.445000,2.378000,2.313000,2.251000,2.188000,2.126000,2.065000,2.004000,2.000000,2.000000,2.000000,2.000000,2.000000,1.971000,1.839000,1.707000,1.624000,1.624000,1.624000,0.000000,0.000000,0.000000,0.000000,0.000000,0.000000,0.000000,0.000000,0.000000,
0.000000,2.966000,2.966000,2.966000,2.966000,2.950000,2.875000,2.801000,2.718000,2.623000,2.527000,2.446000,2.379000,2.313000,2.264000,2.223000,2.183000,2.126000,2.065000,2.004000,2.000000,2.000000,2.000000,2.000000,2.000000,1.765000,0.000000,0.000000,0.000000,0.000000,0.000000,0.000000,0.000000,0.000000,0.000000,0.000000,0.000000,0.000000,0.000000,0.000000,
0.000000,2.966000,2.966000,2.966000,2.966000,2.950000,2.875000,2.801000,2.710000,2.590000,2.471000,2.379000,2.313000,2.248000,2.214000,2.196000,2.179000,2.126000,2.065000,2.004000,2.000000,2.000000,2.000000,2.000000,2.000000,1.560000,0.000000,0.000000,0.000000,0.000000,0.000000,0.000000,0.000000,0.000000,0.000000,0.000000,0.000000,0.000000,0.000000,0.000000,
0.000000,2.966000,2.966000,2.960000,2.954000,2.933000,2.859000,2.785000,2.688000,2.550000,2.413000,2.312000,2.248000,2.184000,2.161000,2.161000,2.161000,2.117000,2.060000,2.004000,2.000000,2.000000,2.000000,2.000000,2.000000,1.401000,0.000000,0.000000,0.000000,0.000000,0.000000,0.000000,0.000000,0.000000,0.000000,0.000000,0.000000,0.000000,0.000000,0.000000,
0.000000,2.966000,2.964000,2.932000,2.900000,2.859000,2.786000,2.713000,2.618000,2.483000,2.347000,2.248000,2.185000,2.122000,2.100000,2.100000,2.100000,2.072000,2.037000,2.002000,2.000000,2.000000,2.000000,2.000000,2.000000,1.401000,0.000000,0.000000,0.000000,0.000000,0.000000,0.000000,0.000000,0.000000,0.000000,0.000000,0.000000,0.000000,0.000000,0.000000,
0.000000,2.966000,2.962000,2.904000,2.846000,2.785000,2.713000,2.642000,2.549000,2.415000,2.282000,2.185000,2.123000,2.061000,2.039000,2.039000,2.039000,2.028000,2.014000,2.001000,2.000000,2.000000,2.000000,2.000000,2.000000,1.401000,0.000000,0.000000,0.000000,0.000000,0.000000,0.000000,0.000000,0.000000,0.000000,0.000000,0.000000,0.000000,0.000000,0.000000,
0.000000,2.966000,2.960000,2.876000,2.793000,2.712000,2.642000,2.572000,2.483000,2.360000,2.236000,2.144000,2.083000,2.022000,2.000000,2.000000,2.000000,2.000000,2.000000,2.000000,2.000000,2.000000,2.000000,2.000000,2.000000,1.401000,0.000000,0.000000,0.000000,0.000000,0.000000,0.000000,0.000000,0.000000,0.000000,0.000000,0.000000,0.000000,0.000000,0.000000,
0.000000,2.966000,2.958000,2.850000,2.742000,2.642000,2.573000,2.504000,2.424000,2.324000,2.224000,2.144000,2.083000,2.022000,2.000000,2.000000,2.000000,2.000000,2.000000,2.000000,2.000000,2.000000,2.000000,2.000000,2.000000,1.401000,0.000000,0.000000,0.000000,0.000000,0.000000,0.000000,0.000000,0.000000,0.000000,0.000000,0.000000,0.000000,0.000000,0.000000,
0.000000,2.966000,2.956000,2.824000,2.691000,2.572000,2.504000,2.436000,2.365000,2.289000,2.213000,2.144000,2.083000,2.022000,2.000000,2.000000,2.000000,2.000000,2.000000,2.000000,2.000000,2.000000,2.000000,2.000000,2.000000,1.401000,0.000000,0.000000,0.000000,0.000000,0.000000,0.000000,0.000000,0.000000,0.000000,0.000000,0.000000,0.000000,0.000000,0.000000,
0.000000,2.928000,2.918000,2.787000,2.655000,2.533000,2.442000,2.352000,2.276000,2.223000,2.170000,2.118000,2.068000,2.018000,2.000000,2.000000,2.000000,2.000000,2.000000,2.000000,2.000000,2.000000,1.962000,1.482000,1.002000,0.000000,0.000000,0.000000,0.000000,0.000000,0.000000,0.000000,0.000000,0.000000,0.000000,0.000000,0.000000,0.000000,0.000000,0.000000,
0.000000,2.853000,2.846000,2.740000,2.635000,2.523000,2.389000,2.255000,2.158000,2.128000,2.097000,2.068000,2.039000,2.010000,2.000000,2.000000,2.000000,2.000000,2.000000,2.000000,2.000000,2.000000,1.887000,0.000000,0.000000,0.000000,0.000000,0.000000,0.000000,0.000000,0.000000,0.000000,0.000000,0.000000,0.000000,0.000000,0.000000,0.000000,0.000000,0.000000,
0.000000,2.779000,2.773000,2.694000,2.614000,2.514000,2.335000,2.157000,2.041000,2.033000,2.025000,2.017000,2.010000,2.003000,2.000000,2.000000,2.000000,2.000000,2.000000,2.000000,2.000000,2.000000,1.813000,0.000000,0.000000,0.000000,0.000000,0.000000,0.000000,0.000000,0.000000,0.000000,0.000000,0.000000,0.000000,0.000000,0.000000,0.000000,0.000000,0.000000,
0.000000,2.707000,2.699000,2.587000,2.475000,2.355000,2.206000,2.057000,1.961000,1.961000,1.961000,1.961000,1.961000,1.961000,1.961000,1.961000,1.961000,1.972000,1.986000,1.999000,1.425000,0.000000,0.000000,0.000000,0.000000,0.000000,0.000000,0.000000,0.000000,0.000000,0.000000,0.000000,0.000000,0.000000,0.000000,0.000000,0.000000,0.000000,0.000000,0.000000,
0.000000,2.637000,2.624000,2.448000,2.273000,2.117000,2.036000,1.955000,1.903000,1.903000,1.903000,1.903000,1.903000,1.903000,1.903000,1.903000,1.903000,1.930000,1.964000,1.998000,0.000000,0.000000,0.000000,0.000000,0.000000,0.000000,0.000000,0.000000,0.000000,0.000000,0.000000,0.000000,0.000000,0.000000,0.000000,0.000000,0.000000,0.000000,0.000000,0.000000,
0.000000,2.566000,2.549000,2.310000,2.070000,1.880000,1.866000,1.853000,1.844000,1.844000,1.844000,1.844000,1.844000,1.844000,1.844000,1.844000,1.844000,1.887000,1.942000,1.996000,0.000000,0.000000,0.000000,0.000000,0.000000,0.000000,0.000000,0.000000,0.000000,0.000000,0.000000,0.000000,0.000000,0.000000,0.000000,0.000000,0.000000,0.000000,0.000000,0.000000,
0.000000,2.498000,2.481000,2.248000,2.015000,1.832000,1.832000,1.832000,1.832000,1.832000,1.832000,1.832000,1.832000,1.832000,1.832000,1.832000,1.832000,1.879000,1.937000,1.996000,0.000000,0.000000,0.000000,0.000000,0.000000,0.000000,0.000000,0.000000,0.000000,0.000000,0.000000,0.000000,0.000000,0.000000,0.000000,0.000000,0.000000,0.000000,0.000000,0.000000,
0.000000,2.430000,2.415000,2.206000,1.996000,1.832000,1.832000,1.832000,1.832000,1.832000,1.832000,1.832000,1.832000,1.832000,1.832000,1.832000,1.832000,1.879000,1.937000,1.996000,0.000000,0.000000,0.000000,0.000000,0.000000,0.000000,0.000000,0.000000,0.000000,0.000000,0.000000,0.000000,0.000000,0.000000,0.000000,0.000000,0.000000,0.000000,0.000000,0.000000,
0.000000,2.363000,2.349000,2.164000,1.978000,1.832000,1.832000,1.832000,1.832000,1.832000,1.832000,1.832000,1.832000,1.832000,1.832000,1.832000,1.832000,1.879000,1.937000,1.996000,0.000000,0.000000,0.000000,0.000000,0.000000,0.000000,0.000000,0.000000,0.000000,0.000000,0.000000,0.000000,0.000000,0.000000,0.000000,0.000000,0.000000,0.000000,0.000000,0.000000,
0.000000,2.298000,2.288000,2.144000,2.000000,1.887000,1.887000,1.887000,1.887000,1.887000,1.887000,1.878000,1.858000,1.839000,1.832000,1.832000,1.832000,1.879000,1.937000,1.996000,0.000000,0.000000,0.000000,0.000000,0.000000,0.000000,0.000000,0.000000,0.000000,0.000000,0.000000,0.000000,0.000000,0.000000,0.000000,0.000000,0.000000,0.000000,0.000000,0.000000,
0.000000,2.234000,2.227000,2.126000,2.025000,1.946000,1.946000,1.946000,1.946000,1.946000,1.946000,1.926000,1.886000,1.846000,1.832000,1.832000,1.832000,1.879000,1.937000,1.996000,0.000000,0.000000,0.000000,0.000000,0.000000,0.000000,0.000000,0.000000,0.000000,0.000000,0.000000,0.000000,0.000000,0.000000,0.000000,0.000000,0.000000,0.000000,0.000000,0.000000,
0.000000,2.170000,2.165000,2.106000,2.047000,2.000000,2.000000,2.000000,2.000000,2.000000,2.000000,1.970000,1.912000,1.853000,1.832000,1.832000,1.832000,1.814000,1.791000,1.768000,0.000000,0.000000,0.000000,0.000000,0.000000,0.000000,0.000000,0.000000,0.000000,0.000000,0.000000,0.000000,0.000000,0.000000,0.000000,0.000000,0.000000,0.000000,0.000000,0.000000,
0.000000,2.108000,2.106000,2.068000,2.030000,2.000000,2.000000,2.000000,2.000000,2.000000,2.000000,1.970000,1.912000,1.853000,1.832000,1.832000,1.832000,1.071000,0.000000,0.000000,0.000000,0.000000,0.000000,0.000000,0.000000,0.000000,0.000000,0.000000,0.000000,0.000000,0.000000,0.000000,0.000000,0.000000,0.000000,0.000000,0.000000,0.000000,0.000000,0.000000,
0.000000,2.047000,2.046000,2.029000,2.013000,2.000000,2.000000,2.000000,2.000000,2.000000,2.000000,1.970000,1.912000,1.853000,1.832000,1.832000,1.832000,0.000000,0.000000,0.000000,0.000000,0.000000,0.000000,0.000000,0.000000,0.000000,0.000000,0.000000,0.000000,0.000000,0.000000,0.000000,0.000000,0.000000,0.000000,0.000000,0.000000,0.000000,0.000000,0.000000,
0.000000,2.000000,2.000000,2.000000,2.000000,2.000000,2.000000,2.000000,1.998000,1.994000,1.989000,1.959000,1.905000,1.851000,1.835000,1.840000,1.845000,0.000000,0.000000,0.000000,0.000000,0.000000,0.000000,0.000000,0.000000,0.000000,0.000000,0.000000,0.000000,0.000000,0.000000,0.000000,0.000000,0.000000,0.000000,0.000000,0.000000,0.000000,0.000000,0.000000,
0.000000,2.000000,2.000000,2.000000,2.000000,2.000000,2.000000,2.000000,1.991000,1.966000,1.940000,1.911000,1.877000,1.844000,1.848000,1.874000,1.899000,0.000000,0.000000,0.000000,0.000000,0.000000,0.000000,0.000000,0.000000,0.000000,0.000000,0.000000,0.000000,0.000000,0.000000,0.000000,0.000000,0.000000,0.000000,0.000000,0.000000,0.000000,0.000000,0.000000,
0.000000,2.000000,2.000000,2.000000,2.000000,2.000000,2.000000,2.000000,1.983000,1.938000,1.892000,1.862000,1.849000,1.837000,1.862000,1.908000,1.954000,0.000000,0.000000,0.000000,0.000000,0.000000,0.000000,0.000000,0.000000,0.000000,0.000000,0.000000,0.000000,0.000000,0.000000,0.000000,0.000000,0.000000,0.000000,0.000000,0.000000,0.000000,0.000000,0.000000,
