0.000000,0.000000,0.000000,0.000000,0.000000,0.000000,0.000000,0.000000,0.000000,0.000000,0.000000,0.000000,0.000000,0.000000,0.000000,0.000000,0.000000,0.000000,0.000000,0.000000,0.000000,0.000000,0.000000,0.000000,0.000000,0.000000,0.000000,0.000000,0.000000,0.000000,0.000000,0.000000,0.000000,0.000000,0.000000,0.000000,0.000000,0.000000,0.000000,0.000000,
0.000000,0.000000,0.000000,0.000000,0.000000,0.000000,0.000000,0.000000,0.000000,0.000000,0.000000,0.000000,0.000000,0.000000,0.000000,0.000000,0.000000,0.000000,0.000000,0.000000,0.000000,0.000000,0.000000,0.000000,0.000000,0.000000,0.000000,0.000000,0.000000,0.000000,0.000000,0.000000,0.000000,0.000000,0.000000,0.000000,0.000000,0.000000,0.000000,0.000000,
0.000000,0.000000,0.000000,0.000000,0.000000,0.000000,0.000000,0.000000,0.000000,0.000000,0.000000,0.000000,0.000000,0.000000,0.000000,0.000000,0.000000,0.000000,0.000000,0.000000,0.000000,0.000000,0.000000,0.000000,0.000000,0.000000,0.000000,0.000000,0.000000,0.000000,0.000000,0.000000,0.000000,0.000000,0.000000,0.000000,0.000000,0.000000,0.000000,0.000000,
0.000000,0.000000,0.000000,0.000000,0.000000,0.000000,0.000000,0.000000,0.000000,0.000000,0.000000,0.000000,0.000000,0.000000,0.000000,0.000000,0.000000,0.000000,0.000000,0.000000,0.000000,0.000000,0.000000,0.000000,0.000000,0.000000,0.000000,0.000000,0.000000,0.000000,0.000000,0.000000,0.000000,0.000000,0.000000,0.000000,0.000000,0.000000,0.000000,0.000000,
0.000000,0.000000,0.000000,0.000000,0.000000,0.000000,0.000000,0.000000,0.000000,0.000000,0.000000,0.000000,0.000000,0.000000,0.000000,0.000000,0.000000,0.000000,0.000000,0.000000,0.000000,0.000000,0.000000,0.000000,0.000000,0.000000,0.000000,0.000000,0.000000,0.000000,0.000000,0.000000,0.000000,0.000000,0.000000,0.000000,0.000000,0.000000,0.000000,0.000000,
0.000000,0.000000,0.000000,0.000000,0.000000,0.000000,0.000000,0.000000,0.000000,0.000000,0.000000,0.000000,0.000000,0.000000,0.000000,0.000000,0.000000,0.000000,0.000000,0.000000,0.000000,0.000000,0.000000,0.000000,0.000000,0.000000,0.000000,0.000000,0.000000,0.000000,0.000000,0.000000,0.000000,0.000000,0.000000,0.000000,0.000000,0.000000,0.000000,0.000000,
0.000000,0.000000,0.000000,0.000000,0.000000,0.000000,0.000000,0.000000,0.000000,0.000000,0.000000,0.000000,0.000000,0.000000,0.000000,0.000000,0.000000,0.000000,0.000000,0.000000,0.000000,0.000000,0.000000,0.000000,0.000000,0.000000,0.000000,0.000000,0.000000,0.000000,0.000000,0.000000,0.000000,0.000000,0.000000,0.000000,0.000000,0.000000,0.000000,0.000000,
0.000000,0.000000,0.000000,0.000000,2.164000,2.164000,2.164000,2.164000,2.199000,2.222000,2.222000,2.252000,2.273000,2.235000,2.222000,2.220000,2.183000,2.164000,2.164000,2.164000,2.164000,2.164000,2.164000,2.164000,2.164000,2.164000,2.164000,2.164000,2.164000,2.164000,2.164000,2.164000,2.164000,2.944000,0.000000,0.000000,0.000000,0.000000,0.000000,0.000000,
0.000000,0.000000,0.000000,2.722000,2.164000,2.164000,2.164000,2.164000,2.184000,2.196000,2.196000,2.226000,2.250000,2.229000,2.222000,2.220000,2.183000,2.164000,2.164000,2.164000,2.164000,2.164000,2.164000,2.164000,2.164000,2.155000,2.139000,2.139000,2.145000,2.161000,2.164000,2.164000,2.164000,2.594000,0.000000,0.000000,0.000000,0.000000,0.000000,0.000000,
0.000000,0.000000,2.267000,2.221000,2.164000,2.164000,2.164000,2.164000,2.164000,2.164000,2.164000,2.193000,2.222000,2.222000,2.222000,2.220000,2.183000,2.164000,2.164000,2.164000,2.164000,2.164000,2.164000,2.164000,2.164000,2.144000,2.108000,2.108000,2.121000,2.154000,2.162000,2.164000,2.164000,2.162000,2.255000,0.000000,0.000000,0.000000,0.000000,0.000000,
0.000000,0.000000,2.158000,2.160000,2.164000,2.164000,2.164000,2.164000,2.164000,2.164000,2.164000,2.193000,2.222000,2.222000,2.222000,2.220000,2.183000,2.164000,2.164000,2.164000,2.164000,2.164000,2.164000,2.164000,2.164000,2.144000,2.108000,2.108000,2.112000,2.122000,2.145000,2.164000,2.164000,2.147000,2.154000,2.511000,0.000000,0.000000,0.000000,0.000000,
0.000000,0.000000,2.108000,2.133000,2.164000,2.164000,2.164000,2.164000,2.164000,2.164000,2.164000,2.183000,2.202000,2.202000,2.202000,2.201000,2.177000,2.164000,2.164000,2.164000,2.160000,2.148000,2.145000,2.145000,2.145000,2.131000,2.108000,2.108000,2.108000,2.108000,2.127000,2.145000,2.145000,2.129000,2.108000,2.108000,2.715000,0.000000,0.000000,0.000000,
0.000000,0.000000,2.108000,2.133000,2.164000,2.164000,2.164000,2.164000,2.164000,2.164000,2.164000,2.165000,2.165000,2.165000,2.165000,2.165000,2.164000,2.164000,2.164000,2.164000,2.153000,2.118000,2.109000,2.109000,2.109000,2.109000,2.108000,2.108000,2.108000,2.108000,2.109000,2.109000,2.109000,2.109000,2.108000,2.108000,2.715000,0.000000,0.000000,0.000000,
0.000000,0.000000,2.108000,2.118000,2.130000,2.130000,2.130000,2.130000,2.151000,2.164000,2.164000,2.147000,2.130000,2.130000,2.130000,2.130000,2.130000,2.130000,2.130000,2.130000,2.125000,2.112000,2.108000,2.108000,2.108000,2.108000,2.108000,2.108000,2.108000,2.108000,2.108000,2.108000,2.108000,2.108000,2.108000,2.108000,2.715000,0.000000,0.000000,0.000000,
0.000000,0.000000,2.108000,2.108000,2.108000,2.108000,2.108000,2.108000,2.134000,2.150000,2.150000,2.129000,2.108000,2.108000,2.108000,2.108000,2.108000,2.108000,2.108000,2.108000,2.105000,2.097000,2.095000,2.095000,2.095000,2.095000,2.095000,2.095000,2.098000,2.107000,2.108000,2.108000,2.108000,2.108000,2.108000,2.108000,2.567000,0.000000,0.000000,0.000000,
0.000000,0.000000,2.108000,2.108000,2.108000,2.108000,2.108000,2.108000,2.112000,2.115000,2.115000,2.111000,2.108000,2.108000,2.108000,2.108000,2.108000,2.108000,2.108000,2.108000,2.099000,2.069000,2.061000,2.061000,2.061000,2.061000,2.061000,2.061000,2.073000,2.103000,2.108000,2.108000,2.108000,2.108000,2.108000,2.108000,2.184000,2.334000,0.000000,0.000000,
0.000000,0.000000,2.108000,2.108000,2.108000,2.108000,2.108000,2.108000,2.075000,2.053000,2.053000,2.053000,2.061000,2.096000,2.108000,2.108000,2.108000,2.108000,2.108000,2.108000,2.097000,2.063000,2.054000,2.054000,2.054000,2.054000,2.054000,2.054000,2.068000,2.102000,2.108000,2.108000,2.108000,2.108000,2.108000,2.108000,2.108000,2.108000,0.000000,0.000000,
0.000000,0.000000,2.108000,2.105000,2.100000,2.095000,2.093000,2.093000,2.036000,2.000000,2.000000,2.000000,2.013000,2.072000,2.093000,2.093000,2.093000,2.093000,2.093000,2.093000,2.085000,2.061000,2.050000,2.046000,2.046000,2.049000,2.054000,2.054000,2.066000,2.095000,2.104000,2.108000,2.108000,2.108000,2.108000,2.108000,2.108000,2.108000,0.000000,0.000000,
0.000000,0.000000,2.108000,2.089000,2.063000,2.037000,2.025000,2.025000,2.010000,2.000000,2.000000,2.000000,2.003000,2.019000,2.025000,2.025000,2.025000,2.025000,2.025000,2.025000,2.030000,2.049000,2.035000,2.012000,2.012000,2.027000,2.054000,2.054000,2.057000,2.065000,2.088000,2.108000,2.108000,2.108000,2.108000,2.108000,2.108000,2.108000,0.000000,0.000000,
0.000000,0.000000,2.108000,2.065000,2.009000,1.989000,1.979000,1.979000,1.979000,1.984000,1.997000,2.000000,2.000000,2.000000,2.000000,2.000000,2.000000,2.000000,2.000000,2.000000,2.002000,2.010000,1.997000,1.981000,1.994000,2.012000,2.032000,2.046000,2.054000,2.054000,2.071000,2.090000,2.103000,2.108000,2.108000,2.108000,2.108000,2.108000,0.000000,0.000000,
0.000000,0.000000,2.108000,2.037000,1.949000,1.949000,1.949000,1.949000,1.949000,1.961000,1.992000,1.998000,1.998000,2.000000,1.999000,1.998000,1.998000,1.998000,1.998000,1.998000,1.988000,1.957000,1.949000,1.954000,1.986000,2.000000,2.000000,2.034000,2.054000,2.054000,2.054000,2.062000,2.095000,2.106000,2.106000,2.105000,2.104000,2.104000,0.000000,0.000000,
0.000000,0.000000,2.108000,2.037000,1.949000,1.949000,1.949000,1.949000,1.949000,1.953000,1.964000,1.966000,1.971000,1.992000,1.986000,1.966000,1.966000,1.966000,1.966000,1.966000,1.962000,1.952000,1.949000,1.954000,1.986000,2.000000,2.000000,2.034000,2.054000,2.054000,2.054000,2.057000,2.068000,2.072000,2.070000,2.047000,2.036000,2.036000,0.000000,0.000000,
0.000000,0.000000,2.075000,2.019000,1.949000,1.949000,1.949000,1.949000,1.949000,1.949000,1.949000,1.949000,1.954000,1.976000,1.970000,1.949000,1.949000,1.949000,1.949000,1.949000,1.949000,1.949000,1.949000,1.954000,1.986000,2.000000,2.000000,2.024000,2.038000,2.038000,2.038000,2.038000,2.038000,2.038000,2.035000,2.001000,1.985000,1.985000,0.000000,0.000000,
0.000000,0.000000,2.007000,1.981000,1.949000,1.949000,1.949000,1.949000,1.949000,1.949000,1.949000,1.949000,1.949000,1.952000,1.951000,1.949000,1.949000,1.949000,1.949000,1.949000,1.949000,1.949000,1.949000,1.954000,1.986000,2.000000,2.000000,2.002000,2.004000,2.004000,2.004000,2.004000,2.004000,2.004000,2.001000,1.968000,1.952000,1.952000,0.000000,0.000000,
0.000000,0.000000,2.000000,1.990000,1.978000,1.978000,1.978000,1.978000,1.978000,1.978000,1.978000,1.978000,1.974000,1.956000,1.949000,1.949000,1.949000,1.949000,1.949000,1.949000,1.949000,1.949000,1.949000,1.951000,1.965000,1.982000,2.000000,2.000000,2.000000,2.000000,2.000000,2.000000,2.000000,2.000000,1.997000,1.965000,1.949000,1.949000,0.000000,0.000000,
0.000000,0.000000,2.000000,2.005000,2.011000,2.011000,2.007000,2.000000,2.000000,2.000000,2.000000,2.000000,1.994000,1.968000,1.959000,1.959000,1.952000,1.949000,1.949000,1.949000,1.949000,1.949000,1.949000,1.949000,1.949000,1.967000,2.000000,2.000000,2.000000,2.000000,2.000000,2.000000,2.000000,2.000000,1.998000,1.972000,1.959000,1.959000,0.000000,0.000000,
0.000000,0.000000,2.000000,2.020000,2.045000,2.045000,2.029000,2.001000,2.000000,2.000000,2.000000,2.000000,1.999000,1.993000,1.991000,1.990000,1.963000,1.949000,1.949000,1.949000,1.949000,1.949000,1.949000,1.949000,1.949000,1.967000,2.000000,2.000000,2.000000,2.000000,2.000000,2.000000,2.000000,2.000000,2.000000,1.994000,1.991000,1.991000,0.000000,0.000000,
0.000000,0.000000,2.000000,2.024000,2.054000,2.054000,2.035000,2.001000,1.986000,1.976000,1.976000,1.976000,1.976000,1.976000,1.976000,1.976000,1.974000,1.966000,1.951000,1.949000,1.949000,1.949000,1.960000,1.973000,1.973000,1.983000,2.000000,2.000000,2.006000,2.022000,2.025000,2.021000,2.005000,2.000000,2.001000,2.017000,2.267000,2.747000,0.000000,0.000000,
0.000000,0.000000,2.163000,2.181000,2.202000,2.202000,2.132000,2.004000,1.969000,1.949000,1.949000,1.949000,1.949000,1.949000,1.949000,1.951000,1.980000,1.981000,1.952000,1.949000,1.949000,1.949000,1.970000,1.995000,1.995000,1.995000,1.995000,1.998000,2.014000,2.048000,2.054000,2.046000,2.011000,2.000000,2.011000,2.145000,2.682000,0.000000,0.000000,0.000000,
0.000000,0.000000,0.000000,0.000000,0.000000,0.000000,2.768000,2.026000,1.969000,1.949000,1.949000,1.949000,1.949000,1.949000,1.949000,1.950000,1.958000,1.959000,1.950000,1.949000,1.949000,1.949000,1.955000,1.963000,1.963000,1.963000,1.963000,1.986000,2.014000,2.048000,2.054000,2.046000,2.011000,2.000000,2.066000,2.855000,0.000000,0.000000,0.000000,0.000000,
0.000000,0.000000,0.000000,0.000000,0.000000,0.000000,0.000000,2.597000,2.555000,2.542000,2.542000,2.561000,2.579000,2.579000,2.331000,1.967000,1.955000,1.949000,1.949000,1.949000,1.949000,1.949000,1.949000,1.949000,1.949000,1.949000,1.949000,1.981000,2.009000,2.031000,2.045000,2.141000,2.493000,2.611000,2.669000,0.000000,0.000000,0.000000,0.000000,0.000000,
0.000000,0.000000,0.000000,0.000000,0.000000,0.000000,0.000000,0.000000,0.000000,0.000000,0.000000,0.000000,0.000000,0.000000,0.000000,1.998000,1.966000,1.949000,1.949000,1.949000,1.949000,1.949000,1.949000,1.949000,1.949000,1.949000,1.949000,1.981000,2.000000,2.000000,2.028000,2.307000,0.000000,0.000000,0.000000,0.000000,0.000000,0.000000,0.000000,0.000000,
0.000000,0.000000,0.000000,0.000000,0.000000,0.000000,0.000000,0.000000,0.000000,0.000000,0.000000,0.000000,0.000000,0.000000,0.000000,0.000000,0.000000,0.000000,0.000000,0.000000,0.000000,0.000000,0.000000,0.000000,0.000000,0.000000,0.000000,0.000000,0.000000,0.000000,0.000000,0.000000,0.000000,0.000000,0.000000,0.000000,0.000000,0.000000,0.000000,0.000000,
0.000000,0.000000,0.000000,0.000000,0.000000,0.000000,0.000000,0.000000,0.000000,0.000000,0.000000,0.000000,0.000000,0.000000,0.000000,0.000000,0.000000,0.000000,0.000000,0.000000,0.000000,0.000000,0.000000,0.000000,0.000000,0.000000,0.000000,0.000000,0.000000,0.000000,0.000000,0.000000,0.000000,0.000000,0.000000,0.000000,0.000000,0.000000,0.000000,0.000000,
0.000000,0.000000,0.000000,0.000000,0.000000,0.000000,0.000000,0.000000,0.000000,0.000000,0.000000,0.000000,0.000000,0.000000,0.000000,0.000000,0.000000,0.000000,0.000000,0.000000,0.000000,0.000000,0.000000,0.000000,0.000000,0.000000,0.000000,0.000000,0.000000,0.000000,0.000000,0.000000,0.000000,0.000000,0.000000,0.000000,0.000000,0.000000,0.000000,0.000000,
0.000000,0.000000,0.000000,0.000000,0.000000,0.000000,0.000000,0.000000,0.000000,0.000000,0.000000,0.000000,0.000000,0.000000,0.000000,0.000000,0.000000,0.000000,0.000000,0.000000,0.000000,0.000000,0.000000,0.000000,0.000000,0.000000,0.000000,0.000000,0.000000,0.000000,0.000000,0.000000,0.000000,0.000000,0.000000,0.000000,0.000000,0.000000,0.000000,0.000000,
0.000000,0.000000,0.000000,0.000000,0.000000,0.000000,0.000000,0.000000,0.000000,0.000000,0.000000,0.000000,0.000000,0.000000,0.000000,0.000000,0.000000,0.000000,0.000000,0.000000,0.000000,0.000000,0.000000,0.000000,0.000000,0.000000,0.000000,0.000000,0.000000,0.000000,0.000000,0.000000,0.000000,0.000000,0.000000,0.000000,0.000000,0.000000,0.000000,0.000000,
0.000000,0.000000,0.000000,0.000000,0.000000,0.000000,0.000000,0.000000,0.000000,0.000000,0.000000,0.000000,0.000000,0.000000,0.000000,0.000000,0.000000,0.000000,0.000000,0.000000,0.000000,0.000000,0.000000,0.000000,0.000000,0.000000,0.000000,0.000000,0.000000,0.000000,0.000000,0.000000,0.000000,0.000000,0.000000,0.000000,0.000000,0.000000,0.000000,0.000000,
0.000000,0.000000,0.000000,0.000000,0.000000,0.000000,0.000000,0.000000,0.000000,0.000000,0.000000,0.000000,0.000000,0.000000,0.000000,0.000000,0.000000,0.000000,0.000000,0.000000,0.000000,0.000000,0.000000,0.000000,0.000000,0.000000,0.000000,0.000000,0.000000,0.000000,0.000000,0.000000,0.000000,0.000000,0.000000,0.000000,0.000000,0.000000,0.000000,0.000000,
0.000000,0.000000,0.000000,0.000000,0.000000,0.000000,0.000000,0.000000,0.000000,0.000000,0.000000,0.000000,0.000000,0.000000,0.000000,0.000000,0.000000,0.000000,0.000000,0.000000,0.000000,0.000000,0.000000,0.000000,0.000000,0.000000,0.000000,0.000000,0.000000,0.000000,0.000000,0.000000,0.000000,0.000000,0.000000,0.000000,0.000000,0.000000,0.000000,0.000000,
