40 40
0.000000 0.000000 0.000000 0.000000 0.000000 0.000000 0.000000 0.000000 0.000000 0.000000 2.663000 2.133000 2.099000 2.091000 2.077000 2.068000 2.068000 0.000000 0.000000 0.000000 0.000000 0.000000 0.000000 0.000000 0.000000 0.000000 0.000000 0.000000 0.000000 0.000000 0.000000 0.000000 0.000000 0.000000 0.000000 0.000000 0.000000 0.000000 0.000000 0.000000 
0.000000 0.000000 0.000000 0.000000 0.000000 0.000000 0.000000 0.000000 0.000000 0.000000 2.586000 2.092000 2.091000 2.091000 2.077000 2.068000 2.055000 2.106000 0.000000 0.000000 0.000000 0.000000 0.000000 0.000000 0.000000 0.000000 0.000000 0.000000 0.000000 0.000000 0.000000 0.000000 0.000000 0.000000 0.000000 0.000000 0.000000 0.000000 0.000000 0.000000 
0.000000 0.000000 0.000000 0.000000 0.000000 0.000000 0.000000 0.000000 0.000000 2.647000 2.130000 2.091000 2.091000 2.091000 2.077000 2.068000 2.055000 2.045000 2.116000 2.171000 2.988000 0.000000 0.000000 0.000000 0.000000 0.000000 0.000000 0.000000 0.000000 0.000000 0.000000 0.000000 0.000000 0.000000 0.000000 0.000000 0.000000 0.000000 0.000000 0.000000 
0.000000 0.000000 0.000000 0.000000 0.000000 0.000000 0.000000 2.655000 2.275000 2.137000 2.091000 2.091000 2.091000 2.091000 2.077000 2.068000 2.055000 2.045000 2.033000 2.023000 2.114000 2.208000 2.935000 0.000000 0.000000 0.000000 0.000000 0.000000 0.000000 0.000000 0.000000 0.000000 0.000000 0.000000 0.000000 0.000000 0.000000 0.000000 0.000000 0.000000 
0.000000 0.000000 0.000000 0.000000 0.000000 0.000000 0.000000 2.500000 2.097000 2.091000 2.091000 2.091000 2.091000 2.078000 2.069000 2.068000 2.066000 2.054000 2.044000 2.032000 2.023000 2.023000 2.124000 2.922000 0.000000 0.000000 0.000000 0.000000 0.000000 0.000000 0.000000 0.000000 0.000000 0.000000 0.000000 0.000000 0.000000 0.000000 0.000000 0.000000 
0.000000 0.000000 0.000000 0.000000 0.000000 0.000000 2.699000 2.176000 2.097000 2.091000 2.091000 2.091000 2.091000 2.076000 2.068000 2.056000 2.048000 2.046000 2.045000 2.043000 2.042000 2.033000 2.023000 2.136000 2.890000 0.000000 0.000000 0.000000 0.000000 0.000000 0.000000 0.000000 0.000000 0.000000 0.000000 0.000000 0.000000 0.000000 0.000000 0.000000 
0.000000 0.000000 0.000000 0.000000 0.000000 0.000000 2.473000 2.100000 2.092000 2.091000 2.077000 2.072000 2.072000 2.069000 2.068000 2.054000 2.045000 2.045000 2.045000 2.045000 2.045000 2.035000 2.023000 2.023000 2.142000 2.872000 0.000000 0.000000 0.000000 0.000000 0.000000 0.000000 0.000000 0.000000 0.000000 0.000000 0.000000 0.000000 0.000000 0.000000 
0.000000 0.000000 0.000000 0.000000 2.646000 2.449000 2.164000 2.092000 2.091000 2.077000 2.069000 2.068000 2.068000 2.068000 2.068000 2.065000 2.053000 2.045000 2.045000 2.045000 2.045000 2.035000 2.023000 2.023000 2.016000 2.132000 2.346000 2.848000 0.000000 0.000000 0.000000 0.000000 0.000000 0.000000 0.000000 0.000000 0.000000 0.000000 0.000000 0.000000 
0.000000 0.000000 0.000000 2.622000 2.128000 2.088000 2.091000 2.091000 2.091000 2.074000 2.068000 2.068000 2.068000 2.068000 2.068000 2.057000 2.047000 2.045000 2.036000 2.028000 2.036000 2.035000 2.023000 2.023000 2.014000 2.000000 2.000000 2.132000 2.829000 0.000000 0.000000 0.000000 0.000000 0.000000 0.000000 0.000000 0.000000 0.000000 0.000000 0.000000 
0.000000 0.000000 2.579000 2.068000 2.060000 2.087000 2.091000 2.091000 2.091000 2.087000 2.073000 2.068000 2.068000 2.068000 2.057000 2.047000 2.045000 2.045000 2.033000 2.023000 2.034000 2.035000 2.023000 2.023000 2.021000 2.018000 2.011000 2.000000 2.137000 2.444000 2.795000 0.000000 0.000000 0.000000 0.000000 0.000000 0.000000 0.000000 0.000000 0.000000 
0.000000 0.000000 2.187000 2.000000 2.058000 2.073000 2.074000 2.074000 2.087000 2.078000 2.057000 2.051000 2.051000 2.051000 2.047000 2.035000 2.029000 2.029000 2.026000 2.023000 2.026000 2.026000 2.023000 2.023000 2.023000 2.023000 2.015000 2.000000 2.002000 2.013000 2.149000 2.781000 0.000000 0.000000 0.000000 0.000000 0.000000 0.000000 0.000000 0.000000 
0.000000 2.684000 2.103000 2.049000 2.065000 2.054000 2.051000 2.064000 2.073000 2.070000 2.051000 2.045000 2.034000 2.029000 2.029000 2.025000 2.023000 2.023000 2.023000 2.023000 2.023000 2.023000 2.016000 2.006000 2.006000 2.006000 2.004000 2.000000 2.000000 2.002000 2.008000 2.128000 2.757000 0.000000 0.000000 0.000000 0.000000 0.000000 0.000000 0.000000 
2.692000 2.118000 2.069000 2.068000 2.068000 2.049000 2.045000 2.051000 2.052000 2.052000 2.047000 2.045000 2.030000 2.023000 2.023000 2.023000 2.023000 2.023000 2.023000 2.023000 2.023000 2.016000 2.004000 2.000000 2.000000 2.000000 2.000000 2.000000 2.000000 1.996000 1.985000 1.985000 2.377000 0.000000 0.000000 0.000000 0.000000 0.000000 0.000000 0.000000 
2.124000 2.070000 2.068000 2.068000 2.068000 2.049000 2.045000 2.045000 2.045000 2.045000 2.034000 2.030000 2.025000 2.023000 2.023000 2.023000 2.023000 2.023000 2.023000 2.023000 2.015000 2.004000 2.000000 2.000000 2.000000 2.000000 2.000000 2.000000 2.000000 1.994000 1.975000 1.964000 2.094000 2.554000 2.550000 2.534000 2.688000 0.000000 0.000000 0.000000 
2.077000 2.069000 2.068000 2.068000 2.068000 2.049000 2.045000 2.045000 2.045000 2.045000 2.029000 2.023000 2.023000 2.023000 2.023000 2.023000 2.023000 2.023000 2.023000 2.015000 2.004000 2.000000 2.000000 2.000000 2.000000 2.000000 1.995000 1.986000 1.991000 1.994000 1.973000 1.957000 1.957000 1.957000 1.957000 1.957000 2.037000 2.574000 2.671000 0.000000 
2.068000 2.068000 2.055000 2.054000 2.066000 2.049000 2.045000 2.045000 2.045000 2.045000 2.029000 2.023000 2.023000 2.023000 2.023000 2.023000 2.023000 2.023000 2.023000 2.011000 2.000000 2.000000 2.000000 2.000000 2.000000 2.000000 1.993000 1.979000 1.981000 1.981000 1.963000 1.957000 1.957000 1.960000 1.968000 1.957000 1.957000 1.956000 2.000000 2.670000 
2.068000 2.068000 2.047000 2.045000 2.053000 2.047000 2.045000 2.045000 2.045000 2.045000 2.029000 2.023000 2.023000 2.023000 2.023000 2.023000 2.023000 2.015000 2.009000 2.004000 2.000000 2.000000 2.000000 2.000000 2.000000 2.000000 1.993000 1.979000 1.979000 1.973000 1.954000 1.944000 1.947000 1.959000 1.964000 1.957000 1.955000 1.943000 1.935000 1.966000 
2.055000 2.055000 2.046000 2.045000 2.045000 2.045000 2.045000 2.045000 2.045000 2.045000 2.029000 2.023000 2.023000 2.023000 2.023000 2.023000 2.023000 2.010000 2.000000 2.000000 2.000000 2.000000 2.000000 2.000000 2.000000 2.000000 1.993000 1.979000 1.975000 1.964000 1.951000 1.936000 1.938000 1.945000 1.945000 1.945000 1.944000 1.936000 1.934000 1.914000 
2.046000 2.045000 2.045000 2.045000 2.045000 2.045000 2.045000 2.045000 2.045000 2.045000 2.029000 2.023000 2.023000 2.015000 2.010000 2.018000 2.023000 2.010000 2.000000 2.000000 2.000000 2.000000 2.000000 2.000000 1.995000 1.988000 1.985000 1.979000 1.972000 1.957000 1.951000 1.936000 1.936000 1.936000 1.936000 1.936000 1.936000 1.936000 1.934000 1.914000 
2.058000 2.046000 2.045000 2.045000 2.045000 2.045000 2.045000 2.045000 2.036000 2.033000 2.026000 2.023000 2.023000 2.008000 2.000000 2.006000 2.011000 2.005000 2.000000 2.000000 2.000000 2.000000 2.000000 2.000000 1.992000 1.979000 1.979000 1.979000 1.972000 1.957000 1.951000 1.936000 1.936000 1.936000 1.936000 1.936000 1.936000 1.936000 1.935000 1.926000 
2.947000 2.116000 2.045000 2.045000 2.045000 2.045000 2.045000 2.045000 2.028000 2.023000 2.023000 2.023000 2.023000 2.008000 2.000000 2.000000 2.000000 2.000000 2.000000 2.000000 2.000000 2.000000 2.000000 2.000000 1.996000 1.981000 1.968000 1.968000 1.964000 1.957000 1.951000 1.936000 1.936000 1.936000 1.936000 1.936000 1.936000 1.936000 1.936000 1.935000 
0.000000 2.940000 2.139000 2.056000 2.047000 2.045000 2.036000 2.034000 2.026000 2.023000 2.023000 2.023000 2.015000 2.004000 2.000000 2.000000 2.000000 1.994000 1.990000 1.995000 2.000000 2.000000 1.995000 1.990000 1.990000 1.977000 1.957000 1.957000 1.954000 1.947000 1.944000 1.936000 1.936000 1.936000 1.936000 1.936000 1.936000 1.936000 1.935000 1.925000 
0.000000 0.000000 2.931000 2.155000 2.047000 2.036000 2.025000 2.023000 2.023000 2.023000 2.023000 2.023000 2.008000 2.000000 2.000000 2.000000 1.994000 1.984000 1.979000 1.985000 1.995000 2.000000 1.991000 1.979000 1.975000 1.961000 1.947000 1.947000 1.944000 1.936000 1.936000 1.936000 1.936000 1.936000 1.936000 1.936000 1.936000 1.936000 1.934000 1.915000 
0.000000 0.000000 0.000000 2.253000 2.045000 2.027000 2.023000 2.023000 2.023000 2.023000 2.023000 2.023000 2.008000 2.000000 2.000000 2.000000 1.988000 1.979000 1.979000 1.979000 1.985000 1.995000 1.991000 1.979000 1.970000 1.949000 1.936000 1.936000 1.936000 1.936000 1.936000 1.936000 1.936000 1.936000 1.936000 1.936000 1.935000 1.927000 1.926000 1.915000 
0.000000 0.000000 0.000000 2.874000 2.158000 2.044000 2.034000 2.025000 2.023000 2.023000 2.016000 2.013000 2.004000 2.000000 2.000000 2.000000 1.993000 1.983000 1.979000 1.979000 1.979000 1.985000 1.982000 1.970000 1.965000 1.949000 1.936000 1.936000 1.936000 1.936000 1.936000 1.936000 1.936000 1.936000 1.936000 1.936000 1.933000 1.915000 1.915000 1.916000 
0.000000 0.000000 0.000000 0.000000 2.852000 2.184000 2.051000 2.028000 2.016000 2.014000 2.004000 2.000000 2.000000 2.000000 2.000000 2.000000 1.995000 1.985000 1.979000 1.979000 1.979000 1.975000 1.964000 1.953000 1.949000 1.947000 1.941000 1.936000 1.936000 1.936000 1.936000 1.936000 1.936000 1.936000 1.935000 1.928000 1.927000 1.923000 1.923000 1.966000 
0.000000 0.000000 0.000000 0.000000 0.000000 2.869000 2.684000 2.164000 2.005000 2.000000 2.000000 2.000000 2.000000 2.000000 2.000000 2.000000 1.988000 1.979000 1.979000 1.979000 1.975000 1.964000 1.957000 1.948000 1.936000 1.944000 1.950000 1.936000 1.936000 1.934000 1.928000 1.930000 1.936000 1.936000 1.932000 1.915000 1.918000 1.936000 1.936000 2.039000 
0.000000 0.000000 0.000000 0.000000 0.000000 0.000000 0.000000 2.861000 2.155000 2.002000 2.000000 2.000000 2.000000 2.000000 2.000000 2.000000 1.988000 1.975000 1.971000 1.971000 1.964000 1.957000 1.957000 1.948000 1.936000 1.944000 1.950000 1.936000 1.936000 1.930000 1.915000 1.920000 1.936000 1.936000 1.932000 1.915000 1.917000 1.929000 1.985000 2.576000 
0.000000 0.000000 0.000000 0.000000 0.000000 0.000000 0.000000 0.000000 2.857000 2.153000 2.000000 2.000000 2.000000 2.000000 1.996000 1.993000 1.985000 1.967000 1.957000 1.957000 1.954000 1.950000 1.953000 1.951000 1.943000 1.948000 1.952000 1.941000 1.936000 1.930000 1.915000 1.920000 1.936000 1.936000 1.932000 1.915000 1.915000 1.917000 2.072000 0.000000 
0.000000 0.000000 0.000000 0.000000 0.000000 0.000000 0.000000 0.000000 0.000000 2.842000 2.534000 2.163000 2.000000 2.000000 1.987000 1.979000 1.979000 1.967000 1.957000 1.957000 1.947000 1.936000 1.945000 1.957000 1.957000 1.955000 1.950000 1.946000 1.936000 1.930000 1.915000 1.920000 1.936000 1.936000 1.932000 1.915000 1.915000 1.917000 2.069000 0.000000 
0.000000 0.000000 0.000000 0.000000 0.000000 0.000000 0.000000 0.000000 0.000000 0.000000 0.000000 2.852000 2.157000 1.996000 1.985000 1.979000 1.979000 1.967000 1.957000 1.954000 1.944000 1.936000 1.943000 1.951000 1.951000 1.945000 1.936000 1.936000 1.934000 1.926000 1.915000 1.919000 1.930000 1.930000 1.927000 1.915000 1.916000 1.971000 2.442000 0.000000 
0.000000 0.000000 0.000000 0.000000 0.000000 0.000000 0.000000 0.000000 0.000000 0.000000 0.000000 0.000000 2.841000 2.141000 1.979000 1.979000 1.979000 1.967000 1.957000 1.946000 1.936000 1.936000 1.936000 1.936000 1.936000 1.936000 1.934000 1.930000 1.926000 1.915000 1.915000 1.915000 1.915000 1.915000 1.915000 1.915000 1.972000 2.472000 0.000000 1.907000 
0.000000 0.000000 0.000000 0.000000 0.000000 0.000000 0.000000 0.000000 0.000000 0.000000 0.000000 0.000000 0.000000 2.834000 2.138000 1.986000 1.981000 1.970000 1.959000 1.946000 1.936000 1.936000 1.936000 1.936000 1.936000 1.936000 1.929000 1.915000 1.915000 1.914000 1.910000 1.911000 1.915000 1.915000 1.915000 1.976000 2.467000 0.000000 0.000000 1.892000 
0.000000 0.000000 0.000000 0.000000 0.000000 0.000000 0.000000 0.000000 0.000000 0.000000 0.000000 0.000000 0.000000 0.000000 2.848000 2.354000 2.133000 1.981000 1.967000 1.946000 1.936000 1.936000 1.936000 1.936000 1.936000 1.936000 1.929000 1.915000 1.915000 1.909000 1.895000 1.900000 1.915000 1.915000 1.915000 2.165000 0.000000 0.000000 0.000000 1.897000 
0.000000 0.000000 0.000000 0.000000 0.000000 0.000000 0.000000 0.000000 0.000000 0.000000 0.000000 0.000000 0.000000 0.000000 0.000000 0.000000 2.827000 2.298000 2.111000 1.948000 1.938000 1.936000 1.936000 1.936000 1.936000 1.936000 1.929000 1.915000 1.915000 1.909000 1.895000 1.900000 1.915000 1.915000 1.915000 2.163000 0.000000 0.000000 0.000000 1.913000 
0.000000 0.000000 0.000000 0.000000 0.000000 0.000000 0.000000 0.000000 0.000000 0.000000 0.000000 0.000000 0.000000 0.000000 0.000000 0.000000 0.000000 0.000000 2.845000 2.095000 1.950000 1.938000 1.934000 1.932000 1.934000 1.935000 1.926000 1.915000 1.915000 1.909000 1.895000 1.900000 1.915000 1.915000 1.964000 2.349000 0.000000 0.000000 0.000000 1.914000 
0.000000 0.000000 0.000000 0.000000 0.000000 0.000000 0.000000 0.000000 0.000000 0.000000 0.000000 0.000000 0.000000 0.000000 0.000000 0.000000 0.000000 0.000000 0.000000 2.866000 2.090000 1.946000 1.925000 1.915000 1.922000 1.926000 1.915000 1.915000 1.914000 1.906000 1.892000 1.897000 1.968000 2.157000 2.390000 0.000000 1.895000 1.895000 1.896000 1.912000 
0.000000 0.000000 0.000000 0.000000 0.000000 0.000000 0.000000 0.000000 0.000000 0.000000 0.000000 0.000000 0.000000 0.000000 0.000000 0.000000 0.000000 0.000000 0.000000 0.000000 2.873000 2.050000 1.912000 1.914000 1.915000 1.915000 1.915000 1.915000 1.909000 1.889000 1.874000 1.934000 2.424000 0.000000 0.000000 0.000000 1.897000 1.895000 1.895000 1.894000 
0.000000 0.000000 0.000000 0.000000 0.000000 0.000000 0.000000 0.000000 0.000000 0.000000 0.000000 0.000000 0.000000 0.000000 0.000000 0.000000 0.000000 0.000000 0.000000 0.000000 0.000000 2.803000 1.895000 1.903000 1.915000 1.916000 1.915000 1.915000 1.909000 1.890000 1.924000 2.405000 0.000000 0.000000 0.000000 0.000000 1.915000 1.897000 1.895000 1.894000 
0.000000 0.000000 0.000000 0.000000 0.000000 0.000000 0.000000 0.000000 0.000000 0.000000 0.000000 0.000000 0.000000 0.000000 0.000000 0.000000 0.000000 0.000000 0.000000 0.000000 0.000000 2.876000 1.981000 1.895000 1.911000 1.928000 1.914000 1.913000 1.909000 1.898000 2.338000 0.000000 0.000000 0.000000 0.000000 0.000000 1.933000 1.911000 1.895000 1.894000 
