40 40
0.000000 0.000000 0.000000 0.000000 0.000000 0.000000 0.000000 0.000000 0.000000 0.000000 0.000000 0.000000 0.000000 0.000000 0.000000 0.000000 0.000000 0.000000 2.468000 2.029000 2.029000 2.029000 2.030000 2.029000 2.710000 0.000000 0.000000 0.000000 0.000000 0.000000 0.000000 0.000000 0.000000 0.000000 0.000000 0.000000 0.000000 0.000000 0.000000 0.000000 
0.000000 0.000000 0.000000 0.000000 0.000000 0.000000 0.000000 0.000000 0.000000 0.000000 0.000000 0.000000 0.000000 0.000000 0.000000 0.000000 0.000000 2.655000 2.021000 2.022000 2.024000 2.024000 2.026000 2.025000 2.034000 0.000000 0.000000 0.000000 0.000000 0.000000 0.000000 0.000000 0.000000 0.000000 0.000000 0.000000 0.000000 0.000000 0.000000 0.000000 
0.000000 0.000000 0.000000 0.000000 0.000000 0.000000 0.000000 0.000000 0.000000 0.000000 0.000000 0.000000 0.000000 0.000000 2.459000 2.157000 2.127000 2.009000 2.013000 2.017000 2.018000 2.023000 2.023000 2.025000 2.033000 2.040000 0.000000 0.000000 0.000000 0.000000 0.000000 0.000000 0.000000 0.000000 0.000000 0.000000 0.000000 0.000000 0.000000 0.000000 
0.000000 0.000000 0.000000 0.000000 0.000000 0.000000 0.000000 0.000000 0.000000 0.000000 0.000000 0.000000 0.000000 2.712000 1.999000 1.999000 2.001000 2.009000 2.009000 2.017000 2.018000 2.023000 2.027000 2.027000 2.033000 2.044000 0.000000 0.000000 0.000000 0.000000 0.000000 0.000000 0.000000 0.000000 0.000000 0.000000 0.000000 0.000000 0.000000 0.000000 
0.000000 0.000000 0.000000 0.000000 0.000000 0.000000 0.000000 0.000000 0.000000 0.000000 0.000000 0.000000 1.989000 1.988000 1.991000 1.995000 2.004000 2.004000 2.009000 2.013000 2.016000 2.023000 2.024000 2.026000 2.031000 2.034000 2.056000 0.000000 0.000000 0.000000 0.000000 0.000000 0.000000 0.000000 0.000000 0.000000 0.000000 0.000000 0.000000 0.000000 
0.000000 0.000000 0.000000 0.000000 0.000000 0.000000 0.000000 0.000000 0.000000 0.000000 1.986000 1.984000 1.987000 1.989000 1.991000 1.998000 2.004000 2.004000 2.009000 2.011000 2.013000 2.023000 2.027000 2.027000 2.029000 2.027000 2.027000 0.000000 0.000000 0.000000 0.000000 0.000000 0.000000 0.000000 0.000000 0.000000 0.000000 0.000000 0.000000 0.000000 
0.000000 0.000000 0.000000 0.000000 0.000000 0.000000 2.555000 1.974000 1.974000 1.974000 1.975000 1.982000 1.987000 1.990000 1.995000 2.000000 2.001000 2.005000 2.009000 2.011000 2.013000 2.018000 2.024000 2.027000 2.029000 2.030000 2.035000 2.201000 0.000000 0.000000 0.000000 0.000000 0.000000 0.000000 0.000000 0.000000 0.000000 0.000000 0.000000 0.000000 
0.000000 0.000000 0.000000 0.000000 0.000000 1.985000 1.974000 1.972000 1.970000 1.974000 1.977000 1.982000 1.987000 1.990000 1.991000 1.995000 2.004000 2.004000 2.007000 2.009000 2.017000 2.018000 2.023000 2.025000 2.030000 2.039000 2.036000 2.041000 0.000000 0.000000 0.000000 0.000000 0.000000 0.000000 0.000000 0.000000 0.000000 0.000000 0.000000 0.000000 
0.000000 0.000000 0.000000 2.018000 1.987000 1.981000 1.968000 1.968000 1.970000 1.974000 1.975000 1.978000 1.982000 1.991000 1.991000 1.995000 2.004000 2.004000 2.004000 2.009000 2.013000 2.019000 2.023000 2.025000 2.030000 2.036000 2.036000 2.037000 2.953000 0.000000 0.000000 0.000000 0.000000 0.000000 0.000000 0.000000 0.000000 0.000000 0.000000 0.000000 
0.000000 0.000000 2.029000 2.018000 1.991000 1.982000 1.970000 1.970000 1.970000 1.971000 1.974000 1.978000 1.980000 1.989000 1.991000 1.991000 1.999000 2.004000 2.004000 2.008000 2.009000 2.022000 2.023000 2.025000 2.027000 2.027000 2.027000 2.032000 2.041000 0.000000 0.000000 0.000000 0.000000 0.000000 0.000000 0.000000 0.000000 0.000000 0.000000 0.000000 
0.000000 2.052000 2.035000 2.020000 1.998000 1.988000 1.976000 1.970000 1.970000 1.974000 1.975000 1.978000 1.985000 1.987000 1.991000 1.991000 1.994000 2.000000 2.004000 2.008000 2.009000 2.014000 2.023000 2.025000 2.027000 2.028000 2.029000 2.032000 2.043000 2.914000 0.000000 0.000000 0.000000 0.000000 0.000000 0.000000 0.000000 0.000000 0.000000 0.000000 
0.000000 2.056000 2.044000 2.030000 2.007000 1.999000 1.985000 1.971000 1.970000 1.972000 1.978000 1.978000 1.985000 1.987000 1.991000 1.991000 1.994000 2.000000 2.004000 2.008000 2.009000 2.013000 2.023000 2.023000 2.027000 2.027000 2.032000 2.034000 2.041000 2.041000 2.045000 0.000000 0.000000 0.000000 0.000000 0.000000 0.000000 0.000000 0.000000 0.000000 
0.000000 2.061000 2.055000 2.040000 2.022000 2.006000 1.994000 1.980000 1.970000 1.970000 1.976000 1.978000 1.986000 1.987000 1.988000 1.991000 1.992000 1.999000 2.004000 2.009000 2.009000 2.010000 2.021000 2.023000 2.026000 2.027000 2.032000 2.036000 2.041000 2.046000 2.051000 0.000000 0.000000 0.000000 0.000000 0.000000 0.000000 0.000000 0.000000 0.000000 
0.000000 0.000000 2.057000 2.051000 2.030000 2.011000 1.999000 1.988000 1.975000 1.970000 1.974000 1.978000 1.979000 1.986000 1.987000 1.991000 1.991000 1.996000 2.004000 2.004000 2.009000 2.013000 2.013000 2.021000 2.026000 2.027000 2.032000 2.036000 2.046000 2.051000 2.051000 0.000000 0.000000 0.000000 0.000000 0.000000 0.000000 0.000000 0.000000 0.000000 
0.000000 0.000000 2.830000 2.052000 2.040000 2.026000 2.011000 1.993000 1.980000 1.974000 1.974000 1.974000 1.976000 1.981000 1.987000 1.991000 1.991000 1.997000 2.004000 2.004000 2.009000 2.013000 2.013000 2.020000 2.025000 2.027000 2.027000 2.033000 2.046000 2.043000 2.041000 0.000000 0.000000 0.000000 0.000000 0.000000 0.000000 0.000000 0.000000 0.000000 
0.000000 0.000000 1.986000 2.060000 2.046000 2.032000 2.021000 2.005000 1.993000 1.978000 1.973000 1.974000 1.977000 1.982000 1.987000 1.987000 1.991000 1.991000 1.997000 2.004000 2.009000 2.009000 2.013000 2.018000 2.023000 2.026000 2.027000 2.033000 2.041000 2.042000 2.045000 2.051000 0.000000 0.000000 0.000000 0.000000 0.000000 0.000000 0.000000 0.000000 
0.000000 0.000000 2.096000 2.067000 2.057000 2.040000 2.026000 2.013000 1.998000 1.984000 1.972000 1.974000 1.980000 1.984000 1.982000 1.987000 1.991000 1.992000 1.995000 2.003000 2.009000 2.009000 2.012000 2.018000 2.022000 2.023000 2.027000 2.032000 2.041000 2.046000 2.050000 2.054000 2.169000 0.000000 0.000000 0.000000 0.000000 0.000000 0.000000 0.000000 
0.000000 0.000000 0.000000 2.075000 2.057000 2.050000 2.036000 2.021000 2.005000 1.993000 1.974000 1.974000 1.976000 1.982000 1.984000 1.987000 1.991000 1.991000 1.995000 2.000000 2.009000 2.009000 2.009000 2.011000 2.021000 2.023000 2.023000 2.028000 2.038000 2.043000 2.050000 2.053000 2.131000 0.000000 0.000000 0.000000 0.000000 0.000000 0.000000 0.000000 
0.000000 0.000000 0.000000 1.326000 2.056000 2.057000 2.043000 2.028000 2.014000 2.003000 1.980000 1.974000 1.976000 1.981000 1.982000 1.987000 1.991000 1.991000 1.995000 1.995000 2.004000 2.009000 2.009000 2.011000 2.021000 2.026000 2.027000 2.027000 2.036000 2.039000 2.046000 2.050000 2.232000 0.000000 0.000000 0.000000 0.000000 0.000000 0.000000 0.000000 
0.000000 0.000000 0.000000 1.288000 0.000000 2.060000 2.051000 2.035000 2.023000 2.009000 1.986000 1.977000 1.976000 1.978000 1.982000 1.987000 1.991000 1.991000 1.998000 1.995000 2.004000 2.009000 2.009000 2.011000 2.021000 2.023000 2.027000 2.027000 2.032000 2.039000 2.046000 2.050000 2.046000 2.763000 0.000000 0.000000 0.000000 0.000000 0.000000 0.000000 
0.000000 0.000000 0.000000 0.000000 0.000000 1.101000 2.054000 2.043000 2.029000 2.019000 1.994000 1.981000 1.978000 1.978000 1.982000 1.987000 1.987000 1.991000 1.995000 2.000000 2.003000 2.009000 2.009000 2.011000 2.021000 2.023000 2.026000 2.027000 2.032000 2.044000 2.046000 2.046000 2.051000 2.051000 0.000000 0.000000 0.000000 0.000000 0.000000 0.000000 
0.000000 0.000000 0.000000 0.000000 0.000000 1.724000 2.056000 2.049000 2.038000 2.024000 2.000000 1.988000 1.981000 1.978000 1.982000 1.987000 1.987000 1.989000 1.993000 1.999000 2.000000 2.008000 2.009000 2.009000 2.020000 2.023000 2.023000 2.027000 2.032000 2.043000 2.046000 2.046000 2.049000 2.051000 2.780000 0.000000 0.000000 0.000000 0.000000 0.000000 
0.000000 0.000000 0.000000 0.000000 0.000000 0.000000 2.065000 2.059000 2.045000 2.034000 2.008000 1.996000 1.987000 1.982000 1.982000 1.987000 1.987000 1.990000 1.991000 1.995000 2.000000 2.004000 2.007000 2.009000 2.013000 2.022000 2.023000 2.027000 2.032000 2.036000 2.041000 2.046000 2.048000 2.051000 2.051000 0.000000 0.000000 0.000000 0.000000 0.000000 
0.000000 0.000000 0.000000 0.000000 0.000000 0.000000 1.781000 2.062000 2.056000 2.044000 2.029000 2.007000 1.995000 1.986000 1.978000 1.982000 1.987000 1.987000 1.991000 1.995000 2.000000 2.004000 2.008000 2.009000 2.013000 2.022000 2.023000 2.025000 2.032000 2.036000 2.043000 2.046000 2.046000 2.051000 2.051000 2.051000 0.000000 0.000000 0.000000 0.000000 
0.000000 0.000000 0.000000 0.000000 0.000000 0.000000 0.000000 2.060000 2.064000 2.050000 2.035000 2.014000 2.006000 1.991000 1.983000 1.982000 1.987000 1.987000 1.991000 1.995000 1.996000 2.004000 2.006000 2.009000 2.012000 2.017000 2.023000 2.023000 2.032000 2.036000 2.045000 2.046000 2.046000 2.051000 2.051000 2.054000 0.000000 0.000000 0.000000 0.000000 
0.000000 0.000000 0.000000 0.000000 0.000000 0.000000 0.000000 2.393000 0.000000 2.060000 2.040000 2.024000 2.011000 1.998000 1.987000 1.987000 1.987000 1.987000 1.991000 1.994000 1.995000 2.004000 2.004000 2.004000 2.009000 2.017000 2.018000 2.023000 2.029000 2.036000 2.043000 2.046000 2.046000 2.046000 2.049000 2.049000 1.060000 0.000000 0.000000 0.000000 
0.000000 0.000000 0.000000 0.000000 0.000000 0.000000 0.000000 0.000000 0.000000 2.065000 2.050000 2.031000 2.019000 2.003000 1.988000 1.987000 1.987000 1.987000 1.989000 1.991000 1.991000 2.000000 2.004000 2.004000 2.007000 2.013000 2.018000 2.023000 2.029000 2.036000 2.040000 2.045000 2.046000 2.046000 2.051000 2.051000 2.057000 0.000000 0.000000 0.000000 
0.000000 0.000000 0.000000 0.000000 0.000000 0.000000 0.000000 2.371000 0.000000 2.067000 2.058000 2.041000 2.029000 2.012000 1.998000 1.987000 1.987000 1.986000 1.987000 1.991000 1.991000 1.996000 2.004000 2.004000 2.007000 2.012000 2.016000 2.023000 2.029000 2.033000 2.036000 2.040000 2.041000 2.047000 2.051000 2.051000 2.063000 2.065000 0.000000 0.000000 
0.000000 0.000000 0.000000 0.000000 0.000000 0.000000 0.000000 2.405000 0.000000 1.363000 2.065000 2.047000 2.034000 2.018000 2.005000 1.993000 1.986000 1.986000 1.989000 1.991000 1.995000 1.996000 2.005000 2.008000 2.009000 2.009000 2.013000 2.023000 2.028000 2.032000 2.036000 2.038000 2.041000 2.047000 2.051000 2.052000 2.057000 2.065000 0.000000 0.000000 
0.000000 0.000000 0.000000 0.000000 0.000000 0.000000 0.000000 0.000000 1.354000 0.000000 1.304000 2.056000 2.040000 2.028000 2.010000 1.998000 1.987000 1.987000 1.988000 1.991000 1.992000 1.996000 2.004000 2.007000 2.009000 2.009000 2.017000 2.024000 2.027000 2.030000 2.037000 2.036000 2.041000 2.046000 2.051000 2.052000 2.051000 2.060000 0.000000 0.000000 
0.000000 0.000000 0.000000 0.000000 0.000000 0.000000 0.000000 0.000000 0.000000 0.000000 1.005000 2.069000 2.048000 2.037000 2.023000 2.004000 1.987000 1.987000 1.987000 1.991000 1.991000 1.996000 2.002000 2.004000 2.009000 2.009000 2.018000 2.024000 2.027000 2.027000 2.032000 2.036000 2.041000 2.046000 2.047000 2.046000 2.046000 0.000000 0.000000 0.000000 
0.000000 0.000000 0.000000 0.000000 0.000000 0.000000 0.000000 0.000000 0.000000 0.000000 0.000000 1.234000 2.060000 2.048000 2.033000 2.018000 1.992000 1.987000 1.987000 1.990000 1.995000 2.000000 2.000000 2.002000 2.007000 2.009000 2.013000 2.020000 2.027000 2.027000 2.031000 2.036000 2.041000 2.041000 2.046000 2.066000 0.000000 0.000000 0.000000 0.000000 
0.000000 0.000000 0.000000 0.000000 0.000000 0.000000 0.000000 0.000000 0.000000 0.000000 0.000000 0.000000 2.063000 2.054000 2.038000 2.024000 2.004000 1.990000 1.990000 1.991000 1.994000 1.995000 1.995000 1.998000 2.004000 2.009000 2.009000 2.018000 2.027000 2.027000 2.031000 2.032000 2.033000 2.070000 2.274000 2.441000 2.447000 2.439000 0.000000 0.000000 
0.000000 0.000000 0.000000 0.000000 0.000000 0.000000 0.000000 0.000000 0.000000 0.000000 2.440000 0.000000 1.815000 2.064000 2.049000 2.038000 2.022000 1.999000 1.992000 1.991000 1.991000 1.992000 1.997000 2.002000 2.004000 2.004000 2.009000 2.015000 2.024000 2.026000 2.032000 2.032000 2.035000 2.269000 2.444000 2.444000 2.444000 2.439000 0.000000 0.000000 
0.000000 0.000000 0.000000 0.000000 0.000000 0.000000 0.000000 0.000000 0.000000 0.000000 0.000000 0.000000 1.470000 2.074000 2.059000 2.041000 2.033000 2.016000 1.998000 1.991000 1.991000 1.995000 2.000000 2.000000 2.000000 2.004000 2.013000 2.019000 2.023000 2.024000 2.057000 2.059000 0.000000 2.418000 2.422000 2.423000 2.429000 2.439000 0.000000 0.000000 
0.000000 0.000000 0.000000 0.000000 0.000000 0.000000 0.000000 0.000000 0.000000 0.000000 0.000000 0.000000 0.000000 2.085000 2.070000 2.050000 2.039000 2.023000 1.999000 1.991000 1.988000 1.992000 2.000000 2.000000 2.002000 2.007000 2.010000 2.019000 2.023000 0.000000 0.000000 0.000000 0.000000 2.415000 2.418000 2.423000 2.417000 2.423000 0.000000 0.000000 
0.000000 2.611000 2.611000 2.582000 2.595000 2.706000 2.719000 0.000000 0.000000 0.000000 0.000000 0.000000 0.000000 1.702000 2.071000 2.060000 2.045000 2.025000 2.012000 1.993000 1.991000 1.991000 1.995000 1.995000 2.003000 2.004000 2.013000 0.000000 1.656000 0.000000 0.000000 0.000000 0.000000 2.423000 2.420000 2.415000 2.415000 2.423000 0.000000 0.000000 
0.000000 2.936000 2.957000 2.941000 2.590000 2.581000 2.591000 2.580000 2.557000 2.572000 2.560000 2.553000 2.552000 2.537000 2.087000 2.065000 2.054000 2.030000 2.020000 2.006000 1.996000 1.991000 1.995000 1.995000 2.002000 1.840000 0.000000 0.000000 1.384000 2.135000 2.125000 2.116000 0.000000 0.000000 2.080000 2.056000 2.047000 2.046000 0.000000 0.000000 
0.000000 0.000000 0.000000 0.000000 0.000000 0.000000 0.000000 0.000000 0.000000 2.575000 2.553000 2.553000 2.548000 2.537000 2.259000 2.080000 2.065000 2.040000 2.028000 2.014000 2.000000 1.992000 1.995000 1.991000 1.056000 0.000000 0.000000 0.000000 2.127000 2.121000 2.105000 2.093000 2.077000 2.061000 2.039000 2.036000 2.036000 2.041000 0.000000 0.000000 
0.000000 0.000000 0.000000 0.000000 0.000000 0.000000 0.000000 0.000000 0.000000 0.000000 0.000000 0.000000 0.000000 0.000000 0.000000 0.000000 2.072000 2.047000 2.272000 2.257000 2.248000 1.995000 1.995000 1.991000 0.000000 0.000000 1.431000 1.425000 2.104000 2.087000 2.078000 2.065000 2.058000 2.037000 2.032000 2.036000 2.034000 2.041000 0.000000 0.000000 
