0.000000,0.000000,0.000000,0.000000,0.000000,0.000000,0.000000,0.000000,0.000000,0.000000,0.000000,0.000000,0.000000,0.000000,0.000000,0.000000,0.000000,0.000000,0.000000,0.000000,0.000000,0.000000,0.000000,0.000000,0.000000,0.000000,0.000000,0.000000,0.000000,0.000000,0.000000,0.000000,0.000000,0.000000,0.000000,0.000000,0.000000,0.000000,0.000000,0.000000,
0.000000,0.000000,0.000000,0.000000,0.000000,0.000000,0.000000,0.000000,0.000000,0.000000,0.000000,0.000000,0.000000,0.000000,0.000000,0.000000,0.000000,0.000000,0.000000,0.000000,0.000000,0.000000,0.000000,0.000000,0.000000,0.000000,0.000000,0.000000,0.000000,0.000000,0.000000,0.000000,0.000000,0.000000,0.000000,0.000000,0.000000,0.000000,0.000000,0.000000,
0.000000,0.000000,0.000000,0.000000,0.000000,0.000000,0.000000,0.000000,0.000000,0.000000,0.000000,0.000000,0.000000,0.000000,0.000000,0.000000,0.000000,0.000000,0.000000,0.000000,0.000000,0.000000,0.000000,0.000000,0.000000,0.000000,0.000000,0.000000,0.000000,0.000000,0.000000,0.000000,0.000000,0.000000,0.000000,0.000000,0.000000,0.000000,0.000000,0.000000,
0.000000,0.000000,0.000000,0.000000,0.000000,0.000000,0.000000,0.000000,0.000000,0.000000,0.000000,0.000000,0.000000,0.000000,0.000000,0.000000,0.000000,0.000000,0.000000,0.000000,0.000000,0.000000,0.000000,0.000000,0.000000,0.000000,0.000000,0.000000,2.645000,2.000000,1.989000,1.982000,1.981000,1.975000,2.264000,0.000000,0.000000,0.000000,0.000000,0.000000,
0.000000,0.000000,0.000000,0.000000,0.000000,0.000000,0.000000,0.000000,0.000000,0.000000,0.000000,0.000000,0.000000,0.000000,0.000000,0.000000,0.000000,0.000000,0.000000,0.000000,0.000000,0.000000,0.000000,0.000000,0.000000,2.631000,2.243000,2.002000,1.989000,1.977000,1.976000,1.976000,1.975000,1.975000,1.976000,2.168000,0.000000,0.000000,0.000000,0.000000,
0.000000,0.000000,0.000000,0.000000,0.000000,0.000000,0.000000,0.000000,0.000000,0.000000,0.000000,0.000000,0.000000,0.000000,0.000000,0.000000,0.000000,0.000000,0.000000,0.000000,0.000000,0.000000,0.000000,0.000000,2.001000,1.985000,1.982000,1.979000,1.977000,1.975000,1.975000,1.975000,1.979000,1.977000,1.975000,1.975000,0.000000,0.000000,0.000000,0.000000,
0.000000,0.000000,0.000000,0.000000,0.000000,0.000000,0.000000,0.000000,0.000000,0.000000,0.000000,0.000000,0.000000,0.000000,0.000000,0.000000,0.000000,0.000000,0.000000,0.000000,0.000000,0.000000,0.000000,1.982000,1.979000,1.967000,1.975000,1.975000,1.975000,1.975000,1.976000,1.979000,1.983000,1.983000,1.976000,1.976000,0.000000,0.000000,0.000000,0.000000,
0.000000,0.000000,0.000000,0.000000,0.000000,0.000000,0.000000,0.000000,0.000000,0.000000,0.000000,0.000000,0.000000,0.000000,0.000000,0.000000,0.000000,0.000000,2.685000,1.994000,1.996000,1.983000,1.962000,1.965000,1.967000,1.967000,1.970000,1.975000,1.975000,1.981000,1.983000,1.983000,1.983000,1.983000,1.983000,1.983000,0.000000,0.000000,0.000000,0.000000,
0.000000,0.000000,0.000000,0.000000,0.000000,0.000000,0.000000,0.000000,0.000000,0.000000,0.000000,0.000000,0.000000,0.000000,0.000000,0.000000,2.903000,1.995000,1.980000,1.973000,1.973000,1.970000,1.961000,1.965000,1.967000,1.967000,1.970000,1.975000,1.980000,1.983000,1.983000,1.983000,1.983000,1.983000,1.984000,1.993000,1.996000,0.000000,1.545000,0.000000,
0.000000,0.000000,0.000000,0.000000,0.000000,0.000000,0.000000,0.000000,0.000000,0.000000,0.000000,0.000000,0.000000,2.945000,2.274000,2.050000,1.990000,1.976000,1.967000,1.967000,1.967000,1.967000,1.967000,1.967000,1.967000,1.967000,1.970000,1.975000,1.980000,1.983000,1.983000,1.983000,1.990000,1.990000,1.992000,2.005000,2.010000,1.822000,0.000000,0.000000,
0.000000,0.000000,0.000000,0.000000,0.000000,0.000000,0.000000,0.000000,0.000000,0.000000,0.000000,0.000000,1.995000,1.987000,1.979000,1.972000,1.963000,1.967000,1.967000,1.967000,1.967000,1.967000,1.967000,1.967000,1.975000,1.975000,1.975000,1.975000,1.980000,1.991000,1.988000,1.987000,1.991000,1.991000,2.000000,2.006000,2.011000,2.021000,1.070000,0.000000,
0.000000,0.000000,0.000000,0.000000,0.000000,0.000000,0.000000,1.999000,2.004000,1.996000,1.983000,1.982000,1.974000,1.967000,1.967000,1.967000,1.960000,1.967000,1.967000,1.968000,1.968000,1.968000,1.968000,1.968000,1.975000,1.975000,1.976000,1.976000,1.985000,1.991000,1.992000,1.992000,2.000000,2.000000,2.008000,2.008000,2.008000,2.016000,1.068000,0.000000,
0.000000,0.000000,0.000000,0.000000,0.000000,2.879000,2.372000,1.985000,1.979000,1.969000,1.967000,1.967000,1.967000,1.967000,1.967000,1.967000,1.967000,1.967000,1.967000,1.975000,1.975000,1.975000,1.975000,1.975000,1.976000,1.980000,1.983000,1.988000,1.993000,1.999000,2.005000,2.005000,2.005000,2.005000,2.008000,2.008000,2.010000,2.011000,1.066000,0.000000,
0.000000,0.000000,0.000000,0.000000,1.988000,1.974000,1.973000,1.972000,1.967000,1.959000,1.966000,1.967000,1.967000,1.967000,1.969000,1.969000,1.969000,1.969000,1.975000,1.975000,1.975000,1.975000,1.975000,1.981000,1.985000,1.990000,1.991000,1.991000,1.997000,2.002000,2.008000,2.008000,2.008000,2.008000,2.008000,2.008000,2.012000,2.008000,2.008000,0.000000,
2.245000,2.003000,1.985000,1.977000,1.968000,1.960000,1.960000,1.967000,1.967000,1.966000,1.967000,1.967000,1.967000,1.971000,1.975000,1.975000,1.975000,1.975000,1.975000,1.975000,1.975000,1.978000,1.982000,1.990000,1.991000,1.991000,1.991000,1.991000,2.004000,2.007000,2.008000,2.008000,2.008000,2.008000,2.008000,2.008000,2.016000,2.015000,2.015000,1.557000,
2.017000,1.994000,1.963000,1.960000,1.957000,1.952000,1.957000,1.967000,1.967000,1.967000,1.967000,1.967000,1.967000,1.973000,1.975000,1.975000,1.975000,1.975000,1.977000,1.982000,1.979000,1.982000,1.987000,1.991000,1.992000,1.995000,1.995000,1.995000,2.005000,2.009000,2.012000,2.016000,2.016000,2.016000,2.016000,2.016000,2.016000,2.020000,2.031000,2.036000,
2.017000,1.963000,1.959000,1.959000,1.959000,1.953000,1.956000,1.967000,1.967000,1.967000,1.967000,1.967000,1.975000,1.975000,1.975000,1.975000,1.975000,1.975000,1.980000,1.991000,1.991000,1.991000,1.991000,1.991000,1.993000,2.000000,2.000000,2.000000,2.010000,2.016000,2.016000,2.016000,2.016000,2.016000,2.016000,2.023000,2.025000,2.033000,2.038000,2.043000,
2.017000,1.960000,1.959000,1.959000,1.959000,1.959000,1.959000,1.967000,1.967000,1.967000,1.967000,1.975000,1.975000,1.975000,1.982000,1.980000,1.978000,1.975000,1.982000,1.993000,2.000000,1.999000,1.997000,2.000000,2.000000,2.000000,2.005000,2.005000,2.012000,2.016000,2.016000,2.016000,2.016000,2.025000,2.030000,2.030000,2.030000,2.039000,2.042000,2.042000,
2.019000,1.959000,1.959000,1.959000,1.959000,1.959000,1.961000,1.969000,1.969000,1.975000,1.975000,1.977000,1.977000,1.983000,1.981000,1.975000,1.985000,1.985000,1.989000,1.995000,2.000000,2.000000,2.000000,2.000000,2.000000,2.006000,2.008000,2.008000,2.013000,2.018000,2.020000,2.018000,2.018000,2.026000,2.035000,2.042000,2.042000,2.042000,2.042000,2.042000,
0.000000,1.959000,1.959000,1.959000,1.961000,1.966000,1.967000,1.975000,1.975000,1.975000,1.975000,1.983000,1.983000,1.983000,1.983000,1.982000,1.991000,1.991000,1.996000,2.000000,2.000000,2.000000,2.000000,2.004000,2.007000,2.008000,2.008000,2.008000,2.013000,2.018000,2.025000,2.025000,2.025000,2.030000,2.035000,2.042000,2.042000,2.042000,2.045000,2.042000,
0.000000,0.000000,1.967000,1.967000,1.967000,1.967000,1.967000,1.975000,1.975000,1.975000,1.978000,1.983000,1.991000,1.986000,1.983000,1.986000,2.000000,2.000000,2.000000,2.000000,2.000000,2.003000,2.008000,2.008000,2.009000,2.012000,2.012000,2.016000,2.021000,2.026000,2.028000,2.030000,2.033000,2.037000,2.042000,2.042000,2.045000,2.051000,2.048000,2.046000,
0.000000,0.000000,1.967000,1.967000,1.967000,1.974000,1.967000,1.983000,1.983000,1.983000,1.983000,1.983000,1.991000,1.991000,1.991000,1.999000,2.000000,2.000000,2.000000,2.000000,2.007000,2.008000,2.008000,2.013000,2.018000,2.025000,2.016000,2.016000,2.026000,2.035000,2.042000,2.042000,2.042000,2.042000,2.044000,2.051000,2.051000,2.051000,2.051000,2.052000,
0.000000,0.000000,1.967000,1.972000,1.980000,1.976000,1.975000,1.984000,1.991000,1.991000,1.991000,1.994000,2.000000,2.003000,2.005000,2.005000,2.005000,2.005000,2.007000,2.008000,2.008000,2.008000,2.013000,2.019000,2.025000,2.025000,2.025000,2.025000,2.035000,2.042000,2.042000,2.042000,2.042000,2.045000,2.048000,2.051000,2.051000,2.051000,2.056000,2.057000,
0.000000,0.000000,0.000000,1.991000,1.983000,1.983000,1.983000,1.991000,1.992000,1.993000,1.993000,2.000000,2.000000,2.006000,2.008000,2.008000,2.010000,2.010000,2.008000,2.013000,2.008000,2.016000,2.025000,2.030000,2.033000,2.028000,2.029000,2.035000,2.039000,2.042000,2.042000,2.042000,2.044000,2.051000,2.051000,2.051000,2.054000,2.059000,2.059000,2.059000,
0.000000,0.000000,0.000000,2.549000,1.983000,1.977000,1.980000,1.991000,1.997000,2.000000,2.000000,2.000000,2.007000,2.008000,2.008000,2.008000,2.016000,2.016000,2.008000,2.009000,2.015000,2.019000,2.032000,2.032000,2.033000,2.033000,2.036000,2.042000,2.042000,2.042000,2.042000,2.045000,2.051000,2.051000,2.051000,2.051000,2.058000,2.059000,2.063000,2.068000,
0.000000,0.000000,0.000000,2.669000,1.983000,1.982000,1.984000,1.995000,1.998000,2.000000,2.007000,2.008000,2.008000,2.008000,2.009000,2.015000,2.018000,2.020000,2.020000,2.022000,2.028000,2.030000,2.033000,2.033000,2.033000,2.036000,2.042000,2.042000,2.047000,2.051000,2.051000,2.054000,2.054000,2.054000,2.059000,2.059000,2.063000,2.068000,2.068000,2.073000,
0.000000,0.000000,0.000000,2.699000,1.991000,1.991000,1.991000,2.000000,2.000000,2.000000,2.007000,2.008000,2.008000,2.008000,2.010000,2.016000,2.020000,2.025000,2.030000,2.033000,2.033000,2.033000,2.033000,2.033000,2.033000,2.040000,2.042000,2.042000,2.047000,2.051000,2.057000,2.059000,2.059000,2.064000,2.068000,2.075000,2.077000,2.102000,2.103000,2.113000,
0.000000,0.000000,0.000000,0.000000,2.944000,2.000000,2.000000,2.008000,2.008000,2.008000,2.008000,2.008000,2.008000,2.011000,2.021000,2.030000,2.030000,2.030000,2.033000,2.033000,2.033000,2.033000,2.039000,2.039000,2.039000,2.041000,2.042000,2.042000,2.047000,2.059000,2.059000,2.065000,2.068000,2.076000,2.077000,2.077000,2.579000,0.000000,0.000000,0.000000,
0.000000,0.000000,0.000000,0.000000,0.000000,2.654000,2.000000,2.008000,2.014000,2.010000,2.015000,2.016000,2.016000,2.022000,2.033000,2.033000,2.033000,2.033000,2.034000,2.035000,2.041000,2.042000,2.042000,2.043000,2.044000,2.051000,2.052000,2.051000,2.052000,2.061000,2.068000,2.068000,2.068000,2.077000,2.158000,2.544000,0.000000,0.000000,0.000000,0.000000,
0.000000,0.000000,0.000000,0.000000,0.000000,0.000000,2.000000,2.015000,2.016000,2.023000,2.023000,2.023000,2.023000,2.029000,2.033000,2.033000,2.033000,2.033000,2.041000,2.042000,2.042000,2.042000,2.042000,2.050000,2.053000,2.059000,2.058000,2.051000,2.056000,2.067000,2.068000,2.068000,2.068000,0.000000,0.000000,0.000000,0.000000,0.000000,0.000000,0.000000,
0.000000,0.000000,0.000000,0.000000,0.000000,0.000000,2.008000,2.025000,2.025000,2.025000,2.028000,2.028000,2.033000,2.033000,2.034000,2.037000,2.037000,2.037000,2.042000,2.042000,2.042000,2.051000,2.054000,2.054000,2.060000,2.063000,2.067000,2.059000,2.064000,2.068000,2.779000,0.000000,0.000000,0.000000,0.000000,0.000000,0.000000,0.000000,0.000000,0.000000,
0.000000,0.000000,0.000000,0.000000,0.000000,1.991000,2.012000,2.033000,2.033000,2.033000,2.033000,2.033000,2.033000,2.033000,2.035000,2.042000,2.042000,2.042000,2.042000,2.051000,2.051000,2.054000,2.059000,2.059000,2.061000,2.068000,2.064000,2.059000,2.064000,0.000000,0.000000,0.000000,0.000000,0.000000,0.000000,0.000000,0.000000,0.000000,0.000000,0.000000,
0.000000,0.000000,0.000000,0.000000,0.000000,0.000000,0.000000,2.042000,2.040000,2.038000,2.038000,2.038000,2.033000,2.033000,2.042000,2.042000,2.047000,2.042000,2.042000,2.051000,2.051000,2.057000,2.059000,2.068000,2.073000,2.073000,2.595000,0.000000,0.000000,0.000000,0.000000,0.000000,0.000000,0.000000,0.000000,0.000000,0.000000,0.000000,0.000000,0.000000,
0.000000,0.000000,0.000000,0.000000,0.000000,0.000000,0.000000,2.051000,2.044000,2.042000,2.042000,2.042000,2.042000,2.043000,2.051000,2.052000,2.053000,2.053000,2.053000,2.059000,2.059000,2.064000,2.068000,2.321000,0.000000,0.000000,0.000000,0.000000,0.000000,0.000000,0.000000,0.000000,0.000000,0.000000,0.000000,0.000000,0.000000,0.000000,0.000000,0.000000,
0.000000,0.000000,0.000000,0.000000,0.000000,0.000000,0.000000,0.000000,2.042000,2.042000,2.042000,2.042000,2.042000,2.050000,2.051000,2.058000,2.059000,2.066000,2.066000,2.066000,2.066000,2.795000,0.000000,0.000000,0.000000,0.000000,0.000000,0.000000,0.000000,0.000000,0.000000,0.000000,0.000000,0.000000,0.000000,0.000000,0.000000,0.000000,0.000000,0.000000,
0.000000,0.000000,0.000000,0.000000,0.000000,0.000000,0.000000,0.000000,2.501000,2.053000,2.046000,2.045000,2.051000,2.057000,2.054000,2.058000,2.059000,2.094000,2.919000,2.918000,0.000000,0.000000,0.000000,0.000000,0.000000,0.000000,0.000000,0.000000,0.000000,0.000000,0.000000,0.000000,0.000000,0.000000,0.000000,0.000000,0.000000,0.000000,0.000000,0.000000,
0.000000,0.000000,0.000000,0.000000,0.000000,0.000000,0.000000,0.000000,2.059000,2.065000,2.052000,2.051000,2.051000,2.059000,2.068000,2.068000,0.000000,0.000000,0.000000,0.000000,0.000000,0.000000,0.000000,0.000000,0.000000,0.000000,0.000000,0.000000,0.000000,0.000000,0.000000,0.000000,0.000000,0.000000,0.000000,0.000000,0.000000,0.000000,0.000000,0.000000,
0.000000,0.000000,0.000000,0.000000,0.000000,0.000000,0.000000,0.000000,0.000000,0.000000,0.000000,0.000000,0.000000,0.000000,0.000000,0.000000,0.000000,0.000000,0.000000,0.000000,0.000000,0.000000,0.000000,0.000000,0.000000,0.000000,0.000000,0.000000,0.000000,0.000000,0.000000,0.000000,0.000000,0.000000,0.000000,0.000000,0.000000,0.000000,0.000000,0.000000,
0.000000,0.000000,0.000000,0.000000,0.000000,0.000000,0.000000,0.000000,0.000000,0.000000,0.000000,0.000000,0.000000,0.000000,0.000000,0.000000,0.000000,0.000000,0.000000,0.000000,0.000000,0.000000,0.000000,0.000000,0.000000,0.000000,0.000000,0.000000,0.000000,0.000000,0.000000,0.000000,0.000000,0.000000,0.000000,0.000000,0.000000,0.000000,0.000000,0.000000,
0.000000,0.000000,0.000000,0.000000,0.000000,0.000000,0.000000,0.000000,0.000000,0.000000,0.000000,0.000000,0.000000,0.000000,0.000000,0.000000,0.000000,0.000000,0.000000,0.000000,0.000000,0.000000,0.000000,0.000000,0.000000,0.000000,0.000000,0.000000,0.000000,0.000000,0.000000,0.000000,0.000000,0.000000,0.000000,0.000000,0.000000,0.000000,0.000000,0.000000,
