40 40
0.000000 0.000000 0.000000 0.000000 0.000000 0.000000 0.000000 0.000000 0.000000 0.000000 0.000000 0.000000 0.000000 0.000000 0.000000 0.000000 0.000000 0.000000 0.000000 0.000000 0.000000 0.000000 0.000000 0.000000 0.000000 0.000000 0.000000 0.000000 0.000000 0.000000 0.000000 0.000000 0.000000 0.000000 0.000000 0.000000 0.000000 0.000000 0.000000 0.000000 
0.000000 0.000000 0.000000 0.000000 0.000000 0.000000 0.000000 0.000000 0.000000 0.000000 0.000000 0.000000 0.000000 0.000000 0.000000 0.000000 0.000000 2.616000 2.085000 2.080000 2.066000 2.069000 2.085000 2.092000 2.096000 2.099000 2.102000 2.109000 2.098000 0.000000 0.000000 0.000000 0.000000 0.000000 0.000000 0.000000 0.000000 0.000000 0.000000 0.000000 
0.000000 0.000000 0.000000 0.000000 0.000000 0.000000 0.000000 0.000000 2.049000 2.039000 2.038000 2.030000 1.977000 1.981000 2.042000 2.046000 2.047000 2.049000 2.052000 2.047000 2.041000 2.046000 2.063000 2.055000 2.055000 2.062000 2.078000 2.067000 2.054000 2.047000 2.048000 2.053000 2.301000 0.000000 0.000000 0.000000 0.000000 0.000000 0.000000 0.000000 
0.000000 0.000000 0.000000 0.000000 0.000000 0.000000 0.000000 2.051000 2.044000 2.031000 2.018000 2.002000 1.981000 1.985000 1.996000 2.006000 2.004000 2.003000 2.005000 2.009000 2.014000 2.014000 2.015000 2.015000 2.021000 2.032000 2.033000 2.035000 2.037000 2.043000 2.047000 2.051000 2.041000 0.000000 0.000000 0.000000 0.000000 0.000000 0.000000 0.000000 
0.000000 0.000000 0.000000 0.000000 0.000000 0.000000 0.000000 2.040000 2.038000 2.019000 1.999000 1.985000 1.972000 1.972000 1.981000 1.982000 1.987000 1.988000 1.993000 1.996000 2.000000 2.001000 2.007000 2.011000 2.011000 2.017000 2.028000 2.035000 2.035000 2.041000 2.044000 2.049000 2.041000 0.000000 0.000000 0.000000 0.000000 0.000000 0.000000 0.000000 
0.000000 0.000000 0.000000 0.000000 0.000000 0.000000 0.000000 2.042000 2.033000 2.015000 1.998000 1.977000 1.972000 1.972000 1.972000 1.977000 1.983000 1.988000 1.991000 1.994000 2.000000 2.006000 2.007000 2.011000 2.017000 2.017000 2.028000 2.033000 2.035000 2.038000 2.041000 2.045000 2.041000 0.000000 0.000000 0.000000 0.000000 0.000000 0.000000 0.000000 
0.000000 0.000000 0.000000 0.000000 0.000000 0.000000 0.000000 2.035000 2.033000 2.015000 1.992000 1.977000 1.972000 1.972000 1.972000 1.977000 1.983000 1.986000 1.988000 1.990000 1.996000 2.001000 2.011000 2.011000 2.017000 2.017000 2.027000 2.033000 2.035000 2.038000 2.041000 2.041000 2.041000 0.000000 0.000000 0.000000 0.000000 0.000000 0.000000 0.000000 
0.000000 0.000000 0.000000 0.000000 0.000000 0.000000 0.000000 2.035000 2.033000 2.016000 1.992000 1.972000 1.966000 1.972000 1.972000 1.976000 1.981000 1.986000 1.988000 1.994000 1.996000 2.001000 2.011000 2.011000 2.017000 2.022000 2.023000 2.029000 2.035000 2.041000 2.041000 2.041000 2.047000 0.000000 0.000000 0.000000 0.000000 0.000000 0.000000 0.000000 
0.000000 0.000000 0.000000 0.000000 0.000000 0.000000 0.000000 2.039000 2.032000 2.014000 1.997000 1.971000 1.966000 1.972000 1.972000 1.976000 1.985000 1.988000 1.988000 1.991000 1.996000 2.006000 2.011000 2.011000 2.017000 2.023000 2.023000 2.027000 2.035000 2.041000 2.041000 2.041000 2.042000 0.000000 0.000000 0.000000 0.000000 0.000000 0.000000 0.000000 
0.000000 0.000000 0.000000 0.000000 0.000000 0.000000 0.000000 2.035000 2.031000 2.014000 1.993000 1.972000 1.966000 1.972000 1.972000 1.977000 1.986000 1.988000 1.988000 1.990000 1.994000 2.002000 2.011000 2.011000 2.017000 2.023000 2.027000 2.028000 2.035000 2.041000 2.041000 2.039000 2.035000 0.000000 0.000000 0.000000 0.000000 0.000000 0.000000 0.000000 
0.000000 0.000000 0.000000 0.000000 0.000000 0.000000 0.000000 2.040000 2.033000 2.015000 1.996000 1.971000 1.966000 1.972000 1.975000 1.977000 1.983000 1.986000 1.988000 1.990000 1.994000 2.001000 2.011000 2.011000 2.017000 2.023000 2.029000 2.032000 2.035000 2.041000 2.041000 2.041000 2.041000 0.000000 0.000000 0.000000 0.000000 0.000000 0.000000 0.000000 
0.000000 0.000000 0.000000 0.000000 0.000000 0.000000 0.000000 2.048000 2.037000 2.015000 1.996000 1.971000 1.966000 1.968000 1.976000 1.977000 1.983000 1.988000 1.990000 1.994000 2.000000 2.004000 2.011000 2.011000 2.020000 2.023000 2.029000 2.033000 2.035000 2.038000 2.041000 2.041000 2.041000 0.000000 0.000000 0.000000 0.000000 0.000000 0.000000 0.000000 
0.000000 0.000000 0.000000 0.000000 0.000000 0.000000 0.000000 2.051000 2.036000 2.015000 1.996000 1.971000 1.966000 1.966000 1.974000 1.977000 1.983000 1.988000 1.991000 1.994000 2.001000 2.006000 2.011000 2.011000 2.017000 2.023000 2.029000 2.031000 2.035000 2.040000 2.041000 2.042000 2.044000 0.000000 0.000000 0.000000 0.000000 0.000000 0.000000 0.000000 
0.000000 0.000000 0.000000 0.000000 0.000000 0.000000 0.000000 2.055000 2.034000 2.014000 1.992000 1.971000 1.966000 1.972000 1.972000 1.977000 1.983000 1.988000 1.991000 1.994000 2.000000 2.011000 2.011000 2.013000 2.017000 2.023000 2.029000 2.030000 2.035000 2.038000 2.041000 2.041000 2.045000 0.000000 0.000000 0.000000 0.000000 0.000000 0.000000 0.000000 
0.000000 0.000000 0.000000 0.000000 0.000000 0.000000 0.000000 2.044000 2.036000 2.013000 1.992000 1.971000 1.966000 1.972000 1.972000 1.980000 1.983000 1.988000 1.988000 1.990000 1.999000 2.007000 2.011000 2.017000 2.017000 2.023000 2.029000 2.034000 2.035000 2.039000 2.041000 2.041000 2.041000 0.000000 0.000000 0.000000 0.000000 0.000000 0.000000 0.000000 
0.000000 0.000000 0.000000 0.000000 0.000000 0.000000 0.000000 2.036000 2.033000 2.013000 1.987000 1.972000 1.966000 1.972000 1.972000 1.977000 1.986000 1.988000 1.988000 1.990000 2.002000 2.007000 2.011000 2.017000 2.017000 2.023000 2.029000 2.033000 2.036000 2.041000 2.044000 2.041000 2.126000 0.000000 0.000000 0.000000 0.000000 0.000000 0.000000 0.000000 
0.000000 0.000000 0.000000 0.000000 0.000000 0.000000 0.000000 2.038000 2.033000 2.013000 1.987000 1.972000 1.972000 1.972000 1.972000 1.977000 1.986000 1.988000 1.988000 1.994000 2.002000 2.007000 2.011000 2.017000 2.017000 2.024000 2.034000 2.035000 2.041000 2.041000 2.043000 2.048000 2.446000 0.000000 0.000000 0.000000 0.000000 0.000000 0.000000 0.000000 
0.000000 0.000000 0.000000 0.000000 0.000000 0.000000 0.000000 2.048000 2.037000 2.011000 1.987000 1.972000 1.972000 1.972000 1.977000 1.981000 1.988000 1.988000 1.991000 1.994000 2.002000 2.011000 2.012000 2.017000 2.017000 2.028000 2.033000 2.035000 2.038000 2.041000 2.041000 2.043000 2.446000 0.000000 0.000000 0.000000 0.000000 0.000000 0.000000 0.000000 
0.000000 0.000000 0.000000 0.000000 0.000000 0.000000 0.000000 2.051000 2.041000 2.011000 1.982000 1.972000 1.972000 1.977000 1.977000 1.981000 1.988000 1.991000 1.994000 1.994000 2.002000 2.011000 2.011000 2.011000 2.017000 2.023000 2.029000 2.033000 2.035000 2.041000 2.041000 2.043000 2.439000 0.000000 0.000000 0.000000 0.000000 0.000000 0.000000 0.000000 
0.000000 0.000000 0.000000 0.000000 0.000000 0.000000 0.000000 2.049000 2.041000 2.007000 1.982000 1.972000 1.972000 1.977000 1.977000 1.977000 1.988000 1.994000 1.994000 1.996000 2.002000 2.007000 2.011000 2.011000 2.017000 2.027000 2.034000 2.035000 2.035000 2.038000 2.041000 2.050000 2.054000 0.000000 0.000000 0.000000 0.000000 0.000000 0.000000 0.000000 
0.000000 0.000000 0.000000 0.000000 0.000000 0.000000 0.000000 2.048000 2.043000 2.006000 1.982000 1.972000 1.972000 1.972000 1.976000 1.981000 1.988000 1.994000 1.994000 1.996000 2.002000 2.007000 2.012000 2.017000 2.017000 2.024000 2.034000 2.035000 2.035000 2.041000 2.043000 2.050000 2.346000 0.000000 0.000000 0.000000 0.000000 0.000000 0.000000 0.000000 
0.000000 0.000000 0.000000 0.000000 0.000000 0.000000 0.000000 2.052000 2.043000 2.006000 1.985000 1.972000 1.972000 1.972000 1.977000 1.987000 1.988000 1.994000 1.994000 2.002000 2.006000 2.007000 2.011000 2.017000 2.017000 2.023000 2.034000 2.035000 2.038000 2.041000 2.044000 2.050000 2.444000 0.000000 0.000000 0.000000 0.000000 0.000000 0.000000 0.000000 
0.000000 0.000000 0.000000 0.000000 0.000000 0.000000 0.000000 2.055000 2.041000 2.006000 1.987000 1.974000 1.972000 1.975000 1.977000 1.985000 1.988000 1.994000 1.994000 2.004000 2.011000 2.011000 2.011000 2.017000 2.017000 2.026000 2.034000 2.035000 2.036000 2.041000 2.044000 2.050000 2.225000 0.000000 0.000000 0.000000 0.000000 0.000000 0.000000 0.000000 
0.000000 0.000000 0.000000 0.000000 0.000000 0.000000 0.000000 2.044000 2.037000 2.008000 1.986000 1.972000 1.972000 1.974000 1.977000 1.983000 1.988000 1.994000 1.994000 2.006000 2.011000 2.011000 2.012000 2.017000 2.017000 2.028000 2.034000 2.035000 2.035000 2.038000 2.044000 2.050000 2.060000 0.000000 0.000000 0.000000 0.000000 0.000000 0.000000 0.000000 
0.000000 0.000000 0.000000 0.000000 0.000000 0.000000 0.000000 2.040000 2.036000 2.008000 1.982000 1.972000 1.972000 1.972000 1.977000 1.977000 1.986000 1.991000 1.994000 2.000000 2.006000 2.011000 2.012000 2.017000 2.017000 2.023000 2.032000 2.035000 2.035000 2.038000 2.045000 2.045000 2.203000 0.000000 0.000000 0.000000 0.000000 0.000000 0.000000 0.000000 
0.000000 0.000000 0.000000 0.000000 0.000000 0.000000 0.000000 2.050000 2.039000 2.008000 1.983000 1.972000 1.972000 1.972000 1.977000 1.978000 1.988000 1.988000 1.994000 2.000000 2.007000 2.011000 2.012000 2.017000 2.023000 2.028000 2.029000 2.035000 2.037000 2.041000 2.048000 2.043000 2.048000 0.000000 0.000000 0.000000 0.000000 0.000000 0.000000 0.000000 
0.000000 0.000000 0.000000 0.000000 0.000000 0.000000 0.000000 2.055000 2.040000 2.008000 1.986000 1.972000 1.972000 1.973000 1.977000 1.981000 1.988000 1.988000 1.991000 1.996000 2.007000 2.011000 2.012000 2.017000 2.023000 2.028000 2.029000 2.035000 2.035000 2.041000 2.048000 2.049000 2.049000 0.000000 0.000000 0.000000 0.000000 0.000000 0.000000 0.000000 
0.000000 0.000000 0.000000 0.000000 0.000000 0.000000 0.000000 2.045000 2.039000 2.008000 1.987000 1.972000 1.972000 1.972000 1.977000 1.981000 1.986000 1.988000 1.991000 1.996000 2.006000 2.011000 2.017000 2.017000 2.017000 2.028000 2.034000 2.035000 2.036000 2.041000 2.048000 2.053000 2.054000 0.000000 0.000000 0.000000 0.000000 0.000000 0.000000 0.000000 
0.000000 0.000000 0.000000 0.000000 0.000000 0.000000 0.000000 2.045000 2.037000 2.006000 1.986000 1.971000 1.966000 1.972000 1.972000 1.976000 1.986000 1.988000 1.994000 1.994000 2.002000 2.011000 2.017000 2.017000 2.017000 2.028000 2.034000 2.035000 2.041000 2.041000 2.044000 2.048000 2.054000 0.000000 0.000000 0.000000 0.000000 0.000000 0.000000 0.000000 
0.000000 0.000000 0.000000 0.000000 0.000000 0.000000 0.000000 2.051000 2.039000 2.006000 1.982000 1.971000 1.966000 1.972000 1.972000 1.976000 1.981000 1.988000 1.994000 1.994000 2.002000 2.007000 2.011000 2.017000 2.017000 2.028000 2.034000 2.035000 2.039000 2.041000 2.044000 2.048000 2.054000 0.000000 0.000000 0.000000 0.000000 0.000000 0.000000 0.000000 
0.000000 0.000000 0.000000 0.000000 0.000000 0.000000 0.000000 2.049000 2.039000 2.008000 1.987000 1.976000 1.972000 1.972000 1.976000 1.981000 1.985000 1.988000 1.994000 1.996000 2.005000 2.010000 2.012000 2.017000 2.017000 2.024000 2.034000 2.035000 2.036000 2.041000 2.044000 2.050000 2.381000 0.000000 0.000000 0.000000 0.000000 0.000000 0.000000 0.000000 
0.000000 0.000000 0.000000 0.000000 0.000000 0.000000 0.000000 2.038000 2.031000 2.008000 1.993000 1.982000 1.977000 1.976000 1.973000 1.986000 1.988000 1.989000 1.994000 1.996000 2.007000 2.011000 2.012000 2.017000 2.017000 2.022000 2.030000 2.035000 2.035000 2.041000 2.044000 2.050000 2.437000 0.000000 0.000000 0.000000 0.000000 0.000000 0.000000 0.000000 
0.000000 0.000000 0.000000 0.000000 0.000000 0.000000 0.000000 2.041000 2.031000 2.008000 1.992000 1.977000 1.972000 1.977000 1.972000 1.983000 1.983000 1.987000 1.994000 2.001000 2.010000 2.011000 2.011000 2.017000 2.017000 2.017000 2.029000 2.035000 2.038000 2.041000 2.044000 2.050000 2.437000 0.000000 0.000000 0.000000 0.000000 0.000000 0.000000 0.000000 
0.000000 0.000000 0.000000 0.000000 0.000000 0.000000 0.000000 2.047000 2.037000 2.006000 1.987000 1.972000 1.972000 1.977000 1.983000 1.983000 1.985000 1.987000 1.994000 1.999000 2.008000 2.011000 2.011000 2.011000 2.017000 2.017000 2.029000 2.035000 2.038000 2.041000 2.041000 2.050000 2.440000 0.000000 0.000000 0.000000 0.000000 0.000000 0.000000 0.000000 
0.000000 0.000000 0.000000 0.000000 0.000000 0.000000 0.000000 2.048000 2.038000 2.006000 1.992000 1.974000 1.972000 1.977000 1.980000 1.985000 1.988000 1.991000 1.994000 1.995000 2.004000 2.006000 2.011000 2.011000 2.017000 2.022000 2.034000 2.035000 2.041000 2.041000 2.044000 2.048000 2.242000 0.000000 0.000000 0.000000 0.000000 0.000000 0.000000 0.000000 
0.000000 0.000000 0.000000 0.000000 0.000000 0.000000 0.000000 2.045000 2.033000 2.004000 1.987000 1.972000 1.972000 1.977000 1.977000 1.985000 1.988000 1.994000 1.994000 1.994000 2.003000 2.006000 2.011000 2.013000 2.017000 2.023000 2.032000 2.035000 2.038000 2.041000 2.048000 2.046000 2.041000 0.000000 0.000000 0.000000 0.000000 0.000000 0.000000 0.000000 
0.000000 0.000000 0.000000 0.000000 0.000000 0.000000 0.000000 2.752000 2.030000 1.998000 1.986000 1.971000 1.966000 1.972000 1.977000 1.981000 1.988000 1.993000 1.994000 1.997000 2.006000 2.008000 2.011000 2.015000 2.017000 2.021000 2.028000 2.033000 2.038000 2.046000 2.045000 2.202000 2.828000 0.000000 0.000000 0.000000 0.000000 0.000000 0.000000 0.000000 
0.000000 0.000000 0.000000 0.000000 0.000000 0.000000 0.000000 2.312000 1.113000 1.998000 1.987000 1.977000 1.972000 1.977000 1.977000 1.977000 1.986000 1.991000 1.994000 2.000000 2.006000 2.011000 2.011000 2.011000 2.017000 2.017000 2.028000 2.029000 0.000000 0.000000 0.000000 0.000000 0.000000 0.000000 0.000000 0.000000 0.000000 0.000000 0.000000 0.000000 
0.000000 0.000000 0.000000 0.000000 0.000000 0.000000 0.000000 0.000000 0.000000 0.000000 0.000000 0.000000 0.000000 0.000000 0.000000 0.000000 0.000000 0.000000 0.000000 0.000000 0.000000 0.000000 0.000000 0.000000 0.000000 0.000000 0.000000 0.000000 0.000000 0.000000 0.000000 0.000000 0.000000 0.000000 0.000000 0.000000 0.000000 0.000000 0.000000 0.000000 
0.000000 0.000000 0.000000 0.000000 0.000000 0.000000 0.000000 0.000000 0.000000 0.000000 0.000000 0.000000 0.000000 0.000000 0.000000 0.000000 0.000000 0.000000 0.000000 0.000000 0.000000 0.000000 0.000000 0.000000 0.000000 0.000000 0.000000 0.000000 0.000000 0.000000 0.000000 0.000000 0.000000 0.000000 0.000000 0.000000 0.000000 0.000000 0.000000 0.000000 
