40 40
2.250000 2.241000 2.241000 2.238000 2.212000 2.212000 2.175000 2.170000 2.160000 2.147000 2.127000 2.115000 2.110000 1.602000 0.000000 0.000000 0.000000 0.000000 0.000000 0.000000 0.000000 0.000000 0.000000 0.000000 0.000000 0.000000 0.000000 0.000000 0.000000 0.000000 0.000000 0.000000 0.000000 0.000000 0.000000 0.000000 0.000000 0.000000 0.000000 0.000000 
2.252000 2.241000 2.241000 2.239000 2.224000 2.213000 2.163000 2.156000 2.164000 2.160000 2.141000 2.129000 2.118000 2.102000 1.345000 0.000000 0.000000 0.000000 0.000000 0.000000 0.000000 0.000000 0.000000 0.000000 0.000000 0.000000 0.000000 0.000000 0.000000 0.000000 0.000000 0.000000 0.000000 0.000000 0.000000 0.000000 0.000000 0.000000 0.000000 0.000000 
2.241000 2.241000 2.239000 2.231000 2.231000 2.213000 2.163000 2.156000 2.169000 2.163000 2.146000 2.138000 2.127000 2.111000 1.352000 0.000000 0.000000 0.000000 0.000000 0.000000 0.000000 0.000000 0.000000 0.000000 0.000000 0.000000 0.000000 0.000000 0.000000 0.000000 0.000000 0.000000 0.000000 0.000000 0.000000 0.000000 0.000000 0.000000 0.000000 0.000000 
2.241000 2.241000 2.236000 2.212000 2.212000 2.205000 2.162000 2.156000 2.156000 2.156000 2.152000 2.149000 2.141000 2.129000 1.565000 0.000000 0.000000 0.000000 0.000000 0.000000 0.000000 0.000000 0.000000 0.000000 0.000000 0.000000 0.000000 0.000000 0.000000 0.000000 0.000000 0.000000 0.000000 0.000000 0.000000 0.000000 0.000000 0.000000 0.000000 0.000000 
2.239000 2.236000 2.231000 2.212000 2.211000 2.185000 2.164000 2.161000 2.157000 2.156000 2.141000 2.129000 2.129000 2.129000 2.129000 1.699000 0.000000 0.000000 0.000000 0.000000 0.000000 0.000000 0.000000 0.000000 0.000000 0.000000 0.000000 0.000000 0.000000 0.000000 0.000000 0.000000 0.000000 0.000000 0.000000 0.000000 0.000000 0.000000 0.000000 0.000000 
2.231000 2.212000 2.212000 2.212000 2.211000 2.185000 2.184000 2.184000 2.164000 2.154000 2.140000 2.129000 2.129000 2.129000 2.128000 2.126000 2.109000 1.951000 1.951000 0.000000 0.000000 0.000000 0.000000 0.000000 0.000000 0.000000 0.000000 0.000000 0.000000 0.000000 0.000000 0.000000 0.000000 0.000000 0.000000 0.000000 0.000000 0.000000 0.000000 0.000000 
2.231000 2.212000 2.212000 2.212000 2.211000 2.185000 2.183000 2.183000 2.164000 2.139000 2.129000 2.129000 2.129000 2.129000 2.122000 2.102000 2.087000 1.952000 1.952000 1.972000 1.975000 0.000000 0.000000 0.000000 0.000000 0.000000 0.000000 0.000000 0.000000 0.000000 0.000000 0.000000 0.000000 0.000000 0.000000 0.000000 0.000000 0.000000 0.000000 0.000000 
2.231000 2.212000 2.212000 2.212000 2.211000 2.185000 2.161000 2.157000 2.156000 2.139000 2.129000 2.129000 2.129000 2.129000 2.122000 2.098000 2.067000 1.974000 1.974000 1.975000 1.975000 1.892000 0.000000 0.000000 0.000000 0.000000 0.000000 0.000000 0.000000 0.000000 0.000000 0.000000 0.000000 0.000000 0.000000 0.000000 0.000000 0.000000 0.000000 0.000000 
2.231000 2.212000 2.208000 2.188000 2.187000 2.184000 2.160000 2.156000 2.156000 2.139000 2.129000 2.129000 2.129000 2.129000 2.122000 2.097000 2.073000 2.040000 2.020000 2.019000 2.002000 1.999000 0.000000 0.000000 0.000000 0.000000 0.000000 0.000000 0.000000 0.000000 0.000000 0.000000 0.000000 0.000000 0.000000 0.000000 0.000000 0.000000 0.000000 0.000000 
2.582000 2.212000 2.207000 2.184000 2.183000 2.163000 2.157000 2.156000 2.141000 2.131000 2.129000 2.129000 2.129000 2.122000 2.106000 2.097000 2.075000 2.071000 2.066000 2.048000 2.041000 2.012000 1.625000 0.000000 0.000000 0.000000 0.000000 0.000000 0.000000 0.000000 0.000000 0.000000 0.000000 0.000000 0.000000 0.000000 0.000000 0.000000 0.000000 0.000000 
2.872000 2.604000 2.211000 2.202000 2.183000 2.157000 2.156000 2.156000 2.137000 2.129000 2.129000 2.129000 2.129000 2.120000 2.102000 2.101000 2.093000 2.076000 2.076000 2.054000 2.050000 2.015000 2.000000 1.567000 1.215000 0.000000 0.000000 0.000000 0.000000 0.000000 0.000000 0.000000 0.000000 0.000000 0.000000 0.000000 0.000000 0.000000 0.000000 0.000000 
2.951000 2.881000 2.690000 2.657000 2.184000 2.174000 2.174000 2.160000 2.137000 2.129000 2.129000 2.129000 2.129000 2.120000 2.102000 2.102000 2.100000 2.076000 2.076000 2.054000 2.050000 2.026000 2.016000 2.017000 2.018000 1.602000 0.000000 0.000000 0.000000 0.000000 0.000000 0.000000 0.000000 0.000000 0.000000 0.000000 0.000000 0.000000 0.000000 0.000000 
0.000000 2.994000 2.979000 2.957000 2.627000 2.206000 2.184000 2.162000 2.148000 2.134000 2.129000 2.129000 2.129000 2.120000 2.102000 2.102000 2.100000 2.076000 2.076000 2.066000 2.053000 2.032000 2.025000 2.011000 2.000000 2.010000 2.025000 1.318000 0.000000 0.000000 0.000000 0.000000 0.000000 0.000000 0.000000 0.000000 0.000000 0.000000 0.000000 0.000000 
0.000000 0.000000 2.991000 2.974000 2.962000 2.596000 2.246000 2.165000 2.156000 2.139000 2.129000 2.129000 2.124000 2.111000 2.105000 2.113000 2.101000 2.088000 2.077000 2.076000 2.056000 2.032000 2.025000 2.018000 2.012000 2.017000 2.025000 1.655000 0.000000 0.000000 0.000000 0.000000 0.000000 0.000000 0.000000 0.000000 0.000000 0.000000 0.000000 0.000000 
0.000000 0.000000 0.000000 2.951000 2.952000 2.993000 2.589000 2.215000 2.134000 2.124000 2.118000 2.123000 2.118000 2.102000 2.109000 2.124000 2.102000 2.102000 2.078000 2.067000 2.045000 2.029000 2.025000 2.025000 2.025000 2.025000 2.022000 2.005000 1.975000 1.829000 0.000000 0.000000 0.000000 0.000000 0.000000 0.000000 0.000000 0.000000 0.000000 0.000000 
0.000000 0.000000 0.000000 2.979000 2.966000 2.994000 2.982000 2.282000 2.102000 2.102000 2.102000 2.115000 2.118000 2.102000 2.109000 2.124000 2.102000 2.102000 2.078000 2.054000 2.030000 2.025000 2.025000 2.025000 2.025000 2.025000 2.017000 1.996000 1.983000 1.985000 2.000000 2.000000 2.000000 0.000000 0.000000 0.000000 0.000000 0.000000 0.000000 0.000000 
0.000000 0.000000 0.000000 0.000000 0.000000 2.996000 2.957000 2.445000 2.162000 2.102000 2.106000 2.119000 2.118000 2.102000 2.107000 2.119000 2.101000 2.095000 2.077000 2.048000 2.029000 2.025000 2.025000 2.025000 2.025000 2.025000 2.019000 2.005000 2.000000 2.000000 2.000000 2.006000 2.006000 2.021000 1.941000 1.904000 0.000000 0.000000 0.000000 0.000000 
0.000000 0.000000 0.000000 0.000000 0.000000 2.997000 2.957000 2.951000 2.448000 2.259000 2.188000 2.129000 2.118000 2.102000 2.101000 2.097000 2.095000 2.076000 2.072000 2.031000 2.025000 2.025000 2.025000 2.025000 2.025000 2.023000 2.021000 2.016000 2.000000 2.000000 2.000000 2.019000 2.021000 1.967000 1.921000 1.908000 0.000000 0.000000 0.000000 0.000000 
0.000000 0.000000 0.000000 0.000000 0.000000 2.997000 2.957000 2.951000 2.951000 0.000000 2.577000 2.216000 2.170000 2.102000 2.095000 2.076000 2.074000 2.073000 2.049000 2.028000 2.023000 2.023000 2.023000 2.023000 2.023000 2.014000 2.000000 1.999000 1.998000 1.998000 1.998000 1.995000 1.995000 1.961000 1.934000 1.927000 0.000000 0.000000 0.000000 0.000000 
0.000000 0.000000 0.000000 0.000000 0.000000 0.000000 2.958000 2.953000 2.953000 0.000000 0.000000 0.000000 2.666000 2.114000 2.096000 2.071000 2.050000 2.050000 2.026000 2.025000 2.005000 2.000000 2.000000 2.000000 2.000000 2.000000 2.000000 1.994000 1.975000 1.975000 1.975000 1.953000 1.951000 1.951000 1.934000 1.927000 1.914000 1.904000 0.000000 0.000000 
0.000000 0.000000 0.000000 0.000000 0.000000 0.000000 0.000000 0.000000 0.000000 0.000000 0.000000 0.000000 0.000000 2.731000 2.114000 2.071000 2.050000 2.050000 2.026000 2.025000 2.005000 2.000000 2.000000 2.000000 2.000000 2.000000 2.000000 1.994000 1.975000 1.975000 1.975000 1.953000 1.951000 1.951000 1.934000 1.914000 1.905000 1.904000 0.000000 0.000000 
0.000000 0.000000 0.000000 0.000000 0.000000 0.000000 0.000000 0.000000 0.000000 0.000000 0.000000 0.000000 0.000000 0.000000 2.704000 2.075000 2.070000 2.050000 2.026000 2.025000 2.005000 2.000000 2.000000 2.000000 2.000000 2.000000 2.000000 1.999000 1.993000 1.975000 1.975000 1.972000 1.954000 1.935000 1.928000 1.913000 1.904000 1.895000 1.735000 1.602000 
0.000000 0.000000 0.000000 0.000000 0.000000 0.000000 0.000000 0.000000 0.000000 0.000000 0.000000 0.000000 0.000000 0.000000 2.953000 2.804000 2.760000 2.070000 2.046000 2.028000 2.021000 2.006000 2.000000 2.000000 2.000000 2.000000 1.994000 1.980000 1.979000 1.975000 1.975000 1.957000 1.952000 1.932000 1.927000 1.924000 1.912000 1.893000 1.881000 1.867000 
0.000000 0.000000 0.000000 0.000000 0.000000 0.000000 0.000000 0.000000 0.000000 0.000000 0.000000 0.000000 2.995000 2.995000 2.995000 0.000000 0.000000 2.745000 2.092000 2.028000 2.025000 2.020000 2.007000 2.000000 2.000000 2.000000 1.992000 1.975000 1.975000 1.975000 1.975000 1.953000 1.951000 1.932000 1.927000 1.927000 1.915000 1.901000 1.897000 1.878000 
0.000000 0.000000 0.000000 0.000000 0.000000 0.000000 0.000000 0.000000 0.000000 0.000000 0.000000 0.000000 2.995000 2.995000 2.995000 2.998000 0.000000 2.994000 2.123000 2.044000 2.041000 2.030000 2.019000 2.007000 2.000000 2.000000 1.992000 1.971000 1.960000 1.960000 1.960000 1.952000 1.951000 1.932000 1.927000 1.927000 1.915000 1.904000 1.904000 1.896000 
0.000000 0.000000 0.000000 0.000000 0.000000 2.996000 2.995000 2.995000 0.000000 0.000000 0.000000 0.000000 2.995000 2.995000 2.995000 2.995000 2.995000 2.987000 2.608000 2.573000 2.173000 2.046000 2.030000 2.011000 2.000000 1.995000 1.983000 1.969000 1.951000 1.951000 1.951000 1.951000 1.951000 1.932000 1.927000 1.927000 1.915000 1.904000 1.904000 1.904000 
0.000000 0.000000 0.000000 0.000000 2.995000 2.995000 2.995000 2.995000 2.995000 0.000000 0.000000 0.000000 2.995000 2.995000 2.995000 2.995000 2.995000 2.995000 2.995000 2.995000 2.599000 2.179000 2.019000 1.994000 1.988000 1.983000 1.971000 1.961000 1.951000 1.951000 1.951000 1.951000 1.951000 1.941000 1.938000 1.931000 1.920000 1.915000 1.911000 1.904000 
0.000000 0.000000 0.000000 0.000000 2.995000 2.995000 2.995000 2.995000 2.982000 2.978000 2.993000 2.992000 2.985000 2.989000 2.978000 2.978000 2.978000 2.978000 2.978000 2.978000 2.957000 2.566000 2.135000 1.975000 1.975000 1.975000 1.967000 1.951000 1.951000 1.951000 1.951000 1.951000 1.951000 1.951000 1.944000 1.933000 1.927000 1.923000 1.913000 1.904000 
0.000000 0.000000 0.000000 2.995000 2.995000 2.995000 2.995000 2.984000 2.959000 2.951000 2.951000 2.951000 2.963000 2.971000 2.951000 2.951000 2.951000 2.951000 2.951000 2.951000 2.951000 2.951000 2.524000 2.272000 2.131000 1.975000 1.967000 1.951000 1.951000 1.950000 1.943000 1.943000 1.943000 1.943000 1.932000 1.927000 1.923000 1.912000 1.904000 1.904000 
0.000000 0.000000 0.000000 2.995000 2.995000 2.995000 2.995000 2.960000 2.951000 2.944000 2.941000 2.941000 2.941000 2.941000 2.941000 2.942000 2.951000 2.951000 2.951000 2.951000 2.951000 2.944000 2.920000 2.908000 2.466000 1.975000 1.967000 1.951000 1.951000 1.949000 1.927000 1.927000 1.927000 1.927000 1.923000 1.921000 1.912000 1.904000 1.904000 1.904000 
0.000000 0.000000 0.000000 2.995000 2.995000 2.995000 2.995000 2.960000 2.951000 2.923000 2.908000 2.908000 2.908000 2.908000 2.908000 2.914000 2.944000 2.944000 2.951000 2.951000 2.945000 2.919000 2.908000 2.908000 2.538000 2.067000 1.969000 1.954000 1.951000 1.949000 1.931000 1.927000 1.924000 1.923000 1.910000 1.904000 1.904000 1.904000 1.904000 1.904000 
0.000000 0.000000 0.000000 2.999000 2.999000 2.995000 2.995000 2.960000 2.951000 2.923000 2.908000 2.908000 2.908000 2.908000 2.908000 2.908000 2.908000 2.909000 2.945000 2.947000 2.916000 2.908000 2.908000 2.908000 2.908000 2.570000 2.055000 2.030000 1.951000 1.951000 1.951000 1.929000 1.907000 1.904000 1.904000 1.904000 1.904000 1.904000 1.903000 1.902000 
0.000000 0.000000 0.000000 0.000000 0.000000 2.998000 2.995000 2.960000 2.951000 2.923000 2.908000 2.908000 2.908000 2.908000 2.908000 2.908000 2.908000 2.908000 2.908000 2.908000 2.908000 2.908000 2.908000 2.908000 2.908000 2.908000 2.908000 2.679000 1.958000 1.958000 1.951000 1.929000 1.908000 1.904000 1.904000 1.904000 1.904000 1.904000 1.895000 1.881000 
0.000000 0.000000 0.000000 0.000000 0.000000 0.000000 0.000000 2.960000 2.922000 2.909000 2.908000 2.908000 2.908000 2.908000 2.908000 2.908000 2.908000 2.908000 2.908000 2.908000 2.908000 2.908000 2.908000 2.908000 2.908000 2.908000 2.896000 2.853000 2.802000 2.729000 1.951000 1.949000 1.929000 1.925000 1.910000 1.904000 1.904000 1.904000 1.895000 1.881000 
0.000000 0.000000 0.000000 0.000000 0.000000 0.000000 2.963000 2.952000 2.920000 2.908000 2.908000 2.908000 2.908000 2.896000 2.872000 2.872000 2.872000 2.872000 2.872000 2.872000 2.872000 2.872000 2.872000 2.892000 2.908000 2.908000 2.895000 2.866000 2.866000 2.854000 2.725000 2.024000 1.934000 1.927000 1.911000 1.904000 1.904000 1.895000 1.883000 1.881000 
0.000000 0.000000 0.000000 0.000000 2.995000 2.995000 2.957000 2.951000 2.920000 2.908000 2.908000 2.908000 2.908000 2.894000 2.866000 2.866000 2.866000 2.865000 2.835000 2.833000 2.833000 2.833000 2.854000 2.871000 2.875000 2.875000 2.872000 2.866000 2.866000 2.866000 2.859000 2.055000 1.953000 1.931000 1.923000 1.911000 1.904000 1.893000 1.881000 1.881000 
0.000000 0.000000 0.000000 0.000000 2.994000 2.966000 2.953000 2.951000 2.920000 2.908000 2.908000 2.908000 2.896000 2.875000 2.859000 2.837000 2.837000 2.836000 2.825000 2.824000 2.824000 2.824000 2.850000 2.850000 2.837000 2.848000 2.866000 2.866000 2.866000 2.866000 2.864000 2.622000 2.047000 1.932000 1.927000 1.913000 1.895000 1.878000 1.866000 1.861000 
0.000000 0.000000 2.990000 2.968000 2.967000 2.952000 2.951000 2.951000 2.939000 2.918000 2.908000 2.908000 2.891000 2.857000 2.836000 2.824000 2.824000 2.824000 2.824000 2.824000 2.824000 2.824000 2.834000 2.831000 2.824000 2.830000 2.840000 2.840000 2.840000 2.840000 2.840000 2.840000 2.543000 2.485000 2.095000 1.913000 1.892000 1.871000 1.853000 1.842000 
0.000000 0.000000 2.987000 2.951000 2.951000 2.951000 2.951000 2.951000 2.951000 2.938000 2.918000 2.908000 2.900000 2.867000 2.824000 2.824000 2.824000 2.824000 2.824000 2.824000 2.824000 2.824000 2.824000 2.824000 2.824000 2.815000 2.802000 2.808000 2.824000 2.824000 2.824000 2.824000 2.824000 2.807000 2.516000 2.385000 2.363000 2.122000 1.850000 1.836000 
2.995000 2.990000 2.970000 2.951000 2.951000 2.951000 2.951000 2.935000 2.931000 2.931000 2.918000 2.908000 2.900000 2.867000 2.824000 2.821000 2.805000 2.806000 2.823000 2.824000 2.824000 2.811000 2.805000 2.805000 2.805000 2.797000 2.784000 2.789000 2.805000 2.805000 2.805000 2.805000 2.805000 2.789000 2.784000 2.784000 2.763000 2.516000 2.240000 2.106000 
