40 40
0.000000 0.000000 0.000000 0.000000 0.000000 0.000000 0.000000 0.000000 0.000000 0.000000 0.000000 0.000000 0.000000 0.000000 0.000000 0.000000 0.000000 0.000000 0.000000 0.000000 0.000000 0.000000 0.000000 0.000000 0.000000 0.000000 0.000000 0.000000 0.000000 0.000000 0.000000 0.000000 0.000000 0.000000 0.000000 0.000000 0.000000 0.000000 0.000000 0.000000 
0.000000 0.000000 0.000000 0.000000 0.000000 0.000000 0.000000 0.000000 0.000000 0.000000 0.000000 0.000000 0.000000 0.000000 0.000000 0.000000 0.000000 0.000000 0.000000 0.000000 0.000000 0.000000 0.000000 0.000000 0.000000 0.000000 0.000000 0.000000 0.000000 0.000000 0.000000 0.000000 0.000000 0.000000 0.000000 0.000000 0.000000 0.000000 0.000000 0.000000 
0.000000 0.000000 0.000000 0.000000 0.000000 0.000000 0.000000 0.000000 0.000000 2.264000 2.264000 0.000000 0.000000 0.000000 0.000000 0.000000 0.000000 0.000000 0.000000 0.000000 0.000000 0.000000 0.000000 0.000000 0.000000 0.000000 0.000000 0.000000 0.000000 2.051000 2.049000 1.350000 0.000000 0.000000 0.000000 0.000000 0.000000 0.000000 0.000000 0.000000 
0.000000 0.000000 0.000000 0.000000 0.000000 0.000000 0.000000 1.951000 2.018000 2.016000 2.022000 2.021000 2.016000 2.011000 2.011000 2.008000 2.472000 1.990000 1.992000 2.173000 2.701000 2.687000 2.000000 2.684000 2.692000 2.689000 2.504000 2.002000 2.005000 2.005000 2.056000 1.062000 0.000000 0.000000 0.000000 0.000000 0.000000 0.000000 0.000000 0.000000 
0.000000 0.000000 0.000000 0.000000 0.000000 0.000000 0.000000 1.953000 2.018000 2.016000 2.013000 2.013000 2.010000 2.008000 2.008000 2.002000 2.000000 1.996000 1.995000 1.992000 1.993000 1.991000 1.989000 1.987000 1.988000 1.984000 1.981000 1.983000 1.982000 1.979000 1.976000 1.796000 0.000000 0.000000 0.000000 0.000000 0.000000 0.000000 0.000000 0.000000 
0.000000 0.000000 0.000000 0.000000 0.000000 0.000000 0.000000 1.954000 2.018000 2.016000 2.016000 2.012000 2.008000 2.008000 2.005000 2.002000 2.000000 1.996000 1.995000 1.994000 1.992000 1.987000 1.987000 1.987000 1.987000 1.982000 1.981000 1.982000 1.980000 1.976000 1.975000 1.972000 0.000000 0.000000 0.000000 0.000000 0.000000 0.000000 0.000000 0.000000 
0.000000 0.000000 0.000000 0.000000 0.000000 0.000000 0.000000 1.955000 2.019000 2.016000 2.014000 2.011000 2.010000 2.008000 2.005000 2.005000 2.000000 1.998000 1.997000 1.994000 1.990000 1.988000 1.990000 1.987000 1.985000 1.982000 1.983000 1.982000 1.980000 1.980000 1.977000 1.972000 0.000000 0.000000 0.000000 0.000000 0.000000 0.000000 0.000000 0.000000 
0.000000 0.000000 0.000000 0.000000 0.000000 0.000000 0.000000 1.956000 2.019000 2.016000 2.016000 2.012000 2.010000 2.008000 2.008000 2.005000 2.002000 1.998000 1.997000 1.996000 1.990000 1.990000 1.990000 1.987000 1.985000 1.982000 1.981000 1.980000 1.980000 1.980000 1.977000 1.973000 0.000000 0.000000 0.000000 0.000000 0.000000 0.000000 0.000000 0.000000 
0.000000 0.000000 0.000000 0.000000 0.000000 0.000000 0.000000 1.062000 2.019000 2.017000 2.017000 2.012000 2.010000 2.008000 2.008000 2.005000 2.001000 2.000000 1.997000 1.997000 1.995000 1.990000 1.990000 1.988000 1.986000 1.985000 1.982000 1.980000 1.982000 1.980000 1.978000 1.975000 0.000000 0.000000 0.000000 0.000000 0.000000 0.000000 0.000000 0.000000 
0.000000 0.000000 0.000000 0.000000 0.000000 0.000000 0.000000 1.062000 2.018000 2.017000 2.016000 2.015000 2.010000 2.010000 2.008000 2.005000 2.003000 2.000000 1.997000 1.997000 1.995000 1.992000 1.990000 1.987000 1.987000 1.986000 1.983000 1.982000 1.982000 1.980000 1.980000 1.975000 0.000000 0.000000 0.000000 0.000000 0.000000 0.000000 0.000000 0.000000 
0.000000 0.000000 0.000000 0.000000 0.000000 0.000000 0.000000 1.958000 2.022000 2.017000 2.018000 2.016000 2.010000 2.010000 2.008000 2.005000 2.002000 2.000000 1.997000 1.997000 1.995000 1.992000 1.990000 1.990000 1.988000 1.985000 1.985000 1.982000 1.982000 1.980000 1.980000 1.878000 0.000000 0.000000 0.000000 0.000000 0.000000 0.000000 0.000000 0.000000 
0.000000 0.000000 0.000000 0.000000 0.000000 0.000000 0.000000 1.958000 2.022000 2.018000 2.018000 2.016000 2.013000 2.010000 2.008000 2.006000 2.002000 2.001000 2.000000 1.997000 1.995000 1.993000 1.992000 1.990000 1.987000 1.985000 1.985000 1.982000 1.982000 1.980000 1.980000 1.642000 0.000000 0.000000 0.000000 0.000000 0.000000 0.000000 0.000000 0.000000 
0.000000 0.000000 0.000000 0.000000 0.000000 0.000000 0.000000 1.958000 2.022000 2.018000 2.018000 2.016000 2.015000 2.013000 2.008000 2.007000 2.003000 2.002000 2.000000 1.997000 1.995000 1.992000 1.992000 1.990000 1.988000 1.987000 1.985000 1.984000 1.982000 1.980000 1.980000 1.977000 0.000000 0.000000 0.000000 0.000000 0.000000 0.000000 0.000000 0.000000 
0.000000 0.000000 0.000000 0.000000 0.000000 0.000000 0.000000 2.026000 2.022000 2.018000 2.017000 2.017000 2.016000 2.013000 2.009000 2.008000 2.005000 2.003000 2.000000 1.998000 1.997000 1.993000 1.993000 1.990000 1.988000 1.987000 1.985000 1.985000 1.982000 1.980000 1.980000 1.978000 0.000000 0.000000 0.000000 0.000000 0.000000 0.000000 0.000000 0.000000 
0.000000 0.000000 0.000000 0.000000 0.000000 0.000000 0.000000 2.024000 2.022000 2.018000 2.018000 2.018000 2.015000 2.013000 2.010000 2.008000 2.006000 2.005000 2.000000 2.000000 2.000000 1.995000 1.995000 1.992000 1.990000 1.987000 1.987000 1.985000 1.982000 1.980000 1.980000 1.974000 0.000000 0.000000 0.000000 0.000000 0.000000 0.000000 0.000000 0.000000 
0.000000 0.000000 0.000000 0.000000 0.000000 0.000000 0.000000 1.961000 2.025000 2.018000 2.018000 2.018000 2.015000 2.016000 2.010000 2.008000 2.006000 2.002000 2.002000 2.000000 1.997000 1.995000 1.993000 1.991000 1.990000 1.990000 1.988000 1.985000 1.982000 1.980000 1.981000 1.473000 0.000000 0.000000 0.000000 0.000000 0.000000 0.000000 0.000000 0.000000 
0.000000 0.000000 0.000000 0.000000 0.000000 0.000000 0.000000 1.961000 2.024000 2.018000 2.018000 2.018000 2.016000 2.016000 2.010000 2.008000 2.008000 2.002000 2.004000 2.000000 1.997000 1.997000 1.995000 1.991000 1.990000 1.990000 1.990000 1.987000 1.982000 1.980000 1.980000 1.079000 0.000000 0.000000 0.000000 0.000000 0.000000 0.000000 0.000000 0.000000 
0.000000 0.000000 0.000000 0.000000 0.000000 0.000000 0.000000 1.961000 2.026000 2.021000 2.019000 2.018000 2.016000 2.013000 2.010000 2.008000 2.008000 2.006000 2.005000 2.001000 2.000000 1.997000 1.997000 1.992000 1.990000 1.987000 1.990000 1.990000 1.987000 1.982000 1.980000 1.472000 0.000000 0.000000 0.000000 0.000000 0.000000 0.000000 0.000000 0.000000 
0.000000 0.000000 0.000000 0.000000 0.000000 0.000000 0.000000 1.958000 2.026000 2.021000 2.021000 2.018000 2.016000 2.016000 2.013000 2.008000 2.009000 2.006000 2.002000 2.002000 1.997000 1.997000 1.997000 1.994000 1.990000 1.987000 1.990000 1.985000 1.985000 1.982000 1.980000 1.474000 0.000000 0.000000 0.000000 0.000000 0.000000 0.000000 0.000000 0.000000 
0.000000 0.000000 0.000000 0.000000 0.000000 0.000000 0.000000 2.025000 2.024000 2.024000 2.020000 2.018000 2.018000 2.018000 2.015000 2.009000 2.010000 2.006000 2.002000 2.000000 1.998000 1.997000 1.997000 1.995000 1.991000 1.987000 1.990000 1.987000 1.985000 1.982000 1.981000 1.747000 0.000000 0.000000 0.000000 0.000000 0.000000 0.000000 0.000000 0.000000 
0.000000 0.000000 0.000000 0.000000 0.000000 0.000000 0.000000 2.002000 2.024000 2.021000 2.021000 2.019000 2.018000 2.018000 2.012000 2.010000 2.010000 2.008000 2.002000 2.002000 2.000000 1.998000 1.997000 1.996000 1.992000 1.990000 1.990000 1.988000 1.983000 1.982000 1.981000 1.980000 0.000000 0.000000 0.000000 0.000000 0.000000 0.000000 0.000000 0.000000 
0.000000 0.000000 0.000000 0.000000 0.000000 0.000000 0.000000 1.961000 2.024000 2.019000 2.021000 2.021000 2.018000 2.018000 2.013000 2.010000 2.010000 2.008000 2.005000 2.003000 2.000000 1.999000 1.997000 1.997000 1.994000 1.990000 1.992000 1.990000 1.987000 1.985000 1.982000 1.980000 0.000000 0.000000 0.000000 0.000000 0.000000 0.000000 0.000000 0.000000 
0.000000 0.000000 0.000000 0.000000 0.000000 0.000000 0.000000 2.026000 2.024000 2.021000 2.021000 2.021000 2.018000 2.018000 2.013000 2.010000 2.010000 2.008000 2.008000 2.005000 2.000000 1.997000 1.997000 1.996000 1.995000 1.992000 1.992000 1.990000 1.987000 1.985000 1.982000 1.924000 0.000000 0.000000 0.000000 0.000000 0.000000 0.000000 0.000000 0.000000 
0.000000 0.000000 0.000000 0.000000 0.000000 0.000000 0.000000 2.026000 2.024000 2.021000 2.021000 2.020000 2.018000 2.018000 2.016000 2.013000 2.010000 2.008000 2.007000 2.005000 2.000000 2.000000 1.997000 1.997000 1.995000 1.991000 1.992000 1.990000 1.987000 1.985000 1.985000 1.062000 0.000000 0.000000 0.000000 0.000000 0.000000 0.000000 0.000000 0.000000 
0.000000 0.000000 0.000000 0.000000 0.000000 0.000000 0.000000 2.029000 2.024000 2.021000 2.021000 2.021000 2.021000 2.018000 2.016000 2.016000 2.010000 2.008000 2.007000 2.004000 2.002000 2.000000 2.000000 1.997000 1.996000 1.992000 1.990000 1.990000 1.987000 1.987000 1.982000 1.062000 0.000000 0.000000 0.000000 0.000000 0.000000 0.000000 0.000000 0.000000 
0.000000 0.000000 0.000000 0.000000 0.000000 0.000000 0.000000 2.029000 2.024000 2.024000 2.026000 2.025000 2.022000 2.018000 2.018000 2.016000 2.011000 2.010000 2.008000 2.004000 2.000000 2.000000 2.000000 1.997000 1.995000 1.991000 1.992000 1.991000 1.990000 1.987000 1.982000 1.474000 0.000000 0.000000 0.000000 0.000000 0.000000 0.000000 0.000000 0.000000 
0.000000 0.000000 0.000000 0.000000 0.000000 0.000000 0.000000 2.000000 2.026000 2.025000 2.026000 2.026000 2.022000 2.021000 2.018000 2.014000 2.014000 2.010000 2.008000 2.007000 2.001000 2.002000 2.000000 1.998000 1.997000 1.994000 1.994000 1.992000 1.990000 1.987000 1.983000 1.977000 0.000000 0.000000 0.000000 0.000000 0.000000 0.000000 0.000000 0.000000 
0.000000 0.000000 0.000000 0.000000 0.000000 0.000000 0.000000 1.961000 2.026000 2.026000 2.028000 2.026000 2.024000 2.021000 2.018000 2.016000 2.015000 2.014000 2.010000 2.008000 2.008000 2.003000 2.001000 2.000000 1.997000 1.995000 1.993000 1.992000 1.990000 1.987000 1.986000 1.772000 0.000000 0.000000 0.000000 0.000000 0.000000 0.000000 0.000000 0.000000 
0.000000 0.000000 0.000000 0.000000 0.000000 0.000000 0.000000 2.029000 2.029000 2.026000 2.029000 2.028000 2.024000 2.021000 2.018000 2.018000 2.016000 2.014000 2.010000 2.008000 2.008000 2.004000 2.001000 1.999000 1.996000 1.992000 1.995000 1.993000 1.990000 1.990000 1.987000 1.062000 0.000000 0.000000 0.000000 0.000000 0.000000 0.000000 0.000000 0.000000 
0.000000 0.000000 0.000000 0.000000 0.000000 0.000000 0.000000 2.033000 2.029000 2.026000 2.029000 2.028000 2.023000 2.018000 2.018000 2.018000 2.017000 2.011000 2.009000 2.008000 2.008000 2.002000 2.000000 1.997000 1.997000 1.996000 1.996000 1.992000 1.990000 1.988000 1.987000 1.062000 0.000000 0.000000 0.000000 0.000000 0.000000 0.000000 0.000000 0.000000 
0.000000 0.000000 0.000000 0.000000 0.000000 0.000000 0.000000 2.032000 2.029000 2.029000 2.029000 2.028000 2.024000 2.021000 2.018000 2.016000 2.016000 2.011000 2.009000 2.008000 2.008000 2.005000 2.002000 2.000000 1.996000 1.995000 1.995000 1.995000 1.992000 1.990000 1.985000 1.062000 0.000000 0.000000 0.000000 0.000000 0.000000 0.000000 0.000000 0.000000 
0.000000 0.000000 0.000000 0.000000 0.000000 0.000000 0.000000 2.035000 2.030000 2.029000 2.029000 2.026000 2.024000 2.021000 2.018000 2.016000 2.016000 2.010000 2.010000 2.008000 2.005000 2.008000 2.003000 2.000000 1.997000 1.997000 1.996000 1.995000 1.992000 1.990000 1.981000 1.062000 0.000000 0.000000 0.000000 0.000000 0.000000 0.000000 0.000000 0.000000 
0.000000 0.000000 0.000000 0.000000 0.000000 0.000000 0.000000 2.035000 2.029000 2.026000 2.029000 2.026000 2.024000 2.021000 2.020000 2.018000 2.014000 2.010000 2.010000 2.008000 2.008000 2.005000 2.002000 2.000000 1.998000 1.997000 1.996000 1.995000 1.990000 1.987000 1.986000 1.062000 0.000000 0.000000 0.000000 0.000000 0.000000 0.000000 0.000000 0.000000 
0.000000 0.000000 0.000000 0.000000 0.000000 0.000000 0.000000 2.035000 2.029000 2.026000 2.029000 2.024000 2.022000 2.024000 2.018000 2.016000 2.016000 2.010000 2.010000 2.008000 2.008000 2.005000 2.005000 2.002000 1.999000 1.997000 1.996000 1.995000 1.991000 1.990000 1.623000 1.062000 0.000000 0.000000 0.000000 0.000000 0.000000 0.000000 0.000000 0.000000 
0.000000 0.000000 0.000000 0.000000 0.000000 0.000000 0.000000 2.035000 2.030000 2.029000 2.029000 2.024000 2.021000 2.021000 2.021000 2.016000 2.016000 2.013000 2.010000 2.010000 2.008000 2.008000 2.002000 2.000000 1.998000 1.996000 1.997000 1.997000 1.992000 1.987000 1.982000 1.062000 0.000000 0.000000 0.000000 0.000000 0.000000 0.000000 0.000000 0.000000 
0.000000 0.000000 0.000000 0.000000 0.000000 0.000000 0.000000 2.035000 2.033000 2.029000 2.029000 2.026000 2.024000 2.021000 2.021000 2.018000 2.018000 2.014000 2.011000 2.008000 2.008000 2.005000 2.002000 2.000000 1.998000 1.997000 1.999000 1.995000 1.992000 1.988000 1.347000 1.062000 0.000000 0.000000 0.000000 0.000000 0.000000 0.000000 0.000000 0.000000 
0.000000 0.000000 0.000000 0.000000 0.000000 0.000000 0.000000 2.035000 2.032000 2.029000 2.032000 2.028000 2.023000 2.021000 2.021000 2.019000 2.018000 2.016000 2.012000 2.010000 2.008000 2.005000 2.002000 2.001000 1.998000 1.997000 1.997000 1.997000 1.992000 1.990000 1.347000 1.062000 0.000000 0.000000 0.000000 0.000000 0.000000 0.000000 0.000000 0.000000 
0.000000 0.000000 0.000000 0.000000 0.000000 0.000000 0.000000 1.062000 1.062000 1.062000 2.036000 2.029000 2.026000 2.024000 2.024000 2.021000 2.018000 2.013000 2.013000 2.010000 2.010000 2.008000 2.005000 2.001000 2.000000 1.997000 1.997000 1.995000 1.995000 1.990000 1.347000 1.062000 0.000000 0.000000 0.000000 0.000000 0.000000 0.000000 0.000000 0.000000 
0.000000 0.000000 0.000000 0.000000 0.000000 0.000000 0.000000 0.000000 0.000000 0.000000 0.000000 0.000000 0.000000 0.000000 0.000000 0.000000 0.000000 0.000000 0.000000 0.000000 0.000000 0.000000 0.000000 0.000000 0.000000 0.000000 0.000000 0.000000 0.000000 0.000000 0.000000 0.000000 0.000000 0.000000 0.000000 0.000000 0.000000 0.000000 0.000000 0.000000 
0.000000 0.000000 0.000000 0.000000 0.000000 0.000000 0.000000 0.000000 0.000000 0.000000 0.000000 0.000000 0.000000 0.000000 0.000000 0.000000 0.000000 0.000000 0.000000 0.000000 0.000000 0.000000 0.000000 0.000000 0.000000 0.000000 0.000000 0.000000 0.000000 0.000000 0.000000 0.000000 0.000000 0.000000 0.000000 0.000000 0.000000 0.000000 0.000000 0.000000 
