40 40
0.000000 0.000000 0.000000 0.000000 0.000000 0.000000 0.000000 0.000000 0.000000 0.000000 0.000000 0.000000 0.000000 0.000000 0.000000 0.000000 0.000000 0.000000 0.000000 0.000000 0.000000 0.000000 0.000000 0.000000 0.000000 0.000000 0.000000 0.000000 0.000000 0.000000 0.000000 0.000000 0.000000 0.000000 0.000000 0.000000 0.000000 0.000000 0.000000 0.000000 
0.000000 0.000000 0.000000 0.000000 0.000000 0.000000 0.000000 0.000000 0.000000 0.000000 0.000000 0.000000 0.000000 0.000000 0.000000 0.000000 0.000000 0.000000 0.000000 0.000000 0.000000 0.000000 0.000000 0.000000 0.000000 0.000000 0.000000 0.000000 0.000000 0.000000 0.000000 0.000000 0.000000 0.000000 0.000000 0.000000 0.000000 0.000000 0.000000 0.000000 
0.000000 0.000000 0.000000 0.000000 0.000000 0.000000 0.000000 0.000000 0.000000 0.000000 0.000000 0.000000 0.000000 0.000000 0.000000 0.000000 0.000000 0.000000 0.000000 0.000000 0.000000 0.000000 0.000000 0.000000 0.000000 0.000000 0.000000 0.000000 0.000000 0.000000 0.000000 0.000000 0.000000 0.000000 0.000000 0.000000 0.000000 0.000000 0.000000 0.000000 
0.000000 0.000000 0.000000 0.000000 0.000000 0.000000 0.000000 0.000000 0.000000 0.000000 0.000000 0.000000 0.000000 0.000000 0.000000 0.000000 0.000000 0.000000 0.000000 0.000000 2.070000 2.070000 2.070000 2.055000 2.035000 2.035000 2.035000 2.035000 2.035000 2.031000 2.004000 1.954000 1.932000 2.443000 0.000000 0.000000 0.000000 2.182000 0.000000 0.000000 
0.000000 0.000000 0.000000 0.000000 0.000000 0.000000 0.000000 0.000000 0.000000 0.000000 0.000000 0.000000 0.000000 0.000000 0.000000 0.000000 0.000000 0.000000 0.000000 2.563000 2.070000 2.070000 2.070000 2.055000 2.035000 2.035000 2.035000 2.022000 2.011000 2.010000 2.001000 1.954000 1.922000 2.078000 2.649000 0.000000 0.000000 0.000000 1.879000 0.000000 
0.000000 0.000000 0.000000 0.000000 0.000000 0.000000 0.000000 0.000000 0.000000 0.000000 0.000000 0.000000 0.000000 0.000000 0.000000 0.000000 0.000000 0.000000 2.661000 2.070000 2.070000 2.070000 2.070000 2.055000 2.035000 2.035000 2.035000 2.016000 2.000000 2.000000 2.000000 1.965000 1.926000 1.900000 1.918000 2.850000 0.000000 0.000000 0.000000 0.000000 
0.000000 0.000000 0.000000 0.000000 0.000000 0.000000 0.000000 0.000000 0.000000 0.000000 0.000000 0.000000 0.000000 0.000000 0.000000 0.000000 0.000000 2.546000 2.070000 2.070000 2.070000 2.070000 2.070000 2.055000 2.035000 2.035000 2.035000 2.016000 2.000000 2.000000 2.000000 1.977000 1.943000 1.915000 1.916000 1.956000 2.539000 2.957000 2.342000 0.000000 
0.000000 0.000000 0.000000 0.000000 0.000000 0.000000 0.000000 0.000000 0.000000 0.000000 0.000000 0.000000 0.000000 0.000000 0.000000 2.167000 2.109000 2.079000 2.070000 2.070000 2.069000 2.069000 2.069000 2.055000 2.035000 2.035000 2.035000 2.016000 2.000000 2.000000 2.000000 1.977000 1.966000 1.966000 1.966000 1.966000 0.000000 0.000000 0.000000 0.000000 
0.000000 0.000000 0.000000 0.000000 0.000000 0.000000 0.000000 0.000000 0.000000 0.000000 2.567000 2.583000 2.607000 2.624000 2.432000 2.114000 2.079000 2.072000 2.070000 2.062000 2.042000 2.042000 2.042000 2.039000 2.035000 2.035000 2.035000 2.016000 2.000000 2.000000 2.000000 1.977000 1.966000 1.966000 1.966000 1.966000 1.567000 0.000000 0.000000 0.000000 
0.000000 0.000000 0.000000 0.000000 0.000000 0.000000 0.000000 0.000000 0.000000 2.592000 2.143000 2.144000 2.156000 2.146000 2.117000 2.079000 2.051000 2.050000 2.050000 2.045000 2.035000 2.035000 2.035000 2.035000 2.035000 2.035000 2.035000 2.027000 2.020000 2.018000 2.002000 1.977000 1.957000 1.946000 1.947000 1.962000 1.966000 0.000000 0.000000 0.000000 
0.000000 0.000000 0.000000 0.000000 0.000000 0.000000 0.000000 0.000000 2.757000 2.130000 2.133000 2.143000 2.143000 2.120000 2.092000 2.064000 2.037000 2.035000 2.035000 2.035000 2.034000 2.024000 2.022000 2.028000 2.032000 2.023000 2.022000 2.022000 2.022000 2.019000 1.992000 1.965000 1.944000 1.932000 1.932000 1.949000 1.954000 1.172000 0.000000 0.000000 
0.000000 0.000000 0.000000 0.000000 0.000000 0.000000 0.000000 0.000000 2.668000 2.106000 2.114000 2.138000 2.138000 2.115000 2.089000 2.065000 2.041000 2.036000 2.035000 2.035000 2.032000 2.005000 2.000000 2.013000 2.024000 2.000000 2.000000 2.000000 2.000000 1.996000 1.970000 1.943000 1.932000 1.932000 1.932000 1.932000 1.932000 1.932000 1.460000 0.000000 
0.000000 0.000000 0.000000 0.000000 0.000000 0.000000 0.000000 2.474000 2.167000 2.106000 2.107000 2.109000 2.109000 2.087000 2.072000 2.070000 2.067000 2.044000 2.035000 2.035000 2.032000 2.005000 2.000000 2.001000 2.002000 2.000000 2.000000 2.000000 2.000000 1.996000 1.970000 1.943000 1.932000 1.932000 1.932000 1.932000 1.932000 1.932000 1.460000 0.000000 
0.000000 0.000000 0.000000 0.000000 2.813000 2.804000 2.693000 2.169000 2.109000 2.106000 2.099000 2.081000 2.081000 2.074000 2.070000 2.070000 2.070000 2.044000 2.035000 2.035000 2.032000 2.005000 2.000000 2.000000 1.995000 1.976000 1.976000 1.976000 1.976000 1.975000 1.967000 1.959000 1.945000 1.932000 1.932000 1.932000 1.932000 1.932000 1.792000 1.011000 
0.000000 0.000000 0.000000 2.379000 2.133000 2.118000 2.104000 2.090000 2.089000 2.089000 2.084000 2.070000 2.070000 2.070000 2.070000 2.067000 2.054000 2.040000 2.035000 2.035000 2.032000 2.005000 2.000000 2.000000 1.993000 1.967000 1.966000 1.966000 1.966000 1.966000 1.966000 1.966000 1.951000 1.932000 1.932000 1.920000 1.917000 1.917000 1.917000 1.917000 
0.000000 2.164000 2.143000 2.143000 2.122000 2.103000 2.093000 2.072000 2.070000 2.070000 2.070000 2.070000 2.070000 2.064000 2.061000 2.056000 2.036000 2.035000 2.035000 2.035000 2.033000 2.013000 2.009000 2.005000 1.993000 1.967000 1.966000 1.961000 1.957000 1.957000 1.957000 1.957000 1.946000 1.932000 1.932000 1.907000 1.900000 1.897000 1.889000 1.876000 
2.162000 2.143000 2.143000 2.142000 2.120000 2.092000 2.070000 2.068000 2.068000 2.069000 2.070000 2.070000 2.070000 2.049000 2.035000 2.035000 2.035000 2.035000 2.035000 2.035000 2.035000 2.035000 2.034000 2.019000 1.993000 1.968000 1.968000 1.948000 1.932000 1.932000 1.932000 1.932000 1.932000 1.932000 1.932000 1.907000 1.900000 1.888000 1.858000 1.810000 
2.130000 2.143000 2.143000 2.119000 2.091000 2.074000 2.066000 2.043000 2.041000 2.055000 2.070000 2.070000 2.070000 2.049000 2.035000 2.035000 2.035000 2.035000 2.035000 2.035000 2.035000 2.035000 2.016000 2.003000 1.999000 1.994000 1.994000 1.960000 1.932000 1.932000 1.932000 1.932000 1.932000 1.932000 1.932000 1.907000 1.900000 1.888000 1.858000 1.810000 
2.111000 2.143000 2.142000 2.114000 2.085000 2.062000 2.047000 2.036000 2.035000 2.052000 2.070000 2.070000 2.070000 2.049000 2.035000 2.035000 2.035000 2.035000 2.035000 2.035000 2.033000 2.017000 2.005000 1.991000 1.979000 1.979000 1.979000 1.965000 1.953000 1.950000 1.934000 1.932000 1.932000 1.932000 1.932000 1.907000 1.900000 1.888000 1.861000 1.827000 
2.103000 2.143000 2.142000 2.114000 2.093000 2.066000 2.035000 2.035000 2.035000 2.052000 2.070000 2.070000 2.070000 2.049000 2.035000 2.035000 2.035000 2.035000 2.035000 2.031000 2.020000 2.003000 2.000000 1.986000 1.966000 1.966000 1.966000 1.959000 1.953000 1.952000 1.946000 1.936000 1.932000 1.932000 1.932000 1.907000 1.900000 1.888000 1.864000 1.850000 
2.110000 2.143000 2.142000 2.114000 2.102000 2.077000 2.035000 2.035000 2.035000 2.052000 2.070000 2.070000 2.065000 2.046000 2.035000 2.035000 2.035000 2.035000 2.035000 2.025000 2.000000 2.000000 2.000000 1.986000 1.966000 1.966000 1.966000 1.947000 1.932000 1.935000 1.957000 1.941000 1.932000 1.932000 1.932000 1.911000 1.905000 1.894000 1.873000 1.873000 
2.141000 2.143000 2.142000 2.114000 2.086000 2.059000 2.035000 2.035000 2.035000 2.052000 2.070000 2.068000 2.042000 2.036000 2.035000 2.035000 2.035000 2.035000 2.035000 2.025000 2.000000 2.000000 2.000000 1.986000 1.966000 1.966000 1.966000 1.947000 1.932000 1.932000 1.933000 1.933000 1.932000 1.932000 1.932000 1.931000 1.930000 1.919000 1.898000 1.898000 
0.000000 2.143000 2.142000 2.114000 2.085000 2.057000 2.031000 2.011000 2.009000 2.026000 2.044000 2.044000 2.037000 2.035000 2.035000 2.035000 2.035000 2.035000 2.035000 2.025000 1.998000 1.979000 1.975000 1.971000 1.961000 1.941000 1.941000 1.936000 1.932000 1.932000 1.932000 1.932000 1.932000 1.932000 1.932000 1.932000 1.932000 1.929000 1.923000 1.923000 
2.726000 2.143000 2.142000 2.114000 2.085000 2.057000 2.030000 2.003000 2.000000 2.017000 2.035000 2.035000 2.035000 2.035000 2.035000 2.035000 2.035000 2.035000 2.026000 2.012000 1.997000 1.971000 1.966000 1.966000 1.959000 1.933000 1.932000 1.932000 1.932000 1.932000 1.932000 1.932000 1.932000 1.932000 1.932000 1.932000 1.932000 1.932000 1.932000 1.932000 
2.164000 2.143000 2.142000 2.114000 2.085000 2.057000 2.032000 2.012000 2.010000 2.022000 2.035000 2.035000 2.035000 2.035000 2.035000 2.035000 2.035000 2.035000 2.017000 2.000000 1.997000 1.971000 1.966000 1.966000 1.959000 1.933000 1.932000 1.932000 1.932000 1.932000 1.932000 1.932000 1.932000 1.932000 1.932000 1.932000 1.932000 1.932000 1.933000 1.941000 
2.254000 2.143000 2.142000 2.111000 2.082000 2.056000 2.035000 2.032000 2.032000 2.034000 2.035000 2.035000 2.035000 2.035000 2.035000 2.035000 2.035000 2.033000 2.014000 1.997000 1.995000 1.970000 1.966000 1.966000 1.959000 1.933000 1.932000 1.932000 1.932000 1.932000 1.932000 1.932000 1.932000 1.932000 1.932000 1.932000 1.932000 1.988000 2.093000 2.117000 
0.000000 2.143000 2.142000 2.089000 2.055000 2.038000 2.031000 2.007000 2.005000 2.019000 2.035000 2.035000 2.035000 2.035000 2.035000 2.035000 2.035000 2.013000 1.987000 1.971000 1.970000 1.967000 1.966000 1.966000 1.959000 1.933000 1.932000 1.932000 1.932000 1.932000 1.932000 1.932000 1.932000 1.932000 1.932000 1.932000 1.932000 2.552000 0.000000 0.000000 
0.000000 0.000000 0.000000 2.366000 2.050000 2.035000 2.030000 2.003000 2.000000 2.017000 2.035000 2.035000 2.035000 2.035000 2.035000 2.035000 2.035000 2.009000 1.982000 1.966000 1.966000 1.966000 1.966000 1.966000 1.964000 1.954000 1.937000 1.932000 1.932000 1.932000 1.932000 1.932000 1.932000 1.932000 1.952000 2.957000 0.000000 0.000000 0.000000 0.000000 
0.000000 0.000000 0.000000 2.535000 2.056000 2.030000 2.017000 2.002000 2.000000 2.017000 2.031000 2.020000 2.020000 2.020000 2.026000 2.035000 2.035000 2.009000 1.982000 1.966000 1.966000 1.966000 1.966000 1.966000 1.966000 1.966000 1.951000 1.946000 1.946000 1.945000 1.934000 1.932000 2.284000 2.726000 2.797000 0.000000 0.000000 0.000000 0.000000 0.000000 
0.000000 0.000000 0.000000 2.542000 2.062000 2.022000 2.000000 2.000000 2.000000 2.017000 2.026000 2.000000 2.000000 2.000000 2.011000 2.028000 2.028000 2.007000 1.982000 1.966000 1.966000 1.966000 1.966000 1.966000 1.966000 1.966000 1.966000 1.966000 1.966000 1.963000 1.942000 1.939000 2.786000 0.000000 0.000000 0.000000 0.000000 0.000000 0.000000 0.000000 
0.000000 0.000000 0.000000 2.505000 2.050000 2.022000 2.000000 2.000000 2.000000 2.017000 2.026000 2.000000 2.000000 2.000000 2.000000 2.001000 2.001000 2.000000 1.982000 1.966000 1.966000 1.966000 1.966000 1.966000 1.966000 1.966000 1.966000 1.966000 1.966000 1.966000 1.966000 1.965000 2.859000 0.000000 0.000000 0.000000 0.000000 0.000000 0.000000 0.000000 
0.000000 0.000000 0.000000 2.504000 2.050000 2.004000 1.948000 1.948000 1.985000 2.017000 2.026000 2.000000 2.000000 2.000000 2.000000 2.000000 2.000000 2.000000 1.996000 1.984000 1.966000 1.966000 1.966000 1.966000 1.966000 1.966000 1.986000 2.007000 2.028000 2.046000 2.046000 0.000000 0.000000 0.000000 0.000000 0.000000 0.000000 0.000000 0.000000 0.000000 
0.000000 0.000000 0.000000 0.000000 0.000000 2.759000 1.932000 1.932000 1.993000 2.027000 2.026000 2.000000 2.000000 1.989000 1.981000 1.981000 1.981000 1.981000 1.991000 1.990000 1.966000 1.966000 1.966000 1.966000 1.970000 1.984000 2.011000 2.038000 2.395000 0.000000 0.000000 0.000000 0.000000 0.000000 0.000000 0.000000 0.000000 0.000000 0.000000 0.000000 
0.000000 0.000000 0.000000 0.000000 0.000000 0.000000 1.932000 1.932000 2.004000 2.035000 2.026000 2.000000 2.000000 1.979000 1.966000 1.966000 1.966000 1.958000 1.967000 1.974000 1.967000 1.976000 1.977000 1.982000 2.126000 2.654000 2.705000 2.714000 0.000000 0.000000 0.000000 0.000000 0.000000 0.000000 0.000000 0.000000 0.000000 0.000000 0.000000 0.000000 
0.000000 0.000000 0.000000 0.000000 0.000000 0.000000 1.943000 1.943000 2.182000 2.162000 2.025000 1.996000 1.996000 1.976000 1.962000 1.963000 1.966000 1.941000 1.932000 1.942000 1.969000 1.998000 2.143000 2.234000 2.612000 0.000000 0.000000 0.000000 0.000000 0.000000 0.000000 0.000000 0.000000 0.000000 0.000000 0.000000 0.000000 0.000000 0.000000 0.000000 
0.000000 0.000000 0.000000 0.000000 0.000000 0.000000 2.024000 2.024000 0.000000 0.000000 2.018000 1.970000 1.970000 1.949000 1.936000 1.941000 1.965000 1.941000 1.932000 1.942000 1.971000 2.022000 0.000000 0.000000 0.000000 0.000000 0.000000 0.000000 0.000000 0.000000 0.000000 0.000000 0.000000 0.000000 0.000000 0.000000 0.000000 0.000000 0.000000 0.000000 
0.000000 0.000000 0.000000 0.000000 0.000000 0.000000 0.000000 0.000000 0.000000 0.000000 0.000000 0.000000 0.000000 0.000000 0.000000 0.000000 0.000000 0.000000 0.000000 0.000000 0.000000 0.000000 0.000000 0.000000 0.000000 0.000000 0.000000 0.000000 0.000000 0.000000 0.000000 0.000000 0.000000 0.000000 0.000000 0.000000 0.000000 0.000000 0.000000 0.000000 
0.000000 0.000000 0.000000 0.000000 0.000000 0.000000 0.000000 0.000000 0.000000 0.000000 0.000000 0.000000 0.000000 0.000000 0.000000 0.000000 0.000000 0.000000 0.000000 0.000000 0.000000 0.000000 0.000000 0.000000 0.000000 0.000000 0.000000 0.000000 0.000000 0.000000 0.000000 0.000000 0.000000 0.000000 0.000000 0.000000 0.000000 0.000000 0.000000 0.000000 
0.000000 0.000000 0.000000 0.000000 0.000000 0.000000 0.000000 0.000000 0.000000 0.000000 0.000000 0.000000 0.000000 0.000000 0.000000 0.000000 0.000000 0.000000 0.000000 0.000000 0.000000 0.000000 0.000000 0.000000 0.000000 0.000000 0.000000 0.000000 0.000000 0.000000 0.000000 0.000000 0.000000 0.000000 0.000000 0.000000 0.000000 0.000000 0.000000 0.000000 
0.000000 0.000000 0.000000 0.000000 0.000000 0.000000 0.000000 0.000000 0.000000 0.000000 0.000000 0.000000 0.000000 0.000000 0.000000 0.000000 0.000000 0.000000 0.000000 0.000000 0.000000 0.000000 0.000000 0.000000 0.000000 0.000000 0.000000 0.000000 0.000000 0.000000 0.000000 0.000000 0.000000 0.000000 0.000000 0.000000 0.000000 0.000000 0.000000 0.000000 
