40 40
0.000000 0.000000 0.000000 0.000000 0.000000 0.000000 0.000000 0.000000 0.000000 1.284000 1.284000 1.985000 0.000000 1.811000 1.284000 1.284000 1.350000 2.047000 2.038000 2.037000 1.992000 1.897000 2.033000 2.033000 2.025000 2.023000 2.025000 2.026000 2.030000 2.031000 1.284000 1.284000 1.284000 0.000000 0.000000 0.000000 0.000000 0.000000 0.000000 0.000000 
0.000000 0.000000 0.000000 0.000000 0.000000 0.000000 0.000000 1.284000 1.284000 1.284000 1.284000 1.284000 1.989000 1.284000 1.284000 1.455000 2.078000 2.071000 2.069000 2.071000 1.284000 2.002000 2.053000 2.052000 2.050000 2.044000 2.044000 2.036000 2.033000 1.449000 1.284000 1.284000 1.284000 0.000000 0.000000 0.000000 0.000000 0.000000 0.000000 0.000000 
0.000000 0.000000 0.000000 0.000000 0.000000 0.000000 0.000000 1.284000 1.284000 1.284000 1.284000 1.284000 1.284000 1.284000 1.284000 1.563000 2.097000 2.093000 2.092000 1.479000 1.284000 2.087000 2.082000 2.078000 2.073000 2.053000 2.060000 2.065000 2.044000 1.284000 1.284000 1.284000 1.284000 0.000000 0.000000 0.000000 0.000000 0.000000 0.000000 0.000000 
0.000000 0.000000 0.000000 0.000000 0.000000 0.000000 0.000000 1.284000 1.284000 1.284000 1.284000 1.284000 1.982000 1.356000 1.284000 1.284000 2.025000 2.028000 1.284000 1.776000 1.284000 1.974000 2.106000 2.105000 2.111000 2.050000 2.070000 1.797000 1.284000 1.284000 1.284000 1.284000 1.284000 0.000000 0.000000 0.000000 0.000000 0.000000 0.000000 0.000000 
0.000000 0.000000 0.000000 0.000000 0.000000 0.000000 0.000000 1.284000 1.284000 1.284000 1.284000 1.917000 1.985000 1.987000 1.991000 1.994000 1.887000 1.284000 1.284000 1.284000 1.284000 2.133000 2.129000 2.111000 2.111000 2.048000 1.284000 1.284000 1.284000 1.284000 1.284000 1.284000 1.284000 0.000000 0.000000 0.000000 0.000000 0.000000 0.000000 0.000000 
0.000000 0.000000 0.000000 0.000000 0.000000 0.000000 0.000000 1.284000 1.284000 1.284000 1.284000 1.989000 1.982000 1.985000 1.989000 1.992000 1.994000 1.998000 2.001000 2.008000 1.713000 1.713000 2.035000 2.107000 2.109000 2.046000 1.284000 1.284000 1.284000 1.284000 1.284000 1.284000 1.284000 0.000000 0.000000 0.000000 0.000000 0.000000 0.000000 0.000000 
0.000000 0.000000 0.000000 0.000000 0.000000 0.000000 0.000000 1.284000 1.284000 1.284000 1.284000 1.983000 1.982000 1.987000 1.990000 1.992000 1.994000 1.998000 2.000000 2.004000 2.007000 2.012000 2.014000 2.017000 2.022000 1.584000 1.421000 1.284000 1.284000 1.284000 1.284000 1.284000 1.284000 0.000000 0.000000 0.000000 0.000000 0.000000 0.000000 0.000000 
0.000000 0.000000 0.000000 0.000000 0.000000 0.000000 0.000000 1.284000 1.284000 1.284000 1.284000 1.983000 1.981000 1.985000 1.988000 1.991000 1.994000 1.995000 1.999000 2.003000 2.007000 2.012000 2.015000 2.018000 2.020000 2.025000 2.027000 2.030000 2.033000 1.348000 1.348000 1.348000 1.284000 0.000000 0.000000 0.000000 0.000000 0.000000 0.000000 0.000000 
0.000000 0.000000 0.000000 0.000000 0.000000 0.000000 0.000000 1.284000 1.284000 1.284000 1.284000 1.980000 1.981000 1.984000 1.988000 1.991000 1.992000 1.995000 2.000000 2.002000 2.006000 2.011000 2.013000 2.017000 2.020000 2.025000 2.026000 2.030000 2.031000 2.035000 2.040000 2.046000 2.046000 0.000000 0.000000 0.000000 0.000000 0.000000 0.000000 0.000000 
0.000000 0.000000 0.000000 0.000000 0.000000 0.000000 0.000000 1.284000 1.284000 1.284000 1.284000 1.980000 1.981000 1.982000 1.987000 1.991000 1.994000 1.997000 1.998000 2.000000 2.006000 2.009000 2.013000 2.017000 2.018000 2.023000 2.026000 2.028000 2.031000 2.034000 2.039000 2.045000 2.046000 0.000000 0.000000 0.000000 0.000000 0.000000 0.000000 0.000000 
0.000000 0.000000 0.000000 0.000000 0.000000 0.000000 0.000000 1.284000 1.284000 1.284000 1.284000 1.978000 1.980000 1.982000 1.987000 1.989000 1.991000 1.995000 1.998000 2.000000 2.006000 2.009000 2.012000 2.015000 2.018000 2.022000 2.025000 2.028000 2.031000 2.033000 2.039000 2.041000 2.046000 0.000000 0.000000 0.000000 0.000000 0.000000 0.000000 0.000000 
0.000000 0.000000 0.000000 0.000000 0.000000 0.000000 0.000000 1.284000 1.284000 1.284000 1.726000 1.977000 1.980000 1.982000 1.986000 1.988000 1.991000 1.995000 1.998000 2.000000 2.004000 2.006000 2.012000 2.014000 2.017000 2.021000 2.024000 2.027000 2.030000 2.033000 2.039000 2.041000 2.046000 0.000000 0.000000 0.000000 0.000000 0.000000 0.000000 0.000000 
0.000000 0.000000 0.000000 0.000000 0.000000 0.000000 0.000000 1.284000 1.284000 1.284000 1.707000 1.977000 1.980000 1.982000 1.986000 1.988000 1.991000 1.994000 1.997000 1.999000 2.004000 2.007000 2.011000 2.014000 2.015000 2.020000 2.024000 2.026000 2.028000 2.031000 2.036000 2.039000 2.045000 0.000000 0.000000 0.000000 0.000000 0.000000 0.000000 0.000000 
0.000000 0.000000 0.000000 0.000000 0.000000 0.000000 0.000000 1.284000 1.284000 1.284000 1.975000 1.977000 1.978000 1.982000 1.985000 1.987000 1.991000 1.994000 1.996000 1.999000 2.006000 2.007000 2.010000 2.014000 2.015000 2.020000 2.023000 2.025000 2.029000 2.031000 2.037000 2.039000 2.043000 0.000000 0.000000 0.000000 0.000000 0.000000 0.000000 0.000000 
0.000000 0.000000 0.000000 0.000000 0.000000 0.000000 0.000000 1.284000 1.284000 1.284000 1.976000 1.976000 1.977000 1.982000 1.985000 1.988000 1.990000 1.994000 1.996000 1.999000 2.004000 2.006000 2.009000 2.012000 2.015000 2.020000 2.020000 2.025000 2.029000 2.033000 2.036000 2.038000 2.041000 0.000000 0.000000 0.000000 0.000000 0.000000 0.000000 0.000000 
0.000000 0.000000 0.000000 0.000000 0.000000 0.000000 0.000000 1.284000 1.284000 1.284000 1.974000 1.975000 1.977000 1.981000 1.984000 1.987000 1.991000 1.992000 1.995000 1.999000 2.001000 2.006000 2.009000 2.012000 2.017000 2.018000 2.021000 2.025000 2.030000 2.031000 2.035000 2.037000 2.039000 0.000000 0.000000 0.000000 0.000000 0.000000 0.000000 0.000000 
0.000000 0.000000 0.000000 0.000000 0.000000 0.000000 0.000000 1.284000 1.284000 1.284000 1.974000 1.975000 1.977000 1.981000 1.983000 1.986000 1.990000 1.992000 1.994000 1.998000 2.001000 2.006000 2.008000 2.011000 2.014000 2.017000 2.020000 2.023000 2.026000 2.031000 2.034000 2.038000 2.039000 0.000000 0.000000 0.000000 0.000000 0.000000 0.000000 0.000000 
0.000000 0.000000 0.000000 0.000000 0.000000 0.000000 0.000000 1.284000 1.284000 1.284000 1.972000 1.974000 1.977000 1.980000 1.983000 1.986000 1.988000 1.992000 1.994000 1.997000 2.001000 2.004000 2.007000 2.011000 2.012000 2.017000 2.020000 2.023000 2.026000 2.030000 2.033000 2.037000 2.033000 0.000000 0.000000 0.000000 0.000000 0.000000 0.000000 0.000000 
0.000000 0.000000 0.000000 0.000000 0.000000 0.000000 0.000000 1.284000 1.284000 1.881000 1.971000 1.974000 1.977000 1.980000 1.982000 1.986000 1.988000 1.991000 1.993000 1.995000 2.000000 2.003000 2.006000 2.011000 2.012000 2.015000 2.018000 2.021000 2.025000 2.027000 2.031000 2.037000 2.037000 0.000000 0.000000 0.000000 0.000000 0.000000 0.000000 0.000000 
0.000000 0.000000 0.000000 0.000000 0.000000 0.000000 0.000000 1.284000 1.284000 1.881000 1.971000 1.974000 1.977000 1.978000 1.981000 1.984000 1.988000 1.991000 1.992000 1.996000 2.000000 2.003000 2.006000 2.010000 2.012000 2.014000 2.018000 2.020000 2.023000 2.028000 2.031000 2.035000 2.034000 0.000000 0.000000 0.000000 0.000000 0.000000 0.000000 0.000000 
0.000000 0.000000 0.000000 0.000000 0.000000 0.000000 0.000000 1.284000 1.284000 1.970000 1.971000 1.972000 1.975000 1.977000 1.981000 1.984000 1.987000 1.988000 1.992000 1.995000 2.000000 2.001000 2.005000 2.007000 2.010000 2.014000 2.016000 2.021000 2.025000 2.026000 2.030000 2.033000 2.019000 0.000000 0.000000 0.000000 0.000000 0.000000 0.000000 0.000000 
0.000000 0.000000 0.000000 0.000000 0.000000 0.000000 0.000000 1.284000 1.284000 1.967000 1.970000 1.971000 1.974000 1.977000 1.981000 1.984000 1.987000 1.989000 1.991000 1.994000 1.999000 2.001000 2.005000 2.007000 2.012000 2.014000 2.016000 2.019000 2.023000 2.025000 2.030000 2.034000 2.020000 0.000000 0.000000 0.000000 0.000000 0.000000 0.000000 0.000000 
0.000000 0.000000 0.000000 0.000000 0.000000 0.000000 0.000000 1.284000 1.306000 1.967000 1.970000 1.971000 1.975000 1.977000 1.981000 1.984000 1.987000 1.988000 1.990000 1.994000 1.998000 2.001000 2.004000 2.006000 2.011000 2.014000 2.015000 2.018000 2.020000 2.024000 2.029000 2.033000 1.284000 0.000000 0.000000 0.000000 0.000000 0.000000 0.000000 0.000000 
0.000000 0.000000 0.000000 0.000000 0.000000 0.000000 0.000000 1.284000 1.365000 1.966000 1.968000 1.970000 1.974000 1.977000 1.980000 1.983000 1.985000 1.988000 1.990000 1.993000 1.997000 2.000000 2.003000 2.006000 2.009000 2.012000 2.015000 2.019000 2.022000 2.023000 2.028000 2.031000 1.284000 0.000000 0.000000 0.000000 0.000000 0.000000 0.000000 0.000000 
0.000000 0.000000 0.000000 0.000000 0.000000 0.000000 0.000000 1.284000 1.365000 1.963000 1.968000 1.970000 1.972000 1.975000 1.980000 1.982000 1.985000 1.987000 1.989000 1.993000 1.997000 2.000000 2.003000 2.003000 2.007000 2.011000 2.014000 2.017000 2.020000 2.022000 2.026000 2.030000 1.284000 0.000000 0.000000 0.000000 0.000000 0.000000 0.000000 0.000000 
0.000000 0.000000 0.000000 0.000000 0.000000 0.000000 0.000000 1.284000 1.365000 1.964000 1.968000 1.971000 1.972000 1.977000 1.980000 1.982000 1.984000 1.987000 1.989000 1.992000 1.995000 2.000000 2.001000 2.003000 2.007000 2.010000 2.014000 2.015000 2.018000 2.022000 2.026000 2.030000 1.284000 0.000000 0.000000 0.000000 0.000000 0.000000 0.000000 0.000000 
0.000000 0.000000 0.000000 0.000000 0.000000 0.000000 0.000000 1.284000 1.365000 1.963000 1.966000 1.970000 1.971000 1.975000 1.979000 1.982000 1.985000 1.987000 1.988000 1.991000 1.995000 1.998000 2.000000 2.002000 2.006000 2.009000 2.013000 2.015000 2.018000 2.020000 2.026000 2.028000 1.284000 0.000000 0.000000 0.000000 0.000000 0.000000 0.000000 0.000000 
0.000000 0.000000 0.000000 0.000000 0.000000 0.000000 0.000000 1.284000 1.962000 1.963000 1.966000 1.969000 1.971000 1.975000 1.978000 1.981000 1.982000 1.985000 1.988000 1.990000 1.995000 1.998000 2.000000 2.002000 2.006000 2.009000 2.013000 2.014000 2.018000 2.020000 2.025000 1.824000 1.284000 0.000000 0.000000 0.000000 0.000000 0.000000 0.000000 0.000000 
0.000000 0.000000 0.000000 0.000000 0.000000 0.000000 0.000000 1.284000 1.960000 1.963000 1.966000 1.968000 1.971000 1.974000 1.977000 1.980000 1.982000 1.984000 1.988000 1.990000 1.994000 1.997000 1.999000 2.003000 2.006000 2.007000 2.012000 2.014000 2.017000 2.020000 2.026000 1.825000 1.284000 0.000000 0.000000 0.000000 0.000000 0.000000 0.000000 0.000000 
0.000000 0.000000 0.000000 0.000000 0.000000 0.000000 0.000000 1.284000 1.959000 1.962000 1.965000 1.967000 1.971000 1.972000 1.976000 1.980000 1.981000 1.984000 1.988000 1.988000 1.995000 1.997000 1.999000 2.003000 2.006000 2.007000 2.011000 2.014000 2.017000 2.019000 2.026000 1.284000 1.284000 0.000000 0.000000 0.000000 0.000000 0.000000 0.000000 0.000000 
0.000000 0.000000 0.000000 0.000000 0.000000 0.000000 0.000000 1.284000 1.959000 1.962000 1.965000 1.966000 1.970000 1.972000 1.975000 1.978000 1.981000 1.984000 1.988000 1.990000 1.994000 1.995000 1.998000 2.002000 2.006000 2.007000 2.010000 2.014000 2.015000 2.018000 2.026000 1.823000 1.284000 0.000000 0.000000 0.000000 0.000000 0.000000 0.000000 0.000000 
0.000000 0.000000 0.000000 0.000000 0.000000 0.000000 0.000000 1.284000 1.959000 1.960000 1.964000 1.966000 1.970000 1.972000 1.975000 1.978000 1.981000 1.982000 1.987000 1.989000 1.994000 1.994000 1.998000 2.002000 2.004000 2.006000 2.010000 2.013000 2.015000 2.018000 2.025000 1.284000 1.284000 0.000000 0.000000 0.000000 0.000000 0.000000 0.000000 0.000000 
0.000000 0.000000 0.000000 0.000000 0.000000 0.000000 0.000000 1.535000 1.958000 1.960000 1.964000 1.966000 1.970000 1.971000 1.975000 1.977000 1.981000 1.982000 1.985000 1.988000 1.992000 1.994000 1.998000 2.001000 2.004000 2.006000 2.008000 2.012000 2.016000 2.018000 2.025000 1.284000 1.284000 0.000000 0.000000 0.000000 0.000000 0.000000 0.000000 0.000000 
0.000000 0.000000 0.000000 0.000000 0.000000 0.000000 0.000000 1.958000 1.956000 1.959000 1.964000 1.966000 1.970000 1.972000 1.975000 1.977000 1.980000 1.981000 1.985000 1.987000 1.992000 1.994000 1.996000 2.001000 2.001000 2.006000 2.008000 2.012000 2.014000 2.018000 2.022000 1.284000 1.284000 0.000000 0.000000 0.000000 0.000000 0.000000 0.000000 0.000000 
0.000000 0.000000 0.000000 0.000000 0.000000 0.000000 0.000000 1.957000 1.956000 1.959000 1.963000 1.966000 1.968000 1.971000 1.974000 1.977000 1.980000 1.981000 1.985000 1.987000 1.991000 1.994000 1.997000 2.000000 2.001000 2.006000 2.007000 2.011000 2.014000 2.018000 2.022000 1.284000 1.284000 0.000000 0.000000 0.000000 0.000000 0.000000 0.000000 0.000000 
0.000000 0.000000 0.000000 0.000000 0.000000 0.000000 0.000000 1.955000 1.956000 1.958000 1.964000 1.965000 1.968000 1.971000 1.974000 1.976000 1.978000 1.981000 1.983000 1.987000 1.991000 1.992000 1.996000 2.000000 2.001000 2.006000 2.007000 2.011000 2.014000 2.017000 2.019000 1.284000 1.284000 0.000000 0.000000 0.000000 0.000000 0.000000 0.000000 0.000000 
0.000000 0.000000 0.000000 0.000000 0.000000 0.000000 0.000000 1.954000 1.955000 1.956000 1.961000 1.964000 1.967000 1.970000 1.973000 1.975000 1.978000 1.981000 1.984000 1.987000 1.990000 1.993000 1.996000 2.000000 2.001000 2.004000 2.007000 2.011000 2.012000 2.016000 2.020000 1.284000 1.284000 0.000000 0.000000 0.000000 0.000000 0.000000 0.000000 0.000000 
0.000000 0.000000 0.000000 0.000000 0.000000 0.000000 0.000000 1.954000 1.955000 1.958000 1.960000 1.964000 1.966000 1.970000 1.972000 1.974000 1.977000 1.981000 1.984000 1.985000 1.990000 1.993000 1.996000 1.998000 2.001000 2.005000 2.007000 2.011000 2.012000 2.017000 2.018000 1.284000 1.284000 0.000000 0.000000 0.000000 0.000000 0.000000 0.000000 0.000000 
0.000000 0.000000 0.000000 0.000000 0.000000 0.000000 0.000000 1.952000 1.954000 1.955000 1.960000 1.963000 1.966000 1.968000 1.971000 1.974000 1.977000 1.981000 1.982000 1.984000 1.990000 1.992000 1.995000 1.998000 2.001000 2.003000 2.007000 2.011000 2.012000 2.015000 1.632000 1.284000 1.374000 0.000000 0.000000 0.000000 0.000000 0.000000 0.000000 0.000000 
0.000000 0.000000 0.000000 0.000000 0.000000 0.000000 0.000000 2.026000 2.025000 0.000000 1.962000 1.970000 1.972000 1.970000 1.972000 1.974000 1.977000 1.980000 1.982000 1.983000 1.988000 1.991000 1.995000 1.996000 2.000000 2.003000 2.006000 2.009000 2.012000 2.015000 1.630000 1.284000 1.373000 0.000000 0.000000 0.000000 0.000000 0.000000 0.000000 0.000000 
