0.000000,0.000000,0.000000,0.000000,0.000000,0.000000,0.000000,0.000000,0.000000,0.000000,0.000000,0.000000,0.000000,0.000000,0.000000,0.000000,0.000000,0.000000,0.000000,0.000000,0.000000,0.000000,0.000000,0.000000,0.000000,0.000000,0.000000,0.000000,0.000000,0.000000,0.000000,0.000000,0.000000,0.000000,0.000000,0.000000,0.000000,0.000000,0.000000,0.000000,
0.000000,0.000000,0.000000,0.000000,0.000000,0.000000,0.000000,0.000000,0.000000,0.000000,0.000000,0.000000,0.000000,0.000000,0.000000,0.000000,0.000000,0.000000,0.000000,0.000000,0.000000,0.000000,0.000000,0.000000,0.000000,2.649000,2.112000,0.000000,2.073000,2.629000,0.000000,0.000000,0.000000,0.000000,0.000000,0.000000,0.000000,0.000000,0.000000,0.000000,
0.000000,0.000000,0.000000,0.000000,0.000000,0.000000,0.000000,0.000000,0.000000,0.000000,0.000000,1.980000,1.979000,1.982000,1.979000,1.986000,0.000000,1.996000,0.000000,0.000000,2.014000,2.012000,2.006000,2.017000,2.025000,2.029000,2.033000,2.036000,2.042000,2.046000,2.041000,2.041000,0.000000,0.000000,0.000000,0.000000,0.000000,0.000000,0.000000,0.000000,
0.000000,0.000000,0.000000,0.000000,0.000000,0.000000,0.000000,2.049000,2.034000,2.005000,1.982000,1.969000,1.970000,1.973000,1.974000,1.978000,1.983000,1.985000,1.988000,1.988000,1.994000,1.996000,2.003000,2.003000,2.010000,2.012000,2.020000,2.024000,2.032000,2.034000,2.038000,2.041000,2.041000,0.000000,0.000000,0.000000,0.000000,0.000000,0.000000,0.000000,
0.000000,0.000000,0.000000,0.000000,0.000000,0.000000,0.000000,1.908000,2.034000,2.006000,1.980000,1.966000,1.965000,1.967000,1.971000,1.976000,1.979000,1.982000,1.987000,1.991000,1.993000,1.995000,2.001000,2.003000,2.008000,2.015000,2.020000,2.023000,2.032000,2.035000,2.038000,2.043000,1.314000,0.000000,0.000000,0.000000,0.000000,0.000000,0.000000,0.000000,
0.000000,0.000000,0.000000,0.000000,0.000000,0.000000,0.000000,1.910000,2.031000,2.005000,1.978000,1.966000,1.966000,1.967000,1.973000,1.976000,1.979000,1.982000,1.986000,1.989000,1.994000,1.999000,2.003000,2.003000,2.007000,2.016000,2.021000,2.026000,2.029000,2.037000,2.041000,2.044000,0.000000,0.000000,0.000000,0.000000,0.000000,0.000000,0.000000,0.000000,
0.000000,0.000000,0.000000,0.000000,0.000000,0.000000,0.000000,2.051000,2.033000,2.003000,1.979000,1.967000,1.967000,1.970000,1.974000,1.979000,1.979000,1.982000,1.987000,1.991000,1.994000,1.999000,2.006000,2.006000,2.010000,2.016000,2.020000,2.026000,2.032000,2.037000,2.041000,2.044000,0.000000,0.000000,0.000000,0.000000,0.000000,0.000000,0.000000,0.000000,
0.000000,0.000000,0.000000,0.000000,0.000000,0.000000,0.000000,1.849000,2.029000,2.005000,1.982000,1.967000,1.967000,1.970000,1.971000,1.976000,1.980000,1.982000,1.987000,1.992000,1.994000,2.000000,2.006000,2.006000,2.012000,2.016000,2.021000,2.026000,2.032000,2.037000,2.039000,2.044000,0.000000,0.000000,0.000000,0.000000,0.000000,0.000000,0.000000,0.000000,
0.000000,0.000000,0.000000,0.000000,0.000000,0.000000,0.000000,2.052000,2.028000,2.003000,1.981000,1.967000,1.967000,1.970000,1.973000,1.976000,1.981000,1.983000,1.987000,1.991000,1.997000,2.002000,2.006000,2.006000,2.014000,2.019000,2.021000,2.028000,2.032000,2.037000,2.042000,2.045000,0.000000,0.000000,0.000000,0.000000,0.000000,0.000000,0.000000,0.000000,
0.000000,0.000000,0.000000,0.000000,0.000000,0.000000,0.000000,2.052000,2.029000,2.000000,1.985000,1.967000,1.970000,1.972000,1.974000,1.979000,1.982000,1.985000,1.988000,1.992000,1.997000,2.003000,2.004000,2.008000,2.014000,2.019000,2.021000,2.028000,2.032000,2.037000,2.041000,2.041000,0.000000,0.000000,0.000000,0.000000,0.000000,0.000000,0.000000,0.000000,
0.000000,0.000000,0.000000,0.000000,0.000000,0.000000,0.000000,1.851000,2.030000,1.997000,1.985000,1.967000,1.967000,1.971000,1.976000,1.979000,1.980000,1.985000,1.990000,1.992000,2.000000,2.002000,2.005000,2.009000,2.014000,2.019000,2.024000,2.029000,2.035000,2.040000,2.041000,2.041000,1.586000,0.000000,0.000000,0.000000,0.000000,0.000000,0.000000,0.000000,
0.000000,0.000000,0.000000,0.000000,0.000000,0.000000,0.000000,2.046000,2.029000,2.006000,1.987000,1.967000,1.967000,1.970000,1.974000,1.979000,1.980000,1.985000,1.991000,1.991000,2.000000,2.003000,2.006000,2.008000,2.014000,2.019000,2.027000,2.029000,2.035000,2.038000,2.042000,2.047000,1.037000,0.000000,0.000000,0.000000,0.000000,0.000000,0.000000,0.000000,
0.000000,0.000000,0.000000,0.000000,0.000000,0.000000,0.000000,1.852000,2.030000,2.006000,1.987000,1.970000,1.970000,1.971000,1.976000,1.979000,1.982000,1.987000,1.991000,1.995000,2.000000,2.003000,2.006000,2.009000,2.016000,2.019000,2.025000,2.032000,2.035000,2.038000,2.043000,2.048000,2.048000,0.000000,0.000000,0.000000,0.000000,0.000000,0.000000,0.000000,
0.000000,0.000000,0.000000,0.000000,0.000000,0.000000,0.000000,1.855000,2.028000,2.006000,1.985000,1.970000,1.970000,1.970000,1.974000,1.981000,1.982000,1.988000,1.988000,1.995000,2.000000,2.003000,2.006000,2.009000,2.016000,2.019000,2.024000,2.032000,2.035000,2.038000,2.045000,2.047000,1.723000,0.000000,0.000000,0.000000,0.000000,0.000000,0.000000,0.000000,
0.000000,0.000000,0.000000,0.000000,0.000000,0.000000,0.000000,1.849000,2.027000,2.003000,1.983000,1.969000,1.970000,1.973000,1.977000,1.981000,1.983000,1.988000,1.991000,1.998000,2.003000,2.003000,2.006000,2.011000,2.017000,2.019000,2.024000,2.029000,2.035000,2.038000,2.045000,2.048000,0.000000,0.000000,0.000000,0.000000,0.000000,0.000000,0.000000,0.000000,
0.000000,0.000000,0.000000,0.000000,0.000000,0.000000,0.000000,1.373000,2.025000,2.003000,1.985000,1.970000,1.973000,1.974000,1.979000,1.981000,1.982000,1.988000,1.991000,1.998000,2.003000,2.003000,2.008000,2.011000,2.019000,2.022000,2.029000,2.033000,2.035000,2.043000,2.045000,2.048000,0.000000,0.000000,0.000000,0.000000,0.000000,0.000000,0.000000,0.000000,
0.000000,0.000000,0.000000,0.000000,0.000000,0.000000,0.000000,1.853000,2.025000,2.005000,1.979000,1.969000,1.970000,1.973000,1.979000,1.982000,1.985000,1.988000,1.991000,1.998000,2.003000,2.005000,2.009000,2.012000,2.017000,2.022000,2.030000,2.033000,2.035000,2.041000,2.044000,2.048000,1.166000,0.000000,0.000000,0.000000,0.000000,0.000000,0.000000,0.000000,
0.000000,0.000000,0.000000,0.000000,0.000000,0.000000,0.000000,1.853000,2.034000,2.005000,1.990000,1.967000,1.970000,1.975000,1.979000,1.980000,1.985000,1.990000,1.991000,1.998000,2.003000,2.006000,2.010000,2.015000,2.016000,2.022000,2.030000,2.035000,2.038000,2.041000,2.044000,2.048000,0.000000,0.000000,0.000000,0.000000,0.000000,0.000000,0.000000,0.000000,
0.000000,0.000000,0.000000,0.000000,0.000000,0.000000,0.000000,1.854000,2.033000,2.009000,1.988000,1.967000,1.970000,1.975000,1.979000,1.980000,1.986000,1.991000,1.994000,1.998000,2.003000,2.006000,2.010000,2.012000,2.017000,2.022000,2.030000,2.035000,2.035000,2.041000,2.045000,2.046000,2.045000,0.000000,0.000000,0.000000,0.000000,0.000000,0.000000,0.000000,
0.000000,0.000000,0.000000,0.000000,0.000000,0.000000,0.000000,1.853000,2.030000,2.011000,1.985000,1.970000,1.970000,1.976000,1.979000,1.982000,1.986000,1.991000,1.993000,1.998000,2.003000,2.006000,2.010000,2.015000,2.019000,2.022000,2.030000,2.035000,2.038000,2.043000,2.046000,2.048000,2.048000,0.000000,0.000000,0.000000,0.000000,0.000000,0.000000,0.000000,
0.000000,0.000000,0.000000,0.000000,0.000000,0.000000,0.000000,1.264000,2.028000,2.011000,1.987000,1.970000,1.970000,1.979000,1.979000,1.982000,1.987000,1.991000,1.994000,2.000000,2.003000,2.006000,2.010000,2.016000,2.020000,2.025000,2.030000,2.035000,2.035000,2.043000,2.046000,2.048000,2.045000,0.000000,0.000000,0.000000,0.000000,0.000000,0.000000,0.000000,
0.000000,0.000000,0.000000,0.000000,0.000000,0.000000,0.000000,1.845000,2.032000,2.008000,1.987000,1.970000,1.973000,1.978000,1.979000,1.982000,1.988000,1.991000,1.996000,2.000000,2.003000,2.006000,2.010000,2.016000,2.019000,2.025000,2.031000,2.035000,2.038000,2.045000,2.045000,2.048000,2.048000,0.000000,0.000000,0.000000,0.000000,0.000000,0.000000,0.000000,
0.000000,0.000000,0.000000,0.000000,0.000000,0.000000,0.000000,1.849000,2.034000,2.011000,1.983000,1.970000,1.973000,1.978000,1.980000,1.984000,1.991000,1.991000,1.994000,2.003000,2.003000,2.006000,2.012000,2.016000,2.020000,2.028000,2.033000,2.035000,2.040000,2.045000,2.048000,2.048000,2.054000,0.000000,0.000000,0.000000,0.000000,0.000000,0.000000,0.000000,
0.000000,0.000000,0.000000,0.000000,0.000000,0.000000,0.000000,2.052000,2.033000,2.014000,1.983000,1.970000,1.972000,1.978000,1.980000,1.984000,1.989000,1.991000,1.996000,2.003000,2.003000,2.006000,2.012000,2.017000,2.020000,2.027000,2.033000,2.035000,2.041000,2.046000,2.048000,2.048000,2.051000,0.000000,0.000000,0.000000,0.000000,0.000000,0.000000,0.000000,
0.000000,0.000000,0.000000,0.000000,0.000000,0.000000,0.000000,1.845000,2.035000,2.012000,1.981000,1.973000,1.973000,1.979000,1.980000,1.984000,1.989000,1.994000,1.994000,2.003000,2.004000,2.008000,2.016000,2.018000,2.020000,2.028000,2.034000,2.036000,2.041000,2.047000,2.049000,2.051000,1.868000,0.000000,0.000000,0.000000,0.000000,0.000000,0.000000,0.000000,
0.000000,0.000000,0.000000,0.000000,0.000000,0.000000,0.000000,1.670000,2.037000,2.015000,1.983000,1.972000,1.973000,1.979000,1.982000,1.987000,1.991000,1.994000,1.999000,2.003000,2.006000,2.009000,2.013000,2.016000,2.020000,2.028000,2.035000,2.035000,2.045000,2.048000,2.049000,2.048000,1.826000,0.000000,0.000000,0.000000,0.000000,0.000000,0.000000,0.000000,
0.000000,0.000000,0.000000,0.000000,0.000000,0.000000,0.000000,2.056000,2.037000,2.014000,1.982000,1.973000,1.976000,1.980000,1.984000,1.990000,1.991000,1.994000,1.999000,2.003000,2.006000,2.012000,2.016000,2.019000,2.023000,2.028000,2.035000,2.036000,2.045000,2.047000,2.050000,2.047000,2.046000,0.000000,0.000000,0.000000,0.000000,0.000000,0.000000,0.000000,
0.000000,0.000000,0.000000,0.000000,0.000000,0.000000,0.000000,2.049000,2.037000,2.017000,1.981000,1.975000,1.978000,1.982000,1.985000,1.987000,1.992000,1.994000,2.002000,2.003000,2.009000,2.012000,2.016000,2.019000,2.025000,2.028000,2.035000,2.038000,2.045000,2.048000,2.048000,2.052000,2.049000,0.000000,0.000000,0.000000,0.000000,0.000000,0.000000,0.000000,
0.000000,0.000000,0.000000,0.000000,0.000000,0.000000,0.000000,2.054000,2.037000,2.008000,1.982000,1.976000,1.978000,1.982000,1.985000,1.988000,1.992000,1.997000,2.001000,2.006000,2.009000,2.015000,2.016000,2.019000,2.025000,2.028000,2.035000,2.041000,2.045000,2.048000,2.049000,2.055000,2.062000,0.000000,0.000000,0.000000,0.000000,0.000000,0.000000,0.000000,
0.000000,0.000000,0.000000,0.000000,0.000000,0.000000,0.000000,2.058000,2.034000,2.009000,1.987000,1.976000,1.976000,1.981000,1.985000,1.990000,1.993000,2.000000,2.000000,2.004000,2.006000,2.015000,2.016000,2.018000,2.023000,2.028000,2.034000,2.041000,2.045000,2.048000,2.049000,2.055000,0.000000,0.000000,0.000000,0.000000,0.000000,0.000000,0.000000,0.000000,
0.000000,0.000000,0.000000,0.000000,0.000000,0.000000,0.000000,2.059000,2.040000,2.006000,1.985000,1.975000,1.973000,1.981000,1.983000,1.990000,1.992000,1.997000,2.000000,2.004000,2.009000,2.014000,2.016000,2.019000,2.023000,2.032000,2.037000,2.041000,2.045000,2.048000,2.051000,2.055000,1.955000,0.000000,0.000000,0.000000,0.000000,0.000000,0.000000,0.000000,
0.000000,0.000000,0.000000,0.000000,0.000000,0.000000,0.000000,1.948000,2.044000,2.012000,1.985000,1.978000,1.979000,1.981000,1.982000,1.988000,1.992000,2.000000,2.003000,2.006000,2.011000,2.013000,2.019000,2.019000,2.026000,2.030000,2.037000,2.044000,2.045000,2.049000,2.052000,2.055000,2.050000,0.000000,0.000000,0.000000,0.000000,0.000000,0.000000,0.000000,
0.000000,0.000000,0.000000,0.000000,0.000000,0.000000,0.000000,1.887000,2.042000,2.019000,1.987000,1.976000,1.979000,1.982000,1.983000,1.990000,1.994000,2.000000,2.003000,2.006000,2.009000,2.016000,2.019000,2.019000,2.025000,2.032000,2.037000,2.045000,2.045000,2.050000,2.052000,2.055000,0.000000,0.000000,0.000000,0.000000,0.000000,0.000000,0.000000,0.000000,
0.000000,0.000000,0.000000,0.000000,0.000000,0.000000,0.000000,2.057000,2.040000,2.023000,1.984000,1.976000,1.979000,1.982000,1.985000,1.990000,1.994000,1.997000,2.002000,2.004000,2.009000,2.014000,2.019000,2.019000,2.026000,2.032000,2.038000,2.044000,2.046000,2.050000,2.054000,2.056000,1.822000,0.000000,0.000000,0.000000,0.000000,0.000000,0.000000,0.000000,
0.000000,0.000000,0.000000,0.000000,0.000000,0.000000,0.000000,1.849000,2.037000,2.014000,1.985000,1.979000,1.979000,1.984000,1.988000,1.990000,1.994000,1.994000,2.000000,2.004000,2.012000,2.015000,2.018000,2.019000,2.027000,2.033000,2.038000,2.041000,2.045000,2.048000,2.051000,2.055000,2.056000,0.000000,0.000000,0.000000,0.000000,0.000000,0.000000,0.000000,
0.000000,0.000000,0.000000,0.000000,0.000000,0.000000,0.000000,0.000000,2.013000,2.005000,1.985000,1.976000,1.979000,1.984000,1.986000,1.988000,1.994000,1.994000,2.002000,2.006000,2.012000,2.016000,2.017000,2.021000,2.026000,2.032000,2.035000,2.041000,2.048000,2.026000,2.051000,2.055000,0.000000,0.000000,0.000000,0.000000,0.000000,0.000000,0.000000,0.000000,
0.000000,0.000000,0.000000,0.000000,0.000000,0.000000,0.000000,0.000000,0.000000,2.004000,1.987000,1.979000,1.979000,1.984000,1.989000,1.991000,1.994000,1.999000,2.003000,2.006000,2.012000,2.013000,2.019000,2.021000,2.028000,2.025000,1.337000,1.340000,1.006000,0.000000,0.000000,0.000000,0.000000,0.000000,0.000000,0.000000,0.000000,0.000000,0.000000,0.000000,
0.000000,0.000000,0.000000,0.000000,0.000000,0.000000,0.000000,0.000000,0.000000,1.728000,1.986000,1.979000,1.982000,1.982000,1.991000,1.993000,1.995000,2.003000,2.007000,2.007000,2.013000,1.717000,1.167000,2.043000,1.592000,0.000000,0.000000,0.000000,0.000000,0.000000,0.000000,0.000000,0.000000,0.000000,0.000000,0.000000,0.000000,0.000000,0.000000,0.000000,
0.000000,0.000000,0.000000,0.000000,0.000000,0.000000,0.000000,0.000000,0.000000,0.000000,1.694000,1.979000,1.979000,1.982000,1.991000,1.249000,2.003000,2.019000,2.029000,0.000000,0.000000,0.000000,0.000000,1.074000,1.033000,0.000000,0.000000,0.000000,0.000000,0.000000,0.000000,0.000000,0.000000,0.000000,0.000000,0.000000,0.000000,0.000000,0.000000,0.000000,
0.000000,0.000000,0.000000,0.000000,0.000000,0.000000,0.000000,0.000000,0.000000,0.000000,0.000000,0.000000,0.000000,0.000000,0.000000,0.000000,0.000000,0.000000,0.000000,0.000000,0.000000,0.000000,0.000000,0.000000,0.000000,0.000000,0.000000,0.000000,0.000000,0.000000,0.000000,0.000000,0.000000,0.000000,0.000000,0.000000,0.000000,0.000000,0.000000,0.000000,
