40 40
0.000000 0.000000 0.000000 0.000000 0.000000 0.000000 0.000000 0.000000 0.000000 0.000000 0.000000 0.000000 0.000000 0.000000 0.000000 0.000000 0.000000 0.000000 0.000000 0.000000 0.000000 0.000000 0.000000 0.000000 0.000000 0.000000 0.000000 0.000000 0.000000 0.000000 0.000000 0.000000 0.000000 0.000000 0.000000 0.000000 0.000000 0.000000 0.000000 0.000000 
0.000000 0.000000 0.000000 0.000000 0.000000 0.000000 0.000000 0.000000 0.000000 0.000000 0.000000 0.000000 0.000000 0.000000 0.000000 0.000000 0.000000 0.000000 0.000000 0.000000 0.000000 0.000000 0.000000 0.000000 0.000000 0.000000 0.000000 0.000000 0.000000 0.000000 0.000000 0.000000 0.000000 0.000000 0.000000 0.000000 0.000000 0.000000 0.000000 0.000000 
0.000000 0.000000 0.000000 0.000000 0.000000 0.000000 0.000000 0.000000 0.000000 0.000000 0.000000 0.000000 0.000000 0.000000 0.000000 0.000000 0.000000 2.005000 1.973000 1.968000 1.982000 1.998000 2.022000 2.022000 2.013000 2.012000 0.000000 0.000000 0.000000 0.000000 0.000000 0.000000 0.000000 0.000000 0.000000 0.000000 0.000000 0.000000 0.000000 0.000000 
0.000000 0.000000 0.000000 0.000000 0.000000 0.000000 0.000000 2.989000 2.989000 0.000000 0.000000 0.000000 2.381000 2.072000 2.644000 2.012000 2.011000 1.993000 1.975000 1.973000 1.978000 1.996000 2.007000 2.012000 2.012000 2.012000 2.012000 0.000000 0.000000 0.000000 0.000000 0.000000 0.000000 0.000000 0.000000 0.000000 0.000000 0.000000 0.000000 0.000000 
0.000000 0.000000 0.000000 0.000000 0.000000 0.000000 2.989000 2.371000 2.281000 2.245000 2.367000 2.241000 2.024000 2.047000 2.020000 2.012000 2.011000 1.991000 1.978000 1.978000 1.978000 1.996000 2.002000 2.012000 2.012000 2.012000 2.012000 0.000000 0.000000 0.000000 0.000000 0.000000 0.000000 0.000000 0.000000 0.000000 0.000000 0.000000 0.000000 0.000000 
0.000000 0.000000 0.000000 0.000000 0.000000 2.999000 2.487000 2.186000 2.158000 2.120000 2.106000 2.093000 2.076000 2.047000 2.031000 2.015000 2.011000 1.992000 1.981000 1.981000 1.981000 1.997000 2.002000 2.012000 2.012000 2.012000 2.012000 2.012000 0.000000 0.000000 0.000000 0.000000 0.000000 0.000000 0.000000 0.000000 0.000000 0.000000 0.000000 0.000000 
0.000000 0.000000 0.000000 0.000000 0.000000 2.487000 2.182000 2.168000 2.135000 2.120000 2.098000 2.093000 2.076000 2.047000 2.033000 2.022000 2.011000 1.995000 1.989000 1.989000 1.989000 1.998000 2.001000 2.009000 2.012000 2.012000 2.012000 2.012000 0.000000 0.000000 0.000000 0.000000 0.000000 0.000000 0.000000 0.000000 0.000000 0.000000 0.000000 0.000000 
0.000000 0.000000 0.000000 0.000000 0.000000 2.187000 2.175000 2.163000 2.144000 2.120000 2.098000 2.093000 2.076000 2.058000 2.046000 2.038000 2.011000 2.000000 1.991000 1.989000 1.989000 1.998000 2.000000 2.007000 2.012000 2.012000 2.012000 2.012000 2.746000 0.000000 0.000000 0.000000 0.000000 0.000000 0.000000 0.000000 0.000000 0.000000 0.000000 0.000000 
0.000000 0.000000 0.000000 0.000000 0.000000 2.191000 2.177000 2.163000 2.148000 2.135000 2.110000 2.094000 2.085000 2.059000 2.047000 2.038000 2.022000 2.000000 1.991000 1.978000 1.983000 1.998000 2.000000 2.005000 2.012000 2.012000 2.012000 2.012000 2.475000 0.000000 0.000000 0.000000 0.000000 0.000000 0.000000 0.000000 0.000000 0.000000 0.000000 0.000000 
0.000000 0.000000 0.000000 0.000000 0.000000 2.202000 2.191000 2.165000 2.148000 2.140000 2.118000 2.102000 2.088000 2.059000 2.055000 2.046000 2.022000 2.000000 1.991000 1.985000 1.987000 1.998000 2.000000 2.000000 2.011000 2.012000 2.012000 2.012000 2.012000 0.000000 0.000000 0.000000 0.000000 0.000000 0.000000 0.000000 0.000000 0.000000 0.000000 0.000000 
0.000000 0.000000 0.000000 0.000000 0.000000 2.203000 2.203000 2.191000 2.159000 2.140000 2.123000 2.105000 2.097000 2.072000 2.059000 2.050000 2.033000 2.007000 2.000000 1.989000 1.989000 1.998000 2.000000 2.000000 2.011000 2.012000 2.012000 2.012000 2.012000 2.020000 0.000000 0.000000 0.000000 0.000000 0.000000 0.000000 0.000000 0.000000 0.000000 0.000000 
0.000000 0.000000 0.000000 0.000000 0.000000 2.203000 2.203000 2.191000 2.159000 2.140000 2.123000 2.107000 2.099000 2.084000 2.062000 2.050000 2.034000 2.014000 2.000000 1.989000 1.989000 1.998000 2.000000 2.000000 2.000000 2.012000 2.012000 2.012000 2.012000 2.017000 0.000000 0.000000 0.000000 0.000000 0.000000 0.000000 0.000000 0.000000 0.000000 0.000000 
0.000000 0.000000 0.000000 0.000000 0.000000 2.601000 2.203000 2.191000 2.166000 2.140000 2.123000 2.109000 2.101000 2.084000 2.067000 2.050000 2.034000 2.017000 2.002000 1.989000 1.989000 1.998000 2.000000 2.000000 2.000000 2.006000 2.012000 2.012000 2.009000 2.003000 0.000000 0.000000 0.000000 0.000000 0.000000 0.000000 0.000000 0.000000 0.000000 0.000000 
0.000000 0.000000 0.000000 0.000000 0.000000 2.739000 2.203000 2.191000 2.169000 2.141000 2.124000 2.109000 2.101000 2.084000 2.068000 2.050000 2.046000 2.026000 2.004000 1.999000 1.989000 1.998000 2.000000 2.000000 2.000000 2.003000 2.012000 2.012000 2.000000 2.000000 0.000000 0.000000 0.000000 0.000000 0.000000 0.000000 0.000000 0.000000 0.000000 0.000000 
0.000000 0.000000 0.000000 0.000000 0.000000 2.779000 2.335000 2.204000 2.181000 2.150000 2.136000 2.109000 2.101000 2.084000 2.075000 2.050000 2.047000 2.042000 2.017000 1.999000 1.989000 1.998000 2.000000 2.000000 2.000000 2.002000 2.007000 2.012000 2.003000 2.000000 0.000000 0.000000 0.000000 0.000000 0.000000 0.000000 0.000000 0.000000 0.000000 0.000000 
0.000000 0.000000 0.000000 0.000000 0.000000 2.831000 2.505000 2.205000 2.183000 2.154000 2.136000 2.116000 2.101000 2.094000 2.081000 2.057000 2.056000 2.046000 2.019000 1.997000 1.980000 1.990000 1.993000 2.000000 2.000000 2.000000 2.000000 2.012000 2.011000 2.009000 2.061000 0.000000 0.000000 0.000000 0.000000 0.000000 0.000000 0.000000 0.000000 0.000000 
0.000000 0.000000 0.000000 0.000000 0.000000 2.831000 2.505000 2.205000 2.172000 2.154000 2.137000 2.118000 2.109000 2.097000 2.092000 2.067000 2.058000 2.046000 2.019000 1.997000 1.978000 1.987000 1.991000 2.001000 2.000000 2.000000 2.000000 2.012000 2.012000 2.011000 2.060000 0.000000 0.000000 0.000000 0.000000 0.000000 0.000000 0.000000 0.000000 0.000000 
0.000000 0.000000 0.000000 0.000000 0.000000 2.831000 2.505000 2.205000 2.173000 2.160000 2.148000 2.124000 2.111000 2.103000 2.092000 2.075000 2.058000 2.042000 2.017000 1.998000 1.983000 1.988000 1.992000 2.006000 2.006000 2.000000 2.000000 2.012000 2.012000 2.000000 2.021000 0.000000 0.000000 0.000000 0.000000 0.000000 0.000000 0.000000 0.000000 0.000000 
0.000000 0.000000 0.000000 0.000000 0.000000 2.815000 2.778000 2.243000 2.172000 2.163000 2.149000 2.139000 2.121000 2.109000 2.096000 2.079000 2.058000 2.042000 2.017000 2.009000 1.998000 1.990000 1.991000 2.001000 2.002000 2.000000 2.006000 2.012000 2.012000 1.997000 1.989000 2.789000 0.000000 0.000000 0.000000 0.000000 0.000000 0.000000 0.000000 0.000000 
0.000000 0.000000 0.000000 0.000000 0.000000 2.816000 2.854000 2.268000 2.183000 2.163000 2.149000 2.144000 2.128000 2.111000 2.098000 2.081000 2.061000 2.050000 2.027000 2.010000 2.000000 2.000000 1.996000 1.989000 1.999000 2.000000 2.006000 2.000000 2.000000 2.000000 2.000000 2.657000 0.000000 0.000000 0.000000 0.000000 0.000000 0.000000 0.000000 0.000000 
0.000000 0.000000 0.000000 0.000000 0.000000 2.816000 2.854000 2.278000 2.186000 2.172000 2.156000 2.152000 2.137000 2.122000 2.105000 2.093000 2.077000 2.054000 2.034000 2.017000 2.007000 2.001000 1.989000 1.989000 1.999000 2.000000 2.000000 2.000000 2.000000 2.004000 2.000000 2.000000 0.000000 0.000000 0.000000 0.000000 0.000000 0.000000 0.000000 0.000000 
0.000000 0.000000 0.000000 0.000000 0.000000 2.833000 2.854000 2.278000 2.198000 2.180000 2.174000 2.158000 2.147000 2.122000 2.105000 2.097000 2.082000 2.054000 2.038000 2.022000 2.012000 2.011000 1.989000 1.989000 1.999000 2.000000 2.000000 2.000000 2.000000 2.008000 2.000000 2.004000 0.000000 0.000000 0.000000 0.000000 0.000000 0.000000 0.000000 0.000000 
0.000000 0.000000 0.000000 0.000000 0.000000 2.825000 2.449000 2.205000 2.216000 2.207000 2.177000 2.159000 2.149000 2.138000 2.109000 2.103000 2.085000 2.054000 2.047000 2.022000 2.012000 2.012000 2.000000 2.000000 2.000000 2.001000 2.003000 2.003000 2.006000 2.012000 2.003000 2.006000 0.000000 0.000000 0.000000 0.000000 0.000000 0.000000 0.000000 0.000000 
0.000000 0.000000 0.000000 0.000000 0.000000 2.808000 1.328000 1.963000 2.214000 2.203000 2.177000 2.162000 2.153000 2.148000 2.117000 2.111000 2.094000 2.054000 2.047000 2.028000 2.012000 2.012000 2.007000 2.003000 2.000000 2.008000 2.012000 2.012000 2.012000 2.012000 2.012000 2.012000 0.000000 0.000000 0.000000 0.000000 0.000000 0.000000 0.000000 0.000000 
0.000000 0.000000 0.000000 0.000000 0.000000 2.808000 2.878000 2.300000 2.214000 2.203000 2.189000 2.162000 2.153000 2.148000 2.130000 2.113000 2.106000 2.061000 2.047000 2.033000 2.024000 2.014000 2.012000 2.000000 1.989000 2.003000 2.012000 2.012000 2.012000 2.012000 2.012000 2.012000 2.070000 0.000000 0.000000 0.000000 0.000000 0.000000 0.000000 0.000000 
0.000000 0.000000 0.000000 0.000000 0.000000 2.857000 2.988000 0.000000 2.423000 2.205000 2.177000 2.162000 2.153000 2.148000 2.130000 2.113000 2.103000 2.066000 2.056000 2.044000 2.027000 2.025000 2.011000 1.998000 1.989000 1.997000 2.007000 2.012000 2.012000 2.012000 2.012000 2.017000 2.024000 0.000000 0.000000 0.000000 0.000000 0.000000 0.000000 0.000000 
0.000000 0.000000 0.000000 0.000000 0.000000 0.000000 0.000000 0.000000 2.881000 2.222000 2.195000 2.168000 2.159000 2.148000 2.130000 2.113000 2.096000 2.071000 2.050000 2.046000 2.039000 2.026000 2.016000 1.994000 1.989000 1.990000 2.004000 2.012000 2.012000 2.012000 2.012000 2.013000 2.016000 2.189000 0.000000 0.000000 0.000000 0.000000 0.000000 0.000000 
0.000000 0.000000 0.000000 0.000000 0.000000 0.000000 0.000000 0.000000 0.000000 2.582000 2.205000 2.185000 2.167000 2.148000 2.131000 2.113000 2.096000 2.079000 2.062000 2.047000 2.047000 2.028000 2.022000 2.005000 1.990000 1.989000 1.996000 2.000000 2.000000 2.000000 2.000000 2.004000 2.012000 2.186000 0.000000 0.000000 0.000000 0.000000 0.000000 0.000000 
0.000000 0.000000 0.000000 0.000000 0.000000 0.000000 0.000000 0.000000 0.000000 0.000000 2.250000 2.199000 2.180000 2.162000 2.143000 2.120000 2.097000 2.091000 2.068000 2.057000 2.047000 2.037000 2.022000 2.005000 1.994000 1.995000 2.000000 2.000000 2.000000 2.000000 2.000000 2.000000 2.000000 2.000000 2.000000 0.000000 0.000000 0.000000 0.000000 0.000000 
0.000000 0.000000 0.000000 0.000000 0.000000 0.000000 0.000000 0.000000 0.000000 0.000000 2.250000 2.199000 2.180000 2.162000 2.143000 2.126000 2.097000 2.096000 2.077000 2.057000 2.047000 2.037000 2.030000 2.014000 2.001000 2.000000 2.000000 2.000000 2.000000 2.000000 2.000000 2.000000 2.000000 2.000000 2.000000 0.000000 0.000000 0.000000 0.000000 0.000000 
0.000000 0.000000 0.000000 0.000000 0.000000 0.000000 0.000000 0.000000 0.000000 0.000000 0.000000 2.189000 2.180000 2.163000 2.149000 2.129000 2.108000 2.091000 2.075000 2.057000 2.047000 2.047000 2.033000 2.017000 2.001000 1.989000 1.989000 2.010000 2.000000 2.000000 2.000000 2.005000 2.003000 2.001000 2.012000 0.000000 0.000000 0.000000 0.000000 0.000000 
0.000000 0.000000 0.000000 0.000000 0.000000 0.000000 0.000000 0.000000 0.000000 0.000000 0.000000 2.195000 2.186000 2.175000 2.157000 2.133000 2.108000 2.091000 2.075000 2.057000 2.047000 2.047000 2.033000 2.017000 2.001000 1.989000 1.989000 2.000000 2.000000 2.000000 2.000000 2.005000 2.003000 2.001000 2.007000 0.000000 0.000000 0.000000 0.000000 0.000000 
0.000000 0.000000 0.000000 0.000000 0.000000 0.000000 0.000000 0.000000 0.000000 0.000000 0.000000 2.211000 2.194000 2.186000 2.161000 2.149000 2.118000 2.096000 2.077000 2.059000 2.057000 2.049000 2.033000 2.023000 2.011000 1.989000 1.989000 1.991000 1.994000 2.000000 2.000000 2.005000 2.010000 2.000000 2.000000 0.000000 0.000000 0.000000 0.000000 0.000000 
0.000000 0.000000 0.000000 0.000000 0.000000 0.000000 0.000000 0.000000 0.000000 0.000000 0.000000 2.203000 2.203000 2.189000 2.162000 2.151000 2.120000 2.099000 2.097000 2.084000 2.073000 2.063000 2.045000 2.031000 2.015000 1.990000 1.989000 1.989000 1.987000 1.995000 1.998000 2.004000 2.010000 2.000000 2.000000 0.000000 0.000000 0.000000 0.000000 0.000000 
0.000000 0.000000 0.000000 0.000000 0.000000 0.000000 0.000000 0.000000 0.000000 0.000000 0.000000 2.531000 2.203000 2.189000 2.162000 2.143000 2.121000 2.109000 2.100000 2.095000 2.078000 2.072000 2.052000 2.040000 2.025000 2.008000 1.991000 1.989000 1.978000 1.985000 1.989000 1.997000 2.000000 2.000000 2.000000 0.000000 0.000000 0.000000 0.000000 0.000000 
0.000000 0.000000 0.000000 0.000000 0.000000 0.000000 0.000000 0.000000 0.000000 0.000000 0.000000 2.858000 2.203000 2.189000 2.162000 2.151000 2.131000 2.109000 2.100000 2.095000 2.083000 2.074000 2.057000 2.040000 2.025000 2.018000 1.993000 1.989000 1.978000 1.985000 1.989000 1.993000 0.000000 0.000000 0.000000 0.000000 0.000000 0.000000 0.000000 0.000000 
0.000000 0.000000 0.000000 0.000000 0.000000 0.000000 0.000000 0.000000 0.000000 0.000000 0.000000 2.835000 2.204000 2.189000 2.170000 2.154000 2.147000 2.131000 2.112000 2.098000 2.085000 2.076000 2.059000 2.043000 2.027000 2.018000 2.000000 1.989000 1.980000 1.986000 0.000000 0.000000 0.000000 0.000000 0.000000 0.000000 0.000000 0.000000 0.000000 0.000000 
0.000000 0.000000 0.000000 0.000000 0.000000 0.000000 0.000000 0.000000 0.000000 0.000000 0.000000 0.000000 0.000000 0.000000 0.000000 0.000000 0.000000 0.000000 0.000000 0.000000 0.000000 0.000000 0.000000 0.000000 0.000000 0.000000 0.000000 0.000000 0.000000 0.000000 0.000000 0.000000 0.000000 0.000000 0.000000 0.000000 0.000000 0.000000 0.000000 0.000000 
0.000000 0.000000 0.000000 0.000000 0.000000 0.000000 0.000000 0.000000 0.000000 0.000000 0.000000 0.000000 0.000000 0.000000 0.000000 0.000000 0.000000 0.000000 0.000000 0.000000 0.000000 0.000000 0.000000 0.000000 0.000000 0.000000 0.000000 0.000000 0.000000 0.000000 0.000000 0.000000 0.000000 0.000000 0.000000 0.000000 0.000000 0.000000 0.000000 0.000000 
0.000000 0.000000 0.000000 0.000000 0.000000 0.000000 0.000000 0.000000 0.000000 0.000000 0.000000 0.000000 0.000000 0.000000 0.000000 0.000000 0.000000 0.000000 0.000000 0.000000 0.000000 0.000000 0.000000 0.000000 0.000000 0.000000 0.000000 0.000000 0.000000 0.000000 0.000000 0.000000 0.000000 0.000000 0.000000 0.000000 0.000000 0.000000 0.000000 0.000000 
