0.000000,0.000000,0.000000,0.000000,0.000000,0.000000,0.000000,0.000000,0.000000,0.000000,0.000000,0.000000,0.000000,0.000000,0.000000,0.000000,0.000000,0.000000,0.000000,0.000000,0.000000,0.000000,0.000000,0.000000,0.000000,0.000000,0.000000,0.000000,0.000000,0.000000,0.000000,0.000000,0.000000,0.000000,0.000000,0.000000,0.000000,0.000000,0.000000,0.000000,
0.000000,0.000000,0.000000,0.000000,0.000000,0.000000,0.000000,0.000000,0.000000,0.000000,0.000000,0.000000,0.000000,0.000000,0.000000,0.000000,0.000000,0.000000,0.000000,2.497000,1.289000,1.716000,1.902000,2.011000,2.013000,2.014000,2.018000,2.023000,1.289000,1.514000,0.000000,0.000000,0.000000,0.000000,0.000000,0.000000,0.000000,0.000000,0.000000,0.000000,
0.000000,0.000000,0.000000,0.000000,0.000000,0.000000,0.000000,0.000000,0.000000,0.000000,0.000000,0.000000,0.000000,0.000000,0.000000,0.000000,0.000000,1.987000,2.003000,1.745000,1.995000,2.000000,2.004000,2.007000,2.011000,2.016000,2.019000,2.023000,1.289000,1.289000,0.000000,0.000000,0.000000,0.000000,0.000000,0.000000,0.000000,0.000000,0.000000,0.000000,
0.000000,0.000000,0.000000,0.000000,0.000000,0.000000,0.000000,0.000000,0.000000,0.000000,2.996000,0.000000,0.000000,1.975000,1.975000,1.981000,1.983000,1.985000,1.987000,1.992000,1.995000,2.000000,2.004000,2.009000,2.012000,2.016000,2.019000,2.023000,1.289000,1.289000,0.000000,0.000000,0.000000,0.000000,0.000000,0.000000,0.000000,0.000000,0.000000,0.000000,
0.000000,0.000000,0.000000,0.000000,0.000000,0.000000,2.045000,1.960000,1.960000,1.957000,1.960000,1.962000,1.966000,1.969000,1.972000,1.976000,1.980000,1.984000,1.988000,1.992000,1.995000,2.000000,2.003000,2.007000,2.011000,2.017000,2.020000,2.024000,1.753000,1.289000,0.000000,0.000000,0.000000,0.000000,0.000000,0.000000,0.000000,0.000000,0.000000,0.000000,
0.000000,0.000000,0.000000,0.000000,0.000000,0.000000,1.736000,1.948000,1.951000,1.956000,1.959000,1.963000,1.965000,1.969000,1.973000,1.976000,1.982000,1.985000,1.988000,1.991000,1.996000,2.000000,2.005000,2.008000,2.012000,2.017000,2.021000,2.025000,2.028000,1.289000,0.000000,0.000000,0.000000,0.000000,0.000000,0.000000,0.000000,0.000000,0.000000,0.000000,
0.000000,0.000000,0.000000,0.000000,0.000000,0.000000,1.951000,1.948000,1.951000,1.955000,1.960000,1.964000,1.967000,1.971000,1.973000,1.976000,1.982000,1.986000,1.988000,1.992000,1.997000,2.000000,2.004000,2.009000,2.012000,2.017000,2.022000,2.025000,2.030000,1.289000,0.000000,0.000000,0.000000,0.000000,0.000000,0.000000,0.000000,0.000000,0.000000,0.000000,
0.000000,0.000000,0.000000,0.000000,0.000000,0.000000,1.543000,1.950000,1.952000,1.956000,1.959000,1.964000,1.965000,1.971000,1.975000,1.976000,1.982000,1.986000,1.989000,1.994000,1.997000,2.002000,2.006000,2.010000,2.013000,2.017000,2.022000,2.028000,2.031000,1.289000,1.289000,0.000000,0.000000,0.000000,0.000000,0.000000,0.000000,0.000000,0.000000,0.000000,
0.000000,0.000000,0.000000,0.000000,0.000000,0.000000,1.544000,1.950000,1.953000,1.956000,1.959000,1.964000,1.967000,1.969000,1.975000,1.978000,1.983000,1.985000,1.990000,1.994000,1.999000,2.002000,2.006000,2.011000,2.015000,2.019000,2.023000,2.028000,2.033000,1.289000,1.289000,0.000000,0.000000,0.000000,0.000000,0.000000,0.000000,0.000000,0.000000,0.000000,
0.000000,0.000000,0.000000,0.000000,0.000000,0.000000,1.544000,1.951000,1.952000,1.956000,1.960000,1.964000,1.967000,1.971000,1.976000,1.977000,1.983000,1.987000,1.992000,1.996000,1.999000,2.004000,2.008000,2.011000,2.015000,2.019000,2.023000,2.029000,2.034000,1.289000,1.289000,0.000000,0.000000,0.000000,0.000000,0.000000,0.000000,0.000000,0.000000,0.000000,
0.000000,0.000000,0.000000,0.000000,0.000000,0.000000,1.289000,1.952000,1.953000,1.956000,1.960000,1.964000,1.968000,1.971000,1.976000,1.979000,1.983000,1.987000,1.991000,1.996000,2.000000,2.005000,2.009000,2.012000,2.017000,2.020000,2.025000,2.030000,2.033000,1.504000,1.289000,0.000000,0.000000,0.000000,0.000000,0.000000,0.000000,0.000000,0.000000,0.000000,
0.000000,0.000000,0.000000,0.000000,0.000000,0.000000,1.289000,1.953000,1.955000,1.957000,1.961000,1.965000,1.969000,1.972000,1.976000,1.979000,1.983000,1.989000,1.993000,1.996000,2.000000,2.005000,2.009000,2.012000,2.017000,2.022000,2.027000,2.030000,2.036000,1.929000,1.289000,0.000000,0.000000,0.000000,0.000000,0.000000,0.000000,0.000000,0.000000,0.000000,
0.000000,0.000000,0.000000,0.000000,0.000000,0.000000,1.289000,1.956000,1.955000,1.960000,1.960000,1.965000,1.969000,1.972000,1.976000,1.979000,1.983000,1.990000,1.993000,1.998000,2.002000,2.005000,2.010000,2.013000,2.017000,2.022000,2.027000,2.031000,2.035000,2.029000,1.289000,0.000000,0.000000,0.000000,0.000000,0.000000,0.000000,0.000000,0.000000,0.000000,
0.000000,0.000000,0.000000,0.000000,0.000000,0.000000,2.015000,2.008000,1.955000,1.959000,1.963000,1.965000,1.969000,1.973000,1.976000,1.980000,1.985000,1.991000,1.993000,1.999000,2.002000,2.005000,2.009000,2.015000,2.019000,2.022000,2.028000,2.031000,2.037000,2.041000,1.329000,1.913000,0.000000,0.000000,0.000000,0.000000,0.000000,0.000000,0.000000,0.000000,
0.000000,0.000000,0.000000,0.000000,0.000000,0.000000,2.013000,2.009000,1.958000,1.960000,1.963000,1.965000,1.969000,1.973000,1.978000,1.981000,1.985000,1.990000,1.994000,1.999000,2.002000,2.005000,2.011000,2.014000,2.018000,2.023000,2.029000,2.032000,2.037000,2.042000,1.351000,1.289000,0.000000,0.000000,0.000000,0.000000,0.000000,0.000000,0.000000,0.000000,
0.000000,0.000000,0.000000,0.000000,0.000000,0.000000,1.289000,1.997000,1.959000,1.959000,1.963000,1.966000,1.971000,1.975000,1.977000,1.981000,1.987000,1.992000,1.995000,1.998000,2.004000,2.006000,2.012000,2.017000,2.019000,2.023000,2.030000,2.034000,2.038000,2.043000,1.301000,1.289000,0.000000,0.000000,0.000000,0.000000,0.000000,0.000000,0.000000,0.000000,
0.000000,0.000000,0.000000,0.000000,0.000000,0.000000,1.289000,1.289000,1.959000,1.960000,1.963000,1.967000,1.969000,1.975000,1.978000,1.982000,1.987000,1.992000,1.996000,1.999000,2.003000,2.008000,2.012000,2.017000,2.020000,2.027000,2.030000,2.036000,2.040000,2.043000,2.050000,1.289000,0.000000,0.000000,0.000000,0.000000,0.000000,0.000000,0.000000,0.000000,
0.000000,0.000000,0.000000,0.000000,0.000000,0.000000,1.289000,1.289000,1.917000,1.960000,1.964000,1.967000,1.971000,1.976000,1.978000,1.983000,1.987000,1.992000,1.996000,2.000000,2.005000,2.010000,2.012000,2.018000,2.022000,2.027000,2.031000,2.036000,2.040000,2.044000,2.048000,1.289000,0.000000,0.000000,0.000000,0.000000,0.000000,0.000000,0.000000,0.000000,
0.000000,0.000000,0.000000,0.000000,0.000000,0.000000,1.289000,1.289000,1.289000,1.960000,1.964000,1.967000,1.972000,1.975000,1.980000,1.982000,1.989000,1.991000,1.997000,2.000000,2.005000,2.008000,2.013000,2.018000,2.022000,2.027000,2.031000,2.036000,2.042000,2.045000,2.050000,1.289000,0.000000,0.000000,0.000000,0.000000,0.000000,0.000000,0.000000,0.000000,
0.000000,0.000000,0.000000,0.000000,0.000000,0.000000,1.289000,1.289000,1.289000,1.962000,1.964000,1.968000,1.972000,1.976000,1.980000,1.984000,1.989000,1.993000,1.997000,2.000000,2.006000,2.011000,2.013000,2.018000,2.022000,2.027000,2.031000,2.036000,2.042000,2.044000,2.050000,1.289000,0.000000,0.000000,0.000000,0.000000,0.000000,0.000000,0.000000,0.000000,
0.000000,0.000000,0.000000,0.000000,0.000000,0.000000,1.289000,1.289000,1.289000,1.964000,1.965000,1.969000,1.972000,1.976000,1.980000,1.985000,1.989000,1.993000,1.998000,2.002000,2.006000,2.011000,2.012000,2.018000,2.024000,2.028000,2.033000,2.038000,2.042000,2.044000,2.051000,1.527000,2.439000,0.000000,0.000000,0.000000,0.000000,0.000000,0.000000,0.000000,
0.000000,0.000000,0.000000,0.000000,0.000000,0.000000,1.289000,1.289000,1.289000,1.966000,1.964000,1.969000,1.973000,1.976000,1.980000,1.985000,1.989000,1.995000,1.998000,2.002000,2.006000,2.011000,2.015000,2.019000,2.024000,2.028000,2.033000,2.037000,2.042000,2.048000,2.055000,1.527000,1.289000,0.000000,0.000000,0.000000,0.000000,0.000000,0.000000,0.000000,
0.000000,0.000000,0.000000,0.000000,0.000000,0.000000,1.289000,1.289000,1.289000,1.847000,1.965000,1.971000,1.973000,1.977000,1.981000,1.984000,1.989000,1.995000,1.998000,2.002000,2.006000,2.011000,2.016000,2.019000,2.025000,2.030000,2.035000,2.038000,2.043000,2.048000,2.055000,1.527000,1.289000,0.000000,0.000000,0.000000,0.000000,0.000000,0.000000,0.000000,
0.000000,0.000000,0.000000,0.000000,0.000000,0.000000,1.289000,1.289000,1.289000,1.289000,1.967000,1.970000,1.973000,1.977000,1.980000,1.985000,1.992000,1.995000,1.999000,2.005000,2.006000,2.011000,2.015000,2.019000,2.026000,2.031000,2.036000,2.039000,2.044000,2.049000,2.056000,1.527000,1.289000,0.000000,0.000000,0.000000,0.000000,0.000000,0.000000,0.000000,
0.000000,0.000000,0.000000,0.000000,0.000000,0.000000,1.289000,1.289000,1.289000,1.975000,1.968000,1.969000,1.973000,1.979000,1.981000,1.985000,1.990000,1.996000,1.999000,2.004000,2.006000,2.012000,2.017000,2.020000,2.027000,2.030000,2.036000,2.039000,2.045000,2.050000,2.056000,2.056000,1.289000,0.000000,0.000000,0.000000,0.000000,0.000000,0.000000,0.000000,
0.000000,0.000000,0.000000,0.000000,0.000000,0.000000,1.289000,1.289000,1.289000,1.329000,1.971000,1.971000,1.975000,1.977000,1.981000,1.986000,1.990000,1.995000,2.000000,2.005000,2.007000,2.014000,2.017000,2.021000,2.029000,2.031000,2.036000,2.040000,2.045000,2.051000,2.056000,2.058000,1.289000,0.000000,0.000000,0.000000,0.000000,0.000000,0.000000,0.000000,
0.000000,0.000000,0.000000,0.000000,0.000000,0.000000,1.289000,1.289000,1.289000,1.289000,1.972000,1.971000,1.975000,1.977000,1.982000,1.986000,1.990000,1.996000,2.000000,2.005000,2.008000,2.012000,2.018000,2.022000,2.030000,2.031000,2.038000,2.042000,2.045000,2.051000,2.056000,2.061000,1.289000,0.000000,0.000000,0.000000,0.000000,0.000000,0.000000,0.000000,
0.000000,0.000000,0.000000,0.000000,0.000000,0.000000,1.289000,1.289000,1.289000,1.289000,1.976000,1.971000,1.976000,1.980000,1.983000,1.986000,1.993000,1.996000,2.000000,2.004000,2.009000,2.013000,2.019000,2.024000,2.029000,2.033000,2.037000,2.043000,2.048000,2.055000,2.058000,2.063000,1.289000,0.000000,0.000000,0.000000,0.000000,0.000000,0.000000,0.000000,
0.000000,0.000000,0.000000,0.000000,0.000000,0.000000,1.289000,1.289000,1.289000,1.289000,1.539000,1.972000,1.975000,1.979000,1.981000,1.986000,1.993000,1.997000,2.000000,2.005000,2.011000,2.014000,2.019000,2.024000,2.030000,2.033000,2.039000,2.042000,2.047000,2.055000,2.056000,2.063000,1.289000,0.000000,0.000000,0.000000,0.000000,0.000000,0.000000,0.000000,
0.000000,0.000000,0.000000,0.000000,0.000000,0.000000,1.289000,1.289000,1.289000,1.289000,1.618000,1.973000,1.976000,1.980000,1.983000,1.987000,1.995000,1.997000,2.001000,2.005000,2.012000,2.016000,2.020000,2.026000,2.030000,2.035000,2.039000,2.044000,2.050000,2.055000,2.060000,2.064000,1.292000,0.000000,0.000000,0.000000,0.000000,0.000000,0.000000,0.000000,
0.000000,0.000000,0.000000,0.000000,0.000000,0.000000,0.000000,1.289000,1.289000,1.289000,1.289000,1.976000,1.976000,1.981000,1.984000,1.987000,1.993000,1.997000,2.003000,2.006000,2.012000,2.016000,2.021000,2.028000,2.030000,2.038000,2.041000,2.044000,2.050000,2.056000,2.060000,2.065000,2.072000,0.000000,0.000000,0.000000,0.000000,0.000000,0.000000,0.000000,
0.000000,0.000000,0.000000,0.000000,0.000000,0.000000,0.000000,1.289000,1.289000,1.289000,1.289000,1.979000,1.976000,1.982000,1.984000,1.987000,1.994000,1.998000,2.004000,2.008000,2.011000,2.016000,2.021000,2.027000,2.030000,2.036000,2.041000,2.044000,2.051000,2.055000,2.061000,2.066000,2.073000,0.000000,0.000000,0.000000,0.000000,0.000000,0.000000,0.000000,
0.000000,0.000000,0.000000,0.000000,0.000000,0.000000,0.000000,1.289000,1.289000,1.289000,1.289000,1.459000,1.976000,1.981000,1.986000,1.989000,1.996000,1.999000,2.005000,2.007000,2.010000,2.017000,2.021000,2.027000,2.030000,2.036000,2.041000,2.045000,2.050000,2.056000,2.060000,2.389000,0.000000,0.000000,0.000000,0.000000,0.000000,0.000000,0.000000,0.000000,
0.000000,0.000000,0.000000,0.000000,0.000000,0.000000,0.000000,2.955000,1.289000,1.289000,1.289000,1.289000,1.979000,1.981000,1.985000,1.991000,1.996000,2.000000,2.005000,2.007000,2.011000,2.017000,2.021000,2.028000,2.031000,2.038000,2.042000,2.047000,2.050000,2.153000,0.000000,0.000000,0.000000,0.000000,0.000000,0.000000,0.000000,0.000000,0.000000,0.000000,
0.000000,0.000000,0.000000,0.000000,0.000000,0.000000,0.000000,0.000000,1.289000,1.289000,1.289000,1.289000,1.980000,1.980000,1.986000,1.991000,1.995000,2.000000,2.005000,2.007000,2.011000,2.019000,2.023000,2.028000,2.031000,2.036000,2.041000,2.954000,0.000000,0.000000,0.000000,0.000000,0.000000,0.000000,0.000000,0.000000,0.000000,0.000000,0.000000,0.000000,
0.000000,0.000000,0.000000,0.000000,0.000000,0.000000,0.000000,0.000000,1.419000,1.289000,1.289000,1.289000,1.983000,1.982000,1.987000,1.990000,1.996000,1.999000,2.003000,2.007000,2.014000,2.019000,2.023000,2.027000,1.896000,1.289000,1.289000,0.000000,0.000000,0.000000,0.000000,0.000000,0.000000,0.000000,0.000000,0.000000,0.000000,0.000000,0.000000,0.000000,
0.000000,0.000000,0.000000,0.000000,0.000000,0.000000,0.000000,0.000000,0.000000,1.289000,1.289000,1.289000,1.986000,1.983000,1.986000,1.989000,1.996000,2.000000,2.004000,2.008000,2.012000,2.019000,2.025000,2.025000,1.289000,1.289000,1.289000,2.374000,0.000000,2.450000,0.000000,2.347000,0.000000,0.000000,0.000000,0.000000,0.000000,0.000000,0.000000,0.000000,
0.000000,0.000000,0.000000,0.000000,0.000000,0.000000,0.000000,0.000000,0.000000,1.392000,1.289000,1.996000,1.864000,1.982000,1.988000,1.992000,1.997000,2.002000,2.006000,2.006000,2.042000,2.124000,2.125000,2.124000,2.118000,2.052000,1.289000,1.289000,1.289000,1.289000,1.289000,1.289000,1.289000,0.000000,0.000000,0.000000,0.000000,0.000000,0.000000,0.000000,
0.000000,0.000000,0.000000,0.000000,0.000000,0.000000,0.000000,0.000000,0.000000,0.000000,0.000000,0.000000,0.000000,0.000000,0.000000,0.000000,0.000000,0.000000,0.000000,0.000000,0.000000,0.000000,0.000000,0.000000,0.000000,0.000000,0.000000,0.000000,0.000000,0.000000,0.000000,0.000000,0.000000,0.000000,0.000000,0.000000,0.000000,0.000000,0.000000,0.000000,
0.000000,0.000000,0.000000,0.000000,0.000000,0.000000,0.000000,0.000000,0.000000,0.000000,0.000000,0.000000,0.000000,0.000000,0.000000,0.000000,0.000000,0.000000,0.000000,0.000000,0.000000,0.000000,0.000000,0.000000,0.000000,0.000000,0.000000,0.000000,0.000000,0.000000,0.000000,0.000000,0.000000,0.000000,0.000000,0.000000,0.000000,0.000000,0.000000,0.000000,
