40 40
0.000000 0.000000 0.000000 0.000000 0.000000 0.000000 0.000000 0.000000 0.000000 0.000000 0.000000 0.000000 0.000000 0.000000 0.000000 0.000000 0.000000 0.000000 0.000000 0.000000 0.000000 0.000000 0.000000 0.000000 0.000000 0.000000 0.000000 0.000000 1.840000 1.840000 1.840000 1.862000 1.919000 1.976000 2.000000 2.000000 2.000000 2.000000 2.000000 2.000000 
0.000000 0.000000 0.000000 0.000000 0.000000 0.000000 0.000000 0.000000 0.000000 0.000000 0.000000 0.000000 0.000000 0.000000 0.000000 0.000000 0.000000 0.000000 0.000000 0.000000 0.000000 0.000000 0.000000 0.000000 0.000000 0.000000 0.000000 0.000000 1.840000 1.840000 1.840000 1.862000 1.919000 1.976000 2.000000 2.000000 2.000000 2.000000 2.000000 2.000000 
0.000000 0.000000 0.000000 0.000000 0.000000 0.000000 0.000000 0.000000 0.000000 0.000000 0.000000 0.000000 0.000000 0.000000 0.000000 0.000000 0.000000 0.000000 0.000000 0.000000 0.000000 0.000000 0.000000 0.000000 0.000000 0.000000 0.000000 1.301000 1.840000 1.840000 1.840000 1.862000 1.919000 1.976000 2.000000 2.000000 2.000000 2.000000 2.000000 2.000000 
0.000000 0.000000 0.000000 0.000000 0.000000 0.000000 0.000000 0.000000 0.000000 0.000000 0.000000 0.000000 0.000000 0.000000 0.000000 0.000000 0.000000 0.000000 0.000000 0.000000 0.000000 0.000000 0.000000 0.000000 0.000000 1.751000 1.840000 1.840000 1.840000 1.840000 1.840000 1.862000 1.919000 1.976000 2.000000 2.000000 2.000000 2.000000 2.000000 2.000000 
0.000000 0.000000 0.000000 0.000000 0.000000 0.000000 0.000000 0.000000 0.000000 0.000000 0.000000 0.000000 0.000000 0.000000 0.000000 0.000000 0.000000 0.000000 0.000000 0.000000 0.000000 0.000000 0.000000 0.000000 0.000000 1.785000 1.840000 1.840000 1.840000 1.840000 1.840000 1.862000 1.919000 1.976000 2.000000 2.000000 2.000000 2.000000 2.000000 2.000000 
0.000000 0.000000 0.000000 0.000000 0.000000 0.000000 0.000000 0.000000 0.000000 0.000000 0.000000 0.000000 0.000000 0.000000 0.000000 0.000000 0.000000 0.000000 0.000000 0.000000 0.000000 0.000000 0.000000 0.000000 1.232000 1.818000 1.840000 1.840000 1.840000 1.840000 1.840000 1.862000 1.919000 1.976000 2.000000 2.000000 2.000000 2.000000 2.000000 2.000000 
0.000000 0.000000 0.000000 0.000000 0.000000 0.000000 0.000000 0.000000 0.000000 0.000000 0.000000 0.000000 0.000000 0.000000 0.000000 0.000000 0.000000 0.000000 0.000000 0.000000 1.397000 1.397000 1.397000 1.517000 1.675000 1.834000 1.840000 1.840000 1.840000 1.840000 1.840000 1.858000 1.904000 1.951000 1.970000 1.970000 1.970000 1.970000 1.970000 1.970000 
0.000000 0.000000 0.000000 0.000000 0.000000 0.000000 0.000000 0.000000 0.000000 0.000000 0.000000 0.000000 0.000000 0.000000 0.000000 0.000000 0.000000 0.000000 0.000000 0.000000 1.397000 1.397000 1.397000 1.517000 1.675000 1.834000 1.840000 1.840000 1.840000 1.840000 1.840000 1.850000 1.876000 1.902000 1.913000 1.913000 1.913000 1.913000 1.913000 1.913000 
0.000000 0.000000 0.000000 0.000000 0.000000 0.000000 0.000000 0.000000 0.000000 0.000000 0.000000 0.000000 0.000000 0.000000 0.000000 0.000000 0.000000 0.000000 0.000000 0.000000 1.397000 1.397000 1.397000 1.517000 1.675000 1.834000 1.840000 1.840000 1.840000 1.840000 1.840000 1.842000 1.848000 1.853000 1.856000 1.856000 1.856000 1.856000 1.856000 1.856000 
0.000000 0.000000 0.000000 0.000000 0.000000 0.000000 0.000000 0.000000 0.000000 0.000000 0.000000 0.000000 0.000000 0.000000 0.000000 0.000000 0.000000 0.000000 0.000000 0.000000 1.520000 1.535000 1.549000 1.642000 1.759000 1.877000 1.867000 1.852000 1.840000 1.840000 1.840000 1.840000 1.840000 1.840000 1.840000 1.840000 1.840000 1.840000 1.840000 1.840000 
0.000000 0.000000 0.000000 0.000000 0.000000 0.000000 0.000000 0.000000 0.000000 0.000000 0.000000 0.000000 0.000000 0.000000 0.000000 0.000000 0.000000 0.000000 0.000000 1.244000 1.690000 1.725000 1.760000 1.815000 1.876000 1.936000 1.905000 1.869000 1.840000 1.840000 1.840000 1.840000 1.840000 1.840000 1.840000 1.840000 1.840000 1.840000 1.840000 1.840000 
0.000000 0.000000 0.000000 0.000000 0.000000 0.000000 0.000000 0.000000 0.000000 0.000000 0.000000 0.000000 0.000000 0.000000 0.000000 0.000000 0.000000 1.676000 1.739000 1.801000 1.859000 1.915000 1.971000 1.988000 1.992000 1.996000 1.942000 1.886000 1.840000 1.840000 1.840000 1.840000 1.840000 1.840000 1.840000 1.840000 1.840000 1.840000 1.840000 1.840000 
0.000000 0.000000 0.000000 0.000000 0.000000 0.000000 0.000000 0.000000 0.000000 0.000000 0.000000 0.000000 0.000000 0.000000 0.000000 0.000000 0.000000 1.840000 1.840000 1.840000 1.871000 1.929000 1.986000 2.000000 2.000000 2.000000 1.963000 1.925000 1.890000 1.871000 1.852000 1.840000 1.840000 1.840000 1.840000 1.840000 1.840000 1.923000 2.027000 2.132000 
0.000000 0.000000 0.000000 0.000000 0.000000 0.000000 0.000000 0.000000 0.000000 0.000000 0.000000 0.000000 0.000000 0.000000 0.000000 0.000000 1.306000 1.840000 1.840000 1.840000 1.871000 1.929000 1.986000 2.000000 2.000000 2.000000 1.983000 1.965000 1.944000 1.904000 1.865000 1.840000 1.840000 1.840000 1.840000 1.840000 1.840000 2.012000 2.229000 2.447000 
0.000000 0.000000 0.000000 0.000000 0.000000 0.000000 0.000000 0.000000 0.000000 0.000000 0.000000 0.000000 0.000000 0.000000 1.840000 1.840000 1.840000 1.841000 1.844000 1.847000 1.878000 1.932000 1.987000 2.000000 2.000000 2.000000 2.000000 2.000000 1.991000 1.936000 1.882000 1.848000 1.848000 1.848000 1.857000 1.873000 1.889000 2.129000 2.429000 2.728000 
0.000000 0.000000 0.000000 0.000000 0.000000 0.000000 0.000000 0.000000 0.000000 0.000000 0.000000 0.000000 0.000000 0.000000 1.840000 1.840000 1.840000 1.848000 1.871000 1.895000 1.924000 1.958000 1.992000 2.000000 2.000000 2.000000 2.000000 2.000000 1.994000 1.960000 1.926000 1.905000 1.905000 1.905000 1.983000 2.117000 2.251000 2.427000 2.614000 2.801000 
0.000000 0.000000 0.000000 0.000000 0.000000 0.000000 0.000000 0.000000 0.000000 0.000000 0.000000 0.000000 0.000000 1.344000 1.840000 1.840000 1.840000 1.855000 1.899000 1.943000 1.970000 1.983000 1.997000 2.000000 2.000000 2.000000 2.000000 2.000000 1.998000 1.984000 1.971000 1.962000 1.962000 1.962000 2.109000 2.361000 2.613000 2.725000 2.799000 2.873000 
0.000000 0.000000 0.000000 0.000000 0.000000 0.000000 0.000000 0.000000 0.000000 0.000000 0.000000 1.811000 1.953000 1.903000 1.860000 1.860000 1.860000 1.877000 1.927000 1.977000 2.000000 2.000000 2.000000 2.000000 2.000000 2.000000 2.000000 2.000000 2.000000 2.000000 2.000000 2.000000 2.000000 2.000000 2.192000 2.522000 2.851000 2.921000 2.921000 2.921000 
0.000000 0.000000 0.000000 0.000000 0.000000 0.000000 0.000000 0.000000 0.000000 0.000000 0.000000 1.811000 1.972000 1.943000 1.917000 1.917000 1.917000 1.927000 1.957000 1.987000 2.000000 2.000000 2.000000 2.000000 2.000000 2.000000 2.000000 2.000000 2.000000 2.000000 2.000000 2.000000 2.000000 2.000000 2.192000 2.522000 2.851000 2.921000 2.921000 2.921000 
0.000000 0.000000 0.000000 0.000000 0.000000 0.000000 0.000000 0.000000 0.000000 0.000000 0.000000 1.811000 1.991000 1.982000 1.974000 1.974000 1.974000 1.977000 1.987000 1.996000 2.000000 2.000000 2.000000 2.000000 2.000000 2.000000 2.000000 2.000000 2.000000 2.000000 2.000000 2.000000 2.000000 2.000000 2.192000 2.522000 2.851000 2.921000 2.921000 2.921000 
0.000000 0.000000 0.000000 0.000000 0.000000 0.000000 0.000000 0.000000 0.000000 0.000000 0.000000 1.849000 2.000000 2.000000 2.000000 2.000000 2.000000 2.000000 2.000000 2.000000 2.000000 2.000000 2.000000 2.000000 2.000000 2.000000 2.000000 2.000000 2.000000 2.000000 2.000000 2.024000 2.089000 2.154000 2.335000 2.600000 2.865000 2.921000 2.921000 2.921000 
0.000000 0.000000 0.000000 0.000000 0.000000 0.000000 0.000000 0.000000 0.000000 0.000000 0.000000 1.918000 2.000000 2.000000 2.000000 2.000000 2.000000 2.000000 2.000000 2.000000 2.000000 2.000000 2.000000 2.000000 2.000000 2.000000 2.000000 2.000000 2.000000 2.000000 2.000000 2.069000 2.252000 2.434000 2.596000 2.743000 2.890000 2.921000 2.921000 2.921000 
0.000000 0.000000 0.000000 0.000000 0.000000 0.000000 0.000000 0.000000 0.000000 1.628000 1.808000 1.987000 2.000000 2.000000 2.000000 2.000000 2.000000 2.000000 2.000000 2.000000 2.000000 2.000000 2.000000 2.000000 2.000000 2.000000 2.000000 2.000000 2.000000 2.000000 2.000000 2.113000 2.414000 2.715000 2.857000 2.886000 2.915000 2.921000 2.921000 2.921000 
0.000000 0.000000 0.000000 0.000000 0.000000 0.000000 0.000000 0.000000 1.573000 2.091000 2.047000 2.003000 2.000000 2.000000 2.000000 2.000000 2.000000 2.000000 2.000000 2.000000 2.000000 2.000000 2.000000 2.000000 2.000000 2.000000 2.000000 2.000000 2.012000 2.082000 2.151000 2.292000 2.552000 2.812000 2.921000 2.921000 2.921000 2.921000 2.921000 2.921000 
0.000000 0.000000 0.000000 0.000000 0.000000 0.000000 0.000000 0.000000 1.791000 2.046000 2.024000 2.002000 2.000000 2.000000 2.000000 2.000000 2.000000 2.000000 2.000000 2.000000 2.000000 2.000000 2.000000 2.000000 2.000000 2.000000 2.000000 2.000000 2.027000 2.189000 2.351000 2.516000 2.683000 2.851000 2.921000 2.921000 2.921000 2.921000 2.921000 2.921000 
0.000000 0.000000 0.000000 0.000000 0.000000 0.000000 2.053000 2.031000 2.008000 2.002000 2.001000 2.000000 2.000000 2.000000 2.000000 2.000000 2.000000 2.000000 2.000000 2.000000 2.000000 2.000000 2.000000 2.000000 2.000000 2.000000 2.000000 2.000000 2.043000 2.297000 2.551000 2.739000 2.814000 2.889000 2.921000 2.921000 2.921000 2.921000 2.921000 2.921000 
0.000000 0.000000 0.000000 0.000000 0.000000 1.241000 2.090000 2.050000 2.011000 2.000000 2.000000 2.000000 2.000000 2.000000 2.000000 2.000000 2.000000 2.000000 2.000000 2.000000 2.000000 2.000000 2.000000 2.000000 2.000000 2.000000 2.109000 2.223000 2.342000 2.486000 2.630000 2.738000 2.785000 2.832000 2.852000 2.852000 2.852000 2.852000 2.852000 2.852000 
0.000000 0.000000 0.000000 0.000000 0.000000 1.655000 2.041000 2.023000 2.005000 2.000000 2.000000 2.000000 2.000000 2.000000 2.000000 2.000000 2.000000 2.000000 2.000000 2.000000 2.000000 2.000000 2.000000 2.000000 2.000000 2.000000 2.223000 2.454000 2.651000 2.678000 2.704000 2.728000 2.749000 2.771000 2.780000 2.780000 2.780000 2.780000 2.780000 2.780000 
1.990000 1.990000 1.990000 1.990000 1.990000 1.990000 1.990000 1.990000 1.990000 1.990000 1.990000 1.990000 1.990000 1.990000 1.991000 1.994000 1.998000 2.001000 2.005000 2.009000 2.010000 2.010000 2.010000 2.022000 2.039000 2.055000 2.354000 2.664000 2.910000 2.842000 2.774000 2.731000 2.726000 2.722000 2.720000 2.720000 2.720000 2.720000 2.720000 2.720000 
1.933000 1.933000 1.933000 1.933000 1.933000 1.933000 1.933000 1.933000 1.933000 1.933000 1.933000 1.933000 1.933000 1.933000 1.936000 1.960000 1.984000 2.009000 2.034000 2.059000 2.070000 2.070000 2.070000 2.156000 2.268000 2.381000 2.570000 2.762000 2.914000 2.872000 2.830000 2.793000 2.763000 2.733000 2.720000 2.720000 2.720000 2.720000 2.720000 2.720000 
1.876000 1.876000 1.876000 1.876000 1.876000 1.876000 1.876000 1.876000 1.876000 1.876000 1.876000 1.876000 1.876000 1.876000 1.882000 1.926000 1.971000 2.016000 2.063000 2.109000 2.130000 2.130000 2.130000 2.289000 2.498000 2.707000 2.786000 2.860000 2.918000 2.902000 2.886000 2.855000 2.799000 2.743000 2.720000 2.720000 2.720000 2.720000 2.720000 2.720000 
1.840000 1.840000 1.840000 1.840000 1.840000 1.840000 1.840000 1.840000 1.840000 1.840000 1.840000 1.840000 1.840000 1.840000 1.848000 1.905000 1.962000 2.018000 2.070000 2.122000 2.170000 2.214000 2.258000 2.446000 2.679000 2.912000 2.921000 2.921000 2.921000 2.921000 2.921000 2.898000 2.835000 2.773000 2.741000 2.732000 2.722000 2.720000 2.720000 2.720000 
1.840000 1.840000 1.840000 1.840000 1.840000 1.840000 1.840000 1.840000 1.840000 1.840000 1.840000 1.840000 1.840000 1.840000 1.848000 1.905000 1.962000 2.010000 2.041000 2.072000 2.174000 2.337000 2.499000 2.642000 2.779000 2.916000 2.921000 2.921000 2.921000 2.921000 2.921000 2.907000 2.871000 2.834000 2.798000 2.763000 2.727000 2.720000 2.720000 2.720000 
1.840000 1.840000 1.840000 1.840000 1.840000 1.840000 1.840000 1.840000 1.840000 1.840000 1.840000 1.840000 1.840000 1.840000 1.848000 1.905000 1.962000 2.003000 2.012000 2.021000 2.179000 2.459000 2.740000 2.839000 2.879000 2.919000 2.921000 2.921000 2.921000 2.921000 2.921000 2.917000 2.906000 2.895000 2.855000 2.794000 2.733000 2.720000 2.720000 2.720000 
1.840000 1.840000 1.840000 1.840000 1.840000 1.840000 1.840000 1.840000 1.840000 1.849000 1.861000 1.872000 1.873000 1.873000 1.893000 2.040000 2.186000 2.272000 2.239000 2.207000 2.335000 2.596000 2.857000 2.921000 2.921000 2.921000 2.921000 2.921000 2.924000 2.940000 2.955000 2.965000 2.965000 2.965000 2.914000 2.826000 2.739000 2.720000 2.720000 2.720000 
1.840000 1.840000 1.840000 1.840000 1.840000 1.840000 1.840000 1.840000 1.840000 1.863000 1.896000 1.928000 1.931000 1.931000 1.971000 2.271000 2.571000 2.738000 2.650000 2.561000 2.600000 2.743000 2.886000 2.921000 2.921000 2.921000 2.921000 2.921000 2.928000 2.971000 0.000000 0.000000 0.000000 0.000000 2.975000 2.859000 2.744000 2.720000 2.720000 2.720000 
1.840000 1.840000 1.840000 1.840000 1.840000 1.840000 1.840000 1.840000 1.840000 1.878000 1.931000 1.984000 1.988000 1.988000 2.050000 2.503000 2.956000 0.000000 0.000000 2.916000 2.865000 2.890000 2.915000 2.921000 2.921000 2.921000 2.921000 2.921000 2.933000 0.000000 0.000000 0.000000 0.000000 0.000000 0.000000 2.893000 2.750000 2.720000 2.720000 2.720000 
1.840000 1.840000 1.840000 1.840000 1.840000 1.840000 1.840000 1.840000 1.840000 1.870000 1.911000 1.952000 2.097000 2.251000 2.431000 2.779000 0.000000 0.000000 0.000000 2.944000 2.864000 2.864000 2.864000 2.880000 2.900000 2.920000 2.921000 2.921000 2.934000 0.000000 0.000000 0.000000 0.000000 0.000000 0.000000 2.993000 2.864000 2.837000 2.837000 2.837000 
1.840000 1.840000 1.840000 1.840000 1.840000 1.840000 1.840000 1.840000 1.840000 1.855000 1.875000 1.896000 2.221000 2.568000 2.893000 0.000000 0.000000 0.000000 0.000000 2.883000 2.792000 2.792000 2.792000 2.827000 2.873000 2.919000 2.921000 2.921000 2.934000 0.000000 0.000000 0.000000 0.000000 0.000000 0.000000 0.000000 0.000000 2.985000 2.985000 2.985000 
1.840000 1.840000 1.840000 1.840000 1.840000 1.840000 1.840000 1.840000 1.840000 1.840000 1.840000 1.840000 2.344000 2.886000 0.000000 0.000000 0.000000 0.000000 0.000000 2.823000 2.720000 2.720000 2.720000 2.775000 2.846000 2.918000 2.921000 2.921000 2.934000 0.000000 0.000000 0.000000 0.000000 0.000000 0.000000 0.000000 0.000000 0.000000 0.000000 0.000000 
