40 40
0.000000 0.000000 0.000000 0.000000 0.000000 0.000000 0.000000 0.000000 0.000000 0.000000 0.000000 0.000000 0.000000 0.000000 0.000000 0.000000 0.000000 0.000000 0.000000 0.000000 0.000000 0.000000 0.000000 0.000000 0.000000 0.000000 0.000000 0.000000 0.000000 0.000000 0.000000 0.000000 0.000000 0.000000 0.000000 0.000000 0.000000 0.000000 0.000000 0.000000 
0.000000 0.000000 0.000000 0.000000 0.000000 0.000000 0.000000 0.000000 0.000000 0.000000 0.000000 0.000000 0.000000 0.000000 0.000000 2.070000 2.042000 2.032000 2.005000 1.977000 1.977000 1.977000 1.977000 1.977000 2.788000 0.000000 0.000000 0.000000 0.000000 0.000000 0.000000 0.000000 0.000000 0.000000 0.000000 0.000000 0.000000 0.000000 0.000000 0.000000 
0.000000 0.000000 0.000000 0.000000 0.000000 0.000000 0.000000 0.000000 0.000000 0.000000 0.000000 0.000000 0.000000 0.000000 0.000000 2.037000 2.022000 2.004000 1.983000 1.977000 1.977000 1.977000 1.977000 1.977000 1.982000 1.989000 2.105000 0.000000 0.000000 0.000000 0.000000 0.000000 0.000000 0.000000 0.000000 0.000000 0.000000 0.000000 0.000000 0.000000 
0.000000 0.000000 0.000000 0.000000 0.000000 0.000000 0.000000 0.000000 0.000000 2.423000 2.389000 2.368000 2.199000 2.022000 2.014000 2.019000 2.014000 1.999000 1.983000 1.977000 1.977000 1.977000 1.977000 1.977000 1.978000 1.979000 1.991000 2.186000 2.418000 0.000000 0.000000 0.000000 0.000000 0.000000 0.000000 0.000000 0.000000 0.000000 0.000000 0.000000 
0.000000 0.000000 0.000000 0.000000 0.000000 0.000000 2.969000 2.037000 2.039000 2.045000 2.026000 1.981000 1.996000 2.022000 2.012000 2.012000 2.012000 2.009000 1.995000 1.989000 1.988000 1.977000 1.968000 1.966000 1.977000 1.977000 1.991000 2.022000 2.037000 2.242000 0.000000 0.000000 0.000000 0.000000 0.000000 0.000000 0.000000 0.000000 0.000000 0.000000 
0.000000 0.000000 0.000000 0.000000 0.000000 2.982000 2.043000 2.037000 2.037000 2.025000 2.012000 2.012000 2.015000 2.023000 2.012000 2.012000 2.012000 2.000000 1.995000 1.989000 1.988000 1.977000 1.968000 1.966000 1.977000 1.977000 1.991000 2.017000 2.034000 2.148000 0.000000 0.000000 0.000000 0.000000 0.000000 0.000000 0.000000 0.000000 0.000000 0.000000 
0.000000 0.000000 0.000000 0.000000 0.000000 2.047000 2.038000 2.045000 2.037000 2.030000 2.022000 2.024000 2.024000 2.024000 2.022000 2.017000 2.012000 1.999000 1.990000 1.989000 1.989000 1.982000 1.968000 1.966000 1.977000 1.977000 1.991000 2.017000 2.034000 2.039000 0.000000 0.000000 0.000000 0.000000 0.000000 0.000000 0.000000 0.000000 0.000000 0.000000 
0.000000 0.000000 0.000000 0.000000 0.000000 2.047000 2.037000 2.047000 2.037000 2.037000 2.037000 2.024000 2.024000 2.024000 2.024000 2.017000 2.010000 1.999000 1.989000 1.989000 1.989000 1.984000 1.977000 1.977000 1.982000 1.989000 1.999000 2.010000 2.034000 2.038000 2.875000 0.000000 0.000000 0.000000 0.000000 0.000000 0.000000 0.000000 0.000000 0.000000 
0.000000 0.000000 0.000000 0.000000 0.000000 2.053000 2.043000 2.048000 2.037000 2.037000 2.037000 2.024000 2.024000 2.024000 2.022000 2.004000 1.995000 1.994000 1.989000 1.989000 1.989000 1.989000 1.984000 1.977000 1.982000 1.989000 1.990000 2.010000 2.034000 2.038000 2.049000 0.000000 0.000000 0.000000 0.000000 0.000000 0.000000 0.000000 0.000000 0.000000 
0.000000 0.000000 0.000000 0.000000 0.000000 2.051000 2.044000 2.039000 2.037000 2.037000 2.028000 2.024000 2.024000 2.024000 2.022000 2.001000 1.989000 1.989000 1.989000 1.989000 1.989000 1.989000 1.981000 1.977000 1.982000 1.989000 1.990000 2.010000 2.034000 2.038000 2.049000 0.000000 0.000000 0.000000 0.000000 0.000000 0.000000 0.000000 0.000000 0.000000 
0.000000 0.000000 0.000000 0.000000 0.000000 2.051000 2.044000 2.037000 2.037000 2.037000 2.026000 2.012000 2.012000 2.012000 2.022000 2.007000 2.000000 1.989000 1.989000 1.989000 1.989000 1.989000 1.980000 1.977000 1.982000 1.989000 1.990000 2.005000 2.021000 2.038000 2.047000 0.000000 0.000000 0.000000 0.000000 0.000000 0.000000 0.000000 0.000000 0.000000 
0.000000 0.000000 0.000000 0.000000 0.000000 2.061000 2.052000 2.039000 2.037000 2.037000 2.026000 2.012000 2.012000 2.017000 2.023000 2.015000 2.002000 1.994000 1.992000 1.989000 1.989000 1.989000 1.980000 1.977000 1.982000 1.989000 1.990000 2.005000 2.021000 2.037000 2.039000 2.920000 0.000000 0.000000 0.000000 0.000000 0.000000 0.000000 0.000000 0.000000 
0.000000 0.000000 0.000000 0.000000 0.000000 2.062000 2.056000 2.039000 2.037000 2.037000 2.026000 2.022000 2.022000 2.024000 2.024000 2.023000 2.012000 2.008000 1.999000 1.998000 1.989000 1.989000 1.980000 1.977000 1.982000 1.989000 1.989000 2.000000 2.021000 2.037000 2.042000 2.049000 0.000000 0.000000 0.000000 0.000000 0.000000 0.000000 0.000000 0.000000 
0.000000 0.000000 0.000000 0.000000 0.000000 2.060000 2.056000 2.051000 2.037000 2.037000 2.037000 2.024000 2.029000 2.035000 2.024000 2.024000 2.014000 2.010000 2.000000 2.000000 1.997000 1.989000 1.989000 1.989000 1.989000 1.989000 1.989000 2.000000 2.021000 2.037000 2.043000 2.049000 0.000000 0.000000 0.000000 0.000000 0.000000 0.000000 0.000000 0.000000 
0.000000 0.000000 0.000000 0.000000 0.000000 2.043000 2.047000 2.051000 2.037000 2.037000 2.037000 2.024000 2.024000 2.024000 2.024000 2.024000 2.014000 2.006000 2.000000 2.000000 1.989000 1.989000 1.989000 1.989000 1.989000 1.989000 1.990000 2.005000 2.021000 2.038000 2.049000 2.049000 0.000000 0.000000 0.000000 0.000000 0.000000 0.000000 0.000000 0.000000 
0.000000 0.000000 0.000000 0.000000 0.000000 2.037000 2.037000 2.037000 2.037000 2.037000 2.029000 2.024000 2.024000 2.024000 2.024000 2.020000 2.013000 2.000000 2.000000 1.993000 1.989000 1.989000 1.989000 1.989000 1.989000 1.989000 1.998000 2.005000 2.014000 2.037000 2.044000 2.049000 0.000000 0.000000 0.000000 0.000000 0.000000 0.000000 0.000000 0.000000 
0.000000 0.000000 0.000000 0.000000 0.000000 2.059000 2.038000 2.037000 2.037000 2.037000 2.028000 2.024000 2.024000 2.014000 2.012000 2.012000 2.012000 2.001000 2.000000 1.991000 1.989000 1.989000 1.989000 1.989000 1.989000 1.989000 1.990000 2.000000 2.009000 2.037000 2.042000 2.049000 0.000000 0.000000 0.000000 0.000000 0.000000 0.000000 0.000000 0.000000 
0.000000 0.000000 0.000000 0.000000 0.000000 2.076000 2.049000 2.042000 2.037000 2.037000 2.037000 2.029000 2.024000 2.019000 2.012000 2.012000 2.012000 2.010000 2.000000 1.991000 1.989000 1.989000 1.989000 1.989000 1.989000 1.989000 1.990000 1.997000 2.009000 2.037000 2.042000 2.053000 0.000000 0.000000 0.000000 0.000000 0.000000 0.000000 0.000000 0.000000 
0.000000 0.000000 0.000000 0.000000 0.000000 0.000000 2.070000 2.069000 2.053000 2.037000 2.037000 2.035000 2.024000 2.024000 2.012000 2.012000 2.012000 2.010000 2.000000 1.991000 1.989000 1.989000 1.989000 1.989000 1.989000 1.989000 1.989000 1.994000 2.009000 2.038000 2.052000 2.061000 2.678000 0.000000 0.000000 0.000000 0.000000 0.000000 0.000000 0.000000 
0.000000 0.000000 0.000000 0.000000 0.000000 2.085000 2.075000 2.064000 2.059000 2.043000 2.037000 2.037000 2.031000 2.024000 2.024000 2.024000 2.024000 2.021000 2.006000 2.000000 1.990000 1.994000 1.991000 1.989000 1.989000 1.989000 1.989000 1.989000 1.997000 2.025000 2.042000 2.049000 2.256000 0.000000 0.000000 0.000000 0.000000 0.000000 0.000000 0.000000 
0.000000 0.000000 0.000000 0.000000 0.000000 2.092000 2.081000 2.064000 2.048000 2.040000 2.037000 2.037000 2.031000 2.024000 2.024000 2.024000 2.024000 2.012000 2.009000 2.001000 2.000000 1.995000 1.989000 1.989000 1.989000 1.989000 1.989000 1.989000 1.997000 2.025000 2.037000 2.048000 2.242000 0.000000 0.000000 0.000000 0.000000 0.000000 0.000000 0.000000 
0.000000 0.000000 0.000000 0.000000 0.000000 2.106000 2.081000 2.064000 2.047000 2.037000 2.037000 2.037000 2.031000 2.024000 2.024000 2.024000 2.024000 2.012000 2.008000 1.994000 1.992000 1.990000 1.989000 1.990000 1.997000 1.991000 1.989000 1.993000 1.999000 2.024000 2.030000 2.046000 2.229000 0.000000 0.000000 0.000000 0.000000 0.000000 0.000000 0.000000 
0.000000 0.000000 0.000000 0.000000 0.000000 2.317000 2.094000 2.066000 2.047000 2.037000 2.037000 2.037000 2.031000 2.024000 2.024000 2.024000 2.024000 2.013000 2.006000 1.991000 1.989000 1.989000 1.989000 1.990000 2.000000 1.992000 1.991000 2.000000 2.001000 2.024000 2.030000 2.046000 2.229000 0.000000 0.000000 0.000000 0.000000 0.000000 0.000000 0.000000 
0.000000 0.000000 0.000000 0.000000 0.000000 0.000000 2.564000 2.064000 2.053000 2.040000 2.037000 2.037000 2.031000 2.024000 2.024000 2.024000 2.024000 2.022000 2.006000 1.991000 1.989000 1.989000 1.989000 1.990000 2.000000 2.000000 2.000000 2.000000 2.009000 2.024000 2.030000 2.046000 2.229000 0.000000 0.000000 0.000000 0.000000 0.000000 0.000000 0.000000 
0.000000 0.000000 0.000000 0.000000 0.000000 0.000000 0.000000 2.071000 2.062000 2.053000 2.039000 2.037000 2.036000 2.026000 2.024000 2.024000 2.024000 2.022000 2.006000 1.991000 1.989000 1.989000 1.989000 1.990000 2.000000 2.000000 1.992000 1.995000 2.002000 2.007000 2.030000 2.046000 2.092000 2.552000 0.000000 0.000000 0.000000 0.000000 0.000000 0.000000 
0.000000 0.000000 0.000000 0.000000 0.000000 0.000000 0.000000 2.064000 2.062000 2.062000 2.051000 2.037000 2.036000 2.026000 2.024000 2.024000 2.024000 2.012000 2.011000 2.002000 1.989000 1.989000 1.989000 1.990000 2.000000 1.992000 1.989000 1.989000 1.997000 2.002000 2.030000 2.046000 2.049000 2.049000 0.000000 0.000000 0.000000 0.000000 0.000000 0.000000 
0.000000 0.000000 0.000000 0.000000 0.000000 0.000000 0.000000 2.226000 2.063000 2.065000 2.051000 2.037000 2.031000 2.024000 2.024000 2.024000 2.024000 2.012000 2.006000 2.000000 1.989000 1.989000 1.989000 1.990000 2.000000 1.992000 1.989000 1.989000 1.994000 2.002000 2.030000 2.042000 2.044000 2.044000 0.000000 0.000000 0.000000 0.000000 0.000000 0.000000 
0.000000 0.000000 0.000000 0.000000 0.000000 0.000000 0.000000 2.448000 2.062000 2.064000 2.051000 2.037000 2.031000 2.024000 2.024000 2.024000 2.024000 2.020000 2.011000 2.002000 1.996000 1.989000 1.989000 1.990000 2.000000 1.992000 1.989000 1.989000 1.989000 2.002000 2.030000 2.037000 2.037000 2.037000 0.000000 0.000000 0.000000 0.000000 0.000000 0.000000 
0.000000 0.000000 0.000000 0.000000 0.000000 0.000000 0.000000 2.448000 2.062000 2.056000 2.049000 2.037000 2.037000 2.027000 2.025000 2.025000 2.024000 2.023000 2.013000 2.003000 1.999000 1.990000 1.990000 1.991000 2.000000 1.992000 1.989000 1.989000 1.989000 2.001000 2.023000 2.037000 2.037000 2.037000 0.000000 0.000000 0.000000 0.000000 0.000000 0.000000 
0.000000 0.000000 0.000000 0.000000 0.000000 0.000000 0.000000 2.448000 2.062000 2.056000 2.045000 2.037000 2.037000 2.037000 2.037000 2.037000 2.031000 2.024000 2.018000 2.006000 2.005000 2.003000 1.996000 1.996000 2.000000 1.992000 1.989000 1.989000 1.989000 2.001000 2.023000 2.037000 2.042000 2.042000 0.000000 0.000000 0.000000 0.000000 0.000000 0.000000 
0.000000 0.000000 0.000000 0.000000 0.000000 0.000000 0.000000 2.449000 2.060000 2.051000 2.039000 2.037000 2.037000 2.037000 2.037000 2.037000 2.037000 2.024000 2.018000 2.012000 2.012000 2.011000 1.993000 1.991000 2.005000 1.998000 1.996000 1.989000 1.989000 2.000000 2.013000 2.035000 2.049000 2.049000 0.000000 0.000000 0.000000 0.000000 0.000000 0.000000 
0.000000 0.000000 0.000000 0.000000 0.000000 0.000000 0.000000 2.449000 2.060000 2.049000 2.040000 2.037000 2.037000 2.037000 2.024000 2.024000 2.024000 2.024000 2.024000 2.014000 2.010000 2.000000 1.992000 1.991000 2.000000 2.000000 2.000000 2.000000 1.992000 1.990000 2.010000 2.033000 2.048000 2.049000 0.000000 0.000000 0.000000 0.000000 0.000000 0.000000 
0.000000 0.000000 0.000000 0.000000 0.000000 0.000000 0.000000 2.298000 2.061000 2.052000 2.049000 2.041000 2.037000 2.037000 2.024000 2.024000 2.024000 2.024000 2.018000 2.012000 2.000000 2.000000 1.997000 1.996000 2.000000 2.000000 1.996000 1.996000 1.991000 1.990000 2.008000 2.023000 2.038000 2.044000 0.000000 0.000000 0.000000 0.000000 0.000000 0.000000 
0.000000 0.000000 0.000000 0.000000 0.000000 0.000000 0.000000 2.086000 2.069000 2.056000 2.049000 2.047000 2.037000 2.037000 2.034000 2.034000 2.034000 2.024000 2.018000 2.012000 2.000000 2.000000 1.991000 1.990000 2.000000 2.000000 1.989000 1.989000 1.989000 1.990000 2.001000 2.012000 2.028000 2.037000 0.000000 0.000000 0.000000 0.000000 0.000000 0.000000 
0.000000 0.000000 0.000000 0.000000 0.000000 0.000000 0.000000 2.467000 2.072000 2.062000 2.062000 2.058000 2.037000 2.037000 2.037000 2.037000 2.037000 2.024000 2.024000 2.014000 2.010000 2.000000 2.000000 2.000000 2.000000 2.000000 1.989000 1.989000 1.980000 1.978000 1.994000 2.009000 2.026000 2.037000 0.000000 0.000000 0.000000 0.000000 0.000000 0.000000 
0.000000 0.000000 0.000000 0.000000 0.000000 0.000000 0.000000 2.467000 2.072000 2.062000 2.062000 2.061000 2.046000 2.037000 2.037000 2.037000 2.037000 2.024000 2.018000 2.003000 2.000000 2.003000 2.002000 2.000000 2.000000 2.000000 1.989000 1.989000 1.980000 1.978000 1.994000 2.020000 2.042000 2.047000 0.000000 0.000000 0.000000 0.000000 0.000000 0.000000 
0.000000 0.000000 0.000000 0.000000 0.000000 0.000000 0.000000 2.460000 2.072000 2.062000 2.062000 2.061000 2.049000 2.039000 2.037000 2.037000 2.037000 2.024000 2.018000 2.003000 2.000000 2.000000 2.000000 2.000000 2.000000 2.000000 1.989000 1.989000 1.987000 1.986000 1.990000 0.000000 0.000000 0.000000 0.000000 0.000000 0.000000 0.000000 0.000000 0.000000 
0.000000 0.000000 0.000000 0.000000 0.000000 0.000000 0.000000 0.000000 2.071000 2.062000 2.051000 2.049000 2.043000 2.037000 2.037000 2.037000 2.037000 2.025000 2.019000 2.003000 1.999000 1.989000 1.998000 2.015000 2.132000 2.135000 2.121000 2.000000 2.000000 2.012000 0.000000 0.000000 0.000000 0.000000 0.000000 0.000000 0.000000 0.000000 0.000000 0.000000 
0.000000 0.000000 0.000000 0.000000 0.000000 0.000000 0.000000 0.000000 2.049000 2.053000 2.050000 2.049000 2.045000 2.042000 2.042000 2.042000 2.038000 2.037000 2.031000 2.012000 2.884000 2.878000 2.884000 0.000000 0.000000 0.000000 0.000000 2.906000 2.890000 0.000000 0.000000 0.000000 0.000000 0.000000 0.000000 0.000000 0.000000 0.000000 0.000000 0.000000 
0.000000 0.000000 0.000000 0.000000 0.000000 0.000000 0.000000 0.000000 0.000000 0.000000 0.000000 0.000000 0.000000 0.000000 0.000000 0.000000 0.000000 0.000000 0.000000 0.000000 0.000000 0.000000 0.000000 0.000000 0.000000 0.000000 0.000000 0.000000 0.000000 0.000000 0.000000 0.000000 0.000000 0.000000 0.000000 0.000000 0.000000 0.000000 0.000000 0.000000 
