40 40
0.000000 0.000000 0.000000 0.000000 0.000000 0.000000 0.000000 0.000000 0.000000 2.739000 0.000000 2.680000 2.032000 1.136000 1.136000 1.136000 1.136000 1.136000 1.136000 1.181000 1.696000 2.006000 2.007000 2.009000 2.011000 2.011000 2.012000 2.025000 0.000000 0.000000 0.000000 0.000000 0.000000 0.000000 0.000000 0.000000 0.000000 0.000000 0.000000 0.000000 
0.000000 0.000000 0.000000 0.000000 0.000000 0.000000 0.000000 0.000000 0.000000 0.000000 0.000000 0.000000 2.457000 2.025000 1.137000 1.149000 1.272000 1.495000 2.009000 2.009000 2.011000 2.009000 2.009000 2.009000 2.011000 2.011000 2.012000 2.031000 2.076000 2.095000 0.000000 0.000000 0.000000 0.000000 0.000000 0.000000 0.000000 0.000000 0.000000 0.000000 
0.000000 0.000000 0.000000 0.000000 0.000000 0.000000 0.000000 0.000000 0.000000 0.000000 0.000000 0.000000 2.020000 2.019000 2.007000 2.009000 2.010000 2.009000 2.009000 2.010000 2.009000 2.009000 2.009000 2.009000 2.011000 2.011000 2.011000 2.023000 2.067000 2.096000 2.819000 0.000000 0.000000 0.000000 0.000000 0.000000 0.000000 0.000000 0.000000 0.000000 
0.000000 0.000000 0.000000 0.000000 0.000000 0.000000 0.000000 0.000000 2.757000 2.009000 2.014000 2.011000 2.009000 2.012000 2.011000 2.010000 2.009000 2.011000 2.009000 2.009000 2.009000 2.009000 2.009000 2.009000 2.011000 2.011000 2.010000 2.016000 2.054000 2.087000 1.136000 0.000000 0.000000 0.000000 0.000000 0.000000 0.000000 0.000000 0.000000 0.000000 
0.000000 0.000000 0.000000 0.000000 0.000000 2.007000 2.007000 2.008000 2.010000 2.011000 2.014000 2.013000 2.011000 2.009000 2.011000 2.009000 2.009000 2.009000 2.009000 2.009000 2.009000 2.009000 2.009000 2.009000 2.011000 2.010000 2.009000 2.011000 2.036000 2.084000 1.292000 0.000000 0.000000 0.000000 0.000000 0.000000 0.000000 0.000000 0.000000 0.000000 
0.000000 0.000000 0.000000 0.000000 0.000000 2.007000 2.006000 2.007000 2.008000 2.009000 2.011000 2.011000 2.010000 2.009000 2.009000 2.009000 2.009000 2.009000 2.007000 2.009000 2.008000 2.009000 2.007000 2.009000 2.009000 2.009000 2.011000 2.011000 2.030000 2.077000 1.548000 1.136000 0.000000 0.000000 0.000000 0.000000 0.000000 0.000000 0.000000 0.000000 
0.000000 0.000000 0.000000 0.000000 0.000000 2.009000 2.005000 2.007000 2.009000 2.009000 2.011000 2.009000 2.009000 2.009000 2.009000 2.009000 2.009000 2.009000 2.008000 2.007000 2.007000 2.007000 2.007000 2.008000 2.009000 2.009000 2.008000 2.009000 2.034000 2.078000 1.359000 1.136000 0.000000 0.000000 0.000000 0.000000 0.000000 0.000000 0.000000 0.000000 
0.000000 0.000000 0.000000 0.000000 0.000000 2.012000 2.008000 2.008000 2.007000 2.008000 2.009000 2.009000 2.008000 2.007000 2.009000 2.009000 2.009000 2.009000 2.007000 2.007000 2.009000 2.007000 2.007000 2.007000 2.009000 2.009000 2.009000 2.010000 2.015000 2.043000 1.464000 1.136000 0.000000 0.000000 0.000000 0.000000 0.000000 0.000000 0.000000 0.000000 
0.000000 0.000000 0.000000 0.000000 0.000000 2.007000 2.007000 2.006000 2.007000 2.008000 2.010000 2.009000 2.007000 2.007000 2.009000 2.009000 2.009000 2.008000 2.007000 2.007000 2.009000 2.007000 2.007000 2.007000 2.009000 2.009000 2.007000 2.009000 2.012000 2.042000 1.136000 1.136000 0.000000 0.000000 0.000000 0.000000 0.000000 0.000000 0.000000 0.000000 
0.000000 0.000000 0.000000 0.000000 0.000000 2.005000 2.007000 2.006000 2.006000 2.008000 2.008000 2.009000 2.007000 2.007000 2.009000 2.009000 2.007000 2.007000 2.007000 2.007000 2.007000 2.007000 2.007000 2.007000 2.009000 2.009000 2.007000 2.009000 2.009000 2.036000 2.071000 1.136000 1.136000 0.000000 0.000000 0.000000 0.000000 0.000000 0.000000 0.000000 
0.000000 0.000000 0.000000 0.000000 0.000000 2.005000 2.007000 2.007000 2.005000 2.008000 2.007000 2.009000 2.007000 2.007000 2.007000 2.007000 2.007000 2.007000 2.007000 2.006000 2.007000 2.007000 2.007000 2.007000 2.009000 2.007000 2.009000 2.008000 2.009000 2.023000 2.075000 1.157000 1.136000 0.000000 0.000000 0.000000 0.000000 0.000000 0.000000 0.000000 
0.000000 0.000000 0.000000 0.000000 0.000000 2.005000 2.007000 2.007000 2.007000 2.008000 2.007000 2.009000 2.009000 2.007000 2.007000 2.009000 2.007000 2.007000 2.007000 2.007000 2.005000 2.007000 2.007000 2.005000 2.009000 2.007000 2.009000 2.007000 2.009000 2.013000 2.051000 1.508000 1.136000 0.000000 0.000000 0.000000 0.000000 0.000000 0.000000 0.000000 
0.000000 0.000000 0.000000 0.000000 0.000000 2.005000 2.005000 2.007000 2.005000 2.007000 2.008000 2.007000 2.007000 2.008000 2.008000 2.007000 2.006000 2.007000 2.007000 2.007000 2.005000 2.007000 2.007000 2.005000 2.009000 2.008000 2.007000 2.007000 2.007000 2.012000 2.045000 2.076000 1.136000 0.000000 0.000000 0.000000 0.000000 0.000000 0.000000 0.000000 
0.000000 0.000000 0.000000 0.000000 0.000000 1.181000 2.005000 2.006000 2.005000 2.006000 2.007000 2.007000 2.007000 2.007000 2.007000 2.007000 2.006000 2.006000 2.007000 2.006000 2.005000 2.006000 2.005000 2.005000 2.007000 2.007000 2.007000 2.006000 2.005000 2.008000 2.038000 2.073000 1.136000 0.000000 0.000000 0.000000 0.000000 0.000000 0.000000 0.000000 
0.000000 0.000000 0.000000 0.000000 0.000000 1.158000 2.003000 2.005000 2.005000 2.006000 2.007000 2.007000 2.005000 2.006000 2.007000 2.007000 2.007000 2.005000 2.005000 2.006000 2.005000 2.003000 2.004000 2.005000 2.007000 2.007000 2.009000 2.006000 2.005000 2.008000 2.016000 2.070000 1.136000 0.000000 0.000000 0.000000 0.000000 0.000000 0.000000 0.000000 
0.000000 0.000000 0.000000 0.000000 0.000000 1.136000 2.003000 2.005000 2.005000 2.005000 2.005000 2.006000 2.007000 2.007000 2.006000 2.006000 2.004000 2.003000 2.004000 2.005000 2.002000 2.004000 2.003000 2.003000 2.005000 2.006000 2.007000 2.005000 2.005000 2.008000 2.022000 2.069000 1.770000 1.136000 0.000000 0.000000 0.000000 0.000000 0.000000 0.000000 
0.000000 0.000000 0.000000 0.000000 0.000000 1.136000 2.005000 2.005000 2.003000 2.004000 2.005000 2.005000 2.005000 2.007000 2.005000 2.004000 2.003000 2.003000 2.005000 2.005000 2.003000 2.003000 2.002000 2.000000 2.005000 2.007000 2.005000 2.005000 2.006000 2.007000 2.010000 2.066000 2.075000 1.136000 0.000000 0.000000 0.000000 0.000000 0.000000 0.000000 
0.000000 0.000000 0.000000 0.000000 0.000000 1.136000 1.272000 2.000000 2.001000 2.004000 2.005000 2.005000 2.005000 2.003000 2.003000 2.003000 2.001000 2.003000 2.003000 2.004000 2.003000 2.002000 2.003000 2.003000 2.005000 2.005000 2.005000 2.003000 2.005000 2.007000 2.008000 2.042000 2.070000 1.136000 0.000000 0.000000 0.000000 0.000000 0.000000 0.000000 
0.000000 0.000000 0.000000 0.000000 0.000000 1.136000 1.146000 1.997000 1.999000 2.005000 2.005000 2.004000 2.005000 2.003000 2.003000 2.000000 2.001000 2.003000 2.003000 2.003000 2.003000 2.003000 2.003000 2.003000 2.003000 2.005000 2.005000 2.004000 2.005000 2.005000 2.007000 2.030000 2.062000 1.164000 1.397000 0.000000 0.000000 0.000000 0.000000 0.000000 
0.000000 0.000000 0.000000 0.000000 0.000000 1.136000 1.136000 2.000000 2.003000 2.004000 2.005000 2.005000 2.005000 2.003000 2.003000 2.003000 2.003000 2.005000 2.003000 2.003000 2.000000 2.000000 2.003000 2.000000 2.003000 2.005000 2.005000 2.003000 2.004000 2.005000 2.006000 2.025000 2.056000 1.166000 1.136000 0.000000 0.000000 0.000000 0.000000 0.000000 
0.000000 0.000000 0.000000 0.000000 0.000000 1.136000 1.155000 2.004000 2.001000 2.004000 2.003000 2.003000 2.003000 2.003000 2.003000 2.003000 2.003000 2.004000 2.003000 2.003000 2.003000 2.000000 2.000000 2.003000 2.005000 2.005000 2.005000 2.004000 2.004000 2.006000 2.005000 2.007000 2.032000 1.165000 1.136000 0.000000 0.000000 0.000000 0.000000 0.000000 
0.000000 0.000000 0.000000 0.000000 0.000000 1.136000 1.241000 2.006000 2.004000 2.004000 2.003000 2.003000 2.003000 2.003000 2.003000 2.003000 2.000000 2.003000 2.003000 2.002000 2.000000 2.000000 2.000000 2.003000 2.003000 2.003000 2.005000 2.003000 2.003000 2.004000 2.004000 2.005000 2.060000 2.076000 1.136000 0.000000 0.000000 0.000000 0.000000 0.000000 
0.000000 0.000000 0.000000 0.000000 0.000000 1.136000 1.136000 1.285000 2.001000 2.003000 2.003000 2.004000 2.005000 2.005000 2.003000 2.003000 2.003000 2.003000 2.003000 2.002000 2.000000 2.000000 2.000000 2.003000 2.003000 2.004000 2.004000 2.003000 2.004000 2.003000 2.003000 2.005000 2.012000 2.074000 1.136000 0.000000 0.000000 0.000000 0.000000 0.000000 
0.000000 0.000000 0.000000 0.000000 0.000000 0.000000 1.136000 1.136000 2.001000 2.004000 2.004000 2.004000 2.003000 2.004000 2.003000 2.003000 2.003000 2.000000 2.001000 2.001000 2.000000 2.000000 2.000000 2.003000 2.003000 2.003000 2.003000 2.003000 2.003000 2.003000 2.003000 2.005000 2.021000 2.069000 1.136000 0.000000 0.000000 0.000000 0.000000 0.000000 
0.000000 0.000000 0.000000 0.000000 0.000000 0.000000 1.136000 1.136000 2.002000 2.001000 2.005000 2.004000 2.003000 2.003000 2.003000 2.003000 2.004000 2.003000 2.003000 2.003000 2.000000 2.000000 2.000000 2.001000 2.003000 2.004000 2.003000 2.003000 2.003000 2.005000 2.003000 2.003000 2.004000 2.037000 2.015000 0.000000 0.000000 0.000000 0.000000 0.000000 
0.000000 0.000000 0.000000 0.000000 0.000000 0.000000 1.136000 1.136000 1.810000 2.003000 2.005000 2.003000 2.003000 2.003000 2.002000 2.000000 2.002000 2.001000 2.003000 2.001000 2.000000 2.000000 2.000000 2.000000 2.003000 2.003000 2.005000 2.003000 2.003000 2.003000 2.003000 2.003000 2.004000 2.039000 2.062000 0.000000 0.000000 0.000000 0.000000 0.000000 
0.000000 0.000000 0.000000 0.000000 0.000000 0.000000 1.136000 1.136000 1.451000 2.001000 2.001000 2.002000 2.003000 2.003000 2.003000 2.003000 2.002000 2.000000 2.002000 2.000000 2.000000 2.000000 2.000000 2.000000 2.003000 2.003000 2.003000 2.004000 2.003000 2.003000 2.003000 2.003000 2.003000 2.037000 2.082000 0.000000 0.000000 0.000000 0.000000 0.000000 
0.000000 0.000000 0.000000 0.000000 0.000000 0.000000 0.000000 1.136000 1.136000 2.003000 2.000000 2.000000 2.000000 2.003000 2.000000 2.000000 2.000000 2.001000 2.001000 2.000000 2.000000 2.000000 2.000000 2.000000 2.003000 2.003000 2.003000 2.003000 2.003000 2.003000 2.001000 2.002000 2.000000 2.034000 2.066000 0.000000 0.000000 0.000000 0.000000 0.000000 
0.000000 0.000000 0.000000 0.000000 0.000000 0.000000 0.000000 1.136000 1.136000 1.999000 2.003000 2.000000 2.000000 2.000000 2.000000 2.000000 2.000000 2.000000 2.000000 1.999000 2.000000 2.000000 2.000000 2.000000 2.003000 2.003000 2.000000 2.003000 2.003000 2.003000 2.003000 2.003000 2.000000 2.016000 2.050000 0.000000 0.000000 0.000000 0.000000 0.000000 
0.000000 0.000000 0.000000 0.000000 0.000000 0.000000 0.000000 1.136000 1.136000 1.166000 2.003000 2.000000 2.000000 2.000000 1.998000 2.000000 2.000000 2.000000 2.000000 1.998000 1.999000 1.998000 1.998000 1.998000 2.000000 2.003000 2.000000 2.002000 2.000000 2.003000 2.003000 2.001000 2.003000 2.007000 2.055000 0.000000 0.000000 0.000000 0.000000 0.000000 
0.000000 0.000000 0.000000 0.000000 0.000000 0.000000 0.000000 1.136000 1.136000 1.541000 2.000000 2.000000 2.000000 2.000000 2.000000 2.000000 2.000000 1.998000 2.000000 1.998000 1.998000 1.998000 1.998000 2.000000 2.001000 2.000000 2.000000 2.000000 2.000000 2.000000 2.000000 2.003000 2.003000 2.003000 1.875000 0.000000 0.000000 0.000000 0.000000 0.000000 
0.000000 0.000000 0.000000 0.000000 0.000000 0.000000 0.000000 1.669000 1.136000 1.136000 1.998000 1.997000 1.998000 1.999000 1.999000 2.000000 1.998000 1.998000 1.998000 1.998000 1.998000 1.998000 1.998000 1.998000 2.000000 2.000000 2.000000 2.000000 2.000000 2.000000 2.000000 2.000000 2.003000 2.003000 1.382000 0.000000 0.000000 0.000000 0.000000 0.000000 
0.000000 0.000000 0.000000 0.000000 0.000000 0.000000 0.000000 1.871000 1.136000 1.136000 1.999000 1.999000 1.999000 2.000000 1.998000 1.999000 1.998000 1.999000 1.998000 1.998000 1.998000 1.998000 1.998000 1.998000 2.000000 2.002000 2.000000 2.000000 2.000000 2.000000 2.000000 2.000000 2.000000 2.003000 1.637000 0.000000 0.000000 0.000000 0.000000 0.000000 
0.000000 0.000000 0.000000 0.000000 0.000000 0.000000 0.000000 0.000000 1.136000 1.136000 1.630000 1.998000 1.998000 1.998000 1.998000 1.998000 1.998000 1.998000 1.997000 1.998000 1.998000 1.998000 1.998000 1.998000 2.000000 2.000000 2.000000 2.000000 2.000000 2.000000 2.000000 2.000000 2.003000 2.005000 1.945000 0.000000 0.000000 0.000000 0.000000 0.000000 
0.000000 0.000000 0.000000 0.000000 0.000000 0.000000 0.000000 0.000000 1.136000 1.136000 1.337000 1.996000 1.998000 1.998000 1.998000 1.998000 1.998000 1.999000 1.998000 1.996000 1.997000 1.998000 1.998000 1.998000 1.998000 2.000000 2.000000 2.000000 2.000000 1.999000 2.002000 0.000000 2.010000 2.014000 0.000000 0.000000 0.000000 0.000000 0.000000 0.000000 
0.000000 0.000000 0.000000 0.000000 0.000000 0.000000 0.000000 0.000000 1.136000 1.136000 1.136000 1.997000 1.998000 1.998000 1.998000 1.998000 1.998000 1.998000 1.998000 1.997000 1.996000 1.996000 1.998000 1.997000 1.990000 2.210000 0.000000 0.000000 0.000000 0.000000 0.000000 0.000000 0.000000 0.000000 0.000000 0.000000 0.000000 0.000000 0.000000 0.000000 
0.000000 0.000000 0.000000 0.000000 0.000000 0.000000 0.000000 0.000000 1.136000 1.136000 1.136000 2.000000 1.998000 1.998000 1.998000 1.996000 1.998000 1.998000 1.998000 1.998000 1.998000 0.000000 0.000000 0.000000 0.000000 0.000000 0.000000 0.000000 0.000000 0.000000 0.000000 0.000000 0.000000 0.000000 0.000000 0.000000 0.000000 0.000000 0.000000 0.000000 
0.000000 0.000000 0.000000 0.000000 0.000000 0.000000 0.000000 0.000000 0.000000 1.136000 1.590000 2.003000 1.998000 1.998000 1.996000 1.996000 1.996000 1.998000 1.998000 0.000000 0.000000 0.000000 0.000000 0.000000 0.000000 0.000000 0.000000 0.000000 0.000000 0.000000 0.000000 0.000000 0.000000 0.000000 0.000000 0.000000 0.000000 0.000000 0.000000 0.000000 
0.000000 0.000000 0.000000 0.000000 0.000000 0.000000 0.000000 0.000000 0.000000 0.000000 0.000000 2.588000 1.996000 1.998000 2.000000 0.000000 0.000000 0.000000 0.000000 0.000000 0.000000 0.000000 0.000000 0.000000 0.000000 0.000000 0.000000 0.000000 0.000000 0.000000 0.000000 0.000000 0.000000 0.000000 0.000000 0.000000 0.000000 0.000000 0.000000 0.000000 
0.000000 0.000000 0.000000 0.000000 0.000000 0.000000 0.000000 0.000000 0.000000 0.000000 0.000000 0.000000 0.000000 0.000000 0.000000 0.000000 0.000000 0.000000 0.000000 0.000000 0.000000 0.000000 0.000000 0.000000 0.000000 0.000000 0.000000 0.000000 0.000000 0.000000 0.000000 0.000000 0.000000 0.000000 0.000000 0.000000 0.000000 0.000000 0.000000 0.000000 
