0.000000,0.000000,0.000000,0.000000,0.000000,0.000000,2.070000,2.067000,2.061000,2.061000,2.060000,2.048000,2.044000,2.034000,2.026000,2.026000,2.026000,2.040000,2.057000,2.076000,2.100000,2.119000,2.138000,2.168000,2.180000,2.202000,2.974000,2.797000,2.745000,2.737000,2.712000,2.688000,2.665000,0.000000,0.000000,0.000000,0.000000,0.000000,0.000000,0.000000,
0.000000,0.000000,0.000000,0.000000,0.000000,0.000000,2.066000,2.067000,2.062000,2.060000,2.055000,2.048000,2.042000,2.035000,2.027000,2.026000,2.026000,2.037000,2.054000,2.070000,2.093000,2.110000,2.133000,2.167000,2.168000,2.193000,2.200000,2.761000,2.738000,2.737000,2.712000,2.700000,2.683000,0.000000,0.000000,0.000000,0.000000,0.000000,0.000000,0.000000,
0.000000,0.000000,0.000000,0.000000,0.000000,0.000000,2.068000,2.070000,2.070000,2.061000,2.051000,2.046000,2.040000,2.033000,2.028000,2.026000,2.026000,2.035000,2.047000,2.067000,2.092000,2.106000,2.135000,2.159000,2.168000,2.183000,2.189000,2.751000,2.737000,2.737000,2.712000,2.707000,2.695000,0.000000,0.000000,0.000000,0.000000,0.000000,0.000000,0.000000,
0.000000,0.000000,0.000000,0.000000,0.000000,0.000000,0.000000,2.066000,2.065000,2.061000,2.053000,2.044000,2.039000,2.031000,2.028000,2.026000,2.026000,2.027000,2.041000,2.055000,2.093000,2.101000,2.130000,2.159000,2.167000,2.177000,2.181000,2.751000,2.737000,2.737000,2.720000,2.712000,2.707000,0.000000,0.000000,0.000000,0.000000,0.000000,0.000000,0.000000,
0.000000,0.000000,0.000000,0.000000,0.000000,0.000000,0.000000,2.064000,2.064000,2.061000,2.051000,2.044000,2.039000,2.032000,2.028000,2.026000,2.024000,2.025000,2.035000,2.048000,2.086000,2.098000,2.118000,2.154000,2.163000,2.170000,2.177000,2.750000,2.737000,2.737000,2.725000,2.720000,2.720000,0.000000,0.000000,0.000000,0.000000,0.000000,0.000000,0.000000,
0.000000,0.000000,0.000000,0.000000,0.000000,0.000000,0.000000,2.064000,2.064000,2.061000,2.050000,2.047000,2.042000,2.036000,2.029000,2.026000,2.021000,2.025000,2.033000,2.047000,2.075000,2.097000,2.116000,2.142000,2.151000,2.171000,2.179000,2.738000,2.726000,2.729000,2.725000,2.725000,2.725000,0.000000,0.000000,0.000000,0.000000,0.000000,0.000000,0.000000,
0.000000,0.000000,0.000000,0.000000,0.000000,0.000000,0.000000,2.064000,2.064000,2.061000,2.050000,2.048000,2.042000,2.034000,2.028000,2.024000,2.021000,2.021000,2.030000,2.046000,2.064000,2.090000,2.112000,2.134000,2.148000,2.167000,2.180000,2.705000,2.726000,2.716000,2.716000,2.716000,2.716000,0.000000,0.000000,0.000000,0.000000,0.000000,0.000000,0.000000,
0.000000,0.000000,0.000000,0.000000,0.000000,0.000000,0.000000,2.064000,2.061000,2.060000,2.050000,2.048000,2.042000,2.033000,2.028000,2.023000,2.018000,2.020000,2.026000,2.044000,2.062000,2.085000,2.100000,2.127000,2.148000,2.163000,2.170000,2.340000,2.717000,2.712000,2.712000,2.704000,2.704000,0.000000,0.000000,0.000000,0.000000,0.000000,0.000000,0.000000,
0.000000,0.000000,0.000000,0.000000,0.000000,0.000000,0.000000,0.000000,2.059000,2.057000,2.049000,2.048000,2.042000,2.033000,2.028000,2.023000,2.017000,2.019000,2.025000,2.039000,2.054000,2.081000,2.094000,2.117000,2.137000,2.160000,2.168000,2.181000,2.713000,2.712000,2.700000,2.700000,2.700000,0.000000,0.000000,0.000000,0.000000,0.000000,0.000000,0.000000,
0.000000,0.000000,0.000000,0.000000,0.000000,0.000000,0.000000,0.000000,2.063000,2.056000,2.048000,2.048000,2.042000,2.033000,2.026000,2.021000,2.020000,2.015000,2.019000,2.034000,2.048000,2.064000,2.086000,2.111000,2.134000,2.155000,2.167000,2.175000,2.704000,2.712000,2.700000,2.688000,2.680000,0.000000,0.000000,0.000000,0.000000,0.000000,0.000000,0.000000,
0.000000,0.000000,0.000000,0.000000,0.000000,0.000000,0.000000,0.000000,2.053000,2.054000,2.048000,2.044000,2.042000,2.033000,2.026000,2.021000,2.018000,2.015000,2.019000,2.031000,2.046000,2.062000,2.076000,2.104000,2.118000,2.143000,2.161000,2.168000,2.293000,2.703000,2.700000,2.677000,2.665000,0.000000,0.000000,0.000000,0.000000,0.000000,0.000000,0.000000,
0.000000,0.000000,0.000000,0.000000,0.000000,0.000000,0.000000,0.000000,2.053000,2.053000,2.048000,2.048000,2.042000,2.033000,2.026000,2.023000,2.015000,2.015000,2.019000,2.025000,2.039000,2.058000,2.069000,2.098000,2.116000,2.141000,2.156000,2.161000,2.168000,2.700000,2.680000,2.665000,2.655000,0.000000,0.000000,0.000000,0.000000,0.000000,0.000000,0.000000,
0.000000,0.000000,0.000000,0.000000,0.000000,0.000000,0.000000,0.000000,0.000000,2.051000,2.048000,2.045000,2.042000,2.036000,2.030000,2.023000,2.017000,2.011000,2.011000,2.020000,2.035000,2.052000,2.063000,2.086000,2.115000,2.136000,2.148000,2.162000,2.168000,2.679000,2.677000,2.665000,2.642000,0.000000,0.000000,0.000000,0.000000,0.000000,0.000000,0.000000,
0.000000,0.000000,0.000000,0.000000,0.000000,0.000000,0.000000,0.000000,0.000000,2.055000,2.050000,2.044000,2.042000,2.034000,2.031000,2.023000,2.017000,2.008000,2.006000,2.014000,2.026000,2.042000,2.053000,2.081000,2.099000,2.134000,2.141000,2.160000,2.162000,2.264000,2.677000,2.653000,2.642000,0.000000,0.000000,0.000000,0.000000,0.000000,0.000000,0.000000,
0.000000,0.000000,0.000000,0.000000,0.000000,0.000000,0.000000,0.000000,0.000000,2.053000,2.048000,2.047000,2.042000,2.033000,2.026000,2.021000,2.020000,2.011000,2.009000,2.014000,2.025000,2.036000,2.051000,2.075000,2.088000,2.123000,2.141000,2.155000,2.161000,2.175000,2.677000,2.653000,2.642000,0.000000,0.000000,0.000000,0.000000,0.000000,0.000000,0.000000,
0.000000,0.000000,0.000000,0.000000,0.000000,0.000000,0.000000,0.000000,0.000000,2.051000,2.048000,2.042000,2.042000,2.035000,2.027000,2.021000,2.021000,2.011000,2.007000,2.009000,2.020000,2.035000,2.048000,2.068000,2.086000,2.105000,2.141000,2.149000,2.156000,2.169000,2.667000,2.653000,2.642000,0.000000,0.000000,0.000000,0.000000,0.000000,0.000000,0.000000,
0.000000,0.000000,0.000000,0.000000,0.000000,0.000000,0.000000,0.000000,0.000000,2.050000,2.045000,2.042000,2.042000,2.039000,2.028000,2.021000,2.021000,2.011000,2.006000,2.005000,2.014000,2.029000,2.042000,2.068000,2.081000,2.104000,2.129000,2.142000,2.155000,2.168000,0.000000,2.654000,2.632000,0.000000,0.000000,0.000000,0.000000,0.000000,0.000000,0.000000,
0.000000,0.000000,0.000000,0.000000,0.000000,0.000000,0.000000,0.000000,0.000000,2.048000,2.044000,2.042000,2.037000,2.037000,2.028000,2.021000,2.015000,2.012000,2.005000,2.005000,2.009000,2.025000,2.036000,2.062000,2.076000,2.093000,2.128000,2.142000,2.150000,2.168000,0.000000,0.000000,2.619000,0.000000,0.000000,0.000000,0.000000,0.000000,0.000000,0.000000,
0.000000,0.000000,0.000000,0.000000,0.000000,0.000000,0.000000,0.000000,0.000000,2.048000,2.048000,2.044000,2.039000,2.031000,2.028000,2.021000,2.015000,2.010000,2.005000,2.000000,2.005000,2.013000,2.031000,2.048000,2.063000,2.092000,2.115000,2.142000,2.143000,0.000000,0.000000,0.000000,2.619000,0.000000,0.000000,0.000000,0.000000,0.000000,0.000000,0.000000,
0.000000,0.000000,0.000000,0.000000,0.000000,0.000000,0.000000,0.000000,0.000000,2.042000,2.048000,2.044000,2.039000,2.033000,2.026000,2.021000,2.017000,2.010000,2.005000,2.001000,2.004000,2.018000,2.025000,2.041000,2.062000,2.082000,2.098000,2.129000,2.142000,2.167000,0.000000,2.143000,0.000000,0.000000,0.000000,0.000000,0.000000,0.000000,0.000000,0.000000,
0.000000,0.000000,0.000000,0.000000,0.000000,0.000000,0.000000,0.000000,0.000000,0.000000,2.042000,2.042000,2.037000,2.033000,2.026000,2.021000,2.015000,2.011000,2.006000,2.000000,2.000000,2.013000,2.025000,2.040000,2.057000,2.076000,2.092000,2.116000,2.148000,2.155000,2.156000,0.000000,0.000000,0.000000,0.000000,0.000000,0.000000,0.000000,0.000000,0.000000,
0.000000,0.000000,0.000000,0.000000,0.000000,0.000000,0.000000,0.000000,0.000000,0.000000,2.042000,2.042000,2.039000,2.028000,2.026000,2.023000,2.017000,2.010000,2.005000,2.000000,2.000000,2.004000,2.014000,2.036000,2.052000,2.069000,2.093000,2.111000,2.141000,2.149000,2.155000,0.000000,0.000000,0.000000,0.000000,0.000000,0.000000,0.000000,0.000000,0.000000,
0.000000,0.000000,0.000000,0.000000,0.000000,0.000000,0.000000,0.000000,0.000000,0.000000,2.037000,2.042000,2.042000,2.033000,2.026000,2.026000,2.021000,2.015000,2.005000,2.001000,2.000000,2.000000,2.014000,2.029000,2.046000,2.063000,2.092000,2.104000,2.141000,2.149000,2.155000,0.000000,0.000000,0.000000,0.000000,0.000000,0.000000,0.000000,0.000000,0.000000,
0.000000,0.000000,0.000000,0.000000,0.000000,0.000000,0.000000,0.000000,0.000000,0.000000,2.064000,2.042000,2.042000,2.037000,2.028000,2.026000,2.021000,2.017000,2.006000,2.001000,2.000000,2.000000,2.013000,2.025000,2.037000,2.058000,2.086000,2.093000,2.135000,2.149000,2.155000,2.161000,0.000000,0.000000,0.000000,0.000000,0.000000,0.000000,0.000000,0.000000,
0.000000,0.000000,0.000000,0.000000,0.000000,0.000000,0.000000,0.000000,0.000000,0.000000,0.000000,2.042000,2.037000,2.028000,2.026000,2.023000,2.017000,2.006000,2.005000,2.001000,1.995000,1.999000,2.004000,2.024000,2.031000,2.061000,2.081000,2.098000,2.129000,2.148000,2.161000,2.240000,0.000000,0.000000,0.000000,0.000000,0.000000,0.000000,0.000000,0.000000,
0.000000,0.000000,0.000000,0.000000,0.000000,0.000000,0.000000,0.000000,0.000000,0.000000,0.000000,2.039000,2.033000,2.026000,2.023000,2.021000,2.017000,2.006000,2.005000,2.001000,2.000000,1.994000,2.004000,2.020000,2.031000,2.056000,2.069000,2.098000,2.129000,2.142000,2.155000,0.000000,0.000000,0.000000,0.000000,0.000000,0.000000,0.000000,0.000000,0.000000,
0.000000,0.000000,0.000000,0.000000,0.000000,0.000000,0.000000,0.000000,0.000000,0.000000,0.000000,2.037000,2.037000,2.030000,2.023000,2.021000,2.015000,2.005000,2.002000,2.000000,1.995000,1.994000,1.999000,2.013000,2.029000,2.050000,2.068000,2.092000,2.110000,2.148000,2.161000,2.168000,0.000000,0.000000,0.000000,0.000000,0.000000,0.000000,0.000000,0.000000,
0.000000,0.000000,0.000000,0.000000,0.000000,0.000000,0.000000,0.000000,0.000000,0.000000,0.000000,0.000000,2.037000,2.033000,2.026000,2.022000,2.017000,2.011000,2.005000,2.000000,1.995000,1.994000,1.999000,2.013000,2.025000,2.040000,2.058000,2.086000,2.104000,2.148000,2.352000,0.000000,0.000000,0.000000,0.000000,0.000000,0.000000,0.000000,0.000000,0.000000,
0.000000,0.000000,0.000000,0.000000,0.000000,0.000000,0.000000,0.000000,0.000000,0.000000,0.000000,0.000000,2.039000,2.028000,2.026000,2.021000,2.017000,2.011000,2.005000,2.000000,2.000000,1.990000,1.989000,2.004000,2.018000,2.036000,2.053000,2.073000,2.101000,0.000000,0.000000,0.000000,0.000000,0.000000,0.000000,0.000000,0.000000,0.000000,0.000000,0.000000,
0.000000,0.000000,0.000000,0.000000,0.000000,0.000000,0.000000,0.000000,0.000000,0.000000,0.000000,0.000000,2.040000,2.028000,2.023000,2.020000,2.014000,2.010000,2.004000,2.000000,1.994000,1.985000,1.984000,1.993000,2.004000,2.034000,2.048000,2.067000,2.341000,0.000000,0.000000,0.000000,0.000000,0.000000,0.000000,0.000000,0.000000,0.000000,0.000000,0.000000,
0.000000,0.000000,0.000000,0.000000,0.000000,0.000000,0.000000,0.000000,0.000000,0.000000,0.000000,0.000000,2.026000,2.026000,2.023000,2.015000,2.010000,2.006000,2.001000,2.000000,1.994000,1.985000,1.984000,1.988000,1.989000,2.036000,2.058000,2.094000,0.000000,0.000000,0.000000,0.000000,0.000000,0.000000,0.000000,0.000000,0.000000,0.000000,0.000000,0.000000,
0.000000,0.000000,0.000000,0.000000,0.000000,0.000000,0.000000,0.000000,0.000000,0.000000,0.000000,0.000000,2.026000,2.026000,2.023000,2.021000,2.012000,2.006000,2.001000,2.000000,1.995000,1.985000,1.984000,1.984000,1.983000,2.054000,2.091000,2.099000,2.100000,0.000000,0.000000,0.000000,0.000000,0.000000,0.000000,0.000000,0.000000,0.000000,0.000000,0.000000,
0.000000,0.000000,0.000000,0.000000,0.000000,0.000000,0.000000,0.000000,0.000000,0.000000,0.000000,0.000000,2.025000,2.026000,2.025000,2.025000,2.020000,2.007000,2.004000,1.995000,1.989000,1.980000,1.979000,1.980000,1.992000,2.058000,2.091000,2.105000,2.105000,2.105000,0.000000,0.000000,0.000000,0.000000,0.000000,0.000000,0.000000,0.000000,0.000000,0.000000,
0.000000,0.000000,0.000000,0.000000,0.000000,0.000000,0.000000,0.000000,0.000000,0.000000,0.000000,0.000000,2.015000,2.021000,2.021000,2.016000,2.008000,2.004000,1.999000,1.992000,1.985000,1.984000,1.984000,1.981000,2.044000,2.058000,2.075000,2.099000,2.104000,2.104000,0.000000,0.000000,0.000000,0.000000,0.000000,0.000000,0.000000,0.000000,0.000000,0.000000,
0.000000,0.000000,0.000000,0.000000,0.000000,0.000000,0.000000,0.000000,0.000000,0.000000,0.000000,0.000000,2.251000,2.019000,2.017000,2.007000,2.005000,2.000000,2.009000,2.070000,2.087000,2.097000,2.134000,2.061000,2.048000,2.052000,2.062000,2.091000,2.099000,2.099000,2.104000,2.104000,2.131000,0.000000,0.000000,0.000000,0.000000,0.000000,0.000000,0.000000,
0.000000,0.000000,0.000000,0.000000,0.000000,0.000000,0.000000,0.000000,0.000000,0.000000,0.000000,0.000000,0.000000,0.000000,2.680000,0.000000,0.000000,0.000000,2.076000,2.081000,2.086000,2.101000,2.126000,2.057000,2.047000,2.048000,2.053000,2.087000,2.093000,2.087000,2.083000,2.091000,2.093000,0.000000,0.000000,0.000000,0.000000,0.000000,0.000000,0.000000,
0.000000,0.000000,0.000000,0.000000,0.000000,0.000000,0.000000,0.000000,0.000000,0.000000,0.000000,0.000000,0.000000,0.000000,0.000000,0.000000,0.000000,2.751000,2.070000,2.079000,2.086000,2.094000,2.115000,2.099000,2.048000,2.046000,2.045000,2.075000,2.079000,2.057000,2.057000,2.086000,2.093000,0.000000,0.000000,0.000000,0.000000,0.000000,0.000000,0.000000,
0.000000,0.000000,0.000000,0.000000,0.000000,0.000000,0.000000,0.000000,0.000000,0.000000,0.000000,0.000000,0.000000,0.000000,0.000000,0.000000,0.000000,0.000000,2.074000,2.077000,2.070000,2.062000,2.053000,2.054000,2.045000,2.035000,2.025000,2.015000,2.015000,2.044000,2.053000,2.076000,2.087000,0.000000,0.000000,0.000000,0.000000,0.000000,0.000000,0.000000,
0.000000,0.000000,0.000000,0.000000,0.000000,0.000000,0.000000,0.000000,0.000000,0.000000,0.000000,0.000000,0.000000,0.000000,0.000000,0.000000,2.605000,2.068000,2.068000,2.067000,2.053000,2.048000,2.041000,2.036000,2.025000,2.019000,2.014000,2.008000,2.013000,2.029000,2.051000,2.068000,2.108000,0.000000,0.000000,0.000000,0.000000,0.000000,0.000000,0.000000,
0.000000,0.000000,0.000000,0.000000,0.000000,0.000000,0.000000,0.000000,0.000000,0.000000,0.000000,0.000000,0.000000,0.000000,0.000000,0.000000,2.063000,2.064000,2.063000,2.053000,2.049000,2.043000,2.036000,2.027000,2.021000,2.015000,2.005000,2.005000,2.010000,2.026000,2.037000,2.059000,0.000000,0.000000,0.000000,0.000000,0.000000,0.000000,0.000000,0.000000,
