0.000000,0.000000,0.000000,0.000000,0.000000,0.000000,0.000000,0.000000,0.000000,0.000000,0.000000,0.000000,0.000000,0.000000,0.000000,0.000000,0.000000,0.000000,0.000000,0.000000,0.000000,0.000000,0.000000,0.000000,0.000000,0.000000,0.000000,0.000000,0.000000,0.000000,0.000000,0.000000,0.000000,0.000000,0.000000,0.000000,0.000000,0.000000,0.000000,0.000000,
0.000000,0.000000,0.000000,0.000000,0.000000,0.000000,0.000000,0.000000,0.000000,0.000000,0.000000,0.000000,0.000000,0.000000,0.000000,0.000000,0.000000,0.000000,0.000000,0.000000,0.000000,0.000000,0.000000,0.000000,0.000000,0.000000,0.000000,0.000000,0.000000,0.000000,0.000000,0.000000,0.000000,0.000000,0.000000,0.000000,0.000000,0.000000,0.000000,0.000000,
0.000000,0.000000,0.000000,0.000000,0.000000,0.000000,0.000000,0.000000,0.000000,0.000000,0.000000,0.000000,0.000000,0.000000,0.000000,0.000000,0.000000,0.000000,0.000000,0.000000,0.000000,0.000000,0.000000,0.000000,0.000000,0.000000,0.000000,0.000000,0.000000,0.000000,0.000000,0.000000,0.000000,0.000000,0.000000,0.000000,0.000000,0.000000,0.000000,0.000000,
0.000000,0.000000,0.000000,0.000000,0.000000,0.000000,0.000000,0.000000,0.000000,0.000000,0.000000,0.000000,0.000000,0.000000,0.000000,0.000000,0.000000,0.000000,0.000000,0.000000,0.000000,0.000000,0.000000,0.000000,0.000000,0.000000,0.000000,0.000000,0.000000,0.000000,0.000000,0.000000,0.000000,0.000000,0.000000,0.000000,0.000000,0.000000,0.000000,0.000000,
0.000000,0.000000,0.000000,0.000000,0.000000,0.000000,0.000000,0.000000,0.000000,0.000000,0.000000,0.000000,0.000000,0.000000,0.000000,0.000000,0.000000,0.000000,0.000000,0.000000,0.000000,0.000000,0.000000,0.000000,0.000000,0.000000,0.000000,0.000000,0.000000,0.000000,0.000000,0.000000,0.000000,0.000000,0.000000,0.000000,0.000000,0.000000,0.000000,0.000000,
0.000000,0.000000,0.000000,0.000000,0.000000,0.000000,0.000000,0.000000,0.000000,0.000000,0.000000,0.000000,0.000000,0.000000,0.000000,0.000000,0.000000,0.000000,0.000000,0.000000,0.000000,0.000000,0.000000,0.000000,0.000000,0.000000,0.000000,0.000000,0.000000,0.000000,0.000000,0.000000,0.000000,0.000000,0.000000,0.000000,0.000000,0.000000,0.000000,0.000000,
0.000000,0.000000,0.000000,0.000000,0.000000,0.000000,0.000000,0.000000,0.000000,0.000000,0.000000,0.000000,0.000000,0.000000,0.000000,0.000000,0.000000,0.000000,0.000000,0.000000,0.000000,0.000000,0.000000,0.000000,0.000000,0.000000,0.000000,0.000000,0.000000,0.000000,0.000000,0.000000,0.000000,0.000000,0.000000,0.000000,0.000000,0.000000,0.000000,0.000000,
0.000000,0.000000,0.000000,0.000000,0.000000,0.000000,0.000000,0.000000,0.000000,0.000000,0.000000,0.000000,0.000000,0.000000,0.000000,0.000000,0.000000,0.000000,0.000000,0.000000,0.000000,0.000000,0.000000,0.000000,0.000000,0.000000,0.000000,0.000000,0.000000,0.000000,0.000000,0.000000,0.000000,0.000000,0.000000,0.000000,0.000000,0.000000,0.000000,0.000000,
0.000000,0.000000,0.000000,0.000000,0.000000,0.000000,0.000000,0.000000,0.000000,0.000000,0.000000,0.000000,0.000000,0.000000,0.000000,0.000000,0.000000,0.000000,0.000000,0.000000,0.000000,0.000000,0.000000,0.000000,0.000000,0.000000,0.000000,0.000000,0.000000,0.000000,0.000000,0.000000,0.000000,0.000000,0.000000,0.000000,0.000000,0.000000,0.000000,0.000000,
2.186000,2.191000,2.191000,2.191000,2.191000,1.897000,1.352000,1.352000,1.352000,1.350000,1.329000,1.321000,1.318000,1.297000,1.290000,1.290000,1.290000,1.290000,1.290000,1.290000,1.274000,1.260000,1.260000,1.243000,1.230000,1.230000,1.230000,1.221000,1.202000,1.201000,1.191000,1.172000,1.172000,1.162000,1.144000,1.144000,1.144000,1.144000,1.144000,1.144000,
2.186000,2.175000,2.165000,2.165000,2.165000,2.024000,1.761000,1.761000,1.761000,1.760000,1.750000,1.565000,1.319000,1.309000,1.306000,1.306000,1.306000,1.306000,1.370000,1.609000,1.664000,1.673000,1.690000,1.684000,1.684000,1.701000,1.687000,1.667000,1.641000,1.624000,1.468000,1.172000,1.172000,1.162000,1.144000,1.144000,1.144000,1.144000,1.144000,1.144000,
2.177000,2.156000,2.141000,2.141000,2.141000,2.138000,2.131000,2.131000,2.131000,2.131000,2.131000,1.847000,1.464000,1.458000,1.452000,1.447000,1.447000,1.447000,1.547000,1.923000,2.020000,2.047000,2.079000,2.084000,2.094000,2.120000,2.093000,2.063000,2.038000,2.007000,1.770000,1.327000,1.327000,1.319000,1.305000,1.311000,1.314000,1.313000,1.307000,1.305000,
2.145000,2.143000,2.141000,2.141000,2.141000,2.126000,2.099000,2.099000,2.099000,2.099000,2.099000,2.039000,1.953000,1.926000,1.899000,1.877000,1.877000,1.877000,1.900000,1.983000,2.003000,2.016000,2.047000,2.052000,2.053000,2.057000,2.029000,2.010000,2.006000,1.976000,1.927000,1.859000,1.859000,1.858000,1.858000,1.885000,1.895000,1.892000,1.865000,1.856000,
2.139000,2.141000,2.141000,2.141000,2.123000,2.107000,2.093000,2.093000,2.083000,2.067000,2.067000,2.058000,2.041000,2.010000,1.991000,1.976000,1.959000,1.955000,1.959000,1.972000,1.988000,2.004000,2.018000,2.020000,2.020000,2.020000,2.008000,2.000000,2.000000,1.971000,1.955000,1.955000,1.955000,1.955000,1.957000,1.988000,2.000000,1.996000,1.965000,1.955000,
2.139000,2.141000,2.137000,2.130000,2.105000,2.089000,2.082000,2.082000,2.068000,2.045000,2.038000,2.035000,2.031000,2.008000,1.995000,1.984000,1.961000,1.955000,1.955000,1.955000,1.979000,2.000000,2.000000,2.000000,2.000000,2.000000,2.000000,1.997000,1.990000,1.967000,1.955000,1.955000,1.955000,1.955000,1.957000,1.980000,1.989000,1.985000,1.955000,1.945000,
2.139000,2.141000,2.127000,2.097000,2.094000,2.078000,2.050000,2.050000,2.048000,2.043000,2.015000,2.004000,2.003000,2.001000,1.981000,1.958000,1.956000,1.955000,1.955000,1.955000,1.979000,2.000000,2.000000,2.000000,2.000000,2.000000,2.000000,1.988000,1.960000,1.956000,1.955000,1.955000,1.955000,1.955000,1.955000,1.958000,1.959000,1.955000,1.925000,1.915000,
2.139000,2.141000,2.126000,2.093000,2.074000,2.058000,2.046000,2.046000,2.046000,2.043000,2.012000,2.000000,2.000000,2.000000,1.979000,1.955000,1.955000,1.955000,1.955000,1.955000,1.979000,2.000000,2.000000,2.000000,2.000000,2.000000,1.984000,1.968000,1.955000,1.955000,1.955000,1.955000,1.955000,1.955000,1.955000,1.955000,1.955000,1.951000,1.921000,1.911000,
2.139000,2.141000,2.126000,2.093000,2.061000,2.046000,2.046000,2.037000,2.033000,2.032000,2.018000,2.007000,2.000000,2.000000,1.985000,1.966000,1.957000,1.955000,1.955000,1.955000,1.979000,1.997000,1.989000,1.988000,1.988000,1.988000,1.968000,1.955000,1.955000,1.955000,1.951000,1.943000,1.943000,1.947000,1.954000,1.946000,1.943000,1.940000,1.918000,1.911000,
2.139000,2.141000,2.126000,2.093000,2.061000,2.046000,2.045000,2.015000,2.002000,2.005000,2.033000,2.025000,2.000000,2.000000,1.999000,1.992000,1.963000,1.955000,1.955000,1.955000,1.979000,1.991000,1.961000,1.957000,1.957000,1.957000,1.956000,1.955000,1.955000,1.955000,1.941000,1.913000,1.913000,1.929000,1.953000,1.924000,1.913000,1.913000,1.911000,1.911000,
2.110000,2.111000,2.096000,2.064000,2.052000,2.046000,2.045000,2.013000,2.000000,2.001000,2.013000,2.010000,1.997000,1.978000,1.972000,1.969000,1.958000,1.955000,1.955000,1.955000,1.979000,1.990000,1.960000,1.955000,1.955000,1.955000,1.955000,1.955000,1.955000,1.955000,1.940000,1.911000,1.911000,1.917000,1.926000,1.915000,1.911000,1.911000,1.911000,1.911000,
2.093000,2.093000,2.078000,2.046000,2.046000,2.041000,2.031000,2.009000,2.000000,2.000000,2.000000,1.994000,1.983000,1.962000,1.955000,1.955000,1.955000,1.955000,1.955000,1.955000,1.972000,1.979000,1.958000,1.963000,1.965000,1.956000,1.955000,1.955000,1.955000,1.955000,1.945000,1.925000,1.915000,1.911000,1.911000,1.911000,1.911000,1.911000,1.911000,1.911000,
2.093000,2.093000,2.078000,2.046000,2.046000,2.030000,2.000000,2.000000,2.000000,2.000000,2.000000,1.981000,1.955000,1.955000,1.955000,1.955000,1.955000,1.955000,1.955000,1.955000,1.955000,1.955000,1.955000,1.981000,1.988000,1.958000,1.955000,1.955000,1.955000,1.955000,1.955000,1.954000,1.924000,1.911000,1.911000,1.911000,1.911000,1.911000,1.911000,1.911000,
2.092000,2.093000,2.078000,2.046000,2.046000,2.030000,2.000000,2.000000,1.988000,1.970000,1.970000,1.951000,1.925000,1.925000,1.925000,1.921000,1.902000,1.897000,1.902000,1.921000,1.941000,1.955000,1.955000,1.981000,1.988000,1.958000,1.955000,1.955000,1.955000,1.955000,1.955000,1.954000,1.925000,1.911000,1.911000,1.911000,1.911000,1.911000,1.911000,1.911000,
2.075000,2.077000,2.067000,2.046000,2.035000,2.019000,2.000000,2.000000,1.983000,1.955000,1.955000,1.936000,1.911000,1.911000,1.911000,1.905000,1.876000,1.868000,1.876000,1.905000,1.935000,1.955000,1.955000,1.981000,1.988000,1.958000,1.955000,1.955000,1.955000,1.955000,1.955000,1.954000,1.925000,1.911000,1.911000,1.911000,1.911000,1.911000,1.911000,1.904000,
2.046000,2.046000,2.046000,2.046000,2.015000,2.000000,2.000000,1.999000,1.982000,1.955000,1.955000,1.936000,1.911000,1.911000,1.910000,1.904000,1.875000,1.869000,1.877000,1.905000,1.935000,1.955000,1.955000,1.980000,1.987000,1.958000,1.955000,1.955000,1.954000,1.953000,1.952000,1.952000,1.922000,1.908000,1.909000,1.909000,1.910000,1.910000,1.910000,1.891000,
2.044000,2.046000,2.046000,2.046000,2.015000,2.000000,1.999000,1.977000,1.963000,1.955000,1.955000,1.936000,1.911000,1.911000,1.897000,1.879000,1.870000,1.883000,1.901000,1.909000,1.935000,1.955000,1.955000,1.963000,1.965000,1.956000,1.955000,1.946000,1.925000,1.904000,1.893000,1.893000,1.864000,1.851000,1.852000,1.872000,1.881000,1.881000,1.881000,1.875000,
2.044000,2.046000,2.046000,2.046000,2.015000,2.000000,1.999000,1.968000,1.955000,1.955000,1.955000,1.936000,1.911000,1.911000,1.891000,1.868000,1.868000,1.890000,1.914000,1.926000,1.943000,1.955000,1.955000,1.955000,1.951000,1.939000,1.938000,1.930000,1.912000,1.883000,1.868000,1.867000,1.839000,1.826000,1.827000,1.845000,1.852000,1.853000,1.864000,1.868000,
2.044000,2.044000,2.043000,2.043000,2.014000,2.000000,1.999000,1.968000,1.955000,1.955000,1.955000,1.938000,1.914000,1.912000,1.892000,1.871000,1.873000,1.894000,1.921000,1.949000,1.955000,1.954000,1.952000,1.952000,1.941000,1.911000,1.908000,1.909000,1.911000,1.883000,1.868000,1.867000,1.839000,1.826000,1.826000,1.826000,1.826000,1.830000,1.858000,1.868000,
2.042000,2.024000,2.012000,2.012000,2.004000,2.000000,1.999000,1.968000,1.955000,1.955000,1.955000,1.950000,1.940000,1.918000,1.906000,1.905000,1.927000,1.938000,1.946000,1.953000,1.955000,1.948000,1.925000,1.922000,1.911000,1.882000,1.879000,1.888000,1.910000,1.883000,1.868000,1.867000,1.839000,1.826000,1.826000,1.826000,1.826000,1.830000,1.858000,1.868000,
2.042000,2.017000,2.000000,2.000000,2.000000,2.000000,1.999000,1.968000,1.955000,1.955000,1.955000,1.955000,1.952000,1.935000,1.930000,1.933000,1.951000,1.955000,1.955000,1.955000,1.955000,1.945000,1.915000,1.911000,1.900000,1.871000,1.868000,1.881000,1.910000,1.895000,1.886000,1.886000,1.857000,1.844000,1.844000,1.844000,1.844000,1.844000,1.849000,1.850000,
2.042000,2.017000,2.000000,2.000000,2.000000,2.000000,1.999000,1.968000,1.955000,1.955000,1.955000,1.955000,1.955000,1.955000,1.955000,1.955000,1.955000,1.955000,1.955000,1.955000,1.955000,1.945000,1.915000,1.911000,1.900000,1.871000,1.868000,1.881000,1.910000,1.911000,1.911000,1.910000,1.881000,1.868000,1.868000,1.868000,1.868000,1.864000,1.836000,1.826000,
0.000000,0.000000,0.000000,0.000000,0.000000,0.000000,0.000000,0.000000,0.000000,0.000000,0.000000,0.000000,0.000000,0.000000,0.000000,0.000000,0.000000,0.000000,0.000000,0.000000,0.000000,0.000000,0.000000,0.000000,0.000000,0.000000,0.000000,0.000000,0.000000,0.000000,0.000000,0.000000,0.000000,0.000000,0.000000,0.000000,0.000000,0.000000,0.000000,0.000000,
0.000000,0.000000,0.000000,0.000000,0.000000,0.000000,0.000000,0.000000,0.000000,0.000000,0.000000,0.000000,0.000000,0.000000,0.000000,0.000000,0.000000,0.000000,0.000000,0.000000,0.000000,0.000000,0.000000,0.000000,0.000000,0.000000,0.000000,0.000000,0.000000,0.000000,0.000000,0.000000,0.000000,0.000000,0.000000,0.000000,0.000000,0.000000,0.000000,0.000000,
0.000000,0.000000,0.000000,0.000000,0.000000,0.000000,0.000000,0.000000,0.000000,0.000000,0.000000,0.000000,0.000000,0.000000,0.000000,0.000000,0.000000,0.000000,0.000000,0.000000,0.000000,0.000000,0.000000,0.000000,0.000000,0.000000,0.000000,0.000000,0.000000,0.000000,0.000000,0.000000,0.000000,0.000000,0.000000,0.000000,0.000000,0.000000,0.000000,0.000000,
0.000000,0.000000,0.000000,0.000000,0.000000,0.000000,0.000000,0.000000,0.000000,0.000000,0.000000,0.000000,0.000000,0.000000,0.000000,0.000000,0.000000,0.000000,0.000000,0.000000,0.000000,0.000000,0.000000,0.000000,0.000000,0.000000,0.000000,0.000000,0.000000,0.000000,0.000000,0.000000,0.000000,0.000000,0.000000,0.000000,0.000000,0.000000,0.000000,0.000000,
0.000000,0.000000,0.000000,0.000000,0.000000,0.000000,0.000000,0.000000,0.000000,0.000000,0.000000,0.000000,0.000000,0.000000,0.000000,0.000000,0.000000,0.000000,0.000000,0.000000,0.000000,0.000000,0.000000,0.000000,0.000000,0.000000,0.000000,0.000000,0.000000,0.000000,0.000000,0.000000,0.000000,0.000000,0.000000,0.000000,0.000000,0.000000,0.000000,0.000000,
0.000000,0.000000,0.000000,0.000000,0.000000,0.000000,0.000000,0.000000,0.000000,0.000000,0.000000,0.000000,0.000000,0.000000,0.000000,0.000000,0.000000,0.000000,0.000000,0.000000,0.000000,0.000000,0.000000,0.000000,0.000000,0.000000,0.000000,0.000000,0.000000,0.000000,0.000000,0.000000,0.000000,0.000000,0.000000,0.000000,0.000000,0.000000,0.000000,0.000000,
0.000000,0.000000,0.000000,0.000000,0.000000,0.000000,0.000000,0.000000,0.000000,0.000000,0.000000,0.000000,0.000000,0.000000,0.000000,0.000000,0.000000,0.000000,0.000000,0.000000,0.000000,0.000000,0.000000,0.000000,0.000000,0.000000,0.000000,0.000000,0.000000,0.000000,0.000000,0.000000,0.000000,0.000000,0.000000,0.000000,0.000000,0.000000,0.000000,0.000000,
0.000000,0.000000,0.000000,0.000000,0.000000,0.000000,0.000000,0.000000,0.000000,0.000000,0.000000,0.000000,0.000000,0.000000,0.000000,0.000000,0.000000,0.000000,0.000000,0.000000,0.000000,0.000000,0.000000,0.000000,0.000000,0.000000,0.000000,0.000000,0.000000,0.000000,0.000000,0.000000,0.000000,0.000000,0.000000,0.000000,0.000000,0.000000,0.000000,0.000000,
0.000000,0.000000,0.000000,0.000000,0.000000,0.000000,0.000000,0.000000,0.000000,0.000000,0.000000,0.000000,0.000000,0.000000,0.000000,0.000000,0.000000,0.000000,0.000000,0.000000,0.000000,0.000000,0.000000,0.000000,0.000000,0.000000,0.000000,0.000000,0.000000,0.000000,0.000000,0.000000,0.000000,0.000000,0.000000,0.000000,0.000000,0.000000,0.000000,0.000000,
