40 40
0.000000 0.000000 0.000000 0.000000 0.000000 0.000000 0.000000 0.000000 0.000000 0.000000 0.000000 0.000000 0.000000 0.000000 0.000000 0.000000 2.076000 2.085000 2.085000 1.827000 0.000000 0.000000 0.000000 0.000000 0.000000 0.000000 0.000000 0.000000 0.000000 0.000000 0.000000 0.000000 0.000000 0.000000 0.000000 0.000000 0.000000 0.000000 0.000000 0.000000 
0.000000 0.000000 0.000000 0.000000 0.000000 0.000000 0.000000 0.000000 0.000000 0.000000 0.000000 0.000000 0.000000 0.000000 0.000000 0.000000 2.083000 2.086000 2.076000 0.000000 0.000000 0.000000 1.294000 1.495000 1.511000 0.000000 0.000000 0.000000 0.000000 0.000000 0.000000 0.000000 0.000000 0.000000 0.000000 0.000000 0.000000 0.000000 0.000000 0.000000 
0.000000 0.000000 0.000000 0.000000 0.000000 0.000000 0.000000 0.000000 0.000000 0.000000 0.000000 0.000000 1.590000 0.000000 1.162000 2.080000 2.081000 2.075000 2.074000 2.072000 0.000000 1.989000 1.989000 2.009000 2.010000 2.366000 0.000000 0.000000 0.000000 0.000000 0.000000 0.000000 0.000000 0.000000 0.000000 0.000000 0.000000 0.000000 0.000000 0.000000 
0.000000 0.000000 0.000000 0.000000 0.000000 0.000000 0.000000 0.000000 0.000000 0.000000 0.000000 0.000000 0.000000 1.989000 1.995000 2.000000 2.013000 2.025000 2.006000 1.979000 1.979000 1.979000 1.979000 1.986000 1.994000 2.194000 0.000000 0.000000 0.000000 0.000000 0.000000 0.000000 0.000000 0.000000 0.000000 0.000000 0.000000 0.000000 0.000000 0.000000 
0.000000 0.000000 0.000000 0.000000 0.000000 0.000000 2.263000 1.981000 1.979000 1.979000 1.981000 1.991000 1.990000 1.989000 1.989000 1.981000 1.981000 1.982000 1.978000 1.970000 1.979000 1.979000 1.979000 1.979000 1.979000 1.979000 1.974000 1.969000 1.969000 1.969000 1.949000 2.172000 0.000000 0.000000 0.000000 0.000000 0.000000 0.000000 0.000000 0.000000 
0.000000 0.000000 0.000000 0.000000 0.000000 0.000000 1.996000 1.979000 1.979000 1.982000 1.982000 1.984000 1.979000 1.984000 1.969000 1.969000 1.972000 1.971000 1.969000 1.969000 1.979000 1.979000 1.979000 1.979000 1.986000 1.989000 1.984000 1.979000 1.979000 1.979000 1.975000 1.978000 0.000000 0.000000 0.000000 0.000000 0.000000 0.000000 0.000000 0.000000 
0.000000 0.000000 0.000000 0.000000 0.000000 0.000000 1.979000 1.979000 1.979000 1.989000 1.989000 1.979000 1.979000 1.972000 1.969000 1.969000 1.969000 1.969000 1.969000 1.969000 1.979000 1.979000 1.979000 1.981000 1.988000 1.989000 1.984000 1.979000 1.979000 1.979000 1.989000 2.002000 2.862000 0.000000 0.000000 0.000000 0.000000 0.000000 0.000000 0.000000 
0.000000 0.000000 0.000000 0.000000 0.000000 0.000000 1.991000 1.989000 1.979000 1.979000 1.979000 1.979000 1.979000 1.970000 1.974000 1.969000 1.969000 1.969000 1.971000 1.978000 1.979000 1.979000 1.988000 1.989000 1.989000 1.989000 1.988000 1.988000 1.979000 1.979000 2.001000 2.023000 2.042000 0.000000 0.000000 0.000000 0.000000 0.000000 0.000000 0.000000 
0.000000 0.000000 0.000000 0.000000 0.000000 0.000000 2.006000 1.989000 1.979000 1.979000 1.979000 1.979000 1.979000 1.979000 1.974000 1.969000 1.969000 1.969000 1.969000 1.969000 1.979000 1.979000 1.983000 1.989000 1.989000 1.989000 1.984000 1.979000 1.982000 1.979000 1.993000 2.017000 2.048000 0.000000 0.000000 0.000000 0.000000 0.000000 0.000000 0.000000 
0.000000 0.000000 0.000000 0.000000 0.000000 0.000000 2.016000 1.993000 1.979000 1.979000 1.979000 1.979000 1.979000 1.979000 1.979000 1.979000 1.979000 1.979000 1.979000 1.979000 1.979000 1.979000 1.979000 1.989000 1.989000 1.988000 1.979000 1.979000 1.985000 1.979000 1.993000 2.017000 2.053000 0.000000 0.000000 0.000000 0.000000 0.000000 0.000000 0.000000 
0.000000 0.000000 0.000000 0.000000 0.000000 0.000000 2.001000 1.992000 1.979000 1.979000 1.979000 1.979000 1.979000 1.979000 1.979000 1.979000 1.979000 1.987000 1.987000 1.979000 1.989000 1.989000 1.989000 1.992000 1.989000 1.988000 1.983000 1.979000 1.983000 1.979000 1.991000 2.013000 2.053000 0.000000 0.000000 0.000000 0.000000 0.000000 0.000000 0.000000 
0.000000 0.000000 0.000000 0.000000 0.000000 0.000000 1.981000 1.986000 1.987000 1.987000 1.987000 1.987000 1.987000 1.979000 1.979000 1.979000 1.982000 1.989000 1.994000 1.979000 1.989000 1.989000 1.989000 1.997000 1.989000 1.989000 1.989000 1.980000 1.982000 1.987000 2.000000 2.016000 2.028000 0.000000 0.000000 0.000000 0.000000 0.000000 0.000000 0.000000 
0.000000 0.000000 0.000000 0.000000 0.000000 0.000000 1.979000 1.987000 2.000000 2.000000 1.990000 1.989000 1.989000 1.979000 1.979000 1.979000 1.983000 1.981000 1.979000 1.979000 1.989000 1.989000 1.989000 1.989000 1.989000 1.990000 1.999000 1.992000 1.990000 1.989000 2.002000 2.017000 2.021000 0.000000 0.000000 0.000000 0.000000 0.000000 0.000000 0.000000 
0.000000 0.000000 0.000000 0.000000 0.000000 0.000000 1.985000 1.994000 2.000000 2.000000 1.996000 1.989000 1.989000 1.985000 1.985000 1.985000 1.987000 1.986000 1.979000 1.979000 1.989000 1.989000 1.989000 1.989000 1.989000 1.989000 1.991000 2.000000 1.998000 1.996000 2.001000 2.010000 2.014000 0.000000 0.000000 0.000000 0.000000 0.000000 0.000000 0.000000 
0.000000 0.000000 0.000000 0.000000 0.000000 0.000000 1.989000 1.996000 2.000000 1.995000 1.989000 1.989000 1.989000 1.989000 1.989000 1.989000 1.989000 1.989000 1.979000 1.979000 1.989000 1.989000 1.989000 1.989000 1.989000 1.989000 1.989000 1.989000 1.993000 2.000000 2.000000 2.006000 2.021000 0.000000 0.000000 0.000000 0.000000 0.000000 0.000000 0.000000 
0.000000 0.000000 0.000000 0.000000 0.000000 0.000000 1.989000 1.996000 2.000000 1.995000 1.989000 1.989000 1.997000 1.989000 1.989000 1.989000 1.989000 1.989000 1.989000 1.989000 1.989000 1.989000 1.989000 1.990000 1.998000 1.998000 1.979000 1.984000 1.989000 1.998000 2.007000 2.015000 2.030000 0.000000 0.000000 0.000000 0.000000 0.000000 0.000000 0.000000 
0.000000 0.000000 0.000000 0.000000 0.000000 0.000000 1.972000 1.983000 2.000000 1.990000 1.989000 1.989000 1.997000 1.997000 1.989000 1.989000 1.989000 1.996000 1.997000 1.989000 1.999000 1.994000 1.989000 1.999000 2.000000 1.990000 1.983000 1.979000 1.989000 1.998000 2.012000 2.021000 2.042000 0.000000 0.000000 0.000000 0.000000 0.000000 0.000000 0.000000 
0.000000 0.000000 0.000000 0.000000 0.000000 0.000000 1.972000 1.981000 1.989000 1.989000 1.987000 1.988000 1.998000 2.000000 2.000000 2.000000 2.000000 1.991000 1.988000 1.991000 2.000000 1.995000 1.989000 2.000000 2.000000 1.989000 1.989000 1.989000 1.989000 1.998000 2.004000 2.026000 2.042000 0.000000 0.000000 0.000000 0.000000 0.000000 0.000000 0.000000 
0.000000 0.000000 0.000000 0.000000 0.000000 0.000000 1.979000 1.979000 1.989000 1.989000 1.980000 1.983000 1.998000 2.000000 2.000000 1.993000 1.992000 1.996000 1.987000 1.979000 2.000000 1.999000 1.997000 2.007000 2.002000 1.996000 1.989000 1.989000 1.992000 1.999000 2.010000 2.021000 2.042000 0.000000 0.000000 0.000000 0.000000 0.000000 0.000000 0.000000 
0.000000 0.000000 0.000000 0.000000 0.000000 0.000000 2.000000 2.000000 2.000000 2.000000 1.991000 1.990000 1.989000 2.000000 2.000000 1.991000 1.990000 1.998000 1.990000 1.990000 2.000000 2.000000 2.000000 2.010000 2.010000 2.008000 2.000000 1.991000 1.994000 2.000000 2.002000 2.023000 2.042000 0.000000 0.000000 0.000000 0.000000 0.000000 0.000000 0.000000 
0.000000 0.000000 0.000000 0.000000 0.000000 0.000000 2.000000 2.000000 2.000000 2.000000 2.000000 1.999000 1.991000 1.995000 2.000000 2.000000 2.000000 2.000000 2.000000 2.000000 2.000000 2.000000 2.000000 2.010000 2.010000 2.000000 2.000000 2.000000 2.000000 2.000000 2.007000 2.026000 2.042000 0.000000 0.000000 0.000000 0.000000 0.000000 0.000000 0.000000 
0.000000 0.000000 0.000000 0.000000 0.000000 0.000000 2.000000 2.000000 2.000000 2.000000 2.000000 1.990000 1.989000 1.990000 2.000000 2.000000 2.000000 1.992000 1.990000 1.990000 2.000000 2.000000 2.000000 2.010000 2.010000 2.000000 2.000000 2.000000 2.000000 2.000000 2.012000 2.028000 2.042000 0.000000 0.000000 0.000000 0.000000 0.000000 0.000000 0.000000 
0.000000 0.000000 0.000000 0.000000 0.000000 0.000000 2.000000 2.000000 2.000000 2.000000 2.000000 1.993000 1.993000 1.992000 1.989000 1.989000 1.993000 1.994000 1.992000 1.989000 2.000000 2.006000 2.010000 2.010000 2.010000 2.009000 2.004000 2.000000 2.000000 2.000000 2.004000 2.034000 2.042000 0.000000 0.000000 0.000000 0.000000 0.000000 0.000000 0.000000 
0.000000 0.000000 0.000000 0.000000 0.000000 0.000000 2.000000 2.000000 2.000000 2.000000 2.000000 2.000000 2.000000 1.990000 1.981000 1.989000 1.993000 2.000000 1.991000 1.989000 2.000000 2.010000 2.010000 2.010000 2.010000 2.010000 2.010000 2.008000 2.008000 2.008000 2.010000 2.034000 2.051000 0.000000 0.000000 0.000000 0.000000 0.000000 0.000000 0.000000 
0.000000 0.000000 0.000000 0.000000 0.000000 0.000000 2.000000 2.000000 2.000000 2.000000 2.000000 2.000000 2.000000 1.990000 1.981000 1.989000 1.994000 2.000000 1.991000 1.997000 2.002000 2.010000 2.010000 2.010000 2.010000 2.010000 2.010000 2.010000 2.010000 2.010000 2.012000 2.039000 2.053000 0.000000 0.000000 0.000000 0.000000 0.000000 0.000000 0.000000 
0.000000 0.000000 0.000000 0.000000 0.000000 0.000000 2.000000 2.000000 2.000000 2.000000 2.000000 2.000000 2.000000 1.999000 1.989000 1.995000 2.000000 2.000000 2.000000 2.000000 2.010000 2.010000 2.010000 2.010000 2.010000 2.010000 2.010000 2.010000 2.008000 2.004000 2.012000 2.034000 2.053000 0.000000 0.000000 0.000000 0.000000 0.000000 0.000000 0.000000 
0.000000 0.000000 0.000000 0.000000 0.000000 0.000000 2.000000 2.000000 2.000000 2.000000 2.000000 2.000000 2.000000 1.999000 1.989000 1.999000 2.000000 2.000000 2.000000 2.000000 2.010000 2.010000 2.010000 2.021000 2.013000 2.010000 2.010000 2.010000 2.000000 2.000000 2.014000 2.038000 2.053000 0.000000 0.000000 0.000000 0.000000 0.000000 0.000000 0.000000 
0.000000 0.000000 0.000000 0.000000 0.000000 0.000000 2.010000 2.007000 2.000000 2.000000 2.000000 2.000000 2.000000 2.000000 2.000000 2.000000 2.000000 2.008000 2.000000 2.000000 2.010000 2.010000 2.010000 2.013000 2.013000 2.010000 2.010000 2.010000 2.000000 2.000000 2.013000 2.034000 2.053000 0.000000 0.000000 0.000000 0.000000 0.000000 0.000000 0.000000 
0.000000 0.000000 0.000000 0.000000 0.000000 0.000000 2.010000 2.010000 2.000000 2.000000 2.000000 2.000000 2.000000 2.000000 2.000000 2.000000 2.009000 2.010000 2.007000 2.000000 2.010000 2.010000 2.010000 2.013000 2.013000 2.010000 2.010000 2.010000 2.009000 2.009000 2.012000 2.028000 2.053000 0.000000 0.000000 0.000000 0.000000 0.000000 0.000000 0.000000 
0.000000 0.000000 0.000000 0.000000 0.000000 0.000000 0.000000 2.003000 2.000000 2.000000 2.000000 2.007000 2.002000 2.000000 2.000000 2.000000 2.000000 2.008000 2.009000 2.003000 2.010000 2.010000 2.013000 2.015000 2.015000 2.013000 2.013000 2.013000 2.012000 2.010000 2.012000 2.028000 2.053000 0.000000 0.000000 0.000000 0.000000 0.000000 0.000000 0.000000 
0.000000 0.000000 0.000000 0.000000 0.000000 0.000000 2.604000 2.000000 2.000000 2.000000 2.000000 2.000000 2.000000 2.000000 2.000000 2.000000 2.000000 2.008000 2.010000 2.010000 2.010000 2.010000 2.020000 2.013000 2.019000 2.021000 2.021000 2.021000 2.017000 2.010000 2.012000 2.037000 2.061000 0.000000 0.000000 0.000000 0.000000 0.000000 0.000000 0.000000 
0.000000 0.000000 0.000000 0.000000 0.000000 0.000000 2.001000 2.006000 2.010000 2.006000 2.001000 2.000000 2.000000 2.000000 2.000000 2.000000 2.000000 2.007000 2.007000 2.000000 2.010000 2.010000 2.010000 2.010000 2.018000 2.021000 2.020000 2.020000 2.017000 2.011000 2.015000 2.045000 2.076000 0.000000 0.000000 0.000000 0.000000 0.000000 0.000000 0.000000 
0.000000 0.000000 0.000000 0.000000 0.000000 0.000000 2.004000 2.000000 2.010000 2.010000 2.010000 2.004000 2.000000 2.000000 2.000000 2.000000 2.000000 2.000000 2.000000 2.000000 2.010000 2.013000 2.016000 2.017000 2.021000 2.020000 2.012000 2.010000 2.012000 2.020000 2.022000 2.043000 2.082000 0.000000 0.000000 0.000000 0.000000 0.000000 0.000000 0.000000 
0.000000 0.000000 0.000000 0.000000 0.000000 0.000000 2.007000 2.000000 2.010000 2.010000 2.010000 2.010000 2.009000 2.000000 2.000000 2.000000 2.000000 2.000000 2.000000 2.000000 2.010000 2.015000 2.021000 2.021000 2.021000 2.020000 2.010000 2.010000 2.010000 2.019000 2.021000 2.034000 2.087000 0.000000 0.000000 0.000000 0.000000 0.000000 0.000000 0.000000 
0.000000 0.000000 0.000000 0.000000 0.000000 0.000000 2.010000 2.010000 2.010000 2.010000 2.010000 2.009000 2.006000 2.009000 2.000000 2.010000 2.010000 2.010000 2.010000 2.010000 2.010000 2.016000 2.010000 2.018000 2.021000 2.021000 2.017000 2.014000 2.014000 2.019000 2.021000 2.034000 2.076000 0.000000 0.000000 0.000000 0.000000 0.000000 0.000000 0.000000 
0.000000 0.000000 0.000000 0.000000 0.000000 0.000000 2.010000 2.010000 2.010000 2.010000 2.010000 2.007000 2.000000 2.009000 2.000000 2.002000 2.002000 2.008000 2.010000 2.015000 2.019000 2.016000 2.010000 2.013000 2.021000 2.021000 2.021000 2.021000 2.021000 2.021000 2.023000 2.037000 2.076000 0.000000 0.000000 0.000000 0.000000 0.000000 0.000000 0.000000 
0.000000 0.000000 0.000000 0.000000 0.000000 0.000000 2.010000 2.010000 2.010000 2.010000 2.010000 2.010000 2.010000 2.009000 2.000000 2.000000 2.000000 2.008000 2.010000 2.017000 2.021000 2.021000 2.021000 2.021000 2.021000 2.021000 2.021000 2.021000 2.021000 2.021000 2.021000 2.038000 2.068000 0.000000 0.000000 0.000000 0.000000 0.000000 0.000000 0.000000 
0.000000 0.000000 0.000000 0.000000 0.000000 0.000000 2.010000 2.010000 2.010000 2.010000 2.010000 2.010000 2.010000 2.009000 2.000000 2.000000 2.000000 2.008000 2.010000 2.017000 2.021000 2.021000 2.021000 2.021000 2.021000 2.021000 2.021000 2.021000 2.021000 2.021000 2.020000 2.017000 2.019000 0.000000 0.000000 0.000000 0.000000 0.000000 0.000000 0.000000 
0.000000 0.000000 0.000000 0.000000 0.000000 0.000000 0.000000 2.010000 2.010000 2.010000 2.010000 2.010000 2.010000 2.010000 2.010000 2.000000 2.000000 2.008000 2.010000 2.017000 2.021000 2.021000 2.021000 2.021000 2.021000 2.021000 2.021000 2.021000 2.021000 2.021000 2.019000 2.010000 2.072000 0.000000 0.000000 0.000000 0.000000 0.000000 0.000000 0.000000 
0.000000 0.000000 0.000000 0.000000 0.000000 0.000000 0.000000 2.437000 2.010000 2.010000 2.010000 2.024000 2.035000 2.010000 2.005000 2.000000 2.006000 2.000000 0.000000 0.000000 0.000000 2.038000 2.022000 2.021000 2.021000 2.028000 2.032000 2.026000 2.021000 2.021000 2.021000 2.936000 0.000000 0.000000 0.000000 0.000000 0.000000 0.000000 0.000000 0.000000 
