40 40
0.000000 0.000000 0.000000 0.000000 0.000000 0.000000 0.000000 0.000000 0.000000 0.000000 0.000000 2.065000 2.057000 2.059000 2.056000 2.052000 2.695000 0.000000 0.000000 0.000000 0.000000 0.000000 0.000000 0.000000 0.000000 0.000000 0.000000 0.000000 0.000000 0.000000 0.000000 0.000000 0.000000 0.000000 0.000000 0.000000 0.000000 0.000000 0.000000 0.000000 
0.000000 0.000000 0.000000 0.000000 0.000000 0.000000 0.000000 0.000000 0.000000 2.589000 2.040000 2.048000 2.057000 2.056000 2.051000 2.051000 2.053000 2.055000 2.051000 2.047000 2.049000 2.053000 2.051000 2.051000 2.053000 2.051000 2.259000 0.000000 0.000000 0.000000 0.000000 0.000000 0.000000 0.000000 0.000000 0.000000 0.000000 0.000000 0.000000 0.000000 
0.000000 0.000000 0.000000 0.000000 0.000000 0.000000 0.000000 0.000000 0.000000 0.000000 2.043000 2.046000 2.051000 2.051000 2.051000 2.047000 2.044000 2.049000 2.051000 2.051000 2.051000 2.051000 2.051000 2.053000 2.051000 2.051000 2.053000 2.051000 2.051000 2.055000 2.055000 2.057000 2.057000 2.958000 0.000000 0.000000 0.000000 0.000000 0.000000 0.000000 
0.000000 0.000000 0.000000 0.000000 0.000000 0.000000 0.000000 0.000000 0.000000 2.758000 2.046000 2.046000 2.046000 2.046000 2.047000 2.042000 2.041000 2.045000 2.051000 2.051000 2.048000 2.050000 2.047000 2.047000 2.051000 2.051000 2.051000 2.051000 2.051000 2.051000 2.051000 2.052000 2.051000 2.051000 0.000000 0.000000 0.000000 0.000000 0.000000 0.000000 
0.000000 0.000000 0.000000 0.000000 0.000000 0.000000 0.000000 0.000000 2.874000 2.059000 2.046000 2.042000 2.042000 2.042000 2.042000 2.045000 2.045000 2.041000 2.041000 2.044000 2.046000 2.050000 2.046000 2.046000 2.046000 2.046000 2.051000 2.051000 2.051000 2.051000 2.049000 2.046000 2.047000 2.047000 0.000000 0.000000 0.000000 0.000000 0.000000 0.000000 
0.000000 0.000000 0.000000 0.000000 0.000000 0.000000 0.000000 0.000000 0.000000 2.037000 2.037000 2.036000 2.036000 2.036000 2.036000 2.036000 2.041000 2.039000 2.036000 2.036000 2.041000 2.041000 2.041000 2.037000 2.041000 2.046000 2.046000 2.046000 2.046000 2.046000 2.046000 2.041000 2.041000 2.041000 0.000000 0.000000 0.000000 0.000000 0.000000 0.000000 
0.000000 0.000000 0.000000 0.000000 0.000000 0.000000 0.000000 0.000000 0.000000 2.037000 2.036000 2.036000 2.036000 2.036000 2.036000 2.036000 2.036000 2.036000 2.036000 2.036000 2.036000 2.036000 2.036000 2.036000 2.036000 2.041000 2.041000 2.041000 2.041000 2.041000 2.041000 2.036000 2.039000 1.165000 0.000000 0.000000 0.000000 0.000000 0.000000 0.000000 
0.000000 0.000000 0.000000 0.000000 0.000000 0.000000 0.000000 0.000000 2.795000 2.030000 2.030000 2.030000 2.030000 2.030000 2.031000 2.036000 2.036000 2.036000 2.036000 2.036000 2.036000 2.036000 2.036000 2.036000 2.036000 2.036000 2.036000 2.037000 2.039000 2.036000 2.039000 2.036000 2.036000 1.975000 0.000000 0.000000 0.000000 0.000000 0.000000 0.000000 
0.000000 0.000000 0.000000 0.000000 0.000000 0.000000 0.000000 0.000000 0.000000 2.104000 2.029000 2.030000 2.029000 2.030000 2.030000 2.034000 2.030000 2.032000 2.035000 2.032000 2.030000 2.034000 2.035000 2.030000 2.035000 2.036000 2.035000 2.035000 2.035000 2.035000 2.030000 2.033000 2.035000 1.157000 0.000000 0.000000 0.000000 0.000000 0.000000 0.000000 
0.000000 0.000000 0.000000 0.000000 0.000000 0.000000 0.000000 0.000000 0.000000 1.815000 2.025000 2.029000 2.025000 2.030000 2.030000 2.030000 2.030000 2.029000 2.030000 2.030000 2.030000 2.029000 2.030000 2.030000 2.030000 2.030000 2.030000 2.030000 2.030000 2.030000 2.030000 2.030000 2.030000 2.030000 0.000000 0.000000 0.000000 0.000000 0.000000 0.000000 
0.000000 0.000000 0.000000 0.000000 0.000000 0.000000 0.000000 2.931000 1.712000 1.874000 2.020000 2.023000 2.025000 2.025000 2.026000 2.030000 2.029000 2.025000 2.030000 2.030000 2.029000 2.024000 2.029000 2.029000 2.030000 2.030000 2.030000 2.029000 2.030000 2.030000 2.030000 2.030000 2.030000 1.414000 0.000000 0.000000 0.000000 0.000000 0.000000 0.000000 
0.000000 0.000000 0.000000 0.000000 0.000000 0.000000 0.000000 0.000000 1.711000 2.018000 2.018000 2.015000 2.021000 2.020000 2.025000 2.029000 2.025000 2.025000 2.028000 2.024000 2.018000 2.018000 2.025000 2.025000 2.028000 2.028000 2.025000 2.025000 2.025000 2.025000 2.025000 2.025000 2.028000 2.032000 0.000000 0.000000 0.000000 0.000000 0.000000 0.000000 
0.000000 0.000000 0.000000 0.000000 0.000000 0.000000 0.000000 0.000000 1.719000 2.013000 2.015000 2.015000 2.015000 2.017000 2.016000 2.022000 2.022000 2.018000 2.020000 2.020000 2.015000 2.015000 2.015000 2.018000 2.018000 2.018000 2.018000 2.018000 2.020000 2.020000 2.020000 2.023000 2.023000 1.153000 0.000000 0.000000 0.000000 0.000000 0.000000 0.000000 
0.000000 0.000000 0.000000 0.000000 0.000000 0.000000 0.000000 0.000000 1.706000 2.010000 2.010000 2.012000 2.015000 2.012000 2.010000 2.015000 2.013000 2.015000 2.016000 2.016000 2.015000 2.015000 2.015000 2.017000 2.015000 2.015000 2.015000 2.015000 2.015000 2.015000 2.016000 2.015000 2.015000 0.000000 0.000000 0.000000 0.000000 0.000000 0.000000 0.000000 
0.000000 0.000000 0.000000 0.000000 0.000000 0.000000 0.000000 0.000000 1.888000 2.002000 2.002000 2.005000 2.007000 2.005000 2.010000 2.010000 2.010000 2.010000 2.011000 2.011000 2.012000 2.012000 2.015000 2.017000 2.017000 2.015000 2.015000 2.014000 2.012000 2.013000 2.015000 2.012000 2.010000 1.148000 0.000000 0.000000 0.000000 0.000000 0.000000 0.000000 
0.000000 0.000000 0.000000 0.000000 0.000000 0.000000 0.000000 0.000000 2.010000 2.001000 2.000000 2.000000 2.005000 2.008000 2.007000 2.006000 2.005000 2.007000 2.010000 2.010000 2.010000 2.010000 2.012000 2.010000 2.010000 2.012000 2.012000 2.014000 2.010000 2.010000 2.011000 2.011000 2.010000 0.000000 0.000000 0.000000 0.000000 0.000000 0.000000 0.000000 
0.000000 0.000000 0.000000 0.000000 0.000000 0.000000 0.000000 1.606000 2.002000 2.000000 2.000000 2.005000 2.005000 2.005000 2.001000 2.005000 2.001000 2.003000 2.010000 2.008000 2.006000 2.006000 2.010000 2.010000 2.010000 2.010000 2.010000 2.010000 2.010000 2.005000 2.010000 2.008000 2.002000 0.000000 0.000000 0.000000 0.000000 0.000000 0.000000 0.000000 
0.000000 0.000000 0.000000 0.000000 0.000000 0.000000 0.000000 1.599000 1.997000 1.997000 1.996000 1.996000 1.998000 2.000000 2.000000 2.001000 2.000000 2.000000 2.000000 2.001000 2.001000 2.004000 2.005000 2.006000 2.006000 2.010000 2.010000 2.009000 2.005000 2.005000 2.010000 2.005000 2.000000 0.000000 0.000000 0.000000 0.000000 0.000000 0.000000 0.000000 
0.000000 0.000000 0.000000 0.000000 0.000000 0.000000 0.000000 1.957000 1.996000 1.992000 1.996000 1.996000 1.996000 1.996000 1.996000 1.999000 1.996000 1.996000 2.000000 2.000000 2.000000 1.997000 1.996000 2.000000 2.000000 2.005000 2.005000 2.005000 2.005000 2.005000 2.000000 1.994000 1.992000 0.000000 0.000000 0.000000 0.000000 0.000000 0.000000 0.000000 
0.000000 0.000000 0.000000 0.000000 0.000000 0.000000 2.432000 2.000000 1.996000 1.996000 1.996000 1.996000 1.996000 1.996000 1.996000 1.995000 1.993000 1.996000 1.996000 1.998000 1.997000 1.996000 1.996000 1.996000 1.996000 2.000000 2.000000 2.000000 2.000000 2.000000 1.998000 1.996000 1.993000 0.000000 0.000000 0.000000 0.000000 0.000000 0.000000 0.000000 
0.000000 0.000000 0.000000 0.000000 0.000000 0.000000 1.489000 1.981000 1.992000 1.991000 1.991000 1.991000 1.991000 1.992000 1.991000 1.991000 1.991000 1.993000 1.996000 1.996000 1.996000 1.996000 1.996000 1.996000 1.996000 1.996000 1.996000 1.996000 1.996000 1.996000 1.996000 1.991000 1.991000 0.000000 0.000000 0.000000 0.000000 0.000000 0.000000 0.000000 
0.000000 0.000000 0.000000 0.000000 0.000000 0.000000 1.387000 1.981000 1.980000 1.980000 1.990000 1.991000 1.986000 1.987000 1.990000 1.986000 1.991000 1.993000 1.991000 1.991000 1.991000 1.991000 1.995000 1.996000 1.995000 1.995000 1.995000 1.996000 1.994000 1.991000 1.996000 1.991000 1.991000 0.000000 0.000000 0.000000 0.000000 0.000000 0.000000 0.000000 
0.000000 0.000000 0.000000 0.000000 0.000000 2.743000 1.330000 1.983000 1.976000 1.976000 1.988000 1.990000 1.990000 1.981000 1.986000 1.986000 1.990000 1.988000 1.986000 1.988000 1.990000 1.990000 1.990000 1.991000 1.991000 1.991000 1.991000 1.991000 1.991000 1.991000 1.991000 1.990000 1.991000 0.000000 0.000000 0.000000 0.000000 0.000000 0.000000 0.000000 
0.000000 0.000000 0.000000 0.000000 0.000000 0.000000 0.000000 1.978000 1.976000 1.976000 1.976000 1.976000 1.981000 1.976000 1.980000 1.981000 1.981000 1.981000 1.981000 1.983000 1.984000 1.986000 1.986000 1.986000 1.985000 1.990000 1.990000 1.986000 1.987000 1.991000 1.988000 1.985000 1.985000 0.000000 0.000000 0.000000 0.000000 0.000000 0.000000 0.000000 
0.000000 0.000000 0.000000 0.000000 0.000000 0.000000 1.489000 1.975000 1.973000 1.974000 1.972000 1.972000 1.972000 1.976000 1.975000 1.977000 1.979000 1.976000 1.981000 1.981000 1.981000 1.986000 1.986000 1.981000 1.979000 1.984000 1.981000 1.976000 1.982000 1.989000 1.984000 1.979000 1.979000 0.000000 0.000000 0.000000 0.000000 0.000000 0.000000 0.000000 
0.000000 0.000000 0.000000 0.000000 0.000000 0.000000 1.485000 1.972000 1.970000 1.972000 1.972000 1.972000 1.972000 1.975000 1.973000 1.972000 1.976000 1.976000 1.976000 1.978000 1.976000 1.979000 1.981000 1.979000 1.976000 1.976000 1.980000 1.976000 1.980000 1.984000 1.978000 1.974000 1.232000 0.000000 0.000000 0.000000 0.000000 0.000000 0.000000 0.000000 
0.000000 0.000000 0.000000 0.000000 0.000000 1.733000 1.733000 1.972000 1.968000 1.967000 1.967000 1.972000 1.972000 1.972000 1.972000 1.972000 1.972000 1.972000 1.974000 1.974000 1.976000 1.976000 1.976000 1.976000 1.976000 1.976000 1.976000 1.976000 1.976000 1.976000 1.976000 1.967000 1.229000 0.000000 0.000000 0.000000 0.000000 0.000000 0.000000 0.000000 
0.000000 0.000000 0.000000 0.000000 0.000000 1.105000 1.969000 1.965000 1.966000 1.965000 1.965000 1.965000 1.969000 1.969000 1.972000 1.972000 1.972000 1.972000 1.972000 1.972000 1.972000 1.973000 1.976000 1.976000 1.974000 1.974000 1.976000 1.974000 1.974000 1.974000 1.973000 1.972000 0.000000 0.000000 0.000000 0.000000 0.000000 0.000000 0.000000 0.000000 
0.000000 0.000000 0.000000 0.000000 0.000000 1.382000 1.960000 1.958000 1.958000 1.960000 1.960000 1.960000 1.963000 1.964000 1.967000 1.967000 1.967000 1.967000 1.967000 1.967000 1.964000 1.968000 1.973000 1.972000 1.972000 1.972000 1.972000 1.972000 1.972000 1.972000 1.966000 1.956000 0.000000 0.000000 0.000000 0.000000 0.000000 0.000000 0.000000 0.000000 
0.000000 0.000000 0.000000 0.000000 0.000000 1.802000 1.953000 1.953000 1.958000 1.958000 1.958000 1.958000 1.959000 1.958000 1.959000 1.964000 1.964000 1.958000 1.963000 1.965000 1.963000 1.963000 1.968000 1.972000 1.972000 1.967000 1.967000 1.967000 1.967000 1.971000 1.965000 1.960000 0.000000 0.000000 0.000000 0.000000 0.000000 0.000000 0.000000 0.000000 
0.000000 0.000000 0.000000 0.000000 0.000000 1.846000 1.953000 1.953000 1.954000 1.953000 1.958000 1.958000 1.958000 1.957000 1.955000 1.958000 1.959000 1.963000 1.958000 1.959000 1.962000 1.963000 1.966000 1.967000 1.964000 1.964000 1.964000 1.964000 1.967000 1.966000 1.963000 1.963000 0.000000 0.000000 0.000000 0.000000 0.000000 0.000000 0.000000 0.000000 
0.000000 0.000000 0.000000 0.000000 0.000000 1.378000 1.953000 1.953000 1.953000 1.953000 1.958000 1.953000 1.953000 1.953000 1.953000 1.958000 1.958000 1.958000 1.958000 1.958000 1.958000 1.959000 1.959000 1.959000 1.959000 1.959000 1.959000 1.963000 1.963000 1.963000 1.961000 1.391000 0.000000 0.000000 0.000000 0.000000 0.000000 0.000000 0.000000 0.000000 
0.000000 0.000000 0.000000 0.000000 0.000000 1.953000 1.951000 1.944000 1.948000 1.953000 1.953000 1.953000 1.953000 1.953000 1.953000 1.953000 1.953000 1.955000 1.953000 1.955000 1.956000 1.958000 1.953000 1.953000 1.958000 1.958000 1.958000 1.958000 1.958000 1.956000 1.431000 1.953000 0.000000 0.000000 0.000000 0.000000 0.000000 0.000000 0.000000 0.000000 
0.000000 0.000000 0.000000 0.000000 0.000000 1.944000 1.942000 1.940000 1.940000 1.940000 1.949000 1.949000 1.949000 1.953000 1.953000 1.952000 1.950000 1.953000 1.953000 1.953000 1.956000 1.953000 1.953000 1.957000 1.953000 1.958000 1.958000 1.958000 1.958000 1.952000 1.410000 0.000000 2.860000 0.000000 0.000000 0.000000 0.000000 0.000000 0.000000 0.000000 
0.000000 0.000000 0.000000 0.000000 0.000000 0.000000 1.943000 1.942000 1.940000 1.940000 1.944000 1.940000 1.940000 1.941000 1.952000 1.948000 1.946000 1.948000 1.951000 1.953000 1.953000 1.953000 1.953000 1.953000 1.953000 1.953000 1.953000 1.953000 1.953000 1.955000 1.410000 0.000000 0.000000 0.000000 0.000000 0.000000 0.000000 0.000000 0.000000 0.000000 
0.000000 0.000000 0.000000 0.000000 0.000000 0.000000 0.000000 2.552000 2.571000 0.000000 2.577000 1.947000 1.935000 1.931000 1.949000 1.948000 1.943000 1.944000 1.944000 1.944000 1.951000 1.951000 1.949000 1.952000 1.952000 1.947000 1.949000 1.952000 1.950000 1.953000 1.517000 0.000000 0.000000 0.000000 0.000000 0.000000 0.000000 0.000000 0.000000 0.000000 
0.000000 0.000000 0.000000 0.000000 0.000000 0.000000 0.000000 0.000000 0.000000 0.000000 0.000000 0.000000 0.000000 2.833000 1.952000 1.953000 2.392000 1.396000 1.137000 2.029000 2.264000 1.958000 1.954000 1.952000 1.940000 1.935000 0.000000 2.954000 2.912000 2.907000 2.200000 2.086000 0.000000 0.000000 0.000000 0.000000 0.000000 0.000000 0.000000 0.000000 
0.000000 0.000000 0.000000 0.000000 0.000000 0.000000 0.000000 0.000000 0.000000 0.000000 0.000000 0.000000 0.000000 0.000000 1.958000 2.967000 0.000000 0.000000 0.000000 0.000000 0.000000 1.967000 1.967000 0.000000 0.000000 0.000000 0.000000 0.000000 0.000000 0.000000 0.000000 0.000000 0.000000 0.000000 0.000000 0.000000 0.000000 0.000000 0.000000 0.000000 
0.000000 0.000000 0.000000 0.000000 0.000000 0.000000 0.000000 0.000000 0.000000 0.000000 0.000000 0.000000 0.000000 0.000000 1.958000 2.968000 0.000000 0.000000 0.000000 0.000000 0.000000 0.000000 0.000000 0.000000 0.000000 0.000000 0.000000 0.000000 0.000000 0.000000 0.000000 0.000000 0.000000 0.000000 0.000000 0.000000 0.000000 0.000000 0.000000 0.000000 
0.000000 0.000000 0.000000 0.000000 0.000000 0.000000 0.000000 0.000000 0.000000 0.000000 0.000000 0.000000 0.000000 0.000000 0.000000 0.000000 0.000000 0.000000 0.000000 0.000000 0.000000 0.000000 0.000000 0.000000 0.000000 0.000000 0.000000 0.000000 0.000000 0.000000 0.000000 0.000000 0.000000 0.000000 0.000000 0.000000 0.000000 0.000000 0.000000 0.000000 
