0.000000,0.000000,0.000000,0.000000,0.000000,0.000000,0.000000,0.000000,0.000000,0.000000,0.000000,0.000000,0.000000,0.000000,0.000000,0.000000,0.000000,2.054000,2.053000,2.045000,2.012000,2.008000,1.994000,1.988000,1.988000,1.990000,1.994000,1.996000,1.996000,1.173000,2.470000,0.000000,0.000000,0.000000,0.000000,0.000000,0.000000,0.000000,0.000000,0.000000,
0.000000,0.000000,0.000000,0.000000,0.000000,0.000000,0.000000,0.000000,0.000000,0.000000,0.000000,0.000000,0.000000,0.000000,0.000000,2.048000,2.047000,2.036000,1.995000,1.987000,1.980000,1.984000,1.983000,1.986000,1.988000,1.992000,1.994000,1.999000,2.002000,1.173000,2.466000,0.000000,0.000000,0.000000,0.000000,0.000000,0.000000,0.000000,0.000000,0.000000,
0.000000,0.000000,0.000000,0.000000,0.000000,0.000000,0.000000,0.000000,0.000000,0.000000,0.000000,2.041000,2.041000,2.032000,2.031000,2.023000,1.983000,1.980000,1.977000,1.976000,1.978000,1.981000,1.983000,1.986000,1.988000,1.992000,1.995000,1.999000,2.002000,1.173000,1.173000,0.000000,0.000000,0.000000,0.000000,0.000000,0.000000,0.000000,0.000000,0.000000,
0.000000,0.000000,0.000000,0.000000,0.000000,0.000000,0.000000,0.000000,0.000000,2.034000,2.029000,2.019000,2.010000,1.995000,1.968000,1.969000,1.969000,1.973000,1.975000,1.976000,1.978000,1.981000,1.985000,1.988000,1.991000,1.992000,1.997000,2.000000,2.002000,1.173000,1.173000,0.000000,0.000000,0.000000,0.000000,0.000000,0.000000,0.000000,0.000000,0.000000,
0.000000,0.000000,0.000000,0.000000,0.000000,0.000000,1.962000,1.963000,1.989000,2.002000,2.003000,1.966000,1.964000,1.963000,1.965000,1.968000,1.969000,1.974000,1.976000,1.978000,1.979000,1.982000,1.987000,1.988000,1.993000,1.995000,1.999000,2.002000,2.004000,2.009000,1.173000,2.416000,0.000000,0.000000,0.000000,0.000000,0.000000,0.000000,0.000000,0.000000,
0.000000,0.000000,0.000000,0.000000,2.042000,2.035000,1.960000,1.962000,1.960000,1.954000,1.960000,1.962000,1.962000,1.964000,1.968000,1.971000,1.971000,1.974000,1.976000,1.980000,1.984000,1.984000,1.988000,1.991000,1.996000,1.996000,2.000000,2.002000,2.004000,2.008000,1.173000,1.173000,0.000000,0.000000,0.000000,0.000000,0.000000,0.000000,0.000000,0.000000,
0.000000,0.000000,0.000000,0.000000,2.033000,2.004000,1.951000,1.953000,1.954000,1.957000,1.958000,1.962000,1.963000,1.965000,1.967000,1.971000,1.971000,1.975000,1.977000,1.980000,1.982000,1.986000,1.988000,1.992000,1.994000,1.997000,2.002000,2.004000,2.006000,2.010000,1.642000,1.173000,0.000000,0.000000,0.000000,0.000000,0.000000,0.000000,0.000000,0.000000,
0.000000,0.000000,0.000000,0.000000,1.173000,1.371000,1.953000,1.954000,1.955000,1.958000,1.961000,1.963000,1.964000,1.966000,1.969000,1.971000,1.975000,1.976000,1.977000,1.982000,1.984000,1.986000,1.991000,1.994000,1.996000,2.000000,2.003000,2.004000,2.010000,2.012000,1.758000,1.173000,0.000000,0.000000,0.000000,0.000000,0.000000,0.000000,0.000000,0.000000,
0.000000,0.000000,0.000000,0.000000,1.173000,1.173000,1.953000,1.954000,1.958000,1.961000,1.962000,1.963000,1.967000,1.969000,1.971000,1.973000,1.976000,1.976000,1.979000,1.983000,1.985000,1.988000,1.992000,1.996000,1.997000,2.000000,2.004000,2.007000,2.010000,2.012000,2.015000,1.173000,0.000000,0.000000,0.000000,0.000000,0.000000,0.000000,0.000000,0.000000,
0.000000,0.000000,0.000000,0.000000,1.173000,1.173000,1.954000,1.954000,1.960000,1.962000,1.963000,1.965000,1.969000,1.969000,1.971000,1.975000,1.976000,1.978000,1.981000,1.984000,1.986000,1.990000,1.994000,1.996000,2.000000,2.002000,2.004000,2.009000,2.012000,2.014000,2.017000,1.173000,1.173000,0.000000,0.000000,0.000000,0.000000,0.000000,0.000000,0.000000,
0.000000,0.000000,0.000000,0.000000,1.173000,1.173000,1.649000,1.958000,1.962000,1.962000,1.963000,1.965000,1.969000,1.971000,1.973000,1.976000,1.978000,1.981000,1.984000,1.986000,1.988000,1.992000,1.995000,1.998000,2.000000,2.004000,2.005000,2.010000,2.012000,2.014000,2.018000,1.183000,1.173000,0.000000,0.000000,0.000000,0.000000,0.000000,0.000000,0.000000,
0.000000,0.000000,0.000000,0.000000,1.173000,1.173000,1.173000,1.960000,1.962000,1.963000,1.966000,1.969000,1.971000,1.972000,1.975000,1.976000,1.978000,1.982000,1.984000,1.988000,1.991000,1.992000,1.995000,2.000000,2.003000,2.004000,2.008000,2.011000,2.012000,2.016000,2.019000,2.022000,1.173000,0.000000,0.000000,0.000000,0.000000,0.000000,0.000000,0.000000,
0.000000,0.000000,0.000000,0.000000,1.173000,1.173000,1.173000,1.962000,1.963000,1.963000,1.965000,1.971000,1.971000,1.975000,1.976000,1.978000,1.980000,1.983000,1.986000,1.988000,1.992000,1.993000,1.997000,2.002000,2.004000,2.006000,2.010000,2.012000,2.014000,2.018000,2.020000,2.024000,1.173000,1.680000,0.000000,0.000000,0.000000,0.000000,0.000000,0.000000,
0.000000,0.000000,0.000000,0.000000,0.000000,1.173000,1.173000,1.845000,1.965000,1.967000,1.969000,1.971000,1.971000,1.975000,1.976000,1.978000,1.982000,1.984000,1.986000,1.990000,1.992000,1.995000,2.000000,2.002000,2.004000,2.007000,2.011000,2.013000,2.016000,2.018000,2.022000,2.024000,1.221000,1.679000,0.000000,0.000000,0.000000,0.000000,0.000000,0.000000,
0.000000,0.000000,0.000000,0.000000,0.000000,1.173000,1.173000,1.173000,1.965000,1.968000,1.970000,1.971000,1.975000,1.976000,1.978000,1.982000,1.984000,1.985000,1.987000,1.992000,1.992000,1.996000,2.001000,2.004000,2.006000,2.010000,2.013000,2.015000,2.018000,2.020000,2.025000,2.027000,1.244000,1.173000,0.000000,0.000000,0.000000,0.000000,0.000000,0.000000,
0.000000,0.000000,0.000000,0.000000,0.000000,1.173000,1.173000,1.173000,1.969000,1.968000,1.971000,1.971000,1.976000,1.976000,1.979000,1.984000,1.984000,1.988000,1.988000,1.992000,1.996000,1.998000,2.001000,2.004000,2.006000,2.010000,2.013000,2.016000,2.018000,2.020000,2.025000,2.028000,2.030000,1.173000,0.000000,0.000000,0.000000,0.000000,0.000000,0.000000,
0.000000,0.000000,0.000000,0.000000,0.000000,1.173000,1.173000,1.173000,1.248000,1.970000,1.972000,1.974000,1.976000,1.978000,1.980000,1.984000,1.986000,1.988000,1.992000,1.994000,1.997000,2.000000,2.003000,2.006000,2.008000,2.012000,2.015000,2.019000,2.020000,2.022000,2.027000,2.029000,2.033000,1.173000,2.438000,0.000000,0.000000,0.000000,0.000000,0.000000,
0.000000,0.000000,0.000000,0.000000,0.000000,0.000000,1.173000,1.173000,1.173000,1.973000,1.974000,1.975000,1.976000,1.980000,1.982000,1.984000,1.987000,1.988000,1.992000,1.995000,1.998000,2.002000,2.004000,2.008000,2.010000,2.013000,2.018000,2.019000,2.020000,2.024000,2.028000,2.029000,2.033000,1.173000,1.173000,0.000000,0.000000,0.000000,0.000000,0.000000,
0.000000,0.000000,0.000000,0.000000,0.000000,0.000000,1.173000,1.173000,1.173000,1.981000,1.976000,1.976000,1.978000,1.982000,1.984000,1.984000,1.988000,1.992000,1.993000,1.994000,2.000000,2.002000,2.005000,2.009000,2.012000,2.014000,2.018000,2.020000,2.020000,2.027000,2.027000,2.030000,2.035000,1.186000,1.173000,0.000000,0.000000,0.000000,0.000000,0.000000,
0.000000,0.000000,0.000000,0.000000,0.000000,0.000000,1.477000,1.173000,1.173000,1.861000,1.978000,1.978000,1.980000,1.983000,1.985000,1.986000,1.990000,1.992000,1.994000,1.996000,2.002000,2.002000,2.007000,2.011000,2.012000,2.018000,2.018000,2.021000,2.022000,2.025000,2.029000,2.032000,2.035000,1.891000,1.173000,0.000000,0.000000,0.000000,0.000000,0.000000,
0.000000,0.000000,0.000000,0.000000,0.000000,0.000000,2.520000,1.173000,1.173000,1.173000,1.978000,1.978000,1.982000,1.984000,1.986000,1.988000,1.992000,1.993000,1.997000,2.000000,2.002000,2.004000,2.009000,2.010000,2.014000,2.018000,2.019000,2.022000,2.025000,2.028000,2.030000,2.033000,2.036000,2.040000,1.173000,0.000000,0.000000,0.000000,0.000000,0.000000,
0.000000,0.000000,0.000000,0.000000,0.000000,0.000000,0.000000,1.173000,1.173000,1.173000,1.740000,1.981000,1.982000,1.984000,1.987000,1.990000,1.993000,1.996000,2.000000,2.000000,2.004000,2.006000,2.009000,2.012000,2.016000,2.018000,2.021000,2.024000,2.027000,2.029000,2.033000,2.035000,2.037000,2.042000,1.940000,0.000000,0.000000,0.000000,0.000000,0.000000,
0.000000,0.000000,0.000000,0.000000,0.000000,0.000000,0.000000,0.000000,1.173000,1.173000,1.194000,1.982000,1.986000,1.986000,1.989000,1.992000,1.994000,1.995000,2.000000,2.002000,2.006000,2.008000,2.011000,2.016000,2.018000,2.018000,2.023000,2.024000,2.029000,2.029000,2.035000,2.036000,2.037000,2.042000,2.044000,2.605000,0.000000,0.000000,0.000000,0.000000,
0.000000,0.000000,0.000000,0.000000,0.000000,0.000000,0.000000,0.000000,1.173000,1.173000,1.173000,1.982000,1.986000,1.987000,1.991000,1.992000,1.994000,1.997000,2.001000,2.004000,2.006000,2.009000,2.011000,2.016000,2.018000,2.020000,2.024000,2.027000,2.031000,2.033000,2.035000,2.037000,2.038000,2.040000,2.045000,2.579000,0.000000,0.000000,0.000000,0.000000,
0.000000,0.000000,0.000000,0.000000,0.000000,0.000000,0.000000,0.000000,1.173000,1.173000,1.173000,1.987000,1.988000,1.990000,1.992000,1.992000,1.998000,2.000000,2.002000,2.004000,2.008000,2.009000,2.012000,2.017000,2.020000,2.022000,2.026000,2.028000,2.029000,2.033000,2.035000,2.039000,2.041000,2.043000,2.047000,1.306000,0.000000,0.000000,0.000000,0.000000,
0.000000,0.000000,0.000000,0.000000,0.000000,0.000000,0.000000,0.000000,0.000000,1.173000,1.173000,1.992000,1.989000,1.991000,1.993000,1.996000,1.998000,2.001000,2.002000,2.006000,2.008000,2.011000,2.015000,2.017000,2.022000,2.024000,2.027000,2.029000,2.030000,2.035000,2.036000,2.040000,2.043000,2.046000,2.047000,1.654000,0.000000,0.000000,0.000000,0.000000,
0.000000,0.000000,0.000000,0.000000,0.000000,0.000000,0.000000,0.000000,0.000000,1.173000,1.173000,1.223000,1.992000,1.992000,1.994000,1.994000,2.000000,2.002000,2.005000,2.008000,2.010000,2.013000,2.017000,2.020000,2.022000,2.024000,2.029000,2.029000,2.031000,2.035000,2.040000,2.044000,2.044000,2.046000,2.048000,2.049000,0.000000,0.000000,0.000000,0.000000,
0.000000,0.000000,0.000000,0.000000,0.000000,0.000000,0.000000,0.000000,0.000000,1.449000,1.173000,1.173000,1.994000,1.992000,1.994000,1.998000,2.000000,2.004000,2.006000,2.008000,2.010000,2.014000,2.019000,2.020000,2.027000,2.027000,2.029000,2.031000,2.033000,2.036000,2.040000,2.044000,2.044000,2.049000,2.052000,2.054000,0.000000,0.000000,0.000000,0.000000,
0.000000,0.000000,0.000000,0.000000,0.000000,0.000000,0.000000,0.000000,0.000000,0.000000,1.173000,1.173000,1.996000,1.994000,1.997000,2.000000,2.002000,2.004000,2.007000,2.010000,2.012000,2.016000,2.019000,2.024000,2.027000,2.028000,2.030000,2.032000,2.035000,2.040000,2.043000,2.045000,2.047000,2.051000,2.053000,2.055000,0.000000,0.000000,0.000000,0.000000,
0.000000,0.000000,0.000000,0.000000,2.909000,0.000000,0.000000,0.000000,0.000000,0.000000,1.858000,1.173000,1.227000,1.998000,2.000000,2.000000,2.002000,2.007000,2.009000,2.012000,2.015000,2.017000,2.021000,2.025000,2.027000,2.031000,2.033000,2.034000,2.035000,2.040000,2.044000,2.044000,2.048000,2.052000,2.054000,2.059000,0.000000,0.000000,0.000000,0.000000,
0.000000,0.000000,0.000000,0.000000,2.511000,2.502000,2.505000,0.000000,0.000000,0.000000,2.204000,1.173000,1.173000,2.002000,2.002000,2.002000,2.006000,2.008000,2.010000,2.013000,2.016000,2.018000,2.020000,2.026000,2.027000,2.031000,2.033000,2.036000,2.037000,2.042000,2.046000,2.047000,2.051000,2.053000,2.056000,2.659000,0.000000,0.000000,0.000000,0.000000,
0.000000,0.000000,0.000000,0.000000,2.510000,2.493000,2.481000,2.479000,2.484000,0.000000,2.037000,1.173000,1.173000,2.005000,2.004000,2.004000,2.008000,2.010000,2.010000,2.016000,2.016000,2.019000,2.023000,2.027000,2.029000,2.033000,2.035000,2.037000,2.042000,2.044000,2.046000,2.046000,2.196000,0.000000,0.000000,0.000000,0.000000,0.000000,0.000000,0.000000,
0.000000,0.000000,0.000000,0.000000,2.513000,2.488000,2.475000,2.463000,2.462000,2.198000,1.173000,1.173000,1.173000,1.787000,2.006000,2.008000,2.010000,2.010000,2.014000,2.016000,2.018000,2.023000,2.025000,2.029000,2.033000,2.035000,2.037000,2.040000,2.043000,2.044000,2.229000,0.000000,0.000000,0.000000,0.000000,0.000000,0.000000,0.000000,0.000000,0.000000,
0.000000,0.000000,0.000000,0.000000,2.501000,2.490000,2.475000,2.453000,2.441000,2.443000,2.437000,1.173000,1.173000,1.434000,2.011000,2.008000,2.010000,2.013000,2.016000,2.018000,2.020000,2.024000,2.025000,2.029000,2.034000,2.035000,2.035000,2.038000,2.062000,2.061000,0.000000,0.000000,0.000000,0.000000,0.000000,0.000000,0.000000,0.000000,0.000000,0.000000,
0.000000,0.000000,0.000000,0.000000,2.509000,2.484000,2.469000,2.452000,2.437000,2.427000,2.417000,2.419000,2.190000,1.173000,2.010000,2.010000,2.010000,2.014000,2.016000,2.018000,2.020000,2.024000,2.029000,2.033000,2.033000,2.037000,2.139000,2.095000,2.069000,2.065000,2.115000,2.230000,2.998000,2.987000,2.968000,2.968000,0.000000,0.000000,0.000000,0.000000,
0.000000,0.000000,0.000000,0.000000,0.000000,2.542000,2.464000,2.451000,2.436000,2.426000,2.406000,2.392000,2.391000,2.395000,2.020000,2.012000,2.012000,2.016000,2.017000,2.020000,2.022000,2.025000,2.028000,2.040000,2.055000,2.131000,2.125000,2.092000,2.070000,2.069000,2.100000,2.092000,2.091000,2.994000,2.436000,2.425000,0.000000,0.000000,0.000000,0.000000,
0.000000,0.000000,0.000000,0.000000,0.000000,0.000000,2.421000,2.413000,2.413000,2.420000,2.400000,2.383000,2.373000,2.366000,2.365000,2.016000,2.015000,2.016000,2.017000,2.021000,2.024000,2.032000,2.126000,2.060000,2.058000,2.114000,2.104000,2.101000,2.094000,2.075000,2.079000,2.078000,2.071000,2.128000,2.409000,2.405000,0.000000,0.000000,0.000000,0.000000,
0.000000,0.000000,0.000000,0.000000,2.360000,2.368000,2.381000,2.393000,2.402000,2.414000,2.401000,2.384000,2.366000,2.358000,2.351000,2.016000,2.016000,2.018000,2.018000,2.119000,2.121000,2.114000,2.111000,2.062000,2.060000,2.095000,2.090000,2.081000,2.078000,2.075000,2.066000,2.062000,2.056000,2.116000,2.405000,2.400000,0.000000,0.000000,0.000000,0.000000,
0.000000,0.000000,0.000000,0.000000,2.351000,2.363000,2.381000,2.391000,2.416000,2.410000,2.396000,2.387000,2.373000,2.353000,2.336000,2.288000,2.018000,2.288000,1.773000,2.120000,2.104000,2.094000,2.091000,2.082000,2.068000,2.074000,2.068000,2.065000,2.061000,2.053000,2.046000,2.048000,2.053000,2.053000,2.235000,2.385000,0.000000,0.000000,0.000000,0.000000,
0.000000,0.000000,0.000000,0.000000,0.000000,0.000000,0.000000,0.000000,0.000000,2.467000,2.392000,2.384000,2.375000,2.356000,2.332000,2.326000,2.326000,2.327000,2.333000,2.392000,2.088000,2.081000,2.074000,2.072000,2.062000,2.059000,2.054000,2.046000,2.044000,2.044000,2.046000,2.048000,2.051000,2.053000,2.054000,2.366000,0.000000,0.000000,0.000000,0.000000,
