0.000000,0.000000,0.000000,0.000000,0.000000,0.000000,0.000000,0.000000,0.000000,0.000000,0.000000,0.000000,0.000000,0.000000,0.000000,0.000000,0.000000,0.000000,0.000000,0.000000,0.000000,2.037000,2.046000,2.050000,2.060000,0.000000,0.000000,0.000000,0.000000,0.000000,0.000000,0.000000,0.000000,0.000000,0.000000,0.000000,0.000000,0.000000,0.000000,0.000000,
0.000000,0.000000,0.000000,0.000000,0.000000,0.000000,0.000000,0.000000,0.000000,0.000000,0.000000,0.000000,0.000000,0.000000,0.000000,0.000000,2.629000,1.990000,2.011000,2.029000,2.037000,2.037000,2.046000,2.049000,2.049000,0.000000,0.000000,0.000000,0.000000,0.000000,0.000000,0.000000,0.000000,0.000000,0.000000,0.000000,0.000000,0.000000,0.000000,0.000000,
0.000000,0.000000,0.000000,0.000000,0.000000,0.000000,0.000000,0.000000,0.000000,0.000000,0.000000,0.000000,0.000000,0.000000,0.000000,0.000000,2.644000,2.009000,2.022000,2.024000,2.037000,2.037000,2.039000,2.039000,2.039000,2.039000,0.000000,0.000000,0.000000,0.000000,0.000000,0.000000,0.000000,0.000000,0.000000,0.000000,0.000000,0.000000,0.000000,0.000000,
0.000000,0.000000,0.000000,0.000000,0.000000,0.000000,0.000000,0.000000,0.000000,0.000000,0.000000,2.033000,2.035000,2.037000,2.024000,2.024000,2.015000,2.012000,2.017000,2.024000,2.037000,2.036000,2.035000,2.034000,2.012000,2.012000,0.000000,0.000000,0.000000,0.000000,0.000000,0.000000,0.000000,0.000000,0.000000,0.000000,0.000000,0.000000,0.000000,0.000000,
0.000000,0.000000,0.000000,0.000000,0.000000,0.000000,0.000000,0.000000,0.000000,2.028000,2.013000,2.014000,2.024000,2.034000,2.024000,2.024000,2.019000,2.012000,2.017000,2.029000,2.037000,2.031000,2.024000,2.035000,2.018000,2.009000,2.159000,0.000000,0.000000,0.000000,0.000000,0.000000,0.000000,0.000000,0.000000,0.000000,0.000000,0.000000,0.000000,0.000000,
0.000000,0.000000,0.000000,0.000000,0.000000,0.000000,0.000000,0.000000,2.453000,2.005000,2.002000,2.014000,2.024000,2.026000,2.023000,2.014000,2.022000,2.012000,2.017000,2.034000,2.037000,2.036000,2.035000,2.026000,2.024000,2.006000,2.000000,0.000000,0.000000,0.000000,0.000000,0.000000,0.000000,0.000000,0.000000,0.000000,0.000000,0.000000,0.000000,0.000000,
0.000000,0.000000,0.000000,0.000000,0.000000,0.000000,0.000000,1.989000,1.989000,1.988000,1.987000,2.000000,2.011000,2.020000,2.022000,2.012000,2.021000,2.014000,2.024000,2.037000,2.034000,2.024000,2.034000,2.026000,2.031000,2.029000,2.026000,0.000000,0.000000,0.000000,0.000000,0.000000,0.000000,0.000000,0.000000,0.000000,0.000000,0.000000,0.000000,0.000000,
0.000000,0.000000,0.000000,0.000000,2.247000,1.989000,1.989000,1.989000,1.989000,1.983000,1.977000,1.986000,2.003000,2.011000,2.017000,2.012000,2.021000,2.024000,2.030000,2.032000,2.024000,2.024000,2.034000,2.037000,2.037000,2.037000,2.038000,2.801000,0.000000,0.000000,0.000000,0.000000,0.000000,0.000000,0.000000,0.000000,0.000000,0.000000,0.000000,0.000000,
0.000000,0.000000,1.989000,1.989000,1.989000,1.989000,1.989000,1.989000,1.989000,1.983000,1.977000,1.980000,2.000000,2.017000,2.012000,2.012000,2.021000,2.024000,2.025000,2.025000,2.024000,2.024000,2.026000,2.037000,2.037000,2.037000,2.038000,2.053000,0.000000,0.000000,0.000000,0.000000,0.000000,0.000000,0.000000,0.000000,0.000000,0.000000,0.000000,0.000000,
0.000000,0.000000,1.989000,1.989000,1.989000,1.989000,1.989000,1.989000,1.989000,1.989000,1.981000,1.982000,2.006000,2.022000,2.014000,2.018000,2.022000,2.022000,2.022000,2.024000,2.012000,2.017000,2.024000,2.036000,2.024000,2.033000,2.035000,2.041000,2.049000,0.000000,0.000000,0.000000,0.000000,0.000000,0.000000,0.000000,0.000000,0.000000,0.000000,0.000000,
0.000000,0.000000,1.989000,1.986000,1.983000,1.989000,1.989000,1.989000,1.989000,1.989000,1.989000,1.991000,2.006000,2.022000,2.024000,2.018000,2.012000,2.012000,2.012000,2.021000,2.018000,2.020000,2.024000,2.031000,2.030000,2.025000,2.025000,2.037000,2.042000,2.304000,0.000000,0.000000,0.000000,0.000000,0.000000,0.000000,0.000000,0.000000,0.000000,0.000000,
0.000000,0.000000,1.979000,1.978000,1.977000,1.981000,1.989000,1.989000,1.989000,1.984000,1.979000,1.982000,2.001000,2.012000,2.023000,2.013000,2.012000,2.012000,2.012000,2.021000,2.024000,2.024000,2.024000,2.025000,2.037000,2.035000,2.035000,2.037000,2.037000,2.307000,0.000000,0.000000,0.000000,0.000000,0.000000,0.000000,0.000000,0.000000,0.000000,0.000000,
0.000000,0.000000,1.979000,1.978000,1.977000,1.979000,1.988000,1.989000,1.989000,1.984000,1.979000,1.982000,2.000000,2.008000,2.012000,2.012000,2.012000,2.012000,2.012000,2.021000,2.036000,2.024000,2.024000,2.022000,2.029000,2.037000,2.037000,2.037000,2.036000,2.035000,0.000000,0.000000,0.000000,0.000000,0.000000,0.000000,0.000000,0.000000,0.000000,0.000000,
0.000000,0.000000,2.933000,1.986000,1.983000,1.977000,1.983000,1.989000,1.989000,1.989000,1.989000,1.991000,2.000000,2.000000,2.006000,2.009000,2.012000,2.012000,2.012000,2.017000,2.030000,2.024000,2.024000,2.012000,2.023000,2.037000,2.037000,2.037000,2.027000,2.024000,2.700000,0.000000,0.000000,0.000000,0.000000,0.000000,0.000000,0.000000,0.000000,0.000000,
0.000000,0.000000,0.000000,1.989000,1.981000,1.978000,1.988000,1.989000,1.989000,1.984000,1.980000,1.982000,2.000000,2.008000,2.000000,2.001000,2.003000,2.011000,2.003000,2.003000,2.007000,2.024000,2.024000,2.021000,2.028000,2.037000,2.037000,2.037000,2.027000,2.024000,2.024000,0.000000,0.000000,0.000000,0.000000,0.000000,0.000000,0.000000,0.000000,0.000000,
0.000000,0.000000,0.000000,0.000000,1.979000,1.979000,1.983000,1.977000,1.988000,1.983000,1.977000,1.980000,2.000000,2.010000,2.000000,2.000000,2.000000,2.009000,2.000000,2.000000,2.003000,2.024000,2.024000,2.024000,2.024000,2.024000,2.025000,2.035000,2.027000,2.024000,2.024000,2.024000,0.000000,0.000000,0.000000,0.000000,0.000000,0.000000,0.000000,0.000000,
0.000000,0.000000,0.000000,0.000000,1.977000,1.983000,1.986000,1.982000,1.977000,1.977000,1.981000,1.985000,2.000000,2.005000,1.995000,1.995000,1.999000,2.000000,2.000000,2.000000,2.003000,2.024000,2.024000,2.019000,2.021000,2.024000,2.024000,2.024000,2.024000,2.024000,2.024000,2.028000,2.270000,0.000000,0.000000,0.000000,0.000000,0.000000,0.000000,0.000000,
0.000000,0.000000,0.000000,0.000000,1.977000,1.980000,1.984000,1.989000,1.977000,1.977000,1.979000,1.991000,2.000000,2.000000,1.989000,1.989000,1.998000,2.000000,2.000000,2.000000,2.003000,2.024000,2.024000,2.003000,2.008000,2.015000,2.025000,2.030000,2.024000,2.024000,2.024000,2.034000,2.281000,0.000000,0.000000,0.000000,0.000000,0.000000,0.000000,0.000000,
0.000000,0.000000,0.000000,0.000000,1.969000,1.967000,1.982000,1.987000,1.976000,1.976000,1.977000,1.991000,2.000000,2.000000,2.000000,2.000000,2.000000,2.000000,2.000000,2.000000,2.003000,2.024000,2.015000,2.001000,2.006000,2.012000,2.025000,2.031000,2.024000,2.024000,2.024000,2.034000,2.271000,0.000000,0.000000,0.000000,0.000000,0.000000,0.000000,0.000000,
0.000000,0.000000,0.000000,0.000000,1.965000,1.967000,1.977000,1.967000,1.965000,1.971000,1.981000,1.991000,2.000000,2.000000,2.000000,2.000000,2.000000,2.000000,2.000000,2.000000,2.001000,2.018000,2.019000,2.012000,2.014000,2.017000,2.025000,2.034000,2.025000,2.024000,2.024000,2.029000,2.171000,0.000000,0.000000,0.000000,0.000000,0.000000,0.000000,0.000000,
0.000000,0.000000,0.000000,0.000000,2.315000,1.967000,1.977000,1.975000,1.974000,1.980000,1.988000,1.991000,2.000000,2.000000,1.999000,1.992000,1.992000,1.993000,2.000000,2.000000,1.999000,1.994000,2.011000,2.013000,2.022000,2.024000,2.025000,2.037000,2.027000,2.024000,2.024000,2.024000,2.037000,0.000000,0.000000,0.000000,0.000000,0.000000,0.000000,0.000000,
0.000000,0.000000,0.000000,0.000000,2.456000,1.987000,1.977000,1.977000,1.977000,1.982000,1.989000,1.991000,2.000000,2.000000,1.999000,1.990000,1.989000,1.989000,1.994000,2.000000,1.999000,1.990000,1.998000,2.000000,2.000000,2.008000,2.013000,2.036000,2.036000,2.024000,2.024000,2.024000,2.025000,2.037000,0.000000,0.000000,0.000000,0.000000,0.000000,0.000000,
0.000000,0.000000,0.000000,0.000000,0.000000,2.908000,1.982000,1.978000,1.977000,1.977000,1.987000,1.990000,1.997000,2.000000,2.000000,1.995000,1.989000,1.994000,1.997000,2.000000,2.000000,2.000000,2.000000,2.000000,2.000000,2.000000,2.002000,2.019000,2.019000,2.024000,2.024000,2.024000,2.014000,2.027000,0.000000,0.000000,0.000000,0.000000,0.000000,0.000000,
0.000000,0.000000,0.000000,0.000000,0.000000,0.000000,1.989000,1.979000,1.978000,1.982000,1.979000,1.989000,1.990000,1.998000,2.000000,1.995000,1.989000,1.993000,2.000000,2.000000,2.000000,2.000000,2.000000,2.009000,2.013000,2.004000,2.000000,2.003000,2.010000,2.006000,2.009000,2.022000,2.000000,2.004000,2.009000,0.000000,0.000000,0.000000,0.000000,0.000000,
0.000000,0.000000,0.000000,0.000000,0.000000,0.000000,0.000000,1.989000,1.989000,1.983000,1.977000,1.979000,1.989000,1.997000,1.999000,1.994000,1.989000,1.991000,2.000000,2.000000,2.000000,2.000000,2.000000,2.011000,2.001000,1.989000,2.000000,2.000000,2.009000,2.002000,2.001000,2.000000,2.000000,2.000000,2.001000,2.212000,0.000000,0.000000,0.000000,0.000000,
0.000000,0.000000,0.000000,0.000000,0.000000,0.000000,0.000000,2.180000,1.985000,1.983000,1.977000,1.979000,1.989000,1.989000,1.989000,1.989000,1.989000,1.995000,1.997000,2.000000,2.000000,2.003000,2.002000,2.000000,1.995000,1.989000,2.010000,2.008000,2.012000,2.019000,2.011000,2.000000,2.000000,2.005000,2.010000,2.156000,0.000000,0.000000,0.000000,0.000000,
0.000000,0.000000,0.000000,0.000000,0.000000,0.000000,0.000000,2.432000,1.979000,1.983000,1.977000,1.986000,1.989000,1.989000,1.989000,1.989000,1.989000,1.989000,1.994000,2.000000,2.000000,1.996000,1.992000,2.000000,1.995000,1.989000,2.006000,2.012000,2.012000,2.012000,2.007000,2.000000,2.001000,2.008000,2.003000,2.037000,0.000000,0.000000,0.000000,0.000000,
0.000000,0.000000,0.000000,0.000000,0.000000,0.000000,0.000000,0.000000,0.000000,1.990000,1.989000,1.989000,1.990000,1.989000,1.989000,1.989000,1.989000,1.990000,2.000000,2.000000,2.000000,1.996000,1.990000,2.000000,1.996000,1.990000,2.000000,2.000000,2.000000,2.012000,2.008000,2.001000,2.002000,2.008000,2.001000,2.011000,2.011000,0.000000,0.000000,0.000000,
0.000000,0.000000,0.000000,0.000000,0.000000,0.000000,0.000000,0.000000,0.000000,1.998000,1.989000,1.990000,1.995000,1.990000,1.989000,1.989000,1.989000,1.990000,2.000000,2.000000,2.000000,2.000000,2.000000,1.995000,1.995000,1.995000,1.996000,2.000000,2.000000,2.008000,2.020000,2.019000,2.012000,2.012000,2.012000,2.000000,2.000000,0.000000,0.000000,0.000000,
0.000000,0.000000,0.000000,0.000000,0.000000,0.000000,0.000000,0.000000,0.000000,1.995000,1.989000,1.989000,1.989000,1.989000,1.989000,1.989000,1.989000,1.989000,1.995000,2.000000,2.000000,2.000000,2.000000,1.989000,1.989000,1.989000,1.990000,2.000000,2.000000,2.001000,2.015000,2.015000,2.012000,2.012000,2.012000,2.000000,2.000000,0.000000,0.000000,0.000000,
0.000000,0.000000,0.000000,0.000000,0.000000,0.000000,0.000000,0.000000,0.000000,1.989000,1.989000,1.989000,1.989000,1.989000,1.989000,1.983000,1.977000,1.989000,1.994000,2.000000,2.000000,2.000000,2.000000,1.989000,1.989000,1.989000,1.990000,2.000000,2.000000,2.001000,2.006000,2.000000,2.000000,2.005000,2.012000,2.000000,2.005000,0.000000,0.000000,0.000000,
0.000000,0.000000,0.000000,0.000000,0.000000,0.000000,0.000000,0.000000,0.000000,1.989000,1.989000,1.989000,1.989000,1.989000,1.989000,1.986000,1.982000,1.989000,1.992000,1.996000,2.000000,2.000000,1.997000,1.989000,1.989000,1.989000,1.990000,2.000000,2.000000,2.000000,2.000000,2.000000,2.000000,2.008000,2.012000,2.000000,2.005000,0.000000,0.000000,0.000000,
0.000000,0.000000,0.000000,0.000000,0.000000,0.000000,0.000000,0.000000,0.000000,2.949000,1.971000,1.974000,1.989000,1.989000,1.989000,1.989000,1.989000,1.989000,1.989000,1.989000,1.992000,1.995000,1.992000,1.989000,1.989000,1.995000,1.997000,2.000000,2.000000,2.000000,2.000000,2.000000,2.001000,2.016000,2.021000,2.000000,2.913000,0.000000,0.000000,0.000000,
0.000000,0.000000,0.000000,0.000000,0.000000,0.000000,0.000000,0.000000,0.000000,0.000000,1.965000,1.968000,1.988000,1.988000,1.988000,1.989000,1.989000,1.989000,1.989000,1.988000,1.989000,1.994000,2.000000,1.989000,1.989000,1.998000,2.000000,2.000000,2.000000,2.001000,2.008000,2.002000,2.029000,0.000000,0.000000,0.000000,0.000000,0.000000,0.000000,0.000000,
0.000000,0.000000,0.000000,0.000000,0.000000,0.000000,0.000000,0.000000,0.000000,0.000000,1.814000,1.965000,1.971000,1.977000,1.979000,1.989000,1.989000,1.989000,1.984000,1.977000,1.985000,1.989000,1.997000,1.993000,1.994000,1.996000,2.000000,2.000000,2.000000,2.001000,2.019000,2.029000,2.273000,0.000000,0.000000,0.000000,0.000000,0.000000,0.000000,0.000000,
0.000000,0.000000,0.000000,0.000000,0.000000,0.000000,0.000000,0.000000,0.000000,0.000000,2.200000,1.965000,1.971000,1.977000,1.969000,1.972000,1.972000,1.972000,1.970000,1.968000,1.977000,1.980000,1.989000,1.993000,1.995000,1.989000,2.000000,2.000000,2.000000,2.011000,2.033000,0.000000,0.000000,0.000000,0.000000,0.000000,0.000000,0.000000,0.000000,0.000000,
0.000000,0.000000,0.000000,0.000000,0.000000,0.000000,0.000000,0.000000,0.000000,0.000000,2.551000,2.095000,1.971000,1.967000,1.965000,1.965000,1.965000,1.965000,1.966000,1.966000,1.977000,1.977000,1.986000,1.989000,1.994000,2.000000,1.989000,1.883000,1.883000,1.896000,1.967000,0.000000,0.000000,0.000000,0.000000,0.000000,0.000000,0.000000,0.000000,0.000000,
0.000000,0.000000,0.000000,0.000000,0.000000,0.000000,0.000000,0.000000,0.000000,0.000000,0.000000,0.000000,1.977000,1.964000,1.961000,1.961000,1.964000,1.971000,1.977000,1.977000,1.981000,1.977000,1.986000,1.989000,1.994000,2.000000,1.101000,0.000000,0.000000,0.000000,1.303000,0.000000,0.000000,0.000000,0.000000,0.000000,0.000000,0.000000,0.000000,0.000000,
0.000000,0.000000,0.000000,0.000000,0.000000,0.000000,0.000000,0.000000,0.000000,0.000000,0.000000,0.000000,2.939000,1.957000,1.954000,1.954000,1.956000,1.977000,1.981000,1.986000,1.988000,1.977000,1.986000,1.989000,1.987000,1.983000,0.000000,0.000000,0.000000,1.509000,2.037000,2.037000,0.000000,0.000000,0.000000,0.000000,0.000000,0.000000,0.000000,0.000000,
0.000000,0.000000,0.000000,0.000000,0.000000,0.000000,0.000000,0.000000,0.000000,0.000000,0.000000,0.000000,0.000000,1.988000,1.954000,1.954000,1.954000,1.993000,2.122000,2.126000,2.419000,0.000000,1.966000,1.977000,1.977000,1.902000,0.000000,0.000000,1.457000,2.035000,2.038000,2.036000,2.011000,2.011000,0.000000,0.000000,0.000000,0.000000,0.000000,0.000000,
