0.000000,1.970000,1.970000,1.964000,1.955000,1.977000,1.985000,1.826000,2.189000,2.189000,0.000000,2.609000,2.066000,2.064000,2.513000,0.000000,1.955000,1.966000,1.970000,1.970000,1.973000,2.817000,0.000000,0.000000,0.000000,0.000000,0.000000,0.000000,0.000000,0.000000,0.000000,0.000000,0.000000,0.000000,0.000000,0.000000,0.000000,0.000000,0.000000,0.000000,
0.000000,1.970000,1.970000,1.964000,1.955000,1.980000,1.989000,1.046000,0.000000,0.000000,0.000000,2.601000,2.053000,2.054000,2.014000,1.965000,1.959000,1.964000,1.966000,1.970000,1.977000,1.999000,2.025000,2.032000,0.000000,0.000000,0.000000,0.000000,0.000000,0.000000,0.000000,0.000000,0.000000,0.000000,0.000000,0.000000,0.000000,0.000000,0.000000,0.000000,
0.000000,1.976000,1.976000,1.973000,1.967000,2.002000,2.773000,0.000000,0.000000,0.000000,0.000000,2.346000,2.016000,2.024000,1.995000,1.968000,1.964000,1.957000,1.955000,1.971000,1.982000,2.003000,2.021000,2.025000,2.025000,0.000000,0.000000,0.000000,0.000000,0.000000,0.000000,0.000000,0.000000,0.000000,0.000000,0.000000,0.000000,0.000000,0.000000,0.000000,
0.000000,1.994000,1.996000,2.504000,0.000000,0.000000,0.000000,0.000000,0.000000,0.000000,2.425000,2.020000,2.016000,2.005000,1.975000,1.964000,1.955000,1.955000,1.955000,1.970000,1.971000,1.988000,2.012000,2.016000,2.016000,0.000000,0.000000,0.000000,0.000000,0.000000,0.000000,0.000000,0.000000,0.000000,0.000000,0.000000,0.000000,0.000000,0.000000,0.000000,
0.000000,0.000000,0.000000,0.000000,0.000000,0.000000,0.000000,0.000000,2.593000,2.369000,2.042000,2.011000,2.004000,1.998000,1.970000,1.964000,1.955000,1.955000,1.955000,1.959000,1.961000,1.977000,1.997000,2.004000,2.015000,2.704000,0.000000,0.000000,0.000000,0.000000,0.000000,0.000000,0.000000,0.000000,0.000000,0.000000,0.000000,0.000000,0.000000,0.000000,
0.000000,0.000000,0.000000,0.000000,2.976000,2.197000,2.197000,2.191000,2.047000,2.029000,2.019000,1.994000,1.986000,1.985000,1.970000,1.964000,1.955000,1.955000,1.955000,1.955000,1.958000,1.971000,1.980000,1.996000,2.014000,2.144000,0.000000,0.000000,0.000000,0.000000,0.000000,0.000000,0.000000,0.000000,0.000000,0.000000,0.000000,0.000000,0.000000,0.000000,
0.000000,0.000000,0.000000,0.000000,2.804000,2.016000,2.016000,2.016000,2.016000,2.015000,2.006000,1.990000,1.986000,1.984000,1.971000,1.970000,1.962000,1.956000,1.956000,1.970000,1.970000,1.970000,1.978000,1.995000,2.014000,2.017000,2.032000,2.904000,0.000000,0.000000,0.000000,0.000000,0.000000,0.000000,0.000000,0.000000,0.000000,0.000000,0.000000,0.000000,
0.000000,0.000000,0.000000,0.000000,2.000000,2.012000,2.016000,2.012000,2.009000,2.000000,2.000000,1.997000,1.996000,1.985000,1.979000,1.970000,1.970000,1.970000,1.970000,1.970000,1.970000,1.970000,1.970000,1.981000,2.009000,2.017000,2.032000,2.693000,0.000000,0.000000,0.000000,0.000000,0.000000,0.000000,0.000000,0.000000,0.000000,0.000000,0.000000,0.000000,
0.000000,0.000000,0.000000,2.692000,2.000000,2.012000,2.016000,2.000000,2.002000,2.004000,2.000000,1.989000,1.985000,1.984000,1.970000,1.970000,1.970000,1.970000,1.970000,1.970000,1.970000,1.970000,1.970000,1.976000,1.992000,2.017000,2.032000,2.032000,0.000000,0.000000,0.000000,0.000000,0.000000,0.000000,0.000000,0.000000,0.000000,0.000000,0.000000,0.000000,
0.000000,2.781000,2.000000,2.000000,2.000000,2.012000,2.016000,2.000000,2.004000,2.013000,2.004000,1.995000,1.994000,1.993000,1.985000,1.979000,1.979000,1.979000,1.979000,1.970000,1.970000,1.970000,1.970000,1.970000,1.976000,1.991000,2.007000,2.021000,2.563000,0.000000,0.000000,0.000000,0.000000,0.000000,0.000000,0.000000,0.000000,0.000000,0.000000,0.000000,
0.000000,2.000000,2.000000,2.000000,2.000000,2.012000,2.016000,2.012000,2.013000,2.016000,2.007000,2.000000,2.000000,2.000000,1.996000,1.985000,1.985000,1.985000,1.985000,1.970000,1.970000,1.970000,1.970000,1.970000,1.970000,1.971000,1.986000,2.001000,2.020000,2.451000,0.000000,0.000000,0.000000,0.000000,0.000000,0.000000,0.000000,0.000000,0.000000,0.000000,
0.000000,2.013000,2.000000,2.000000,2.000000,2.012000,2.016000,2.016000,2.016000,2.016000,2.015000,2.004000,2.000000,2.000000,2.000000,1.999000,1.999000,1.989000,1.985000,1.970000,1.970000,1.970000,1.970000,1.970000,1.970000,1.970000,1.974000,1.991000,2.010000,2.028000,2.218000,0.000000,0.000000,0.000000,0.000000,0.000000,0.000000,0.000000,0.000000,0.000000,
0.000000,2.016000,2.012000,2.000000,2.000000,2.012000,2.016000,2.016000,2.016000,2.016000,2.016000,2.005000,2.001000,2.015000,2.001000,1.994000,1.985000,1.985000,1.985000,1.970000,1.970000,1.970000,1.970000,1.970000,1.970000,1.970000,1.973000,1.991000,2.009000,2.016000,2.016000,2.142000,0.000000,0.000000,0.000000,0.000000,0.000000,0.000000,0.000000,0.000000,
0.000000,2.016000,2.013000,2.004000,2.004000,2.013000,2.016000,2.016000,2.016000,2.016000,2.016000,2.016000,2.016000,2.016000,2.012000,1.994000,1.985000,1.985000,1.985000,1.973000,1.970000,1.970000,1.970000,1.970000,1.970000,1.970000,1.973000,1.986000,2.004000,2.015000,2.016000,2.144000,0.000000,0.000000,0.000000,0.000000,0.000000,0.000000,0.000000,0.000000,
0.000000,2.016000,2.016000,2.016000,2.016000,2.016000,2.016000,2.016000,2.016000,2.016000,2.016000,2.016000,2.016000,2.016000,2.012000,1.994000,1.985000,1.985000,1.985000,1.984000,1.970000,1.970000,1.970000,1.970000,1.970000,1.970000,1.970000,1.970000,1.987000,2.007000,2.015000,2.086000,0.000000,0.000000,0.000000,0.000000,0.000000,0.000000,0.000000,0.000000,
0.000000,2.024000,2.016000,2.016000,2.016000,2.016000,2.016000,2.016000,2.016000,2.016000,2.016000,2.016000,2.016000,2.016000,2.014000,2.003000,1.993000,1.987000,1.985000,1.984000,1.970000,1.970000,1.970000,1.970000,1.970000,1.970000,1.970000,1.973000,1.986000,1.992000,2.005000,2.008000,2.512000,0.000000,0.000000,0.000000,0.000000,0.000000,0.000000,0.000000,
0.000000,0.000000,2.016000,2.021000,2.028000,2.028000,2.028000,2.016000,2.016000,2.016000,2.016000,2.016000,2.016000,2.016000,2.016000,2.010000,2.000000,1.997000,1.986000,1.985000,1.978000,1.970000,1.970000,1.970000,1.970000,1.970000,1.970000,1.976000,1.985000,1.985000,1.998000,2.002000,2.162000,0.000000,0.000000,0.000000,0.000000,0.000000,0.000000,0.000000,
0.000000,0.000000,2.016000,2.023000,2.032000,2.032000,2.032000,2.016000,2.016000,2.016000,2.016000,2.016000,2.016000,2.016000,2.016000,2.015000,2.006000,2.000000,1.987000,1.985000,1.985000,1.983000,1.983000,1.983000,1.971000,1.970000,1.970000,1.971000,1.979000,1.985000,1.986000,2.002000,2.032000,2.122000,0.000000,0.000000,0.000000,0.000000,0.000000,0.000000,
0.000000,0.000000,2.033000,2.033000,2.032000,2.032000,2.032000,2.031000,2.031000,2.032000,2.032000,2.020000,2.016000,2.016000,2.016000,2.016000,2.007000,2.000000,1.987000,1.985000,1.985000,1.985000,1.985000,1.985000,1.985000,1.970000,1.970000,1.970000,1.970000,1.970000,1.983000,2.004000,2.032000,2.033000,0.000000,0.000000,0.000000,0.000000,0.000000,0.000000,
0.000000,0.000000,2.373000,2.043000,2.036000,2.036000,2.032000,2.016000,2.020000,2.032000,2.032000,2.020000,2.016000,2.016000,2.016000,2.016000,2.007000,2.000000,1.990000,1.988000,1.988000,1.985000,1.985000,1.985000,1.985000,1.970000,1.970000,1.970000,1.970000,1.970000,1.980000,2.029000,2.035000,2.046000,0.000000,0.000000,0.000000,0.000000,0.000000,0.000000,
0.000000,0.000000,0.000000,2.485000,2.048000,2.048000,2.039000,2.022000,2.025000,2.032000,2.032000,2.025000,2.017000,2.016000,2.016000,2.016000,2.011000,2.002000,2.000000,2.000000,1.998000,1.991000,1.988000,1.985000,1.985000,1.970000,1.970000,1.970000,1.967000,1.964000,1.969000,2.005000,2.027000,2.036000,2.045000,0.000000,0.000000,0.000000,0.000000,0.000000,
0.000000,0.000000,0.000000,0.000000,2.506000,2.048000,2.048000,2.032000,2.032000,2.032000,2.032000,2.032000,2.018000,2.016000,2.016000,2.016000,2.016000,2.011000,2.001000,2.000000,2.000000,2.000000,1.992000,1.985000,1.985000,1.970000,1.970000,1.970000,1.962000,1.955000,1.961000,1.986000,2.010000,2.026000,2.041000,2.048000,0.000000,0.000000,0.000000,0.000000,
0.000000,0.000000,0.000000,0.000000,0.000000,0.000000,2.181000,2.053000,2.032000,2.032000,2.032000,2.032000,2.028000,2.016000,2.016000,2.016000,2.016000,2.016000,2.012000,2.011000,2.000000,2.000000,1.998000,1.988000,1.985000,1.970000,1.970000,1.970000,1.962000,1.955000,1.955000,1.985000,1.992000,2.010000,2.029000,2.036000,2.590000,0.000000,0.000000,0.000000,
0.000000,0.000000,0.000000,0.000000,0.000000,0.000000,2.245000,2.063000,2.046000,2.040000,2.032000,2.032000,2.032000,2.029000,2.016000,2.016000,2.016000,2.016000,2.016000,2.015000,2.000000,2.000000,2.000000,1.999000,1.998000,1.996000,1.983000,1.978000,1.969000,1.968000,1.968000,1.972000,1.975000,1.998000,2.025000,2.032000,2.032000,2.373000,0.000000,0.000000,
0.000000,0.000000,0.000000,0.000000,0.000000,0.000000,0.000000,2.063000,2.048000,2.048000,2.048000,2.036000,2.032000,2.032000,2.028000,2.016000,2.016000,2.016000,2.016000,2.016000,2.013000,2.001000,2.001000,2.000000,2.000000,1.985000,1.985000,1.980000,1.970000,1.970000,1.970000,1.971000,1.974000,1.991000,2.017000,2.032000,2.032000,2.032000,2.032000,0.000000,
0.000000,0.000000,0.000000,0.000000,0.000000,0.000000,0.000000,2.459000,2.048000,2.048000,2.048000,2.039000,2.032000,2.032000,2.029000,2.020000,2.018000,2.016000,2.019000,2.016000,2.016000,2.016000,2.016000,2.004000,2.000000,1.988000,1.988000,1.985000,1.979000,1.973000,1.973000,1.985000,1.985000,1.989000,2.003000,2.020000,2.028000,2.032000,2.032000,0.000000,
0.000000,0.000000,0.000000,0.000000,0.000000,0.000000,0.000000,0.000000,2.042000,2.044000,2.048000,2.043000,2.033000,2.032000,2.032000,2.032000,2.026000,2.022000,2.031000,2.016000,2.016000,2.016000,2.016000,2.009000,2.001000,2.000000,1.998000,1.991000,1.988000,1.985000,1.985000,1.985000,1.985000,1.985000,1.985000,1.992000,2.008000,2.020000,2.026000,0.000000,
0.000000,0.000000,0.000000,0.000000,0.000000,0.000000,0.000000,0.000000,2.032000,2.039000,2.048000,2.036000,2.032000,2.032000,2.032000,2.032000,2.032000,2.032000,2.032000,2.024000,2.016000,2.016000,2.016000,2.016000,2.010000,2.000000,2.000000,2.000000,1.992000,1.985000,1.985000,1.985000,1.985000,1.985000,1.985000,1.985000,1.991000,2.000000,2.007000,0.000000,
0.000000,0.000000,0.000000,0.000000,0.000000,0.000000,0.000000,0.000000,0.000000,2.045000,2.048000,2.036000,2.032000,2.032000,2.032000,2.032000,2.032000,2.032000,2.032000,2.031000,2.016000,2.016000,2.016000,2.016000,2.016000,2.000000,2.000000,2.000000,1.992000,1.985000,1.985000,1.985000,1.985000,1.985000,1.985000,1.985000,1.985000,2.000000,1.989000,0.000000,
0.000000,0.000000,0.000000,0.000000,0.000000,0.000000,0.000000,0.000000,0.000000,0.000000,2.062000,2.040000,2.032000,2.032000,2.032000,2.032000,2.032000,2.032000,2.032000,2.031000,2.016000,2.016000,2.016000,2.016000,2.016000,2.000000,2.000000,2.000000,1.999000,1.989000,1.985000,1.985000,1.985000,1.985000,1.985000,1.985000,1.985000,1.987000,1.985000,0.000000,
0.000000,0.000000,0.000000,0.000000,0.000000,0.000000,0.000000,0.000000,0.000000,0.000000,2.889000,2.054000,2.048000,2.033000,2.032000,2.032000,2.032000,2.032000,2.032000,2.031000,2.017000,2.016000,2.016000,2.016000,2.016000,2.015000,2.000000,2.000000,2.000000,1.989000,1.985000,1.985000,1.985000,1.985000,1.986000,1.996000,2.000000,1.970000,1.970000,0.000000,
0.000000,0.000000,0.000000,0.000000,0.000000,0.000000,0.000000,0.000000,0.000000,0.000000,0.000000,2.191000,2.055000,2.047000,2.035000,2.035000,2.035000,2.033000,2.032000,2.032000,2.028000,2.016000,2.016000,2.016000,2.016000,2.015000,2.000000,2.000000,2.000000,1.989000,1.985000,1.985000,1.985000,1.991000,2.002000,2.003000,2.000000,1.998000,2.469000,0.000000,
0.000000,0.000000,0.000000,0.000000,0.000000,0.000000,0.000000,0.000000,0.000000,0.000000,0.000000,2.593000,2.067000,2.048000,2.048000,2.048000,2.048000,2.041000,2.033000,2.032000,2.028000,2.016000,2.016000,2.016000,2.016000,2.015000,2.000000,2.000000,2.000000,1.989000,1.985000,1.985000,1.986000,1.999000,2.474000,2.873000,2.871000,2.932000,0.000000,0.000000,
0.000000,0.000000,0.000000,0.000000,0.000000,0.000000,0.000000,0.000000,0.000000,0.000000,0.000000,0.000000,2.169000,2.057000,2.055000,2.048000,2.048000,2.048000,2.034000,2.032000,2.028000,2.016000,2.016000,2.016000,2.016000,2.015000,2.000000,2.000000,2.000000,1.989000,1.985000,1.985000,2.250000,0.000000,0.000000,0.000000,0.000000,0.000000,0.000000,0.000000,
0.000000,0.000000,0.000000,0.000000,0.000000,0.000000,0.000000,0.000000,0.000000,0.000000,0.000000,0.000000,0.000000,2.064000,2.063000,2.059000,2.059000,2.051000,2.044000,2.032000,2.028000,2.016000,2.016000,2.016000,2.016000,2.015000,2.000000,2.000000,2.000000,1.997000,1.996000,2.073000,0.000000,0.000000,0.000000,0.000000,0.000000,0.000000,0.000000,0.000000,
0.000000,0.000000,0.000000,0.000000,0.000000,0.000000,0.000000,0.000000,0.000000,0.000000,0.000000,0.000000,0.000000,2.078000,2.075000,2.064000,2.064000,2.063000,2.049000,2.032000,2.032000,2.025000,2.016000,2.016000,2.016000,2.002000,2.000000,2.000000,2.008000,2.014000,0.000000,0.000000,0.000000,0.000000,0.000000,0.000000,0.000000,0.000000,0.000000,0.000000,
0.000000,0.000000,0.000000,0.000000,0.000000,0.000000,0.000000,0.000000,0.000000,0.000000,0.000000,0.000000,0.000000,0.000000,2.076000,2.064000,2.064000,2.064000,2.064000,2.032000,2.032000,2.026000,2.017000,2.017000,2.016000,2.000000,2.000000,2.036000,0.000000,0.000000,0.000000,0.000000,0.000000,0.000000,0.000000,0.000000,0.000000,0.000000,0.000000,0.000000,
0.000000,0.000000,0.000000,0.000000,0.000000,0.000000,0.000000,0.000000,0.000000,0.000000,0.000000,0.000000,0.000000,0.000000,2.383000,2.066000,2.071000,2.065000,2.061000,2.032000,2.032000,2.032000,2.032000,2.032000,2.018000,2.030000,2.462000,0.000000,0.000000,0.000000,0.000000,0.000000,0.000000,0.000000,0.000000,0.000000,0.000000,0.000000,0.000000,0.000000,
0.000000,0.000000,0.000000,0.000000,0.000000,0.000000,0.000000,0.000000,0.000000,0.000000,0.000000,0.000000,0.000000,0.000000,0.000000,2.503000,2.061000,2.051000,2.043000,2.032000,2.032000,2.032000,2.035000,2.047000,2.041000,2.160000,0.000000,0.000000,0.000000,0.000000,0.000000,0.000000,0.000000,0.000000,0.000000,0.000000,0.000000,0.000000,0.000000,0.000000,
0.000000,0.000000,0.000000,0.000000,0.000000,0.000000,0.000000,0.000000,0.000000,0.000000,0.000000,0.000000,0.000000,0.000000,0.000000,0.000000,2.494000,2.042000,2.033000,2.032000,2.032000,2.035000,2.054000,2.083000,2.081000,2.192000,0.000000,0.000000,0.000000,0.000000,0.000000,0.000000,0.000000,0.000000,0.000000,0.000000,0.000000,0.000000,0.000000,0.000000,
