40 40
0.000000 0.000000 0.000000 0.000000 0.000000 0.000000 0.000000 0.000000 0.000000 0.000000 0.000000 0.000000 0.000000 0.000000 0.000000 0.000000 0.000000 0.000000 0.000000 0.000000 0.000000 0.000000 0.000000 0.000000 0.000000 0.000000 0.000000 0.000000 0.000000 0.000000 0.000000 0.000000 0.000000 0.000000 0.000000 0.000000 0.000000 0.000000 0.000000 0.000000 
0.000000 0.000000 0.000000 0.000000 0.000000 0.000000 0.000000 0.000000 0.000000 0.000000 0.000000 0.000000 0.000000 0.000000 0.000000 0.000000 0.000000 0.000000 0.000000 0.000000 0.000000 0.000000 0.000000 0.000000 0.000000 0.000000 0.000000 0.000000 0.000000 0.000000 0.000000 0.000000 0.000000 0.000000 0.000000 0.000000 0.000000 0.000000 0.000000 0.000000 
0.000000 0.000000 0.000000 0.000000 0.000000 0.000000 0.000000 0.000000 2.049000 2.046000 2.045000 2.048000 2.056000 2.062000 2.154000 0.000000 0.000000 0.000000 0.000000 0.000000 0.000000 0.000000 0.000000 0.000000 0.000000 0.000000 0.000000 0.000000 0.000000 0.000000 2.151000 2.051000 0.000000 0.000000 0.000000 0.000000 0.000000 0.000000 0.000000 0.000000 
0.000000 0.000000 0.000000 0.000000 0.000000 0.000000 0.000000 2.197000 2.045000 2.045000 2.041000 2.037000 2.035000 2.033000 2.032000 2.030000 2.026000 2.164000 2.016000 2.103000 2.167000 0.000000 0.000000 0.000000 0.000000 2.062000 2.062000 2.201000 2.191000 2.104000 2.045000 2.045000 2.187000 0.000000 0.000000 0.000000 0.000000 0.000000 0.000000 0.000000 
0.000000 0.000000 0.000000 0.000000 0.000000 0.000000 0.000000 2.041000 2.045000 2.045000 2.041000 2.036000 2.030000 2.025000 2.024000 2.020000 2.020000 2.016000 2.015000 2.006000 2.007000 2.003000 2.002000 1.996000 1.994000 1.993000 2.026000 1.983000 2.029000 2.021000 2.026000 2.034000 2.048000 0.000000 0.000000 0.000000 0.000000 0.000000 0.000000 0.000000 
0.000000 0.000000 0.000000 0.000000 0.000000 0.000000 2.352000 2.013000 2.045000 2.045000 2.041000 2.032000 2.030000 2.025000 2.022000 2.020000 2.017000 2.016000 2.015000 2.006000 2.002000 2.000000 1.995000 1.989000 1.988000 1.985000 1.981000 1.976000 1.973000 1.968000 1.970000 1.977000 2.037000 0.000000 0.000000 0.000000 0.000000 0.000000 0.000000 0.000000 
0.000000 0.000000 0.000000 0.000000 0.000000 0.000000 0.000000 2.037000 2.045000 2.045000 2.038000 2.032000 2.030000 2.028000 2.020000 2.017000 2.017000 2.016000 2.012000 2.004000 2.000000 1.999000 1.994000 1.989000 1.988000 1.984000 1.981000 1.976000 1.973000 1.970000 1.972000 1.982000 2.024000 0.000000 0.000000 0.000000 0.000000 0.000000 0.000000 0.000000 
0.000000 0.000000 0.000000 0.000000 0.000000 0.000000 0.000000 2.001000 2.047000 2.043000 2.036000 2.032000 2.030000 2.024000 2.016000 2.016000 2.020000 2.016000 2.008000 2.004000 2.000000 2.000000 1.996000 1.992000 1.988000 1.984000 1.982000 1.976000 1.973000 1.971000 1.969000 1.989000 2.026000 0.000000 0.000000 0.000000 0.000000 0.000000 0.000000 0.000000 
0.000000 0.000000 0.000000 0.000000 0.000000 0.000000 2.751000 2.039000 2.043000 2.039000 2.033000 2.032000 2.029000 2.025000 2.016000 2.016000 2.020000 2.016000 2.008000 2.004000 2.000000 2.000000 1.996000 1.989000 1.988000 1.984000 1.981000 1.976000 1.973000 1.973000 1.969000 1.981000 2.016000 0.000000 0.000000 0.000000 0.000000 0.000000 0.000000 0.000000 
0.000000 0.000000 0.000000 0.000000 0.000000 0.000000 1.437000 2.039000 2.041000 2.037000 2.032000 2.032000 2.028000 2.027000 2.019000 2.016000 2.017000 2.016000 2.011000 2.004000 2.000000 1.999000 1.994000 1.989000 1.988000 1.981000 1.980000 1.976000 1.973000 1.970000 1.969000 1.983000 2.026000 0.000000 0.000000 0.000000 0.000000 0.000000 0.000000 0.000000 
0.000000 0.000000 0.000000 0.000000 0.000000 0.000000 1.725000 2.041000 2.045000 2.036000 2.032000 2.031000 2.028000 2.025000 2.016000 2.016000 2.016000 2.012000 2.011000 2.004000 2.000000 1.996000 1.994000 1.988000 1.984000 1.980000 1.977000 1.976000 1.973000 1.969000 1.973000 2.004000 2.033000 0.000000 0.000000 0.000000 0.000000 0.000000 0.000000 0.000000 
0.000000 0.000000 0.000000 0.000000 0.000000 0.000000 2.372000 2.044000 2.043000 2.037000 2.032000 2.032000 2.027000 2.023000 2.016000 2.012000 2.016000 2.008000 2.007000 2.004000 2.000000 1.995000 1.991000 1.989000 1.986000 1.984000 1.977000 1.973000 1.972000 1.969000 1.973000 2.012000 2.024000 0.000000 0.000000 0.000000 0.000000 0.000000 0.000000 0.000000 
0.000000 0.000000 0.000000 0.000000 0.000000 0.000000 1.596000 2.044000 2.040000 2.034000 2.032000 2.032000 2.026000 2.021000 2.016000 2.012000 2.013000 2.008000 2.005000 2.004000 2.000000 1.995000 1.988000 1.988000 1.984000 1.984000 1.980000 1.973000 1.969000 1.969000 1.973000 2.012000 2.024000 0.000000 0.000000 0.000000 0.000000 0.000000 0.000000 0.000000 
0.000000 0.000000 0.000000 0.000000 0.000000 0.000000 0.000000 2.045000 2.040000 2.032000 2.032000 2.031000 2.026000 2.021000 2.016000 2.012000 2.012000 2.008000 2.004000 2.004000 2.000000 1.996000 1.992000 1.988000 1.984000 1.982000 1.977000 1.973000 1.969000 1.969000 1.973000 2.018000 2.024000 0.000000 0.000000 0.000000 0.000000 0.000000 0.000000 0.000000 
0.000000 0.000000 0.000000 0.000000 0.000000 0.000000 2.150000 2.045000 2.041000 2.034000 2.032000 2.028000 2.027000 2.021000 2.016000 2.012000 2.012000 2.009000 2.004000 2.004000 2.000000 1.995000 1.992000 1.988000 1.984000 1.980000 1.980000 1.973000 1.969000 1.969000 1.973000 2.019000 2.025000 0.000000 0.000000 0.000000 0.000000 0.000000 0.000000 0.000000 
0.000000 0.000000 0.000000 0.000000 0.000000 0.000000 1.620000 2.041000 2.041000 2.034000 2.032000 2.031000 2.024000 2.018000 2.016000 2.012000 2.013000 2.008000 2.004000 2.002000 2.000000 1.992000 1.992000 1.989000 1.984000 1.984000 1.977000 1.973000 1.969000 1.969000 1.973000 2.014000 2.030000 0.000000 0.000000 0.000000 0.000000 0.000000 0.000000 0.000000 
0.000000 0.000000 0.000000 0.000000 0.000000 0.000000 0.000000 2.041000 2.037000 2.034000 2.032000 2.028000 2.026000 2.017000 2.016000 2.012000 2.016000 2.008000 2.004000 2.002000 1.996000 1.992000 1.992000 1.988000 1.984000 1.983000 1.976000 1.973000 1.971000 1.969000 1.973000 2.006000 2.028000 0.000000 0.000000 0.000000 0.000000 0.000000 0.000000 0.000000 
0.000000 0.000000 0.000000 0.000000 0.000000 0.000000 1.623000 1.988000 2.041000 2.034000 2.029000 2.024000 2.020000 2.017000 2.015000 2.012000 2.013000 2.004000 2.004000 2.002000 1.996000 1.992000 1.992000 1.988000 1.984000 1.982000 1.977000 1.973000 1.969000 1.969000 1.973000 2.010000 2.024000 0.000000 0.000000 0.000000 0.000000 0.000000 0.000000 0.000000 
0.000000 0.000000 0.000000 0.000000 0.000000 0.000000 1.832000 2.045000 2.032000 2.032000 2.029000 2.024000 2.018000 2.016000 2.012000 2.012000 2.013000 2.004000 2.004000 2.001000 1.996000 1.991000 1.988000 1.988000 1.984000 1.980000 1.974000 1.969000 1.969000 1.969000 1.981000 2.010000 2.030000 0.000000 0.000000 0.000000 0.000000 0.000000 0.000000 0.000000 
0.000000 0.000000 0.000000 0.000000 0.000000 0.000000 1.620000 2.035000 2.032000 2.032000 2.029000 2.024000 2.020000 2.016000 2.012000 2.012000 2.013000 2.004000 2.003000 2.000000 1.996000 1.992000 1.988000 1.988000 1.984000 1.977000 1.973000 1.969000 1.969000 1.969000 1.977000 2.010000 1.427000 0.000000 0.000000 0.000000 0.000000 0.000000 0.000000 0.000000 
0.000000 0.000000 0.000000 0.000000 0.000000 0.000000 1.620000 2.037000 2.036000 2.032000 2.029000 2.024000 2.020000 2.016000 2.016000 2.012000 2.016000 2.004000 2.004000 2.000000 1.997000 1.995000 1.988000 1.988000 1.984000 1.975000 1.973000 1.973000 1.969000 1.969000 1.973000 2.010000 2.024000 0.000000 0.000000 0.000000 0.000000 0.000000 0.000000 0.000000 
0.000000 0.000000 0.000000 0.000000 0.000000 0.000000 1.618000 2.035000 2.036000 2.032000 2.029000 2.024000 2.018000 2.012000 2.016000 2.012000 2.015000 2.004000 2.004000 2.000000 2.000000 1.995000 1.988000 1.988000 1.984000 1.978000 1.973000 1.973000 1.972000 1.969000 1.975000 2.019000 2.030000 0.000000 0.000000 0.000000 0.000000 0.000000 0.000000 0.000000 
0.000000 0.000000 0.000000 0.000000 0.000000 0.000000 1.378000 2.035000 2.032000 2.032000 2.028000 2.021000 2.017000 2.013000 2.016000 2.012000 2.013000 2.004000 2.003000 2.000000 1.996000 1.993000 1.988000 1.988000 1.984000 1.982000 1.976000 1.973000 1.972000 1.969000 1.979000 2.019000 1.606000 0.000000 0.000000 0.000000 0.000000 0.000000 0.000000 0.000000 
0.000000 0.000000 0.000000 0.000000 0.000000 0.000000 1.618000 1.981000 2.032000 2.030000 2.025000 2.019000 2.016000 2.016000 2.012000 2.012000 2.013000 2.004000 2.004000 2.000000 1.996000 1.995000 1.990000 1.988000 1.980000 1.980000 1.975000 1.973000 1.969000 1.965000 1.979000 2.016000 0.000000 0.000000 0.000000 0.000000 0.000000 0.000000 0.000000 0.000000 
0.000000 0.000000 0.000000 0.000000 0.000000 0.000000 2.028000 2.032000 2.032000 2.031000 2.025000 2.016000 2.012000 2.012000 2.012000 2.012000 2.011000 2.004000 2.003000 2.001000 1.996000 1.992000 1.988000 1.988000 1.984000 1.978000 1.974000 1.973000 1.969000 1.969000 1.991000 2.012000 0.000000 0.000000 0.000000 0.000000 0.000000 0.000000 0.000000 0.000000 
0.000000 0.000000 0.000000 0.000000 0.000000 0.000000 2.030000 2.035000 2.032000 2.028000 2.027000 2.019000 2.016000 2.016000 2.012000 2.012000 2.009000 2.004000 2.000000 1.998000 1.996000 1.989000 1.987000 1.986000 1.980000 1.978000 1.973000 1.971000 1.969000 1.969000 1.994000 2.017000 1.662000 0.000000 0.000000 0.000000 0.000000 0.000000 0.000000 0.000000 
0.000000 0.000000 0.000000 0.000000 0.000000 0.000000 2.037000 2.037000 2.032000 2.028000 2.028000 2.023000 2.016000 2.016000 2.012000 2.012000 2.008000 2.004000 2.000000 1.996000 1.996000 1.988000 1.986000 1.984000 1.980000 1.978000 1.973000 1.973000 1.969000 1.969000 1.992000 2.022000 1.423000 0.000000 0.000000 0.000000 0.000000 0.000000 0.000000 0.000000 
0.000000 0.000000 0.000000 0.000000 0.000000 0.000000 1.618000 2.037000 2.036000 2.029000 2.028000 2.023000 2.016000 2.016000 2.012000 2.012000 2.009000 2.007000 1.999000 1.996000 1.992000 1.988000 1.988000 1.984000 1.984000 1.977000 1.973000 1.973000 1.968000 1.968000 1.997000 2.021000 0.000000 0.000000 0.000000 0.000000 0.000000 0.000000 0.000000 0.000000 
0.000000 0.000000 0.000000 0.000000 0.000000 0.000000 1.830000 2.037000 2.032000 2.028000 2.026000 2.023000 2.016000 2.014000 2.012000 2.008000 2.007000 2.004000 1.999000 1.994000 1.988000 1.988000 1.988000 1.984000 1.980000 1.977000 1.973000 1.969000 1.969000 1.970000 2.002000 2.025000 1.424000 0.000000 0.000000 0.000000 0.000000 0.000000 0.000000 0.000000 
0.000000 0.000000 0.000000 0.000000 0.000000 0.000000 2.032000 2.032000 2.029000 2.025000 2.024000 2.021000 2.018000 2.012000 2.012000 2.008000 2.004000 2.004000 1.999000 1.992000 1.988000 1.988000 1.986000 1.980000 1.977000 1.973000 1.973000 1.969000 1.968000 1.977000 2.003000 2.025000 2.991000 0.000000 0.000000 0.000000 0.000000 0.000000 0.000000 0.000000 
0.000000 0.000000 0.000000 0.000000 0.000000 0.000000 2.037000 2.032000 2.028000 2.024000 2.020000 2.016000 2.014000 2.012000 2.011000 2.008000 2.004000 2.004000 2.000000 1.996000 1.989000 1.988000 1.984000 1.980000 1.976000 1.973000 1.970000 1.969000 1.968000 1.977000 2.006000 2.020000 2.958000 0.000000 0.000000 0.000000 0.000000 0.000000 0.000000 0.000000 
0.000000 0.000000 0.000000 0.000000 0.000000 0.000000 2.032000 2.032000 2.031000 2.027000 2.022000 2.016000 2.015000 2.012000 2.008000 2.004000 2.001000 2.000000 2.000000 1.995000 1.992000 1.987000 1.982000 1.976000 1.976000 1.973000 1.971000 1.969000 1.967000 1.976000 1.990000 2.028000 2.919000 0.000000 0.000000 0.000000 0.000000 0.000000 0.000000 0.000000 
0.000000 0.000000 0.000000 0.000000 0.000000 0.000000 2.032000 2.032000 2.032000 2.028000 2.024000 2.016000 2.016000 2.013000 2.008000 2.002000 2.001000 2.000000 1.997000 1.994000 1.992000 1.984000 1.984000 1.981000 1.976000 1.974000 1.973000 1.969000 1.965000 1.974000 1.994000 2.028000 0.000000 0.000000 0.000000 0.000000 0.000000 0.000000 0.000000 0.000000 
0.000000 0.000000 0.000000 0.000000 0.000000 0.000000 2.035000 2.028000 2.028000 2.028000 2.024000 2.019000 2.016000 2.012000 2.008000 2.004000 2.004000 2.000000 1.996000 1.996000 1.992000 1.987000 1.984000 1.980000 1.979000 1.971000 1.969000 1.969000 1.964000 1.968000 2.002000 2.028000 0.000000 0.000000 0.000000 0.000000 0.000000 0.000000 0.000000 0.000000 
0.000000 0.000000 0.000000 0.000000 0.000000 0.000000 2.031000 2.032000 2.028000 2.024000 2.020000 2.019000 2.016000 2.013000 2.008000 2.004000 2.004000 2.000000 1.995000 1.991000 1.992000 1.984000 1.984000 1.984000 1.976000 1.972000 1.969000 1.969000 1.961000 1.985000 2.007000 2.143000 0.000000 0.000000 0.000000 0.000000 0.000000 0.000000 0.000000 0.000000 
0.000000 0.000000 0.000000 0.000000 0.000000 0.000000 2.032000 2.032000 2.026000 2.025000 2.020000 2.016000 2.015000 2.012000 2.008000 2.004000 2.004000 2.000000 1.991000 1.990000 1.992000 1.984000 1.984000 1.978000 1.976000 1.973000 1.969000 1.965000 1.961000 1.990000 2.011000 2.152000 0.000000 0.000000 0.000000 0.000000 0.000000 0.000000 0.000000 0.000000 
0.000000 0.000000 0.000000 0.000000 0.000000 0.000000 2.035000 2.032000 2.024000 2.024000 2.021000 2.016000 2.012000 2.012000 2.008000 2.004000 2.004000 2.000000 1.996000 1.994000 1.992000 1.984000 1.982000 1.976000 1.973000 1.973000 1.969000 1.969000 1.965000 1.964000 2.029000 2.032000 0.000000 0.000000 0.000000 0.000000 0.000000 0.000000 0.000000 0.000000 
0.000000 0.000000 0.000000 0.000000 0.000000 0.000000 0.000000 0.000000 0.000000 0.000000 0.000000 0.000000 0.000000 0.000000 0.000000 0.000000 0.000000 0.000000 0.000000 0.000000 0.000000 0.000000 0.000000 0.000000 0.000000 0.000000 0.000000 0.000000 0.000000 0.000000 0.000000 0.000000 0.000000 0.000000 0.000000 0.000000 0.000000 0.000000 0.000000 0.000000 
0.000000 0.000000 0.000000 0.000000 0.000000 0.000000 0.000000 0.000000 0.000000 0.000000 0.000000 0.000000 0.000000 0.000000 0.000000 0.000000 0.000000 0.000000 0.000000 0.000000 0.000000 0.000000 0.000000 0.000000 0.000000 0.000000 0.000000 0.000000 0.000000 0.000000 0.000000 0.000000 0.000000 0.000000 0.000000 0.000000 0.000000 0.000000 0.000000 0.000000 
0.000000 0.000000 0.000000 0.000000 0.000000 0.000000 0.000000 0.000000 0.000000 0.000000 0.000000 0.000000 0.000000 0.000000 0.000000 0.000000 0.000000 0.000000 0.000000 0.000000 0.000000 0.000000 0.000000 0.000000 0.000000 0.000000 0.000000 0.000000 0.000000 0.000000 0.000000 0.000000 0.000000 0.000000 0.000000 0.000000 0.000000 0.000000 0.000000 0.000000 
