40 40
0.000000 0.000000 0.000000 0.000000 0.000000 0.000000 0.000000 0.000000 0.000000 0.000000 0.000000 1.979000 1.980000 0.000000 1.266000 1.266000 0.000000 0.000000 0.000000 0.000000 0.000000 0.000000 0.000000 0.000000 0.000000 0.000000 0.000000 0.000000 0.000000 0.000000 0.000000 0.000000 0.000000 0.000000 0.000000 0.000000 0.000000 0.000000 0.000000 0.000000 
0.000000 0.000000 0.000000 0.000000 0.000000 0.000000 0.000000 1.397000 0.000000 2.440000 1.969000 1.974000 1.970000 1.974000 1.266000 1.266000 0.000000 0.000000 0.000000 0.000000 0.000000 0.000000 0.000000 0.000000 0.000000 0.000000 0.000000 0.000000 0.000000 0.000000 0.000000 0.000000 0.000000 0.000000 0.000000 0.000000 0.000000 0.000000 0.000000 0.000000 
0.000000 0.000000 0.000000 0.000000 0.000000 0.000000 1.266000 1.266000 1.963000 1.963000 1.966000 1.968000 1.969000 1.973000 1.973000 1.974000 1.976000 1.976000 1.979000 1.979000 1.980000 0.000000 0.000000 0.000000 0.000000 0.000000 0.000000 0.000000 0.000000 0.000000 0.000000 0.000000 0.000000 0.000000 0.000000 0.000000 0.000000 0.000000 0.000000 0.000000 
0.000000 0.000000 0.000000 0.000000 0.000000 0.000000 1.266000 1.266000 1.964000 1.965000 1.967000 1.969000 1.969000 1.972000 1.973000 1.974000 1.976000 1.976000 1.977000 1.980000 1.982000 1.982000 1.983000 1.986000 1.986000 1.987000 2.047000 2.049000 2.077000 2.071000 2.066000 2.070000 1.275000 0.000000 0.000000 0.000000 0.000000 0.000000 0.000000 0.000000 
0.000000 0.000000 0.000000 0.000000 0.000000 0.000000 1.266000 1.266000 1.966000 1.967000 1.969000 1.969000 1.973000 1.974000 1.976000 1.976000 1.976000 1.977000 1.979000 1.980000 1.982000 1.982000 1.984000 1.985000 1.986000 1.986000 1.988000 1.990000 1.993000 1.998000 2.021000 1.996000 1.996000 2.185000 0.000000 0.000000 0.000000 0.000000 0.000000 0.000000 
0.000000 0.000000 0.000000 0.000000 0.000000 1.266000 1.266000 1.266000 1.968000 1.967000 1.969000 1.970000 1.972000 1.976000 1.976000 1.976000 1.978000 1.979000 1.980000 1.982000 1.982000 1.985000 1.985000 1.986000 1.986000 1.988000 1.989000 1.991000 1.993000 1.994000 1.993000 1.994000 1.996000 1.996000 0.000000 0.000000 0.000000 0.000000 0.000000 0.000000 
0.000000 0.000000 0.000000 0.000000 0.000000 1.266000 1.266000 1.714000 1.969000 1.969000 1.970000 1.972000 1.973000 1.976000 1.976000 1.978000 1.979000 1.979000 1.982000 1.982000 1.984000 1.986000 1.987000 1.987000 1.988000 1.988000 1.989000 1.994000 1.994000 1.994000 1.996000 1.995000 1.996000 1.998000 0.000000 0.000000 0.000000 0.000000 0.000000 0.000000 
0.000000 0.000000 0.000000 0.000000 0.000000 1.266000 1.266000 1.266000 1.969000 1.970000 1.972000 1.973000 1.974000 1.977000 1.977000 1.980000 1.980000 1.980000 1.982000 1.984000 1.986000 1.988000 1.988000 1.989000 1.989000 1.991000 1.993000 1.994000 1.994000 1.996000 1.996000 1.997000 1.999000 1.532000 0.000000 0.000000 0.000000 0.000000 0.000000 0.000000 
0.000000 0.000000 0.000000 0.000000 0.000000 1.266000 1.266000 1.266000 1.969000 1.973000 1.973000 1.973000 1.976000 1.977000 1.979000 1.980000 1.981000 1.983000 1.983000 1.984000 1.986000 1.988000 1.989000 1.989000 1.992000 1.992000 1.993000 1.994000 1.996000 1.996000 1.997000 1.999000 2.000000 1.266000 0.000000 0.000000 0.000000 0.000000 0.000000 0.000000 
0.000000 0.000000 0.000000 0.000000 0.000000 1.266000 1.266000 1.361000 1.972000 1.974000 1.974000 1.974000 1.977000 1.979000 1.980000 1.982000 1.983000 1.985000 1.986000 1.986000 1.987000 1.988000 1.991000 1.991000 1.993000 1.993000 1.994000 1.996000 1.996000 1.996000 1.999000 2.000000 2.000000 1.266000 0.000000 0.000000 0.000000 0.000000 0.000000 0.000000 
0.000000 0.000000 0.000000 0.000000 0.000000 1.266000 1.266000 1.714000 1.972000 1.974000 1.974000 1.977000 1.979000 1.981000 1.982000 1.982000 1.984000 1.986000 1.986000 1.988000 1.989000 1.989000 1.993000 1.993000 1.993000 1.994000 1.994000 1.997000 2.000000 2.000000 2.000000 2.000000 2.002000 1.266000 0.000000 0.000000 0.000000 0.000000 0.000000 0.000000 
0.000000 0.000000 0.000000 0.000000 0.000000 1.266000 1.266000 1.482000 1.973000 1.974000 1.976000 1.977000 1.979000 1.982000 1.982000 1.983000 1.986000 1.986000 1.986000 1.988000 1.990000 1.993000 1.993000 1.993000 1.994000 1.995000 1.997000 1.998000 2.000000 2.001000 2.003000 2.005000 2.005000 1.266000 0.000000 0.000000 0.000000 0.000000 0.000000 0.000000 
0.000000 0.000000 0.000000 0.000000 0.000000 1.266000 1.266000 1.974000 1.974000 1.976000 1.977000 1.979000 1.980000 1.983000 1.983000 1.985000 1.986000 1.986000 1.988000 1.990000 1.991000 1.993000 1.994000 1.994000 1.994000 1.997000 1.999000 2.000000 2.000000 2.002000 2.004000 2.006000 2.007000 1.266000 0.000000 0.000000 0.000000 0.000000 0.000000 0.000000 
0.000000 0.000000 0.000000 0.000000 0.000000 1.266000 1.266000 1.974000 1.976000 1.977000 1.979000 1.980000 1.983000 1.985000 1.986000 1.986000 1.988000 1.988000 1.991000 1.993000 1.993000 1.994000 1.996000 1.996000 1.997000 1.999000 1.999000 2.000000 2.002000 2.004000 2.006000 2.007000 1.402000 1.266000 0.000000 0.000000 0.000000 0.000000 0.000000 0.000000 
0.000000 0.000000 0.000000 0.000000 0.000000 1.266000 1.266000 1.976000 1.978000 1.979000 1.980000 1.980000 1.982000 1.985000 1.986000 1.988000 1.989000 1.989000 1.993000 1.993000 1.994000 1.996000 1.997000 1.997000 1.999000 1.999000 2.000000 2.001000 2.004000 2.005000 2.008000 2.008000 1.278000 1.266000 0.000000 0.000000 0.000000 0.000000 0.000000 0.000000 
0.000000 0.000000 0.000000 0.000000 0.000000 1.266000 1.266000 1.976000 1.979000 1.979000 1.980000 1.981000 1.983000 1.986000 1.988000 1.988000 1.991000 1.993000 1.993000 1.994000 1.996000 1.999000 1.997000 1.999000 1.999000 2.000000 2.000000 2.005000 2.005000 2.007000 2.008000 2.008000 1.266000 1.266000 0.000000 0.000000 0.000000 0.000000 0.000000 0.000000 
0.000000 0.000000 0.000000 0.000000 0.000000 1.266000 1.266000 1.979000 1.980000 1.980000 1.982000 1.983000 1.985000 1.987000 1.989000 1.989000 1.992000 1.993000 1.994000 1.996000 1.997000 1.999000 1.999000 2.000000 2.000000 2.002000 2.004000 2.007000 2.007000 2.008000 2.008000 2.010000 1.266000 1.266000 0.000000 0.000000 0.000000 0.000000 0.000000 0.000000 
0.000000 0.000000 0.000000 0.000000 0.000000 1.266000 1.266000 1.980000 1.980000 1.982000 1.983000 1.985000 1.986000 1.988000 1.989000 1.992000 1.993000 1.994000 1.996000 1.997000 1.999000 1.999000 2.000000 2.001000 2.003000 2.004000 2.004000 2.008000 2.007000 2.008000 2.012000 2.013000 1.266000 0.000000 0.000000 0.000000 0.000000 0.000000 0.000000 0.000000 
0.000000 0.000000 0.000000 0.000000 0.000000 1.266000 1.966000 1.980000 1.983000 1.983000 1.985000 1.986000 1.986000 1.990000 1.993000 1.993000 1.993000 1.994000 1.997000 1.997000 2.000000 2.001000 2.000000 2.004000 2.005000 2.005000 2.007000 2.008000 2.008000 2.012000 2.013000 1.988000 1.266000 0.000000 0.000000 0.000000 0.000000 0.000000 0.000000 0.000000 
0.000000 0.000000 0.000000 0.000000 0.000000 1.266000 1.266000 1.982000 1.985000 1.985000 1.985000 1.988000 1.989000 1.991000 1.993000 1.994000 1.994000 1.994000 1.998000 1.999000 2.000000 2.002000 2.004000 2.005000 2.007000 2.007000 2.007000 2.010000 2.012000 2.013000 2.013000 1.643000 1.266000 1.266000 0.000000 0.000000 0.000000 0.000000 0.000000 0.000000 
0.000000 0.000000 0.000000 0.000000 0.000000 1.266000 1.982000 1.983000 1.985000 1.986000 1.986000 1.988000 1.991000 1.993000 1.994000 1.996000 1.997000 1.999000 1.999000 2.000000 2.001000 2.004000 2.005000 2.005000 2.007000 2.007000 2.007000 2.013000 2.013000 2.015000 2.015000 1.766000 1.266000 1.266000 0.000000 0.000000 0.000000 0.000000 0.000000 0.000000 
0.000000 0.000000 0.000000 0.000000 0.000000 1.266000 1.979000 1.984000 1.985000 1.986000 1.989000 1.991000 1.991000 1.994000 1.994000 1.996000 1.999000 1.999000 2.000000 2.001000 2.004000 2.004000 2.005000 2.007000 2.008000 2.010000 2.012000 2.013000 2.014000 2.015000 2.017000 1.266000 1.266000 1.266000 0.000000 0.000000 0.000000 0.000000 0.000000 0.000000 
0.000000 0.000000 0.000000 0.000000 0.000000 1.266000 1.971000 1.986000 1.986000 1.988000 1.990000 1.991000 1.993000 1.994000 1.997000 1.999000 1.999000 2.000000 2.000000 2.003000 2.004000 2.005000 2.006000 2.008000 2.010000 2.012000 2.012000 2.014000 2.014000 2.015000 2.019000 1.266000 1.266000 1.266000 0.000000 0.000000 0.000000 0.000000 0.000000 0.000000 
0.000000 0.000000 0.000000 0.000000 0.000000 1.266000 1.985000 1.988000 1.987000 1.988000 1.991000 1.993000 1.993000 1.996000 1.997000 2.000000 1.999000 2.000000 2.002000 2.004000 2.005000 2.007000 2.008000 2.010000 2.010000 2.012000 2.013000 2.015000 2.017000 2.016000 2.020000 1.266000 1.266000 1.266000 0.000000 0.000000 0.000000 0.000000 0.000000 0.000000 
0.000000 0.000000 0.000000 0.000000 0.000000 1.266000 1.986000 1.988000 1.988000 1.991000 1.993000 1.993000 1.996000 1.997000 1.997000 2.000000 2.001000 2.002000 2.004000 2.005000 2.007000 2.008000 2.010000 2.012000 2.012000 2.013000 2.013000 2.016000 2.020000 2.020000 2.020000 1.266000 1.266000 1.266000 0.000000 0.000000 0.000000 0.000000 0.000000 0.000000 
0.000000 0.000000 0.000000 0.000000 0.000000 1.266000 1.986000 1.989000 1.989000 1.991000 1.993000 1.994000 1.996000 1.999000 2.000000 2.000000 2.002000 2.004000 2.005000 2.007000 2.008000 2.008000 2.011000 2.013000 2.013000 2.013000 2.015000 2.019000 2.020000 2.021000 1.511000 1.266000 1.266000 1.266000 0.000000 0.000000 0.000000 0.000000 0.000000 0.000000 
0.000000 0.000000 0.000000 0.000000 0.000000 1.344000 1.990000 1.991000 1.993000 1.993000 1.993000 1.996000 1.997000 1.999000 2.000000 2.000000 2.001000 2.005000 2.005000 2.007000 2.008000 2.010000 2.013000 2.013000 2.015000 2.015000 2.015000 2.020000 2.020000 2.022000 1.512000 1.266000 1.266000 1.266000 0.000000 0.000000 0.000000 0.000000 0.000000 0.000000 
0.000000 0.000000 0.000000 0.000000 0.000000 1.503000 1.991000 1.993000 1.993000 1.994000 1.996000 1.997000 1.997000 2.000000 2.002000 2.004000 2.005000 2.007000 2.007000 2.008000 2.012000 2.012000 2.013000 2.013000 2.015000 2.016000 2.016000 2.021000 2.021000 2.023000 1.266000 1.266000 1.266000 1.266000 0.000000 0.000000 0.000000 0.000000 0.000000 0.000000 
0.000000 0.000000 0.000000 0.000000 0.000000 1.989000 1.991000 1.994000 1.994000 1.996000 1.997000 1.999000 1.999000 2.002000 2.004000 2.005000 2.005000 2.007000 2.008000 2.011000 2.013000 2.013000 2.014000 2.016000 2.016000 2.018000 2.020000 2.021000 2.024000 2.022000 1.266000 1.266000 1.266000 1.266000 0.000000 0.000000 0.000000 0.000000 0.000000 0.000000 
0.000000 0.000000 0.000000 0.000000 0.000000 1.504000 1.993000 1.993000 1.995000 1.997000 1.998000 1.999000 2.000000 2.004000 2.005000 2.005000 2.007000 2.007000 2.008000 2.012000 2.013000 2.013000 2.015000 2.018000 2.018000 2.019000 2.020000 2.023000 2.026000 2.027000 1.266000 1.266000 1.266000 1.266000 0.000000 0.000000 0.000000 0.000000 0.000000 0.000000 
0.000000 0.000000 0.000000 0.000000 0.000000 1.993000 1.996000 1.996000 1.997000 1.997000 2.000000 2.000000 2.002000 2.005000 2.007000 2.007000 2.008000 2.010000 2.012000 2.012000 2.013000 2.013000 2.015000 2.018000 2.020000 2.020000 2.021000 2.025000 2.027000 2.028000 1.266000 1.266000 1.266000 1.266000 0.000000 0.000000 0.000000 0.000000 0.000000 0.000000 
0.000000 0.000000 0.000000 0.000000 0.000000 1.995000 1.997000 1.997000 1.998000 2.000000 2.000000 2.001000 2.004000 2.006000 2.007000 2.008000 2.011000 2.012000 2.012000 2.013000 2.015000 2.018000 2.018000 2.020000 2.020000 2.021000 2.024000 2.027000 2.028000 2.020000 1.266000 1.266000 1.266000 1.266000 0.000000 0.000000 0.000000 0.000000 0.000000 0.000000 
0.000000 0.000000 0.000000 0.000000 0.000000 1.997000 1.999000 1.998000 1.999000 2.002000 2.003000 2.004000 2.005000 2.007000 2.010000 2.010000 2.012000 2.013000 2.013000 2.014000 2.016000 2.018000 2.020000 2.021000 2.022000 2.023000 2.025000 2.027000 2.030000 1.266000 1.266000 1.266000 1.266000 1.266000 0.000000 0.000000 0.000000 0.000000 0.000000 0.000000 
0.000000 0.000000 0.000000 0.000000 0.000000 1.997000 1.999000 1.999000 1.999000 2.002000 2.004000 2.005000 2.007000 2.008000 2.010000 2.012000 2.013000 2.013000 2.013000 2.015000 2.018000 2.018000 2.020000 2.021000 2.023000 2.025000 2.027000 2.028000 2.032000 1.266000 1.266000 1.266000 1.266000 1.266000 0.000000 0.000000 0.000000 0.000000 0.000000 0.000000 
0.000000 0.000000 0.000000 0.000000 0.000000 1.999000 2.001000 2.001000 2.001000 2.004000 2.004000 2.005000 2.005000 2.009000 2.013000 2.012000 2.012000 2.013000 2.015000 2.018000 2.018000 2.020000 2.020000 2.023000 2.025000 2.027000 2.027000 2.032000 2.033000 1.266000 1.266000 1.266000 1.266000 1.266000 0.000000 0.000000 0.000000 0.000000 0.000000 0.000000 
0.000000 0.000000 0.000000 0.000000 0.000000 1.999000 2.002000 2.004000 2.005000 2.005000 2.005000 2.008000 2.008000 2.012000 2.013000 2.013000 2.016000 2.016000 2.016000 2.020000 2.020000 2.020000 2.021000 2.023000 2.025000 2.027000 2.028000 2.033000 2.033000 1.266000 1.266000 1.266000 1.266000 1.266000 0.000000 0.000000 0.000000 0.000000 0.000000 0.000000 
0.000000 0.000000 0.000000 0.000000 0.000000 2.000000 2.000000 2.003000 2.004000 2.005000 2.008000 2.007000 2.010000 2.012000 2.013000 2.016000 2.016000 2.018000 2.020000 2.020000 2.021000 2.025000 2.025000 2.027000 2.027000 2.029000 2.032000 2.035000 1.752000 1.266000 1.266000 1.869000 0.000000 2.048000 0.000000 0.000000 0.000000 0.000000 0.000000 0.000000 
0.000000 0.000000 0.000000 0.000000 0.000000 1.380000 1.616000 1.266000 2.004000 1.985000 2.007000 2.080000 2.065000 2.028000 2.013000 2.015000 2.015000 2.016000 2.017000 2.019000 2.021000 2.024000 2.025000 2.027000 2.027000 2.030000 2.032000 2.035000 1.752000 1.266000 0.000000 0.000000 0.000000 0.000000 0.000000 0.000000 0.000000 0.000000 0.000000 0.000000 
0.000000 0.000000 0.000000 0.000000 0.000000 1.266000 1.266000 1.266000 1.266000 1.266000 1.768000 2.102000 2.102000 2.035000 2.126000 2.116000 2.119000 2.121000 2.123000 2.042000 2.126000 2.037000 1.891000 1.892000 2.233000 2.030000 2.028000 2.035000 1.266000 0.000000 0.000000 0.000000 0.000000 0.000000 0.000000 0.000000 0.000000 0.000000 0.000000 0.000000 
0.000000 0.000000 0.000000 0.000000 0.000000 1.266000 1.266000 1.266000 1.266000 1.266000 1.758000 2.084000 2.082000 2.038000 2.106000 2.094000 2.098000 2.097000 2.060000 2.042000 2.110000 2.108000 1.266000 1.266000 0.000000 0.000000 0.000000 2.028000 2.250000 0.000000 0.000000 0.000000 0.000000 0.000000 0.000000 0.000000 0.000000 0.000000 0.000000 0.000000 
