40 40
0.000000 0.000000 0.000000 0.000000 0.000000 0.000000 0.000000 2.502000 2.030000 2.028000 2.028000 2.906000 2.917000 2.033000 2.026000 2.014000 2.216000 2.738000 2.017000 2.017000 2.011000 2.011000 2.011000 2.011000 2.011000 2.009000 2.006000 2.006000 2.009000 2.008000 2.841000 0.000000 0.000000 0.000000 0.000000 0.000000 0.000000 0.000000 0.000000 0.000000 
0.000000 0.000000 0.000000 0.000000 0.000000 0.000000 2.028000 2.028000 2.028000 2.028000 2.024000 2.022000 2.026000 2.028000 2.021000 2.011000 2.017000 2.016000 2.012000 2.014000 2.011000 2.011000 2.011000 2.006000 2.006000 2.006000 2.006000 2.006000 2.011000 2.011000 2.011000 0.000000 0.000000 0.000000 0.000000 0.000000 0.000000 0.000000 0.000000 0.000000 
0.000000 0.000000 0.000000 0.000000 0.000000 0.000000 2.028000 2.028000 2.028000 2.028000 2.022000 2.022000 2.026000 2.024000 2.019000 2.017000 2.017000 2.017000 2.011000 2.011000 2.010000 2.006000 2.011000 2.006000 2.006000 2.006000 2.006000 2.006000 2.006000 2.009000 2.011000 0.000000 0.000000 0.000000 0.000000 0.000000 0.000000 0.000000 0.000000 0.000000 
0.000000 0.000000 0.000000 0.000000 0.000000 0.000000 2.028000 2.028000 2.028000 2.028000 2.023000 2.023000 2.022000 2.020000 2.017000 2.017000 2.017000 2.017000 2.011000 2.011000 2.011000 2.011000 2.009000 2.006000 2.006000 2.006000 2.006000 2.006000 2.006000 2.006000 2.011000 0.000000 0.000000 0.000000 0.000000 0.000000 0.000000 0.000000 0.000000 0.000000 
0.000000 0.000000 0.000000 0.000000 0.000000 0.000000 2.028000 2.028000 2.028000 2.028000 2.026000 2.024000 2.022000 2.020000 2.015000 2.011000 2.012000 2.017000 2.011000 2.011000 2.011000 2.011000 2.006000 2.006000 2.006000 2.006000 2.006000 2.004000 2.006000 2.006000 2.009000 0.000000 0.000000 0.000000 0.000000 0.000000 0.000000 0.000000 0.000000 0.000000 
0.000000 0.000000 0.000000 0.000000 0.000000 0.000000 2.028000 2.028000 2.028000 2.026000 2.022000 2.022000 2.022000 2.020000 2.015000 2.011000 2.012000 2.014000 2.011000 2.011000 2.011000 2.011000 2.006000 2.006000 2.006000 2.000000 2.006000 2.000000 2.006000 2.006000 2.006000 0.000000 0.000000 0.000000 0.000000 0.000000 0.000000 0.000000 0.000000 0.000000 
0.000000 0.000000 0.000000 0.000000 0.000000 0.000000 2.028000 2.028000 2.025000 2.022000 2.022000 2.020000 2.022000 2.022000 2.017000 2.017000 2.017000 2.011000 2.011000 2.011000 2.011000 2.011000 2.009000 2.006000 2.006000 2.004000 2.006000 2.000000 2.006000 2.006000 2.010000 0.000000 0.000000 0.000000 0.000000 0.000000 0.000000 0.000000 0.000000 0.000000 
0.000000 0.000000 0.000000 0.000000 0.000000 0.000000 2.028000 2.028000 2.025000 2.022000 2.021000 2.017000 2.018000 2.017000 2.017000 2.017000 2.016000 2.011000 2.011000 2.011000 2.011000 2.011000 2.006000 2.006000 2.004000 2.000000 2.004000 2.000000 2.005000 2.004000 2.010000 0.000000 0.000000 0.000000 0.000000 0.000000 0.000000 0.000000 0.000000 0.000000 
0.000000 0.000000 0.000000 0.000000 0.000000 0.000000 2.029000 2.028000 2.022000 2.021000 2.019000 2.017000 2.011000 2.011000 2.016000 2.016000 2.015000 2.011000 2.011000 2.011000 2.010000 2.011000 2.006000 2.006000 2.000000 2.000000 2.000000 2.006000 2.001000 1.999000 2.006000 0.000000 0.000000 0.000000 0.000000 0.000000 0.000000 0.000000 0.000000 0.000000 
0.000000 0.000000 0.000000 0.000000 0.000000 0.000000 2.664000 2.028000 2.022000 2.017000 2.017000 2.017000 2.012000 2.016000 2.011000 2.011000 2.011000 2.011000 2.011000 2.009000 2.006000 2.011000 2.006000 2.006000 2.000000 2.000000 2.000000 2.006000 2.001000 1.996000 2.008000 0.000000 0.000000 0.000000 0.000000 0.000000 0.000000 0.000000 0.000000 0.000000 
0.000000 0.000000 0.000000 0.000000 0.000000 0.000000 2.021000 2.025000 2.019000 2.017000 2.017000 2.017000 2.017000 2.017000 2.011000 2.011000 2.011000 2.011000 2.010000 2.006000 2.006000 2.010000 2.006000 2.006000 2.000000 2.000000 2.000000 2.000000 2.005000 2.000000 2.000000 2.000000 0.000000 0.000000 0.000000 0.000000 0.000000 0.000000 0.000000 0.000000 
0.000000 0.000000 0.000000 0.000000 0.000000 0.000000 2.017000 2.021000 2.017000 2.017000 2.022000 2.017000 2.020000 2.011000 2.011000 2.011000 2.011000 2.011000 2.011000 2.006000 2.006000 2.006000 2.006000 2.006000 2.000000 1.995000 1.995000 1.995000 1.995000 1.999000 2.000000 2.000000 0.000000 0.000000 0.000000 0.000000 0.000000 0.000000 0.000000 0.000000 
0.000000 0.000000 0.000000 0.000000 0.000000 0.000000 2.018000 2.018000 2.018000 2.021000 2.020000 2.017000 2.016000 2.011000 2.011000 2.011000 2.011000 2.011000 2.010000 2.006000 2.006000 2.006000 2.006000 2.006000 2.000000 2.000000 2.000000 2.000000 1.995000 1.995000 1.999000 2.000000 0.000000 0.000000 0.000000 0.000000 0.000000 0.000000 0.000000 0.000000 
0.000000 0.000000 0.000000 0.000000 0.000000 0.000000 2.120000 2.022000 2.017000 2.017000 2.015000 2.011000 2.011000 2.011000 2.011000 2.011000 2.010000 2.011000 2.006000 2.006000 2.006000 2.006000 2.005000 2.006000 2.000000 2.000000 2.000000 1.999000 1.995000 1.995000 1.999000 2.000000 0.000000 0.000000 0.000000 0.000000 0.000000 0.000000 0.000000 0.000000 
0.000000 0.000000 0.000000 0.000000 0.000000 0.000000 2.808000 2.019000 2.017000 2.011000 2.011000 2.011000 2.011000 2.013000 2.011000 2.009000 2.006000 2.006000 2.006000 2.006000 2.006000 2.000000 2.001000 2.000000 2.000000 2.000000 1.995000 1.995000 1.995000 1.995000 1.995000 2.000000 0.000000 0.000000 0.000000 0.000000 0.000000 0.000000 0.000000 0.000000 
0.000000 0.000000 0.000000 0.000000 0.000000 0.000000 0.000000 2.017000 2.017000 2.017000 2.017000 2.011000 2.011000 2.011000 2.011000 2.006000 2.006000 2.006000 2.006000 2.006000 2.005000 2.000000 2.006000 2.000000 1.995000 1.995000 1.995000 1.995000 1.995000 1.995000 1.995000 2.000000 0.000000 0.000000 0.000000 0.000000 0.000000 0.000000 0.000000 0.000000 
0.000000 0.000000 0.000000 0.000000 0.000000 0.000000 0.000000 2.017000 2.017000 2.014000 2.011000 2.011000 2.011000 2.011000 2.010000 2.006000 2.006000 2.006000 2.006000 2.006000 2.005000 2.000000 2.000000 2.000000 1.995000 1.990000 1.990000 1.995000 2.000000 2.000000 2.000000 2.000000 0.000000 0.000000 0.000000 0.000000 0.000000 0.000000 0.000000 0.000000 
0.000000 0.000000 0.000000 0.000000 0.000000 0.000000 0.000000 2.011000 2.011000 2.011000 2.011000 2.011000 2.011000 2.011000 2.006000 2.006000 2.006000 2.006000 2.006000 2.000000 2.000000 2.000000 2.000000 1.995000 1.995000 1.990000 1.995000 1.995000 1.995000 1.995000 1.995000 2.000000 0.000000 0.000000 0.000000 0.000000 0.000000 0.000000 0.000000 0.000000 
0.000000 0.000000 0.000000 0.000000 0.000000 0.000000 0.000000 2.011000 2.011000 2.011000 2.011000 2.011000 2.009000 2.006000 2.006000 2.006000 2.006000 2.006000 2.005000 2.000000 2.000000 2.000000 2.000000 2.000000 1.995000 1.990000 1.995000 1.995000 1.995000 1.995000 1.995000 1.999000 0.000000 0.000000 0.000000 0.000000 0.000000 0.000000 0.000000 0.000000 
0.000000 0.000000 0.000000 0.000000 0.000000 0.000000 0.000000 2.017000 2.011000 2.011000 2.011000 2.011000 2.011000 2.006000 2.006000 2.006000 2.006000 2.006000 2.006000 2.000000 1.995000 1.995000 1.995000 1.995000 1.995000 1.990000 1.990000 1.995000 1.995000 1.995000 1.995000 1.995000 2.065000 0.000000 0.000000 0.000000 0.000000 0.000000 0.000000 0.000000 
0.000000 0.000000 0.000000 0.000000 0.000000 0.000000 0.000000 2.017000 2.011000 2.011000 2.011000 2.009000 2.006000 2.006000 2.006000 2.006000 2.006000 2.005000 1.996000 2.000000 1.995000 1.990000 1.991000 1.995000 1.995000 1.990000 1.990000 1.990000 1.995000 1.995000 1.995000 1.995000 1.995000 0.000000 0.000000 0.000000 0.000000 0.000000 0.000000 0.000000 
0.000000 0.000000 0.000000 0.000000 0.000000 0.000000 0.000000 2.759000 2.008000 2.011000 2.011000 2.006000 2.006000 2.006000 2.006000 2.006000 2.006000 1.999000 1.995000 2.000000 1.999000 1.995000 1.995000 1.995000 1.990000 1.990000 1.990000 1.990000 1.995000 1.995000 1.995000 1.990000 1.990000 0.000000 0.000000 0.000000 0.000000 0.000000 0.000000 0.000000 
0.000000 0.000000 0.000000 0.000000 0.000000 0.000000 0.000000 2.825000 2.008000 2.011000 2.011000 2.006000 2.006000 2.006000 2.006000 2.006000 2.000000 1.999000 1.995000 2.000000 1.999000 1.995000 1.995000 1.995000 1.990000 1.990000 1.990000 1.995000 1.995000 1.995000 1.995000 1.990000 1.990000 0.000000 0.000000 0.000000 0.000000 0.000000 0.000000 0.000000 
0.000000 0.000000 0.000000 0.000000 0.000000 0.000000 0.000000 0.000000 2.011000 2.011000 2.011000 2.006000 2.006000 2.004000 2.000000 2.001000 1.999000 1.995000 2.000000 2.000000 1.999000 1.995000 1.995000 1.991000 1.990000 1.990000 1.990000 2.000000 1.995000 1.995000 1.995000 1.995000 1.995000 0.000000 0.000000 0.000000 0.000000 0.000000 0.000000 0.000000 
0.000000 0.000000 0.000000 0.000000 0.000000 0.000000 0.000000 2.862000 2.014000 2.011000 2.011000 2.006000 2.006000 2.006000 2.006000 2.005000 2.000000 1.999000 2.001000 2.004000 2.000000 1.995000 1.995000 1.990000 1.990000 1.990000 1.990000 1.995000 1.995000 1.995000 1.991000 1.995000 1.995000 0.000000 0.000000 0.000000 0.000000 0.000000 0.000000 0.000000 
0.000000 0.000000 0.000000 0.000000 0.000000 0.000000 0.000000 0.000000 2.020000 2.011000 2.011000 2.009000 2.006000 2.006000 2.006000 2.006000 2.000000 2.000000 2.006000 1.997000 1.996000 1.995000 1.991000 1.990000 1.990000 1.990000 1.990000 1.995000 1.995000 1.991000 1.990000 1.995000 1.998000 0.000000 0.000000 0.000000 0.000000 0.000000 0.000000 0.000000 
0.000000 0.000000 0.000000 0.000000 0.000000 0.000000 0.000000 0.000000 2.023000 2.011000 2.007000 2.006000 2.006000 2.006000 2.006000 2.006000 2.000000 2.000000 2.001000 1.995000 1.991000 1.990000 1.990000 1.991000 1.990000 1.990000 1.990000 1.995000 1.995000 1.994000 1.994000 1.995000 1.995000 0.000000 0.000000 0.000000 0.000000 0.000000 0.000000 0.000000 
0.000000 0.000000 0.000000 0.000000 0.000000 0.000000 0.000000 0.000000 2.896000 2.011000 2.006000 2.006000 2.006000 2.006000 2.002000 1.999000 1.996000 1.997000 1.996000 1.995000 1.990000 1.990000 1.990000 1.990000 1.990000 1.990000 1.990000 1.995000 1.995000 1.995000 1.995000 1.991000 1.991000 2.362000 0.000000 0.000000 0.000000 0.000000 0.000000 0.000000 
0.000000 0.000000 0.000000 0.000000 0.000000 0.000000 0.000000 0.000000 2.017000 2.009000 2.006000 2.006000 2.006000 2.006000 2.000000 1.999000 1.995000 1.995000 1.995000 1.991000 1.990000 1.990000 1.990000 1.990000 1.990000 1.990000 1.990000 1.995000 1.995000 1.995000 1.991000 1.990000 1.990000 1.994000 0.000000 0.000000 0.000000 0.000000 0.000000 0.000000 
0.000000 0.000000 0.000000 0.000000 0.000000 0.000000 0.000000 0.000000 2.880000 2.006000 2.006000 2.005000 2.002000 2.001000 2.000000 2.002000 1.995000 1.995000 1.995000 1.990000 1.990000 1.990000 1.990000 1.990000 1.990000 1.990000 1.990000 1.995000 1.995000 1.991000 1.990000 1.990000 1.993000 1.995000 0.000000 0.000000 0.000000 0.000000 0.000000 0.000000 
0.000000 0.000000 0.000000 0.000000 0.000000 0.000000 0.000000 0.000000 2.880000 2.006000 2.006000 2.003000 1.994000 1.993000 2.000000 2.000000 1.998000 1.995000 1.995000 1.995000 1.994000 1.990000 1.990000 1.993000 1.995000 1.990000 1.990000 1.995000 1.995000 1.990000 1.990000 1.990000 1.994000 1.995000 0.000000 0.000000 0.000000 0.000000 0.000000 0.000000 
0.000000 0.000000 0.000000 0.000000 0.000000 0.000000 2.235000 2.242000 2.202000 2.010000 2.006000 2.003000 1.998000 1.994000 1.997000 2.000000 1.997000 1.996000 1.995000 1.995000 1.994000 1.990000 1.990000 1.992000 1.995000 1.990000 1.990000 1.995000 1.992000 1.990000 1.990000 1.990000 1.990000 1.994000 0.000000 0.000000 0.000000 0.000000 0.000000 0.000000 
0.000000 0.000000 0.000000 0.000000 0.000000 0.000000 2.247000 2.245000 2.235000 2.002000 2.005000 2.002000 1.999000 1.995000 1.995000 1.996000 1.992000 1.993000 1.996000 1.997000 1.995000 1.995000 1.993000 1.990000 1.990000 1.990000 1.990000 1.992000 1.990000 1.990000 1.986000 1.986000 1.986000 1.986000 0.000000 0.000000 0.000000 0.000000 0.000000 0.000000 
0.000000 0.000000 0.000000 0.000000 0.000000 0.000000 2.648000 2.226000 2.223000 2.000000 2.000000 2.000000 1.999000 1.995000 1.995000 1.995000 1.992000 1.990000 1.992000 1.992000 1.992000 1.990000 1.992000 1.990000 1.990000 1.990000 1.986000 1.990000 1.984000 1.989000 1.985000 1.984000 1.980000 1.979000 0.000000 0.000000 0.000000 0.000000 0.000000 0.000000 
0.000000 0.000000 0.000000 0.000000 0.000000 0.000000 0.000000 2.213000 2.964000 2.000000 2.003000 2.000000 1.995000 1.995000 1.995000 1.995000 1.994000 1.990000 1.990000 1.990000 1.990000 1.987000 1.987000 1.984000 1.990000 1.990000 1.984000 1.990000 1.990000 1.990000 1.985000 1.975000 1.974000 2.721000 0.000000 0.000000 0.000000 0.000000 0.000000 0.000000 
0.000000 0.000000 0.000000 0.000000 0.000000 0.000000 0.000000 0.000000 0.000000 2.000000 2.003000 1.995000 1.992000 1.992000 1.996000 1.999000 1.994000 1.990000 1.990000 1.990000 1.983000 1.971000 1.972000 1.987000 1.990000 1.987000 1.984000 1.987000 2.919000 0.000000 0.000000 0.000000 0.000000 0.000000 0.000000 0.000000 0.000000 0.000000 0.000000 0.000000 
0.000000 0.000000 0.000000 0.000000 0.000000 0.000000 0.000000 0.000000 0.000000 2.001000 2.002000 1.998000 1.993000 1.993000 1.991000 2.006000 1.994000 1.991000 1.998000 1.997000 2.150000 2.123000 2.123000 2.125000 1.995000 1.992000 1.992000 2.787000 0.000000 0.000000 0.000000 0.000000 0.000000 0.000000 0.000000 0.000000 0.000000 0.000000 0.000000 0.000000 
0.000000 0.000000 0.000000 0.000000 0.000000 0.000000 0.000000 0.000000 0.000000 0.000000 2.759000 2.760000 0.000000 0.000000 0.000000 0.000000 2.752000 2.001000 2.008000 2.006000 2.160000 2.280000 2.280000 2.267000 2.006000 2.008000 2.017000 2.820000 0.000000 0.000000 0.000000 0.000000 0.000000 0.000000 0.000000 0.000000 0.000000 0.000000 0.000000 0.000000 
0.000000 0.000000 0.000000 0.000000 0.000000 0.000000 0.000000 0.000000 0.000000 0.000000 0.000000 0.000000 0.000000 0.000000 0.000000 0.000000 0.000000 1.984000 2.001000 2.001000 2.096000 2.219000 2.204000 2.193000 2.006000 2.012000 2.030000 2.078000 2.968000 0.000000 0.000000 0.000000 0.000000 0.000000 0.000000 0.000000 0.000000 0.000000 0.000000 0.000000 
0.000000 0.000000 0.000000 0.000000 0.000000 0.000000 0.000000 0.000000 0.000000 0.000000 0.000000 0.000000 0.000000 0.000000 0.000000 0.000000 0.000000 2.016000 2.002000 2.002000 2.061000 2.071000 2.066000 2.063000 2.052000 2.031000 2.030000 2.059000 2.063000 2.074000 0.000000 0.000000 0.000000 0.000000 0.000000 0.000000 0.000000 0.000000 0.000000 0.000000 
