40 40
0.000000 0.000000 0.000000 0.000000 0.000000 0.000000 0.000000 0.000000 0.000000 0.000000 0.000000 0.000000 0.000000 0.000000 0.000000 0.000000 0.000000 0.000000 0.000000 0.000000 0.000000 0.000000 0.000000 0.000000 0.000000 0.000000 0.000000 0.000000 0.000000 0.000000 0.000000 0.000000 0.000000 0.000000 0.000000 0.000000 0.000000 0.000000 0.000000 0.000000 
0.000000 0.000000 0.000000 0.000000 0.000000 0.000000 2.447000 2.433000 2.436000 2.451000 2.456000 2.068000 2.057000 2.024000 2.002000 2.000000 2.017000 2.042000 2.058000 2.084000 2.087000 2.097000 2.119000 2.132000 2.165000 2.464000 0.000000 0.000000 0.000000 0.000000 0.000000 0.000000 0.000000 0.000000 0.000000 0.000000 0.000000 0.000000 0.000000 0.000000 
0.000000 0.000000 0.000000 0.000000 0.000000 0.000000 2.460000 2.342000 2.357000 2.363000 2.367000 2.014000 2.012000 2.004000 2.000000 2.000000 2.013000 2.031000 2.049000 2.067000 2.070000 2.083000 2.105000 2.124000 2.152000 2.164000 2.176000 2.210000 0.000000 0.000000 0.000000 0.000000 0.000000 0.000000 0.000000 0.000000 0.000000 0.000000 0.000000 0.000000 
0.000000 0.000000 0.000000 0.000000 0.000000 0.000000 2.238000 2.044000 2.028000 2.014000 2.014000 2.014000 2.009000 2.000000 2.000000 2.000000 2.003000 2.021000 2.039000 2.050000 2.060000 2.075000 2.101000 2.116000 2.143000 2.153000 2.162000 2.619000 0.000000 0.000000 0.000000 0.000000 0.000000 0.000000 0.000000 0.000000 0.000000 0.000000 0.000000 0.000000 
0.000000 0.000000 0.000000 0.000000 0.000000 0.000000 2.059000 2.052000 2.034000 2.017000 2.014000 2.014000 2.009000 2.000000 2.000000 2.000000 2.003000 2.021000 2.039000 2.044000 2.059000 2.065000 2.086000 2.105000 2.135000 2.153000 2.159000 2.378000 0.000000 0.000000 0.000000 0.000000 0.000000 0.000000 0.000000 0.000000 0.000000 0.000000 0.000000 0.000000 
0.000000 0.000000 0.000000 0.000000 0.000000 0.000000 2.059000 2.054000 2.036000 2.018000 2.014000 2.014000 2.009000 2.000000 2.000000 2.000000 2.003000 2.014000 2.024000 2.042000 2.059000 2.063000 2.082000 2.100000 2.135000 2.153000 2.159000 2.169000 2.215000 0.000000 0.000000 0.000000 0.000000 0.000000 0.000000 0.000000 0.000000 0.000000 0.000000 0.000000 
0.000000 0.000000 0.000000 0.000000 0.000000 0.000000 2.045000 2.052000 2.043000 2.021000 2.014000 2.014000 2.009000 2.000000 2.000000 2.000000 2.003000 2.014000 2.024000 2.040000 2.059000 2.065000 2.080000 2.098000 2.132000 2.139000 2.151000 2.161000 2.166000 0.000000 0.000000 0.000000 0.000000 0.000000 0.000000 0.000000 0.000000 0.000000 0.000000 0.000000 
0.000000 0.000000 0.000000 0.000000 0.000000 0.000000 2.044000 2.044000 2.036000 2.022000 2.014000 2.013000 2.005000 2.000000 2.000000 2.000000 2.002000 2.011000 2.020000 2.023000 2.054000 2.070000 2.074000 2.085000 2.113000 2.132000 2.143000 2.153000 2.153000 0.000000 0.000000 0.000000 0.000000 0.000000 0.000000 0.000000 0.000000 0.000000 0.000000 0.000000 
0.000000 0.000000 0.000000 0.000000 0.000000 0.000000 2.044000 2.044000 2.036000 2.029000 2.015000 2.012000 2.000000 2.000000 2.000000 2.000000 2.000000 2.006000 2.014000 2.014000 2.036000 2.054000 2.070000 2.085000 2.104000 2.123000 2.143000 2.153000 2.153000 0.000000 0.000000 0.000000 0.000000 0.000000 0.000000 0.000000 0.000000 0.000000 0.000000 0.000000 
0.000000 0.000000 0.000000 0.000000 0.000000 0.000000 0.000000 2.044000 2.036000 2.029000 2.015000 2.012000 2.000000 2.000000 2.000000 2.000000 2.000000 2.006000 2.014000 2.014000 2.019000 2.045000 2.061000 2.076000 2.103000 2.123000 2.143000 2.153000 2.153000 2.429000 0.000000 0.000000 0.000000 0.000000 0.000000 0.000000 0.000000 0.000000 0.000000 0.000000 
0.000000 0.000000 0.000000 0.000000 0.000000 0.000000 0.000000 0.000000 2.044000 2.033000 2.029000 2.014000 2.009000 2.000000 1.989000 1.986000 2.000000 2.000000 2.009000 2.014000 2.015000 2.029000 2.052000 2.074000 2.103000 2.123000 2.143000 2.153000 2.153000 2.169000 2.438000 0.000000 0.000000 0.000000 0.000000 0.000000 0.000000 0.000000 0.000000 0.000000 
0.000000 0.000000 0.000000 0.000000 0.000000 0.000000 0.000000 0.000000 2.048000 2.044000 2.030000 2.014000 2.009000 2.000000 1.991000 1.989000 2.000000 2.000000 2.000000 2.012000 2.015000 2.030000 2.052000 2.081000 2.104000 2.120000 2.139000 2.151000 2.153000 2.153000 2.371000 0.000000 0.000000 0.000000 0.000000 0.000000 0.000000 0.000000 0.000000 0.000000 
0.000000 0.000000 0.000000 0.000000 0.000000 0.000000 0.000000 2.029000 2.037000 2.044000 2.030000 2.014000 2.011000 2.003000 2.000000 2.000000 2.000000 2.000000 2.000000 2.012000 2.015000 2.033000 2.052000 2.070000 2.096000 2.107000 2.127000 2.146000 2.153000 2.153000 2.312000 0.000000 0.000000 0.000000 0.000000 0.000000 0.000000 0.000000 0.000000 0.000000 
0.000000 0.000000 0.000000 0.000000 0.000000 0.000000 0.000000 2.999000 2.042000 2.044000 2.030000 2.014000 2.014000 2.011000 2.002000 2.000000 2.000000 2.000000 2.000000 2.012000 2.016000 2.040000 2.052000 2.070000 2.088000 2.107000 2.127000 2.140000 2.151000 2.153000 2.460000 0.000000 0.000000 0.000000 0.000000 0.000000 0.000000 0.000000 0.000000 0.000000 
0.000000 0.000000 0.000000 0.000000 0.000000 0.000000 0.000000 0.000000 2.919000 2.044000 2.042000 2.025000 2.014000 2.014000 2.003000 2.000000 1.997000 1.988000 1.996000 2.012000 2.015000 2.031000 2.045000 2.070000 2.101000 2.107000 2.122000 2.131000 2.139000 2.153000 2.448000 0.000000 0.000000 0.000000 0.000000 0.000000 0.000000 0.000000 0.000000 0.000000 
0.000000 0.000000 0.000000 0.000000 0.000000 0.000000 0.000000 0.000000 0.000000 2.048000 2.042000 2.014000 2.014000 2.014000 2.003000 2.000000 1.997000 1.986000 1.995000 2.000000 2.001000 2.014000 2.029000 2.055000 2.087000 2.091000 2.111000 2.130000 2.137000 2.153000 2.447000 0.000000 0.000000 0.000000 0.000000 0.000000 0.000000 0.000000 0.000000 0.000000 
0.000000 0.000000 0.000000 0.000000 0.000000 0.000000 0.000000 0.000000 0.000000 2.047000 2.015000 2.014000 2.014000 2.014000 2.003000 2.000000 1.997000 1.986000 1.995000 2.000000 2.001000 2.014000 2.027000 2.050000 2.087000 2.091000 2.111000 2.130000 2.137000 2.153000 2.365000 0.000000 0.000000 0.000000 0.000000 0.000000 0.000000 0.000000 0.000000 0.000000 
0.000000 0.000000 0.000000 0.000000 0.000000 0.000000 0.000000 0.000000 2.590000 2.044000 2.023000 2.020000 2.014000 2.010000 2.001000 2.000000 1.991000 1.989000 1.998000 2.000000 2.001000 2.014000 2.022000 2.040000 2.079000 2.091000 2.111000 2.130000 2.137000 2.153000 2.161000 2.738000 0.000000 0.000000 0.000000 0.000000 0.000000 0.000000 0.000000 0.000000 
0.000000 0.000000 0.000000 0.000000 0.000000 0.000000 0.000000 0.000000 2.058000 2.036000 2.029000 2.026000 2.014000 2.006000 2.000000 2.000000 1.986000 1.988000 1.990000 1.999000 2.001000 2.014000 2.022000 2.040000 2.072000 2.080000 2.103000 2.130000 2.137000 2.153000 2.153000 2.718000 0.000000 0.000000 0.000000 0.000000 0.000000 0.000000 0.000000 0.000000 
0.000000 0.000000 0.000000 0.000000 0.000000 0.000000 0.000000 0.000000 0.000000 2.535000 2.015000 2.026000 2.014000 2.006000 2.000000 2.000000 1.986000 1.986000 1.986000 1.998000 2.000000 2.005000 2.015000 2.036000 2.059000 2.076000 2.100000 2.122000 2.134000 2.153000 2.153000 2.708000 0.000000 0.000000 0.000000 0.000000 0.000000 0.000000 0.000000 0.000000 
0.000000 0.000000 0.000000 0.000000 0.000000 0.000000 0.000000 0.000000 0.000000 2.576000 2.018000 2.026000 2.014000 2.006000 2.000000 2.000000 1.986000 1.986000 1.986000 1.996000 2.000000 2.004000 2.014000 2.025000 2.055000 2.061000 2.085000 2.105000 2.117000 2.151000 2.151000 2.628000 0.000000 0.000000 0.000000 0.000000 0.000000 0.000000 0.000000 0.000000 
0.000000 0.000000 0.000000 0.000000 0.000000 0.000000 0.000000 0.000000 0.000000 2.600000 2.044000 2.026000 2.014000 2.009000 2.001000 2.000000 1.986000 1.986000 1.986000 1.986000 2.000000 2.004000 2.014000 2.025000 2.043000 2.061000 2.083000 2.099000 2.116000 2.137000 2.140000 2.363000 0.000000 0.000000 0.000000 0.000000 0.000000 0.000000 0.000000 0.000000 
0.000000 0.000000 0.000000 0.000000 0.000000 0.000000 0.000000 0.000000 0.000000 2.616000 2.044000 2.034000 2.014000 2.014000 2.003000 2.000000 1.994000 1.990000 1.986000 1.986000 1.993000 2.002000 2.010000 2.019000 2.042000 2.068000 2.079000 2.089000 2.114000 2.137000 2.148000 2.732000 0.000000 0.000000 0.000000 0.000000 0.000000 0.000000 0.000000 0.000000 
0.000000 0.000000 0.000000 0.000000 0.000000 0.000000 0.000000 0.000000 0.000000 2.621000 2.056000 2.031000 2.021000 2.014000 2.012000 2.000000 1.997000 1.988000 1.979000 1.975000 1.987000 2.000000 2.007000 2.014000 2.042000 2.074000 2.079000 2.096000 2.117000 2.137000 2.153000 2.284000 0.000000 0.000000 0.000000 0.000000 0.000000 0.000000 0.000000 0.000000 
0.000000 0.000000 0.000000 0.000000 0.000000 0.000000 0.000000 0.000000 0.000000 2.621000 2.059000 2.029000 2.023000 2.014000 2.014000 2.000000 1.997000 1.986000 1.977000 1.972000 1.987000 2.000000 2.000000 2.010000 2.042000 2.074000 2.079000 2.089000 2.114000 2.137000 2.153000 2.153000 2.990000 0.000000 0.000000 0.000000 0.000000 0.000000 0.000000 0.000000 
0.000000 0.000000 0.000000 0.000000 0.000000 0.000000 0.000000 0.000000 0.000000 0.000000 2.124000 2.026000 2.021000 2.014000 2.014000 2.000000 2.000000 2.000000 1.991000 1.986000 1.986000 1.990000 2.000000 2.010000 2.042000 2.071000 2.078000 2.088000 2.114000 2.137000 2.153000 2.152000 2.814000 0.000000 0.000000 0.000000 0.000000 0.000000 0.000000 0.000000 
0.000000 0.000000 0.000000 0.000000 0.000000 0.000000 0.000000 0.000000 0.000000 0.000000 2.124000 2.014000 2.014000 2.014000 2.014000 2.000000 2.000000 1.997000 1.989000 1.986000 1.986000 1.990000 2.000000 2.010000 2.042000 2.061000 2.074000 2.079000 2.113000 2.137000 2.153000 2.146000 2.137000 0.000000 0.000000 0.000000 0.000000 0.000000 0.000000 0.000000 
0.000000 0.000000 0.000000 0.000000 0.000000 0.000000 0.000000 0.000000 0.000000 0.000000 2.115000 2.014000 2.018000 2.018000 2.014000 2.009000 2.000000 1.994000 1.986000 1.986000 1.986000 1.990000 2.000000 2.010000 2.042000 2.061000 2.074000 2.074000 2.111000 2.137000 2.153000 2.146000 2.137000 0.000000 0.000000 0.000000 0.000000 0.000000 0.000000 0.000000 
0.000000 0.000000 0.000000 0.000000 0.000000 0.000000 0.000000 0.000000 0.000000 0.000000 2.110000 2.014000 2.025000 2.033000 2.016000 2.014000 2.000000 1.994000 1.986000 1.986000 1.986000 1.987000 1.994000 2.002000 2.029000 2.049000 2.066000 2.074000 2.100000 2.137000 2.142000 2.152000 2.150000 0.000000 0.000000 0.000000 0.000000 0.000000 0.000000 0.000000 
0.000000 0.000000 0.000000 0.000000 0.000000 0.000000 0.000000 0.000000 0.000000 0.000000 2.124000 2.032000 2.045000 2.036000 2.018000 2.014000 2.011000 2.000000 1.991000 1.986000 1.986000 1.986000 1.986000 1.996000 2.027000 2.033000 2.064000 2.074000 2.098000 2.136000 2.139000 2.152000 2.153000 0.000000 0.000000 0.000000 0.000000 0.000000 0.000000 0.000000 
0.000000 0.000000 0.000000 0.000000 0.000000 0.000000 0.000000 0.000000 0.000000 0.000000 2.679000 2.040000 2.051000 2.044000 2.032000 2.014000 2.011000 2.000000 1.991000 1.986000 1.986000 1.986000 1.986000 1.996000 2.027000 2.033000 2.064000 2.083000 2.101000 2.121000 2.124000 2.142000 2.151000 0.000000 0.000000 0.000000 0.000000 0.000000 0.000000 0.000000 
0.000000 0.000000 0.000000 0.000000 0.000000 0.000000 0.000000 0.000000 0.000000 0.000000 0.000000 2.909000 2.044000 2.044000 2.032000 2.021000 2.012000 2.004000 1.995000 1.987000 1.986000 1.986000 1.989000 2.003000 2.027000 2.033000 2.064000 2.083000 2.095000 2.121000 2.124000 2.137000 2.142000 0.000000 0.000000 0.000000 0.000000 0.000000 0.000000 0.000000 
0.000000 0.000000 0.000000 0.000000 0.000000 0.000000 0.000000 0.000000 0.000000 0.000000 0.000000 0.000000 2.987000 2.034000 2.030000 2.019000 2.014000 2.008000 2.000000 1.988000 1.986000 1.986000 1.993000 2.010000 2.028000 2.033000 2.064000 2.083000 2.089000 2.110000 2.124000 2.137000 2.137000 0.000000 0.000000 0.000000 0.000000 0.000000 0.000000 0.000000 
0.000000 0.000000 0.000000 0.000000 0.000000 0.000000 0.000000 0.000000 0.000000 0.000000 0.000000 0.000000 0.000000 2.029000 2.029000 2.014000 2.014000 2.008000 2.000000 1.999000 1.998000 1.986000 1.993000 2.010000 2.028000 2.031000 2.056000 2.083000 2.089000 2.105000 2.121000 2.123000 2.132000 0.000000 0.000000 0.000000 0.000000 0.000000 0.000000 0.000000 
0.000000 0.000000 0.000000 0.000000 0.000000 0.000000 0.000000 0.000000 0.000000 0.000000 0.000000 0.000000 0.000000 2.029000 2.029000 2.014000 2.014000 2.008000 2.000000 2.000000 1.999000 1.987000 1.986000 2.005000 2.014000 2.030000 2.055000 2.083000 2.090000 2.291000 2.301000 2.301000 2.301000 0.000000 0.000000 0.000000 0.000000 0.000000 0.000000 0.000000 
0.000000 0.000000 0.000000 0.000000 0.000000 0.000000 0.000000 0.000000 0.000000 0.000000 0.000000 0.000000 0.000000 2.029000 2.029000 2.014000 2.014000 2.008000 2.000000 2.000000 2.000000 1.993000 1.986000 1.996000 2.009000 2.128000 2.820000 2.838000 2.676000 0.000000 0.000000 0.000000 0.000000 0.000000 0.000000 0.000000 0.000000 0.000000 0.000000 0.000000 
0.000000 0.000000 0.000000 0.000000 0.000000 0.000000 0.000000 0.000000 0.000000 0.000000 0.000000 0.000000 0.000000 2.029000 2.029000 2.022000 2.014000 2.011000 2.003000 2.000000 1.999000 1.986000 1.986000 1.996000 2.000000 0.000000 0.000000 0.000000 0.000000 0.000000 0.000000 0.000000 0.000000 0.000000 0.000000 0.000000 0.000000 0.000000 0.000000 0.000000 
0.000000 0.000000 0.000000 0.000000 0.000000 0.000000 0.000000 0.000000 0.000000 0.000000 0.000000 0.000000 2.337000 2.024000 2.029000 2.029000 2.025000 2.020000 2.005000 2.000000 2.141000 0.000000 0.000000 0.000000 0.000000 0.000000 0.000000 0.000000 0.000000 0.000000 0.000000 0.000000 0.000000 0.000000 0.000000 0.000000 0.000000 0.000000 0.000000 0.000000 
0.000000 0.000000 0.000000 0.000000 0.000000 0.000000 0.000000 0.000000 0.000000 0.000000 0.000000 0.000000 0.000000 0.000000 0.000000 0.000000 0.000000 0.000000 0.000000 0.000000 0.000000 0.000000 0.000000 0.000000 0.000000 0.000000 0.000000 0.000000 0.000000 0.000000 0.000000 0.000000 0.000000 0.000000 0.000000 0.000000 0.000000 0.000000 0.000000 0.000000 
0.000000 0.000000 0.000000 0.000000 0.000000 0.000000 0.000000 0.000000 0.000000 0.000000 0.000000 0.000000 0.000000 0.000000 0.000000 0.000000 0.000000 0.000000 0.000000 0.000000 0.000000 0.000000 0.000000 0.000000 0.000000 0.000000 0.000000 0.000000 0.000000 0.000000 0.000000 0.000000 0.000000 0.000000 0.000000 0.000000 0.000000 0.000000 0.000000 0.000000 
