40 40
0.000000 0.000000 0.000000 0.000000 0.000000 0.000000 0.000000 0.000000 0.000000 0.000000 0.000000 0.000000 0.000000 0.000000 0.000000 0.000000 0.000000 0.000000 0.000000 0.000000 0.000000 0.000000 0.000000 0.000000 0.000000 0.000000 0.000000 0.000000 0.000000 0.000000 0.000000 0.000000 0.000000 0.000000 0.000000 0.000000 0.000000 0.000000 0.000000 0.000000 
0.000000 0.000000 0.000000 0.000000 0.000000 0.000000 0.000000 0.000000 0.000000 0.000000 0.000000 0.000000 0.000000 0.000000 0.000000 0.000000 0.000000 0.000000 0.000000 0.000000 0.000000 0.000000 0.000000 0.000000 0.000000 0.000000 0.000000 0.000000 0.000000 0.000000 0.000000 0.000000 0.000000 0.000000 0.000000 0.000000 0.000000 0.000000 0.000000 0.000000 
0.000000 0.000000 0.000000 0.000000 0.000000 0.000000 0.000000 0.000000 0.000000 0.000000 0.000000 0.000000 0.000000 0.000000 0.000000 0.000000 0.000000 0.000000 0.000000 0.000000 0.000000 0.000000 0.000000 0.000000 0.000000 0.000000 0.000000 0.000000 0.000000 0.000000 0.000000 0.000000 0.000000 0.000000 0.000000 0.000000 0.000000 0.000000 0.000000 0.000000 
0.000000 0.000000 0.000000 0.000000 0.000000 0.000000 0.000000 0.000000 0.000000 0.000000 0.000000 0.000000 0.000000 0.000000 0.000000 0.000000 0.000000 0.000000 0.000000 0.000000 0.000000 0.000000 0.000000 0.000000 0.000000 0.000000 0.000000 0.000000 0.000000 0.000000 0.000000 0.000000 0.000000 0.000000 0.000000 0.000000 0.000000 0.000000 0.000000 0.000000 
0.000000 0.000000 0.000000 0.000000 0.000000 0.000000 0.000000 0.000000 0.000000 0.000000 0.000000 0.000000 0.000000 0.000000 0.000000 0.000000 0.000000 0.000000 0.000000 0.000000 0.000000 0.000000 0.000000 0.000000 0.000000 0.000000 0.000000 0.000000 0.000000 0.000000 0.000000 0.000000 0.000000 0.000000 0.000000 0.000000 0.000000 0.000000 0.000000 0.000000 
0.000000 0.000000 0.000000 0.000000 0.000000 0.000000 0.000000 0.000000 0.000000 0.000000 0.000000 0.000000 0.000000 0.000000 0.000000 0.000000 0.000000 0.000000 0.000000 0.000000 0.000000 0.000000 0.000000 0.000000 0.000000 0.000000 0.000000 0.000000 0.000000 0.000000 0.000000 0.000000 0.000000 0.000000 0.000000 0.000000 0.000000 0.000000 0.000000 0.000000 
0.000000 0.000000 0.000000 0.000000 0.000000 0.000000 0.000000 0.000000 0.000000 0.000000 0.000000 0.000000 0.000000 0.000000 0.000000 0.000000 0.000000 0.000000 0.000000 0.000000 0.000000 0.000000 0.000000 0.000000 0.000000 0.000000 0.000000 0.000000 0.000000 0.000000 0.000000 0.000000 0.000000 0.000000 0.000000 0.000000 0.000000 0.000000 0.000000 0.000000 
0.000000 0.000000 1.106000 1.106000 2.070000 2.065000 2.062000 2.062000 2.068000 2.065000 0.000000 0.000000 0.000000 0.000000 0.000000 0.000000 0.000000 0.000000 0.000000 0.000000 0.000000 0.000000 0.000000 0.000000 0.000000 0.000000 0.000000 1.106000 1.106000 1.106000 1.106000 1.106000 1.106000 1.106000 1.106000 1.106000 1.106000 1.106000 1.106000 1.106000 
0.000000 1.106000 1.106000 1.106000 2.062000 2.060000 2.060000 2.062000 2.065000 2.062000 2.062000 2.060000 2.057000 2.057000 0.000000 0.000000 0.000000 0.000000 0.000000 0.000000 0.000000 0.000000 0.000000 0.000000 0.000000 0.000000 0.000000 0.000000 1.106000 1.106000 1.106000 1.106000 1.106000 1.106000 1.106000 1.106000 1.106000 1.106000 1.106000 1.106000 
0.000000 1.106000 1.106000 1.106000 2.054000 2.054000 2.054000 2.052000 2.057000 2.054000 2.057000 2.054000 2.054000 2.054000 2.054000 2.054000 2.049000 0.000000 0.000000 0.000000 0.000000 0.000000 0.000000 0.000000 0.000000 0.000000 0.000000 0.000000 1.106000 1.106000 1.106000 1.106000 1.106000 1.106000 1.106000 1.106000 1.106000 1.106000 1.106000 1.106000 
1.106000 1.106000 1.106000 1.106000 2.052000 2.052000 2.049000 2.049000 2.052000 2.049000 2.046000 2.046000 2.049000 2.046000 2.049000 2.049000 2.046000 2.049000 2.049000 2.044000 2.046000 2.041000 0.000000 0.000000 0.000000 0.000000 0.000000 1.106000 1.106000 1.106000 1.106000 1.106000 1.106000 1.106000 1.106000 1.106000 1.106000 1.106000 0.000000 0.000000 
0.000000 1.106000 1.106000 1.106000 2.046000 2.044000 2.044000 2.044000 2.046000 2.046000 2.044000 2.044000 2.046000 2.044000 2.044000 2.044000 2.044000 2.041000 2.039000 2.044000 2.041000 2.039000 2.044000 2.039000 2.036000 2.034000 0.000000 1.106000 1.106000 1.106000 1.106000 1.106000 1.106000 1.106000 1.106000 1.106000 0.000000 0.000000 0.000000 0.000000 
1.106000 1.106000 1.106000 1.106000 2.041000 2.041000 2.041000 2.041000 2.041000 2.041000 2.041000 2.041000 2.039000 2.041000 2.039000 2.036000 2.036000 2.036000 2.036000 2.034000 2.034000 2.036000 2.039000 2.039000 2.036000 2.036000 2.036000 2.036000 2.039000 1.106000 1.106000 1.106000 1.106000 1.106000 1.106000 1.106000 0.000000 0.000000 0.000000 0.000000 
1.106000 1.106000 1.106000 2.034000 2.034000 2.036000 2.034000 2.034000 2.036000 2.036000 2.036000 2.034000 2.034000 2.034000 2.034000 2.034000 2.036000 2.034000 2.034000 2.031000 2.031000 2.031000 2.031000 2.034000 2.031000 2.029000 2.029000 2.029000 2.029000 2.031000 2.034000 2.026000 2.029000 2.029000 1.106000 1.106000 2.024000 1.106000 1.106000 1.106000 
1.106000 1.106000 1.106000 2.026000 2.031000 2.031000 2.031000 2.031000 2.034000 2.031000 2.031000 2.031000 2.031000 2.026000 2.029000 2.029000 2.029000 2.026000 2.026000 2.026000 2.026000 2.026000 2.029000 2.029000 2.026000 2.024000 2.026000 2.026000 2.026000 2.024000 2.024000 2.024000 2.024000 2.024000 2.026000 2.026000 2.024000 2.021000 1.106000 1.106000 
1.106000 1.106000 1.106000 2.024000 2.024000 2.024000 2.024000 2.024000 2.024000 2.024000 2.026000 2.026000 2.026000 2.024000 2.024000 2.026000 2.024000 2.024000 2.024000 2.024000 2.024000 2.024000 2.021000 2.021000 2.021000 2.021000 2.019000 2.021000 2.019000 2.019000 2.019000 2.019000 2.019000 2.019000 2.024000 2.019000 2.021000 2.021000 1.106000 1.106000 
1.106000 1.106000 2.021000 2.021000 2.021000 2.021000 2.021000 2.019000 2.021000 2.019000 2.019000 2.019000 2.019000 2.016000 2.019000 2.021000 2.019000 2.019000 2.016000 2.016000 2.016000 2.016000 2.019000 2.016000 2.019000 2.016000 2.019000 2.016000 2.016000 2.016000 2.019000 2.016000 2.016000 2.016000 2.016000 2.016000 2.016000 2.016000 2.019000 1.106000 
1.106000 1.106000 2.019000 2.014000 2.014000 2.016000 2.016000 2.014000 2.016000 2.016000 2.014000 2.014000 2.016000 2.014000 2.014000 2.014000 2.014000 2.014000 2.014000 2.014000 2.014000 2.014000 2.014000 2.014000 2.009000 2.012000 2.012000 2.012000 2.012000 2.012000 2.012000 2.007000 2.007000 2.012000 2.012000 2.012000 2.009000 2.012000 2.014000 1.106000 
1.106000 1.106000 2.012000 2.009000 2.012000 2.012000 2.012000 2.012000 2.014000 2.012000 2.012000 2.012000 2.009000 2.009000 2.009000 2.009000 2.009000 2.007000 2.007000 2.007000 2.007000 2.007000 2.009000 2.009000 2.009000 2.009000 2.009000 2.007000 2.007000 2.007000 2.007000 2.007000 2.007000 2.007000 2.007000 2.007000 2.007000 2.002000 1.106000 0.000000 
1.106000 2.012000 2.007000 2.004000 2.007000 2.004000 2.007000 2.009000 2.007000 2.007000 2.007000 2.007000 2.004000 2.004000 2.004000 2.004000 2.004000 2.004000 2.004000 2.004000 2.004000 2.004000 2.007000 2.000000 2.002000 2.002000 2.004000 2.004000 2.004000 2.004000 2.002000 2.000000 2.000000 2.004000 2.002000 2.002000 2.002000 2.004000 1.106000 1.106000 
1.106000 2.004000 2.000000 2.000000 2.002000 2.002000 2.002000 2.004000 2.004000 2.002000 2.004000 2.002000 2.002000 2.002000 2.002000 2.002000 2.002000 2.002000 2.000000 2.002000 1.997000 1.997000 2.000000 1.997000 1.997000 2.000000 1.997000 1.997000 1.997000 1.997000 1.997000 1.997000 2.000000 1.997000 1.997000 1.997000 1.997000 2.000000 1.106000 1.106000 
1.106000 2.000000 1.997000 1.995000 1.997000 1.995000 1.997000 2.000000 1.997000 2.000000 1.997000 1.997000 1.997000 1.995000 1.995000 1.997000 1.997000 1.995000 1.997000 1.997000 1.995000 1.995000 1.997000 1.995000 1.995000 1.993000 1.995000 1.995000 1.997000 1.991000 1.995000 1.991000 1.993000 1.991000 1.993000 1.991000 1.991000 1.991000 1.106000 1.106000 
1.106000 1.995000 1.995000 1.993000 1.993000 1.993000 1.993000 1.995000 1.995000 1.993000 1.993000 1.988000 1.993000 1.995000 1.993000 1.995000 1.995000 1.993000 1.991000 1.988000 1.991000 1.991000 1.993000 1.988000 1.991000 1.991000 1.991000 1.991000 1.988000 1.988000 1.988000 1.988000 1.988000 1.988000 1.988000 1.988000 1.988000 1.993000 1.106000 1.106000 
1.995000 1.991000 1.991000 1.991000 1.991000 1.986000 1.988000 1.988000 1.988000 1.988000 1.988000 1.988000 1.986000 1.986000 1.986000 1.988000 1.984000 1.986000 1.986000 1.986000 1.986000 1.984000 1.991000 1.986000 1.986000 1.986000 1.988000 1.986000 1.988000 1.984000 1.986000 1.986000 1.986000 1.984000 1.984000 1.984000 1.984000 1.991000 1.991000 1.106000 
1.988000 1.986000 1.986000 1.984000 1.984000 1.984000 1.984000 1.986000 1.986000 1.986000 1.986000 1.984000 1.981000 1.981000 1.984000 1.984000 1.981000 1.979000 1.979000 1.979000 1.981000 1.979000 1.981000 1.981000 1.979000 1.981000 1.979000 1.979000 1.979000 1.979000 1.981000 1.981000 1.979000 1.979000 1.979000 1.979000 1.979000 1.981000 1.997000 1.993000 
1.984000 1.981000 1.984000 1.981000 1.979000 1.979000 1.979000 1.981000 1.979000 1.979000 1.979000 1.981000 1.979000 1.979000 1.979000 1.977000 1.977000 1.977000 1.977000 1.975000 1.975000 1.975000 1.979000 1.977000 1.975000 1.977000 1.977000 1.977000 1.975000 1.977000 1.977000 1.977000 1.977000 1.977000 1.975000 1.977000 1.977000 1.973000 2.046000 2.046000 
1.977000 1.975000 1.975000 1.975000 1.977000 1.975000 1.975000 1.977000 1.975000 1.977000 1.977000 1.975000 1.975000 1.975000 1.975000 1.973000 1.975000 1.973000 1.970000 1.970000 1.970000 1.970000 1.973000 1.975000 1.973000 1.970000 1.970000 1.970000 1.973000 1.973000 1.973000 1.973000 1.973000 1.970000 1.970000 1.970000 1.970000 1.970000 2.046000 2.046000 
1.970000 1.970000 1.970000 1.970000 1.968000 1.968000 1.970000 1.975000 1.973000 1.970000 1.973000 1.970000 1.970000 1.968000 1.968000 1.970000 1.968000 1.968000 1.968000 1.968000 1.966000 1.968000 1.968000 1.970000 1.970000 1.968000 1.968000 1.966000 1.968000 1.966000 1.968000 1.968000 1.968000 1.970000 1.968000 1.966000 1.964000 1.106000 1.106000 2.062000 
1.968000 1.966000 1.966000 1.968000 1.968000 1.966000 1.966000 1.968000 1.968000 1.966000 1.968000 1.966000 1.964000 1.964000 1.964000 1.966000 1.964000 1.964000 1.966000 1.964000 1.962000 1.962000 1.964000 1.964000 1.964000 1.966000 1.964000 1.964000 1.964000 1.962000 1.962000 1.962000 1.964000 1.962000 1.962000 1.962000 1.962000 1.964000 1.106000 2.054000 
1.106000 1.106000 1.966000 1.966000 1.966000 1.962000 1.960000 1.962000 1.962000 1.962000 1.962000 1.962000 1.960000 1.960000 1.962000 1.962000 1.962000 1.960000 1.960000 1.957000 1.957000 1.960000 1.962000 1.962000 1.962000 1.960000 1.960000 1.960000 1.960000 1.957000 1.960000 1.960000 1.960000 1.957000 1.960000 1.957000 1.955000 1.957000 1.973000 2.054000 
1.106000 1.106000 1.106000 1.106000 1.968000 1.964000 1.962000 1.962000 1.962000 1.960000 1.960000 1.957000 1.955000 1.955000 1.957000 1.955000 1.955000 1.955000 1.953000 1.953000 1.953000 1.955000 1.957000 1.955000 1.955000 1.955000 1.955000 1.957000 1.955000 1.955000 1.955000 1.955000 1.955000 1.953000 1.953000 1.953000 1.949000 1.951000 1.968000 1.962000 
0.000000 0.000000 0.000000 0.000000 1.106000 1.106000 1.106000 1.106000 1.964000 1.960000 1.955000 1.953000 1.953000 1.951000 1.953000 1.951000 1.951000 1.951000 1.951000 1.951000 1.951000 1.951000 1.953000 1.955000 1.953000 1.953000 1.953000 1.953000 1.953000 1.953000 1.951000 1.953000 1.951000 1.949000 1.947000 1.947000 1.947000 1.949000 1.106000 1.964000 
0.000000 0.000000 0.000000 0.000000 0.000000 0.000000 1.106000 1.106000 1.106000 1.106000 1.962000 1.106000 1.953000 1.953000 1.951000 1.951000 1.949000 1.947000 1.947000 1.947000 1.947000 1.945000 1.947000 1.947000 1.947000 1.951000 1.951000 1.949000 1.949000 1.949000 1.949000 1.947000 1.947000 1.945000 1.945000 1.945000 1.943000 1.945000 1.106000 1.106000 
0.000000 0.000000 0.000000 0.000000 0.000000 0.000000 0.000000 0.000000 0.000000 0.000000 0.000000 0.000000 0.000000 0.000000 0.000000 0.000000 0.000000 0.000000 0.000000 0.000000 0.000000 0.000000 0.000000 0.000000 0.000000 0.000000 0.000000 0.000000 0.000000 0.000000 0.000000 0.000000 0.000000 0.000000 0.000000 0.000000 0.000000 0.000000 0.000000 0.000000 
0.000000 0.000000 0.000000 0.000000 0.000000 0.000000 0.000000 0.000000 0.000000 0.000000 0.000000 0.000000 0.000000 0.000000 0.000000 0.000000 0.000000 0.000000 0.000000 0.000000 0.000000 0.000000 0.000000 0.000000 0.000000 0.000000 0.000000 0.000000 0.000000 0.000000 0.000000 0.000000 0.000000 0.000000 0.000000 0.000000 0.000000 0.000000 0.000000 0.000000 
0.000000 0.000000 0.000000 0.000000 0.000000 0.000000 0.000000 0.000000 0.000000 0.000000 0.000000 0.000000 0.000000 0.000000 0.000000 0.000000 0.000000 0.000000 0.000000 0.000000 0.000000 0.000000 0.000000 0.000000 0.000000 0.000000 0.000000 0.000000 0.000000 0.000000 0.000000 0.000000 0.000000 0.000000 0.000000 0.000000 0.000000 0.000000 0.000000 0.000000 
0.000000 0.000000 0.000000 0.000000 0.000000 0.000000 0.000000 0.000000 0.000000 0.000000 0.000000 0.000000 0.000000 0.000000 0.000000 0.000000 0.000000 0.000000 0.000000 0.000000 0.000000 0.000000 0.000000 0.000000 0.000000 0.000000 0.000000 0.000000 0.000000 0.000000 0.000000 0.000000 0.000000 0.000000 0.000000 0.000000 0.000000 0.000000 0.000000 0.000000 
0.000000 0.000000 0.000000 0.000000 0.000000 0.000000 0.000000 0.000000 0.000000 0.000000 0.000000 0.000000 0.000000 0.000000 0.000000 0.000000 0.000000 0.000000 0.000000 0.000000 0.000000 0.000000 0.000000 0.000000 0.000000 0.000000 0.000000 0.000000 0.000000 0.000000 0.000000 0.000000 0.000000 0.000000 0.000000 0.000000 0.000000 0.000000 0.000000 0.000000 
0.000000 0.000000 0.000000 0.000000 0.000000 0.000000 0.000000 0.000000 0.000000 0.000000 0.000000 0.000000 0.000000 0.000000 0.000000 0.000000 0.000000 0.000000 0.000000 0.000000 0.000000 0.000000 0.000000 0.000000 0.000000 0.000000 0.000000 0.000000 0.000000 0.000000 0.000000 0.000000 0.000000 0.000000 0.000000 0.000000 0.000000 0.000000 0.000000 0.000000 
0.000000 0.000000 0.000000 0.000000 0.000000 0.000000 0.000000 0.000000 0.000000 0.000000 0.000000 0.000000 0.000000 0.000000 0.000000 0.000000 0.000000 0.000000 0.000000 0.000000 0.000000 0.000000 0.000000 0.000000 0.000000 0.000000 0.000000 0.000000 0.000000 0.000000 0.000000 0.000000 0.000000 0.000000 0.000000 0.000000 0.000000 0.000000 0.000000 0.000000 
