40 40
0.000000 0.000000 0.000000 0.000000 0.000000 0.000000 0.000000 1.629000 2.071000 2.083000 2.073000 2.073000 2.074000 2.094000 2.132000 2.155000 2.186000 2.361000 2.911000 2.871000 2.838000 2.838000 2.803000 2.826000 0.000000 0.000000 0.000000 0.000000 0.000000 0.000000 0.000000 0.000000 0.000000 0.000000 0.000000 0.000000 0.000000 0.000000 0.000000 0.000000 
0.000000 0.000000 0.000000 0.000000 0.000000 1.711000 1.983000 2.071000 2.106000 2.082000 2.060000 2.050000 2.050000 2.077000 2.129000 2.153000 2.172000 2.329000 2.988000 2.945000 2.874000 2.841000 2.804000 2.771000 2.806000 2.836000 0.000000 0.000000 0.000000 0.000000 0.000000 0.000000 0.000000 0.000000 0.000000 0.000000 0.000000 0.000000 0.000000 0.000000 
0.000000 0.000000 0.000000 0.000000 1.698000 2.072000 2.137000 2.128000 2.119000 2.103000 2.069000 2.047000 2.047000 2.075000 2.129000 2.147000 2.155000 2.345000 0.000000 0.000000 2.947000 2.907000 2.806000 2.767000 2.764000 2.795000 2.844000 2.974000 0.000000 0.000000 0.000000 0.000000 0.000000 0.000000 0.000000 0.000000 0.000000 0.000000 0.000000 0.000000 
0.000000 0.000000 1.709000 1.819000 2.058000 2.121000 2.125000 2.123000 2.121000 2.107000 2.081000 2.057000 2.047000 2.075000 2.123000 2.132000 2.147000 2.324000 0.000000 0.000000 0.000000 2.986000 2.963000 2.809000 2.794000 2.801000 2.802000 2.833000 2.953000 0.000000 0.000000 0.000000 0.000000 0.000000 0.000000 0.000000 0.000000 0.000000 0.000000 0.000000 
1.743000 1.747000 2.034000 2.071000 2.111000 2.121000 2.121000 2.121000 2.121000 2.107000 2.083000 2.060000 2.047000 2.068000 2.109000 2.128000 2.146000 2.193000 2.484000 0.000000 0.000000 2.973000 2.973000 2.926000 2.843000 2.807000 2.802000 2.802000 2.877000 2.984000 0.000000 0.000000 0.000000 0.000000 0.000000 0.000000 0.000000 0.000000 0.000000 0.000000 
2.047000 2.047000 2.068000 2.086000 2.114000 2.121000 2.121000 2.121000 2.121000 2.107000 2.092000 2.077000 2.064000 2.076000 2.104000 2.123000 2.133000 2.147000 2.190000 2.454000 2.917000 2.905000 2.931000 2.933000 2.927000 2.892000 2.821000 2.802000 2.855000 2.904000 2.959000 0.000000 0.000000 0.000000 0.000000 0.000000 0.000000 0.000000 0.000000 0.000000 
2.016000 2.030000 2.053000 2.089000 2.116000 2.121000 2.121000 2.110000 2.105000 2.100000 2.096000 2.084000 2.071000 2.080000 2.099000 2.105000 2.111000 2.130000 2.130000 2.199000 2.829000 2.829000 2.867000 2.916000 2.933000 2.945000 2.874000 2.853000 2.871000 2.880000 2.928000 0.000000 0.000000 0.000000 0.000000 0.000000 0.000000 0.000000 0.000000 0.000000 
2.000000 2.021000 2.044000 2.088000 2.116000 2.110000 2.106000 2.089000 2.081000 2.081000 2.081000 2.076000 2.071000 2.075000 2.081000 2.081000 2.087000 2.106000 2.108000 2.149000 2.425000 2.802000 2.839000 2.891000 2.896000 2.929000 2.951000 2.937000 2.912000 2.904000 2.938000 2.980000 0.000000 0.000000 0.000000 0.000000 0.000000 0.000000 0.000000 0.000000 
1.485000 1.986000 2.069000 2.093000 2.105000 2.099000 2.086000 2.075000 2.071000 2.071000 2.071000 2.071000 2.071000 2.071000 2.067000 2.058000 2.060000 2.071000 2.084000 2.095000 2.134000 2.437000 2.825000 2.877000 2.880000 2.913000 2.985000 0.000000 2.981000 2.952000 2.927000 2.916000 2.935000 2.993000 0.000000 0.000000 0.000000 0.000000 0.000000 0.000000 
1.082000 1.507000 2.043000 2.109000 2.099000 2.096000 2.079000 2.071000 2.071000 2.071000 2.071000 2.071000 2.071000 2.066000 2.055000 2.047000 2.047000 2.049000 2.060000 2.073000 2.098000 2.137000 2.813000 2.858000 2.877000 2.896000 2.964000 0.000000 0.000000 2.977000 2.914000 2.880000 2.880000 2.926000 0.000000 0.000000 0.000000 0.000000 0.000000 0.000000 
1.082000 1.082000 1.579000 2.044000 2.110000 2.099000 2.079000 2.071000 2.071000 2.071000 2.071000 2.071000 2.071000 2.062000 2.047000 2.047000 2.044000 2.036000 2.039000 2.063000 2.097000 2.123000 2.488000 2.812000 2.859000 2.877000 2.914000 2.954000 2.965000 2.950000 2.906000 2.880000 2.889000 2.927000 2.971000 0.000000 0.000000 0.000000 0.000000 0.000000 
1.082000 1.082000 1.101000 1.596000 1.702000 1.989000 2.075000 2.064000 2.061000 2.067000 2.071000 2.066000 2.061000 2.056000 2.047000 2.047000 2.041000 2.023000 2.025000 2.042000 2.087000 2.121000 2.111000 2.491000 2.785000 2.843000 2.847000 2.864000 2.870000 2.881000 2.903000 2.924000 2.935000 2.949000 2.962000 2.980000 0.000000 0.000000 0.000000 0.000000 
1.082000 1.082000 1.101000 1.103000 1.128000 1.571000 1.965000 2.055000 2.047000 2.060000 2.071000 2.060000 2.047000 2.047000 2.047000 2.047000 2.041000 2.023000 2.023000 2.027000 2.065000 2.112000 2.097000 2.096000 2.696000 2.788000 2.788000 2.798000 2.802000 2.827000 2.912000 0.000000 0.000000 2.980000 2.962000 2.951000 2.931000 2.958000 0.000000 0.000000 
1.085000 1.085000 1.098000 1.102000 1.125000 1.131000 1.789000 2.060000 2.055000 2.064000 2.071000 2.060000 2.047000 2.047000 2.047000 2.047000 2.041000 2.023000 2.023000 2.025000 2.041000 2.080000 2.087000 2.095000 2.675000 2.764000 2.764000 2.792000 2.802000 2.827000 2.921000 0.000000 0.000000 0.000000 2.973000 2.924000 2.876000 2.889000 2.978000 0.000000 
1.092000 1.092000 1.092000 1.099000 1.112000 1.115000 1.784000 2.071000 2.071000 2.071000 2.067000 2.056000 2.047000 2.047000 2.047000 2.047000 2.041000 2.023000 2.023000 2.023000 2.024000 2.040000 2.057000 2.086000 2.674000 2.764000 2.764000 2.792000 2.802000 2.827000 2.937000 0.000000 0.000000 0.000000 0.000000 2.910000 2.876000 2.841000 2.886000 0.000000 
1.090000 1.090000 1.090000 1.090000 1.090000 1.090000 1.776000 2.071000 2.071000 2.068000 2.056000 2.047000 2.047000 2.047000 2.045000 2.041000 2.037000 2.023000 2.023000 2.023000 2.023000 2.023000 2.023000 2.067000 2.530000 2.600000 2.734000 2.794000 2.808000 2.836000 2.947000 0.000000 0.000000 0.000000 0.000000 2.971000 2.949000 2.898000 2.922000 0.000000 
1.082000 1.082000 1.080000 1.080000 1.080000 1.080000 1.650000 1.895000 2.002000 2.058000 2.047000 2.047000 2.047000 2.045000 2.036000 2.023000 2.023000 2.023000 2.023000 2.023000 2.019000 2.019000 2.019000 2.058000 2.066000 2.070000 2.537000 2.772000 2.831000 2.871000 2.982000 0.000000 0.000000 0.000000 0.000000 0.000000 0.000000 0.000000 0.000000 0.000000 
1.080000 1.080000 1.072000 1.071000 1.071000 1.073000 1.121000 1.143000 1.623000 1.997000 2.047000 2.047000 2.047000 2.038000 2.023000 2.023000 2.023000 2.023000 2.023000 2.020000 1.997000 1.997000 2.000000 2.018000 2.040000 2.066000 2.110000 2.570000 2.808000 2.891000 2.995000 0.000000 0.000000 0.000000 0.000000 0.000000 0.000000 0.000000 0.000000 0.000000 
1.071000 1.071000 1.071000 1.071000 1.071000 1.086000 1.099000 1.116000 1.124000 1.643000 2.049000 2.048000 2.046000 2.037000 2.023000 2.023000 2.023000 2.023000 2.023000 2.018000 1.977000 1.977000 1.999000 2.000000 2.020000 2.062000 2.108000 2.117000 2.559000 2.869000 2.998000 0.000000 0.000000 0.000000 0.000000 0.000000 0.000000 0.000000 0.000000 0.000000 
1.071000 1.071000 1.071000 1.071000 1.071000 1.079000 1.089000 1.113000 1.124000 1.656000 2.072000 2.060000 2.037000 2.023000 2.023000 2.023000 2.023000 2.023000 2.023000 2.019000 1.978000 1.978000 1.998000 1.999000 2.018000 2.061000 2.089000 2.077000 2.070000 2.666000 0.000000 0.000000 0.000000 0.000000 0.000000 0.000000 0.000000 0.000000 0.000000 0.000000 
1.071000 1.071000 1.071000 1.071000 1.071000 1.079000 1.082000 1.109000 1.124000 1.669000 2.096000 2.073000 2.037000 2.023000 2.023000 2.023000 2.023000 2.023000 2.023000 2.021000 2.000000 2.000000 1.978000 1.977000 1.977000 2.034000 2.065000 2.053000 2.047000 2.683000 0.000000 2.981000 2.962000 2.962000 2.962000 2.977000 0.000000 0.000000 0.000000 0.000000 
1.071000 1.071000 1.071000 1.080000 1.082000 1.082000 1.082000 1.083000 1.084000 1.625000 2.049000 2.048000 2.037000 2.023000 2.023000 2.023000 2.023000 2.023000 2.020000 2.001000 2.000000 2.000000 1.978000 1.977000 1.977000 2.016000 2.043000 2.047000 2.047000 2.683000 0.000000 2.981000 2.962000 2.962000 2.962000 2.963000 2.990000 0.000000 0.000000 0.000000 
1.062000 1.070000 1.080000 1.090000 1.091000 1.091000 1.091000 1.091000 0.000000 0.000000 2.091000 2.047000 2.037000 2.023000 2.016000 2.002000 2.007000 2.023000 2.020000 2.000000 2.000000 2.000000 1.978000 1.977000 1.977000 1.980000 1.999000 2.019000 2.040000 2.683000 0.000000 2.981000 2.962000 2.962000 2.962000 2.962000 2.976000 0.000000 0.000000 0.000000 
1.061000 1.070000 1.081000 1.090000 1.092000 1.092000 1.092000 1.092000 0.000000 0.000000 2.139000 2.093000 2.037000 2.023000 2.015000 2.000000 2.005000 2.023000 2.023000 2.018000 2.000000 2.000000 1.978000 1.977000 1.977000 1.977000 1.995000 2.017000 2.039000 2.158000 2.662000 2.965000 2.962000 2.962000 2.962000 2.962000 2.975000 0.000000 0.000000 0.000000 
1.053000 1.062000 1.080000 1.106000 1.110000 1.103000 1.101000 0.000000 0.000000 0.000000 0.000000 2.071000 2.007000 2.004000 2.003000 2.000000 2.001000 2.004000 2.004000 2.004000 2.000000 2.000000 1.978000 1.977000 1.977000 1.977000 1.995000 2.003000 2.020000 2.058000 2.598000 2.962000 2.962000 2.962000 2.962000 2.962000 2.964000 2.983000 0.000000 0.000000 
1.051000 1.060000 1.086000 1.110000 1.114000 1.106000 1.103000 0.000000 0.000000 0.000000 0.000000 2.056000 1.982000 1.989000 2.000000 2.000000 2.000000 2.000000 2.000000 2.000000 2.000000 2.000000 1.995000 1.979000 1.977000 1.977000 1.981000 1.982000 2.010000 2.054000 2.189000 2.629000 2.929000 2.944000 2.962000 2.962000 2.962000 2.965000 2.979000 0.000000 
1.058000 1.061000 1.082000 1.103000 1.112000 1.106000 1.103000 0.000000 0.000000 0.000000 0.000000 0.000000 1.961000 1.976000 2.000000 2.000000 2.000000 2.000000 2.000000 1.998000 1.983000 1.983000 1.983000 1.978000 1.977000 1.964000 1.961000 1.973000 2.008000 2.042000 2.064000 2.206000 2.618000 2.939000 2.962000 2.962000 2.962000 2.962000 2.965000 2.973000 
1.061000 1.061000 1.080000 1.088000 1.091000 1.106000 1.111000 0.000000 0.000000 0.000000 0.000000 0.000000 1.955000 1.978000 2.016000 2.016000 2.012000 1.997000 1.984000 1.984000 1.977000 1.977000 1.977000 1.977000 1.977000 1.959000 1.955000 1.971000 1.998000 2.022000 2.045000 2.059000 2.193000 2.612000 2.962000 2.962000 2.962000 2.962000 2.962000 2.962000 
1.061000 1.061000 1.080000 1.082000 1.082000 1.106000 0.000000 0.000000 0.000000 0.000000 0.000000 0.000000 0.000000 0.000000 2.033000 2.023000 2.018000 1.996000 1.977000 1.977000 1.977000 1.977000 1.977000 1.964000 1.963000 1.944000 1.940000 1.946000 1.964000 1.995000 2.014000 2.025000 2.039000 2.197000 2.616000 2.962000 2.962000 2.962000 2.956000 2.935000 
1.061000 1.073000 1.081000 1.082000 1.087000 1.107000 0.000000 0.000000 0.000000 0.000000 0.000000 0.000000 0.000000 0.000000 0.000000 2.033000 2.021000 2.007000 1.977000 1.977000 1.977000 1.977000 1.965000 1.956000 1.955000 1.936000 1.932000 1.932000 1.938000 1.962000 1.981000 1.999000 2.028000 2.047000 2.199000 2.616000 2.962000 2.955000 2.933000 2.920000 
1.061000 1.081000 1.087000 1.087000 1.091000 1.108000 0.000000 0.000000 0.000000 0.000000 0.000000 0.000000 0.000000 0.000000 0.000000 0.000000 2.020000 2.004000 1.977000 1.977000 1.977000 1.977000 1.956000 1.955000 1.955000 1.936000 1.923000 1.921000 1.921000 1.935000 1.956000 1.977000 2.011000 2.040000 2.047000 2.384000 2.978000 2.951000 2.920000 2.920000 
1.061000 1.075000 1.086000 1.087000 1.087000 1.095000 0.000000 0.000000 0.000000 0.000000 0.000000 0.000000 0.000000 0.000000 0.000000 0.000000 1.965000 1.958000 1.966000 1.966000 1.966000 1.966000 1.955000 1.955000 1.945000 1.934000 1.916000 1.911000 1.911000 1.924000 1.939000 1.962000 1.994000 2.022000 2.040000 2.383000 2.977000 2.951000 2.920000 2.920000 
1.052000 1.057000 1.067000 1.068000 1.075000 1.081000 1.093000 0.000000 0.000000 0.000000 0.000000 0.000000 0.000000 0.000000 0.000000 0.000000 1.901000 1.906000 1.930000 1.955000 1.955000 1.955000 1.955000 1.955000 1.935000 1.932000 1.923000 1.920000 1.920000 1.928000 1.932000 1.956000 1.983000 2.000000 2.022000 2.368000 2.956000 2.937000 2.920000 2.920000 
1.037000 1.037000 1.042000 1.046000 1.056000 1.067000 1.071000 0.000000 0.000000 0.000000 0.000000 0.000000 0.000000 0.000000 0.000000 0.000000 1.889000 1.889000 1.899000 1.955000 1.955000 1.955000 1.955000 1.955000 1.943000 1.941000 1.934000 1.932000 1.932000 1.932000 1.932000 1.956000 1.977000 1.987000 2.009000 2.360000 2.949000 2.920000 2.916000 2.904000 
1.027000 1.027000 1.027000 1.033000 1.040000 1.046000 1.043000 1.039000 0.000000 0.000000 0.000000 0.000000 0.000000 0.000000 0.000000 0.000000 1.153000 1.904000 1.911000 1.947000 1.947000 1.955000 1.955000 1.955000 1.948000 1.947000 1.935000 1.932000 1.932000 1.932000 1.932000 1.956000 1.977000 1.984000 2.001000 2.231000 2.712000 2.916000 2.900000 2.880000 
1.021000 1.021000 1.021000 1.021000 1.037000 1.039000 1.038000 1.031000 1.024000 1.019000 0.000000 0.000000 0.000000 0.000000 0.000000 0.000000 0.000000 1.932000 1.932000 1.932000 1.933000 1.955000 1.955000 1.948000 1.934000 1.932000 1.932000 1.932000 1.932000 1.937000 1.939000 1.956000 1.970000 1.970000 1.979000 1.993000 2.193000 2.625000 2.665000 2.880000 
1.018000 1.018000 1.018000 1.018000 1.034000 1.033000 1.029000 1.024000 1.019000 1.013000 1.008000 0.000000 0.000000 0.000000 0.000000 0.000000 0.000000 1.341000 1.932000 1.932000 1.933000 1.955000 1.955000 1.934000 1.932000 1.932000 1.932000 1.932000 1.932000 1.947000 1.955000 1.955000 1.955000 1.955000 1.964000 1.977000 1.982000 1.994000 2.136000 2.639000 
1.011000 1.009000 1.009000 1.011000 1.027000 1.029000 1.023000 1.020000 1.014000 1.005000 1.001000 0.000000 0.000000 0.000000 0.000000 0.000000 0.000000 0.000000 1.328000 1.388000 1.943000 1.955000 1.955000 1.934000 1.932000 1.932000 1.932000 1.932000 1.932000 1.943000 1.950000 1.950000 1.950000 1.950000 1.959000 1.972000 1.974000 1.977000 1.977000 1.977000 
1.011000 1.002000 1.001000 1.011000 1.026000 1.023000 1.021000 1.014000 1.011000 1.005000 1.001000 0.000000 0.000000 0.000000 0.000000 0.000000 0.000000 0.000000 0.000000 0.000000 1.516000 1.955000 1.955000 1.934000 1.932000 1.932000 1.932000 1.932000 1.932000 1.932000 1.932000 1.932000 1.932000 1.932000 1.940000 1.952000 1.961000 1.973000 1.974000 1.977000 
1.011000 1.002000 1.001000 1.016000 1.019000 1.020000 1.020000 1.014000 1.011000 1.006000 1.002000 0.000000 0.000000 0.000000 0.000000 0.000000 0.000000 0.000000 0.000000 0.000000 0.000000 1.604000 1.938000 1.934000 1.932000 1.932000 1.932000 1.930000 1.929000 1.931000 1.930000 1.929000 1.929000 1.929000 1.929000 1.937000 1.950000 1.952000 1.957000 1.974000 
