0.000000,0.000000,0.000000,0.000000,0.000000,0.000000,0.000000,0.000000,0.000000,0.000000,0.000000,0.000000,0.000000,0.000000,0.000000,0.000000,0.000000,0.000000,0.000000,0.000000,0.000000,0.000000,0.000000,0.000000,0.000000,0.000000,0.000000,0.000000,0.000000,0.000000,0.000000,0.000000,0.000000,0.000000,0.000000,0.000000,0.000000,0.000000,0.000000,0.000000,
0.000000,0.000000,0.000000,0.000000,0.000000,0.000000,0.000000,0.000000,0.000000,0.000000,0.000000,0.000000,0.000000,0.000000,0.000000,0.000000,0.000000,0.000000,0.000000,0.000000,0.000000,0.000000,0.000000,0.000000,0.000000,0.000000,0.000000,0.000000,0.000000,0.000000,0.000000,0.000000,0.000000,0.000000,0.000000,0.000000,0.000000,0.000000,0.000000,0.000000,
0.000000,0.000000,0.000000,0.000000,0.000000,0.000000,0.000000,0.000000,0.000000,2.007000,1.998000,2.003000,2.007000,2.012000,2.018000,2.020000,2.042000,2.046000,2.046000,2.051000,2.071000,2.071000,0.000000,2.094000,2.096000,2.695000,2.973000,2.977000,0.000000,0.000000,0.000000,0.000000,0.000000,0.000000,0.000000,0.000000,0.000000,0.000000,0.000000,0.000000,
0.000000,0.000000,0.000000,0.000000,0.000000,0.000000,0.000000,0.000000,2.015000,2.007000,1.995000,1.995000,2.007000,2.012000,2.023000,2.023000,2.035000,2.041000,2.046000,2.054000,2.065000,2.071000,2.076000,2.090000,2.096000,2.101000,2.110000,2.122000,2.963000,0.000000,0.000000,0.000000,0.000000,0.000000,0.000000,0.000000,0.000000,0.000000,0.000000,0.000000,
0.000000,0.000000,0.000000,0.000000,0.000000,0.000000,2.867000,2.034000,2.022000,2.007000,1.995000,1.995000,2.000000,2.005000,2.016000,2.018000,2.028000,2.034000,2.038000,2.054000,2.058000,2.065000,2.081000,2.090000,2.096000,2.096000,2.099000,2.122000,2.408000,0.000000,0.000000,0.000000,0.000000,0.000000,0.000000,0.000000,0.000000,0.000000,0.000000,0.000000,
0.000000,0.000000,0.000000,0.000000,0.000000,2.071000,2.041000,2.033000,2.023000,2.015000,1.995000,1.994000,1.997000,2.003000,2.016000,2.018000,2.023000,2.030000,2.038000,2.050000,2.054000,2.062000,2.068000,2.087000,2.087000,2.096000,2.100000,2.113000,2.113000,0.000000,0.000000,0.000000,0.000000,0.000000,0.000000,0.000000,0.000000,0.000000,0.000000,0.000000,
0.000000,0.000000,0.000000,0.000000,0.000000,2.059000,2.046000,2.033000,2.023000,2.015000,1.997000,1.992000,1.992000,2.000000,2.018000,2.023000,2.023000,2.023000,2.030000,2.046000,2.054000,2.062000,2.068000,2.082000,2.087000,2.096000,2.099000,2.113000,2.113000,0.000000,0.000000,0.000000,0.000000,0.000000,0.000000,0.000000,0.000000,0.000000,0.000000,0.000000,
0.000000,0.000000,0.000000,0.000000,0.000000,2.066000,2.051000,2.034000,2.023000,2.015000,1.997000,1.992000,1.992000,2.000000,2.011000,2.018000,2.023000,2.023000,2.030000,2.045000,2.054000,2.057000,2.064000,2.075000,2.087000,2.089000,2.099000,2.107000,2.119000,2.561000,0.000000,0.000000,0.000000,0.000000,0.000000,0.000000,0.000000,0.000000,0.000000,0.000000,
0.000000,0.000000,0.000000,0.000000,0.000000,2.065000,2.054000,2.037000,2.023000,2.015000,2.007000,1.998000,1.992000,1.997000,2.005000,2.012000,2.022000,2.023000,2.028000,2.041000,2.054000,2.054000,2.061000,2.074000,2.087000,2.087000,2.096000,2.104000,2.110000,2.419000,0.000000,0.000000,0.000000,0.000000,0.000000,0.000000,0.000000,0.000000,0.000000,0.000000,
0.000000,0.000000,0.000000,0.000000,0.000000,2.062000,2.054000,2.041000,2.028000,2.015000,2.005000,2.000000,1.992000,1.992000,1.995000,2.000000,2.015000,2.023000,2.023000,2.035000,2.049000,2.054000,2.054000,2.065000,2.079000,2.087000,2.090000,2.104000,2.110000,2.113000,0.000000,0.000000,0.000000,0.000000,0.000000,0.000000,0.000000,0.000000,0.000000,0.000000,
0.000000,0.000000,0.000000,0.000000,0.000000,2.062000,2.059000,2.047000,2.031000,2.015000,2.005000,1.997000,1.985000,1.987000,1.995000,2.000000,2.007000,2.018000,2.023000,2.023000,2.041000,2.046000,2.049000,2.057000,2.065000,2.072000,2.086000,2.096000,2.101000,2.108000,0.000000,0.000000,0.000000,0.000000,0.000000,0.000000,0.000000,0.000000,0.000000,0.000000,
0.000000,0.000000,0.000000,0.000000,0.000000,2.062000,2.062000,2.049000,2.034000,2.018000,2.005000,1.997000,1.985000,1.985000,1.992000,2.000000,2.000000,2.010000,2.023000,2.028000,2.040000,2.046000,2.046000,2.054000,2.062000,2.062000,2.083000,2.096000,2.096000,2.110000,2.117000,0.000000,0.000000,0.000000,0.000000,0.000000,0.000000,0.000000,0.000000,0.000000,
0.000000,0.000000,0.000000,0.000000,0.000000,0.000000,2.054000,2.049000,2.035000,2.023000,2.005000,1.997000,1.985000,1.990000,1.992000,2.000000,2.000000,2.002000,2.015000,2.028000,2.038000,2.046000,2.046000,2.054000,2.062000,2.062000,2.087000,2.096000,2.096000,2.099000,2.111000,0.000000,0.000000,0.000000,0.000000,0.000000,0.000000,0.000000,0.000000,0.000000,
0.000000,0.000000,0.000000,0.000000,0.000000,0.000000,2.054000,2.049000,2.034000,2.018000,2.008000,2.000000,1.985000,1.985000,1.992000,1.995000,1.995000,2.001000,2.010000,2.018000,2.030000,2.038000,2.046000,2.046000,2.054000,2.062000,2.080000,2.090000,2.096000,2.097000,2.099000,2.974000,0.000000,0.000000,0.000000,0.000000,0.000000,0.000000,0.000000,0.000000,
0.000000,0.000000,0.000000,0.000000,0.000000,0.000000,2.054000,2.054000,2.039000,2.018000,2.010000,2.000000,1.985000,1.985000,1.987000,1.992000,1.992000,2.000000,2.007000,2.015000,2.025000,2.035000,2.038000,2.046000,2.051000,2.067000,2.073000,2.084000,2.091000,2.094000,2.096000,2.973000,0.000000,0.000000,0.000000,0.000000,0.000000,0.000000,0.000000,0.000000,
0.000000,0.000000,0.000000,0.000000,0.000000,0.000000,2.054000,2.054000,2.043000,2.023000,2.015000,1.997000,1.985000,1.985000,1.987000,1.992000,1.992000,2.000000,2.000000,2.007000,2.023000,2.030000,2.035000,2.046000,2.046000,2.065000,2.071000,2.079000,2.087000,2.090000,2.096000,2.971000,0.000000,0.000000,0.000000,0.000000,0.000000,0.000000,0.000000,0.000000,
0.000000,0.000000,0.000000,0.000000,0.000000,0.000000,2.071000,2.060000,2.043000,2.028000,2.012000,1.997000,1.990000,1.980000,1.978000,1.987000,1.992000,1.993000,2.000000,2.007000,2.016000,2.025000,2.035000,2.041000,2.046000,2.061000,2.071000,2.079000,2.084000,2.088000,2.090000,2.094000,0.000000,0.000000,0.000000,0.000000,0.000000,0.000000,0.000000,0.000000,
0.000000,0.000000,0.000000,0.000000,0.000000,0.000000,2.065000,2.058000,2.043000,2.023000,2.010000,1.997000,1.992000,1.980000,1.975000,1.977000,1.987000,1.992000,2.000000,2.005000,2.007000,2.015000,2.028000,2.038000,2.046000,2.054000,2.062000,2.071000,2.078000,2.087000,2.087000,2.091000,2.531000,0.000000,0.000000,0.000000,0.000000,0.000000,0.000000,0.000000,
0.000000,0.000000,0.000000,0.000000,0.000000,0.000000,0.000000,2.057000,2.043000,2.023000,2.015000,2.005000,1.992000,1.980000,1.970000,1.970000,1.982000,1.992000,2.000000,2.000000,2.000000,2.007000,2.025000,2.038000,2.046000,2.054000,2.057000,2.062000,2.071000,2.082000,2.087000,2.087000,2.506000,0.000000,0.000000,0.000000,0.000000,0.000000,0.000000,0.000000,
0.000000,0.000000,0.000000,0.000000,0.000000,0.000000,0.000000,2.870000,2.050000,2.033000,2.018000,2.005000,1.992000,1.981000,1.970000,1.970000,1.977000,1.989000,1.992000,1.998000,2.005000,2.012000,2.024000,2.033000,2.038000,2.051000,2.057000,2.062000,2.068000,2.079000,2.087000,2.087000,0.000000,0.000000,0.000000,0.000000,0.000000,0.000000,0.000000,0.000000,
0.000000,0.000000,0.000000,0.000000,0.000000,0.000000,0.000000,0.000000,2.049000,2.030000,2.018000,2.005000,1.992000,1.982000,1.970000,1.970000,1.973000,1.979000,1.985000,1.997000,2.000000,2.005000,2.020000,2.028000,2.035000,2.042000,2.057000,2.062000,2.062000,2.071000,2.076000,2.090000,2.913000,0.000000,0.000000,0.000000,0.000000,0.000000,0.000000,0.000000,
0.000000,0.000000,0.000000,0.000000,0.000000,0.000000,0.000000,2.861000,2.051000,2.038000,2.023000,2.005000,1.992000,1.987000,1.970000,1.970000,1.970000,1.977000,1.985000,1.992000,2.000000,2.000000,2.007000,2.023000,2.023000,2.030000,2.043000,2.054000,2.059000,2.065000,2.071000,2.079000,2.087000,0.000000,0.000000,0.000000,0.000000,0.000000,0.000000,0.000000,
0.000000,0.000000,0.000000,0.000000,0.000000,0.000000,0.000000,2.861000,2.053000,2.043000,2.023000,2.010000,1.997000,1.987000,1.970000,1.970000,1.970000,1.971000,1.977000,1.990000,1.995000,2.000000,2.007000,2.018000,2.023000,2.028000,2.035000,2.049000,2.054000,2.063000,2.071000,2.074000,2.068000,0.000000,0.000000,0.000000,0.000000,0.000000,0.000000,0.000000,
0.000000,0.000000,0.000000,0.000000,0.000000,0.000000,0.000000,0.000000,2.050000,2.043000,2.023000,2.012000,1.997000,1.987000,1.972000,1.970000,1.968000,1.970000,1.977000,1.984000,1.990000,1.992000,2.005000,2.015000,2.023000,2.026000,2.033000,2.046000,2.053000,2.062000,2.062000,2.071000,2.065000,0.000000,0.000000,0.000000,0.000000,0.000000,0.000000,0.000000,
0.000000,0.000000,0.000000,0.000000,0.000000,0.000000,0.000000,0.000000,0.000000,2.030000,2.023000,2.010000,1.992000,1.987000,1.975000,1.963000,1.963000,1.970000,1.977000,1.982000,1.987000,1.992000,2.000000,2.010000,2.023000,2.023000,2.030000,2.030000,2.046000,2.057000,2.062000,2.071000,2.074000,2.086000,0.000000,0.000000,0.000000,0.000000,0.000000,0.000000,
0.000000,0.000000,0.000000,0.000000,0.000000,0.000000,0.000000,0.000000,1.676000,2.023000,2.023000,2.016000,2.000000,1.992000,1.978000,1.968000,1.968000,1.970000,1.972000,1.977000,1.987000,1.992000,1.994000,2.007000,2.023000,2.023000,2.027000,2.030000,2.038000,2.050000,2.062000,2.068000,2.074000,2.087000,2.973000,0.000000,0.000000,0.000000,0.000000,0.000000,
0.000000,0.000000,0.000000,0.000000,0.000000,0.000000,0.000000,0.000000,2.573000,2.033000,2.028000,2.019000,2.000000,1.995000,1.980000,1.970000,1.965000,1.965000,1.970000,1.970000,1.982000,1.992000,1.992000,2.004000,2.020000,2.023000,2.025000,2.030000,2.035000,2.047000,2.059000,2.062000,2.071000,2.079000,2.840000,0.000000,0.000000,0.000000,0.000000,0.000000,
0.000000,0.000000,0.000000,0.000000,0.000000,0.000000,0.000000,0.000000,0.000000,2.023000,2.023000,2.020000,2.007000,1.995000,1.982000,1.970000,1.963000,1.963000,1.970000,1.970000,1.975000,1.992000,1.992000,1.995000,2.015000,2.015000,2.018000,2.023000,2.030000,2.043000,2.054000,2.059000,2.062000,2.071000,2.848000,0.000000,0.000000,0.000000,0.000000,0.000000,
0.000000,0.000000,0.000000,0.000000,0.000000,0.000000,0.000000,0.000000,0.000000,2.038000,2.023000,2.022000,2.012000,1.995000,1.982000,1.970000,1.963000,1.963000,1.963000,1.968000,1.973000,1.987000,1.992000,1.995000,2.002000,2.015000,2.018000,2.023000,2.030000,2.042000,2.049000,2.056000,2.058000,2.071000,2.875000,0.000000,0.000000,0.000000,0.000000,0.000000,
0.000000,0.000000,0.000000,0.000000,0.000000,0.000000,0.000000,0.000000,0.000000,2.023000,2.023000,2.022000,2.012000,1.995000,1.982000,1.970000,1.964000,1.963000,1.963000,1.966000,1.972000,1.982000,1.990000,1.994000,2.000000,2.012000,2.015000,2.015000,2.028000,2.041000,2.046000,2.054000,2.057000,2.071000,2.071000,0.000000,0.000000,0.000000,0.000000,0.000000,
0.000000,0.000000,0.000000,0.000000,0.000000,0.000000,0.000000,0.000000,0.000000,0.000000,2.023000,2.020000,2.007000,2.002000,1.990000,1.970000,1.960000,1.955000,1.955000,1.963000,1.970000,1.970000,1.982000,1.987000,2.000000,2.007000,2.010000,2.015000,2.028000,2.041000,2.046000,2.051000,2.057000,2.071000,2.082000,0.000000,0.000000,0.000000,0.000000,0.000000,
0.000000,0.000000,0.000000,0.000000,0.000000,0.000000,0.000000,0.000000,0.000000,0.000000,1.661000,2.026000,2.007000,1.995000,1.977000,1.970000,1.954000,1.950000,1.955000,1.960000,1.970000,1.970000,1.975000,1.985000,1.992000,1.999000,2.004000,2.015000,2.023000,2.028000,2.046000,2.051000,2.057000,2.071000,2.081000,0.000000,0.000000,0.000000,0.000000,0.000000,
0.000000,0.000000,0.000000,0.000000,0.000000,0.000000,0.000000,0.000000,0.000000,0.000000,2.030000,2.028000,2.015000,1.995000,1.975000,1.970000,1.953000,1.948000,1.946000,1.952000,1.963000,1.968000,1.975000,1.983000,1.992000,1.997000,2.002000,2.007000,2.019000,2.024000,2.035000,2.045000,2.049000,2.062000,2.072000,0.000000,0.000000,0.000000,0.000000,0.000000,
0.000000,0.000000,0.000000,0.000000,0.000000,0.000000,0.000000,0.000000,0.000000,0.000000,2.030000,2.028000,2.023000,1.995000,1.982000,1.963000,1.953000,1.948000,1.941000,1.946000,1.958000,1.963000,1.970000,1.980000,1.985000,1.997000,2.002000,2.007000,2.015000,2.020000,2.030000,2.043000,2.049000,2.062000,2.062000,0.000000,0.000000,0.000000,0.000000,0.000000,
0.000000,0.000000,0.000000,0.000000,0.000000,0.000000,0.000000,0.000000,0.000000,0.000000,2.030000,2.023000,2.023000,2.002000,1.985000,1.968000,1.956000,1.948000,1.946000,1.947000,1.958000,1.963000,1.970000,1.975000,1.985000,1.997000,2.002000,2.007000,2.026000,2.028000,2.041000,2.053000,2.061000,2.062000,2.634000,0.000000,0.000000,0.000000,0.000000,0.000000,
0.000000,0.000000,0.000000,0.000000,0.000000,0.000000,0.000000,0.000000,0.000000,0.000000,2.792000,2.022000,2.020000,2.002000,1.990000,1.972000,1.958000,1.953000,1.948000,1.950000,1.965000,1.972000,1.972000,1.984000,1.995000,2.000000,2.013000,2.043000,2.045000,2.063000,2.096000,2.087000,2.087000,2.513000,0.000000,0.000000,0.000000,0.000000,0.000000,0.000000,
0.000000,0.000000,0.000000,0.000000,0.000000,0.000000,0.000000,0.000000,0.000000,0.000000,2.792000,2.020000,2.015000,2.002000,1.992000,1.977000,1.970000,1.964000,1.966000,0.000000,0.000000,0.000000,2.008000,2.011000,2.007000,0.000000,0.000000,0.000000,0.000000,0.000000,0.000000,2.513000,2.518000,0.000000,0.000000,0.000000,0.000000,0.000000,0.000000,0.000000,
0.000000,0.000000,0.000000,0.000000,0.000000,0.000000,0.000000,0.000000,0.000000,0.000000,0.000000,0.000000,2.023000,2.010000,1.997000,1.990000,0.000000,0.000000,0.000000,0.000000,0.000000,0.000000,0.000000,0.000000,0.000000,0.000000,0.000000,0.000000,0.000000,0.000000,0.000000,0.000000,0.000000,0.000000,0.000000,0.000000,0.000000,0.000000,0.000000,0.000000,
0.000000,0.000000,0.000000,0.000000,0.000000,0.000000,0.000000,0.000000,0.000000,0.000000,0.000000,0.000000,0.000000,0.000000,0.000000,0.000000,0.000000,0.000000,0.000000,0.000000,0.000000,0.000000,0.000000,0.000000,0.000000,0.000000,0.000000,0.000000,0.000000,0.000000,0.000000,0.000000,0.000000,0.000000,0.000000,0.000000,0.000000,0.000000,0.000000,0.000000,
0.000000,0.000000,0.000000,0.000000,0.000000,0.000000,0.000000,0.000000,0.000000,0.000000,0.000000,0.000000,0.000000,0.000000,0.000000,0.000000,0.000000,0.000000,0.000000,0.000000,0.000000,0.000000,0.000000,0.000000,0.000000,0.000000,0.000000,0.000000,0.000000,0.000000,0.000000,0.000000,0.000000,0.000000,0.000000,0.000000,0.000000,0.000000,0.000000,0.000000,
