40 40
0.000000 0.000000 0.000000 0.000000 0.000000 0.000000 0.000000 0.000000 0.000000 0.000000 0.000000 0.000000 0.000000 0.000000 0.000000 0.000000 0.000000 0.000000 0.000000 0.000000 0.000000 0.000000 0.000000 0.000000 0.000000 0.000000 0.000000 0.000000 0.000000 0.000000 0.000000 0.000000 0.000000 0.000000 0.000000 0.000000 0.000000 0.000000 0.000000 0.000000 
0.000000 0.000000 0.000000 0.000000 0.000000 0.000000 0.000000 0.000000 0.000000 0.000000 2.022000 2.014000 2.114000 2.131000 0.000000 0.000000 0.000000 0.000000 0.000000 0.000000 0.000000 2.125000 0.000000 0.000000 0.000000 0.000000 0.000000 0.000000 0.000000 0.000000 0.000000 0.000000 0.000000 0.000000 0.000000 0.000000 0.000000 0.000000 0.000000 0.000000 
0.000000 0.000000 0.000000 0.000000 0.000000 0.000000 0.000000 0.000000 1.933000 2.007000 2.004000 2.002000 2.004000 2.004000 2.003000 2.000000 2.004000 2.003000 1.997000 1.999000 2.419000 1.981000 1.988000 2.243000 0.000000 0.000000 2.598000 0.000000 2.995000 0.000000 0.000000 0.000000 1.940000 0.000000 0.000000 0.000000 0.000000 0.000000 0.000000 0.000000 
0.000000 0.000000 0.000000 0.000000 0.000000 0.000000 0.000000 2.057000 1.036000 2.003000 2.000000 2.003000 2.003000 2.000000 2.000000 2.000000 1.998000 1.994000 1.993000 1.992000 1.992000 1.992000 1.993000 1.991000 1.987000 1.985000 1.991000 1.989000 1.991000 1.990000 1.988000 1.984000 1.981000 0.000000 0.000000 0.000000 0.000000 0.000000 0.000000 0.000000 
0.000000 0.000000 0.000000 0.000000 0.000000 0.000000 0.000000 1.036000 1.036000 2.002000 2.000000 2.003000 2.003000 2.000000 2.000000 2.000000 1.996000 1.993000 1.992000 1.992000 1.990000 1.990000 1.990000 1.987000 1.987000 1.984000 1.987000 1.987000 1.984000 1.982000 1.982000 1.982000 1.977000 0.000000 0.000000 0.000000 0.000000 0.000000 0.000000 0.000000 
0.000000 0.000000 0.000000 0.000000 0.000000 0.000000 0.000000 1.036000 1.691000 2.005000 2.000000 2.003000 2.000000 2.000000 2.000000 2.000000 1.998000 1.996000 1.995000 1.992000 1.990000 1.990000 1.987000 1.987000 1.987000 1.987000 1.987000 1.987000 1.984000 1.982000 1.984000 1.982000 1.976000 0.000000 0.000000 0.000000 0.000000 0.000000 0.000000 0.000000 
0.000000 0.000000 0.000000 0.000000 0.000000 0.000000 0.000000 1.036000 1.686000 2.003000 2.000000 2.003000 2.003000 2.000000 2.000000 2.000000 1.997000 1.995000 1.995000 1.992000 1.992000 1.990000 1.990000 1.989000 1.987000 1.987000 1.985000 1.986000 1.984000 1.982000 1.982000 1.982000 1.978000 0.000000 0.000000 0.000000 0.000000 0.000000 0.000000 0.000000 
0.000000 0.000000 0.000000 0.000000 0.000000 0.000000 0.000000 1.036000 1.419000 2.004000 2.000000 2.003000 2.003000 2.000000 2.000000 2.000000 1.998000 1.995000 1.995000 1.992000 1.992000 1.992000 1.990000 1.990000 1.989000 1.987000 1.987000 1.985000 1.984000 1.984000 1.982000 1.982000 1.983000 0.000000 0.000000 0.000000 0.000000 0.000000 0.000000 0.000000 
0.000000 0.000000 0.000000 0.000000 0.000000 0.000000 0.000000 1.036000 1.689000 2.005000 2.003000 2.004000 2.003000 2.000000 2.000000 2.000000 1.998000 1.995000 1.995000 1.992000 1.992000 1.992000 1.991000 1.990000 1.990000 1.987000 1.987000 1.986000 1.984000 1.984000 1.982000 1.984000 1.984000 0.000000 0.000000 0.000000 0.000000 0.000000 0.000000 0.000000 
0.000000 0.000000 0.000000 0.000000 0.000000 0.000000 0.000000 1.036000 1.689000 2.004000 2.000000 2.009000 2.003000 2.001000 2.000000 2.000000 1.998000 1.999000 1.997000 1.994000 1.992000 1.992000 1.990000 1.992000 1.989000 1.987000 1.987000 1.987000 1.987000 1.984000 1.984000 1.984000 1.982000 0.000000 0.000000 0.000000 0.000000 0.000000 0.000000 0.000000 
0.000000 0.000000 0.000000 0.000000 0.000000 0.000000 0.000000 1.036000 1.983000 2.003000 2.000000 2.006000 2.003000 2.003000 2.001000 2.000000 1.998000 1.995000 1.998000 1.995000 1.995000 1.992000 1.990000 1.991000 1.990000 1.990000 1.990000 1.987000 1.987000 1.984000 1.984000 1.984000 1.036000 0.000000 0.000000 0.000000 0.000000 0.000000 0.000000 0.000000 
0.000000 0.000000 0.000000 0.000000 0.000000 0.000000 0.000000 1.036000 2.009000 2.003000 2.000000 2.003000 2.003000 2.003000 2.003000 2.000000 1.998000 1.998000 1.999000 1.995000 1.992000 1.992000 1.992000 1.992000 1.990000 1.990000 1.990000 1.990000 1.987000 1.986000 1.986000 1.984000 1.308000 0.000000 0.000000 0.000000 0.000000 0.000000 0.000000 0.000000 
0.000000 0.000000 0.000000 0.000000 0.000000 0.000000 0.000000 1.036000 1.692000 2.005000 2.000000 2.003000 2.003000 2.003000 2.002000 2.001000 2.000000 1.999000 1.999000 1.997000 1.995000 1.992000 1.992000 1.992000 1.991000 1.990000 1.991000 1.990000 1.988000 1.987000 1.984000 1.984000 1.036000 0.000000 0.000000 0.000000 0.000000 0.000000 0.000000 0.000000 
0.000000 0.000000 0.000000 0.000000 0.000000 0.000000 0.000000 1.036000 1.780000 2.003000 2.004000 2.006000 2.004000 2.003000 2.003000 2.000000 2.000000 2.000000 1.999000 1.997000 1.995000 1.992000 1.992000 1.992000 1.990000 1.990000 1.992000 1.990000 1.988000 1.987000 1.984000 1.981000 1.036000 0.000000 0.000000 0.000000 0.000000 0.000000 0.000000 0.000000 
0.000000 0.000000 0.000000 0.000000 0.000000 0.000000 0.000000 1.036000 1.691000 2.005000 2.005000 2.006000 2.006000 2.003000 2.003000 2.003000 1.998000 2.002000 2.000000 1.999000 1.995000 1.995000 1.995000 1.992000 1.992000 1.990000 1.990000 1.991000 1.990000 1.987000 1.984000 1.985000 1.036000 0.000000 0.000000 0.000000 0.000000 0.000000 0.000000 0.000000 
0.000000 0.000000 0.000000 0.000000 0.000000 0.000000 0.000000 1.036000 2.007000 2.007000 2.006000 2.006000 2.003000 2.003000 2.003000 2.003000 2.000000 2.000000 2.000000 2.000000 1.998000 1.995000 1.995000 1.992000 1.992000 1.990000 1.990000 1.990000 1.990000 1.987000 1.986000 1.984000 1.036000 0.000000 0.000000 0.000000 0.000000 0.000000 0.000000 0.000000 
0.000000 0.000000 0.000000 0.000000 0.000000 0.000000 0.000000 1.036000 2.007000 2.006000 2.007000 2.006000 2.003000 2.004000 2.003000 2.003000 2.000000 2.000000 2.000000 2.000000 1.998000 1.997000 1.995000 1.993000 1.992000 1.990000 1.992000 1.992000 1.990000 1.990000 1.986000 1.987000 1.036000 0.000000 0.000000 0.000000 0.000000 0.000000 0.000000 0.000000 
0.000000 0.000000 0.000000 0.000000 0.000000 0.000000 0.000000 1.036000 2.008000 2.006000 2.003000 2.005000 2.003000 2.005000 2.003000 2.003000 2.000000 2.000000 2.000000 1.998000 1.998000 1.995000 1.995000 1.994000 1.992000 1.990000 1.992000 1.992000 1.992000 1.990000 1.990000 1.732000 1.036000 0.000000 0.000000 0.000000 0.000000 0.000000 0.000000 0.000000 
0.000000 0.000000 0.000000 0.000000 0.000000 0.000000 0.000000 1.036000 2.009000 2.006000 2.005000 2.003000 2.003000 2.004000 2.003000 2.003000 2.003000 2.003000 2.000000 2.000000 1.998000 1.998000 1.995000 1.995000 1.992000 1.992000 1.992000 1.992000 1.992000 1.990000 1.990000 1.984000 1.036000 0.000000 0.000000 0.000000 0.000000 0.000000 0.000000 0.000000 
0.000000 0.000000 0.000000 0.000000 0.000000 0.000000 0.000000 1.879000 2.009000 2.009000 2.006000 2.006000 2.006000 2.003000 2.003000 2.003000 2.000000 2.003000 2.000000 2.000000 1.998000 1.992000 1.995000 1.997000 1.992000 1.992000 1.992000 1.991000 1.990000 1.990000 1.990000 1.990000 1.036000 0.000000 0.000000 0.000000 0.000000 0.000000 0.000000 0.000000 
0.000000 0.000000 0.000000 0.000000 0.000000 0.000000 0.000000 1.903000 2.009000 2.009000 2.006000 2.006000 2.006000 2.003000 2.003000 2.003000 2.002000 2.003000 2.003000 2.000000 1.998000 1.995000 1.995000 1.995000 1.992000 1.992000 1.993000 1.992000 1.992000 1.992000 1.992000 1.358000 1.036000 0.000000 0.000000 0.000000 0.000000 0.000000 0.000000 0.000000 
0.000000 0.000000 0.000000 0.000000 0.000000 0.000000 0.000000 1.036000 2.009000 2.006000 2.007000 2.008000 2.006000 2.004000 2.003000 2.000000 2.000000 2.003000 2.003000 1.999000 1.998000 1.995000 1.995000 1.994000 1.992000 1.992000 1.994000 1.992000 1.992000 1.992000 1.992000 1.358000 1.036000 0.000000 0.000000 0.000000 0.000000 0.000000 0.000000 0.000000 
0.000000 0.000000 0.000000 0.000000 0.000000 0.000000 0.000000 2.011000 2.008000 2.006000 2.003000 2.006000 2.006000 2.004000 2.004000 2.001000 2.003000 2.003000 2.000000 2.000000 1.998000 1.995000 1.997000 1.994000 1.992000 1.992000 1.995000 1.992000 1.992000 1.992000 1.990000 1.036000 1.036000 0.000000 0.000000 0.000000 0.000000 0.000000 0.000000 0.000000 
0.000000 0.000000 0.000000 0.000000 0.000000 0.000000 0.000000 2.011000 2.009000 2.009000 2.005000 2.006000 2.006000 2.007000 2.003000 2.003000 2.003000 2.003000 2.000000 2.000000 1.998000 1.995000 1.995000 1.994000 1.992000 1.992000 1.994000 1.994000 1.992000 1.992000 1.992000 1.036000 1.036000 0.000000 0.000000 0.000000 0.000000 0.000000 0.000000 0.000000 
0.000000 0.000000 0.000000 0.000000 0.000000 0.000000 0.000000 2.011000 2.009000 2.009000 2.006000 2.009000 2.009000 2.006000 2.003000 2.003000 2.003000 2.003000 2.003000 2.000000 1.998000 1.995000 1.995000 1.992000 1.992000 1.992000 1.995000 1.992000 1.992000 1.992000 1.990000 1.036000 1.036000 0.000000 0.000000 0.000000 0.000000 0.000000 0.000000 0.000000 
0.000000 0.000000 0.000000 0.000000 0.000000 0.000000 0.000000 2.009000 2.009000 2.009000 2.006000 2.006000 2.006000 2.006000 2.004000 2.003000 2.003000 2.003000 2.003000 2.002000 1.999000 1.997000 1.995000 1.994000 1.994000 1.992000 1.995000 1.993000 1.992000 1.992000 1.992000 1.036000 1.036000 0.000000 0.000000 0.000000 0.000000 0.000000 0.000000 0.000000 
0.000000 0.000000 0.000000 0.000000 0.000000 0.000000 0.000000 1.904000 2.011000 2.009000 2.006000 2.010000 2.004000 2.006000 2.003000 2.003000 2.003000 2.003000 2.000000 2.000000 1.998000 1.999000 1.999000 1.997000 1.992000 1.992000 1.995000 1.995000 1.995000 1.993000 1.988000 1.036000 1.036000 0.000000 0.000000 0.000000 0.000000 0.000000 0.000000 0.000000 
0.000000 0.000000 0.000000 0.000000 0.000000 0.000000 0.000000 2.011000 2.011000 2.010000 2.009000 2.011000 2.007000 2.006000 2.006000 2.003000 2.003000 2.003000 2.000000 2.000000 2.000000 2.000000 2.000000 1.995000 1.992000 1.992000 1.995000 1.997000 1.995000 1.992000 1.992000 1.036000 1.036000 0.000000 0.000000 0.000000 0.000000 0.000000 0.000000 0.000000 
0.000000 0.000000 0.000000 0.000000 0.000000 0.000000 0.000000 2.012000 2.011000 2.010000 2.009000 2.011000 2.009000 2.009000 2.006000 2.006000 2.006000 2.003000 2.003000 2.002000 2.000000 2.000000 2.000000 1.995000 1.992000 1.995000 1.995000 1.999000 1.995000 1.992000 1.992000 1.036000 1.062000 0.000000 0.000000 0.000000 0.000000 0.000000 0.000000 0.000000 
0.000000 0.000000 0.000000 0.000000 0.000000 0.000000 0.000000 2.012000 2.011000 2.009000 2.009000 2.011000 2.009000 2.009000 2.009000 2.006000 2.006000 2.006000 2.003000 2.003000 2.000000 2.000000 1.999000 1.994000 1.992000 1.995000 1.997000 1.998000 1.997000 1.995000 1.150000 1.036000 0.000000 0.000000 0.000000 0.000000 0.000000 0.000000 0.000000 0.000000 
0.000000 0.000000 0.000000 0.000000 0.000000 0.000000 0.000000 2.012000 2.011000 2.011000 2.011000 2.011000 2.009000 2.009000 2.009000 2.007000 2.003000 2.003000 2.003000 2.002000 2.000000 2.000000 1.999000 1.997000 1.994000 1.995000 1.999000 1.999000 1.997000 1.992000 1.633000 1.036000 0.000000 0.000000 0.000000 0.000000 0.000000 0.000000 0.000000 0.000000 
0.000000 0.000000 0.000000 0.000000 0.000000 0.000000 0.000000 2.015000 2.011000 2.011000 2.009000 2.011000 2.009000 2.009000 2.009000 2.006000 2.006000 2.004000 2.003000 2.003000 2.003000 2.000000 2.000000 2.000000 1.998000 1.999000 2.000000 1.999000 1.997000 1.995000 1.992000 1.036000 1.036000 0.000000 0.000000 0.000000 0.000000 0.000000 0.000000 0.000000 
0.000000 0.000000 0.000000 0.000000 0.000000 0.000000 0.000000 2.015000 2.011000 2.011000 2.009000 2.011000 2.009000 2.006000 2.009000 2.009000 2.006000 2.003000 2.003000 2.000000 2.000000 2.000000 2.000000 2.000000 2.000000 2.000000 2.000000 1.999000 1.997000 1.995000 1.150000 1.036000 0.000000 0.000000 0.000000 0.000000 0.000000 0.000000 0.000000 0.000000 
0.000000 0.000000 0.000000 0.000000 0.000000 0.000000 0.000000 2.017000 2.011000 2.011000 2.011000 2.009000 2.009000 2.009000 2.009000 2.006000 2.003000 2.003000 2.003000 2.003000 2.003000 2.003000 2.000000 2.000000 2.000000 2.000000 2.001000 1.998000 1.997000 1.995000 1.150000 1.036000 0.000000 0.000000 0.000000 0.000000 0.000000 0.000000 0.000000 0.000000 
0.000000 0.000000 0.000000 0.000000 0.000000 0.000000 0.000000 2.014000 2.011000 2.011000 2.011000 2.010000 2.011000 2.011000 2.011000 2.009000 2.005000 2.006000 2.005000 2.003000 2.002000 2.000000 2.000000 2.000000 2.000000 1.999000 2.000000 1.998000 1.997000 1.995000 1.150000 1.036000 0.000000 0.000000 0.000000 0.000000 0.000000 0.000000 0.000000 0.000000 
0.000000 0.000000 0.000000 0.000000 0.000000 0.000000 0.000000 2.012000 2.014000 2.010000 2.011000 2.013000 2.011000 2.011000 2.011000 2.009000 2.009000 2.006000 2.005000 2.004000 2.003000 2.000000 2.002000 2.000000 1.999000 1.998000 1.999000 1.998000 1.997000 1.995000 1.150000 1.036000 1.036000 0.000000 0.000000 0.000000 0.000000 0.000000 0.000000 0.000000 
0.000000 0.000000 0.000000 0.000000 0.000000 0.000000 0.000000 2.358000 2.016000 2.351000 2.011000 2.011000 2.011000 2.011000 2.011000 2.009000 2.008000 2.004000 2.004000 2.005000 2.003000 2.003000 2.000000 2.001000 2.002000 2.000000 1.998000 1.995000 1.995000 1.996000 1.150000 2.900000 0.000000 0.000000 0.000000 0.000000 0.000000 0.000000 0.000000 0.000000 
0.000000 0.000000 0.000000 0.000000 0.000000 0.000000 0.000000 0.000000 0.000000 0.000000 0.000000 0.000000 0.000000 1.036000 1.963000 1.964000 1.036000 2.008000 2.006000 2.005000 2.003000 2.003000 2.000000 2.001000 2.002000 2.000000 2.000000 1.998000 1.998000 1.998000 2.000000 0.000000 0.000000 0.000000 0.000000 0.000000 0.000000 0.000000 0.000000 0.000000 
0.000000 0.000000 0.000000 0.000000 0.000000 0.000000 0.000000 0.000000 0.000000 0.000000 0.000000 0.000000 1.438000 1.036000 1.036000 1.036000 1.036000 1.718000 2.001000 1.714000 1.200000 1.200000 2.001000 2.000000 1.998000 1.995000 2.000000 1.999000 1.996000 1.998000 0.000000 0.000000 0.000000 0.000000 0.000000 0.000000 0.000000 0.000000 0.000000 0.000000 
0.000000 0.000000 0.000000 0.000000 0.000000 0.000000 0.000000 0.000000 0.000000 0.000000 0.000000 0.000000 0.000000 0.000000 0.000000 0.000000 0.000000 0.000000 0.000000 0.000000 0.000000 0.000000 0.000000 0.000000 0.000000 0.000000 0.000000 0.000000 0.000000 0.000000 0.000000 0.000000 0.000000 0.000000 0.000000 0.000000 0.000000 0.000000 0.000000 0.000000 
