0.000000,0.000000,0.000000,0.000000,0.000000,0.000000,2.051000,2.001000,1.995000,1.995000,1.995000,1.996000,2.000000,2.000000,2.001000,2.009000,2.011000,2.011000,2.013000,2.017000,2.017000,2.021000,2.028000,2.034000,2.034000,2.034000,2.040000,2.040000,2.042000,2.044000,2.045000,0.000000,0.000000,0.000000,0.000000,0.000000,0.000000,0.000000,0.000000,0.000000,
0.000000,0.000000,0.000000,0.000000,0.000000,0.000000,2.030000,2.001000,1.995000,1.995000,1.997000,1.996000,2.000000,2.000000,2.000000,2.000000,2.010000,2.011000,2.017000,2.017000,2.017000,2.021000,2.028000,2.028000,2.033000,2.034000,2.034000,2.040000,2.040000,2.043000,2.045000,0.000000,0.000000,0.000000,0.000000,0.000000,0.000000,0.000000,0.000000,0.000000,
0.000000,0.000000,0.000000,0.000000,0.000000,0.000000,2.044000,2.005000,1.995000,1.995000,1.995000,1.996000,2.000000,2.000000,2.000000,2.000000,2.006000,2.011000,2.017000,2.017000,2.017000,2.021000,2.027000,2.028000,2.031000,2.034000,2.034000,2.040000,2.040000,2.043000,2.045000,0.000000,0.000000,0.000000,0.000000,0.000000,0.000000,0.000000,0.000000,0.000000,
0.000000,0.000000,0.000000,0.000000,0.000000,0.000000,2.057000,2.011000,1.995000,1.995000,1.995000,1.997000,2.000000,2.000000,2.000000,2.002000,2.011000,2.011000,2.016000,2.017000,2.017000,2.021000,2.027000,2.028000,2.028000,2.033000,2.035000,2.040000,2.040000,2.042000,2.040000,0.000000,0.000000,0.000000,0.000000,0.000000,0.000000,0.000000,0.000000,0.000000,
0.000000,0.000000,0.000000,0.000000,0.000000,0.000000,2.051000,2.012000,1.993000,1.991000,1.995000,2.000000,2.000000,2.000000,2.000000,2.005000,2.006000,2.011000,2.011000,2.017000,2.017000,2.021000,2.022000,2.028000,2.028000,2.029000,2.034000,2.040000,2.040000,2.042000,2.040000,0.000000,0.000000,0.000000,0.000000,0.000000,0.000000,0.000000,0.000000,0.000000,
0.000000,0.000000,0.000000,0.000000,0.000000,0.000000,2.054000,2.025000,1.989000,1.995000,1.995000,1.999000,2.000000,2.000000,2.000000,2.000000,2.006000,2.010000,2.011000,2.016000,2.017000,2.021000,2.027000,2.028000,2.028000,2.032000,2.040000,2.040000,2.040000,2.042000,2.044000,2.824000,0.000000,0.000000,0.000000,0.000000,0.000000,0.000000,0.000000,0.000000,
0.000000,0.000000,0.000000,0.000000,0.000000,0.000000,2.051000,2.027000,1.995000,1.995000,1.995000,1.995000,2.000000,2.000000,2.000000,2.000000,2.006000,2.006000,2.011000,2.012000,2.016000,2.021000,2.027000,2.028000,2.028000,2.032000,2.038000,2.039000,2.040000,2.040000,2.040000,2.822000,0.000000,0.000000,0.000000,0.000000,0.000000,0.000000,0.000000,0.000000,
0.000000,0.000000,0.000000,0.000000,0.000000,0.000000,2.051000,2.023000,1.995000,1.995000,1.995000,1.996000,2.000000,2.000000,2.000000,2.001000,2.006000,2.006000,2.011000,2.016000,2.017000,2.021000,2.027000,2.028000,2.028000,2.028000,2.037000,2.034000,2.037000,2.040000,2.040000,2.779000,0.000000,0.000000,0.000000,0.000000,0.000000,0.000000,0.000000,0.000000,
0.000000,0.000000,0.000000,0.000000,0.000000,0.000000,2.051000,2.025000,1.998000,1.995000,1.995000,1.995000,2.000000,2.000000,2.000000,2.001000,2.006000,2.006000,2.011000,2.011000,2.017000,2.021000,2.022000,2.028000,2.028000,2.028000,2.032000,2.034000,2.034000,2.040000,2.040000,2.055000,0.000000,0.000000,0.000000,0.000000,0.000000,0.000000,0.000000,0.000000,
0.000000,0.000000,0.000000,0.000000,0.000000,0.000000,2.037000,2.016000,1.998000,1.995000,1.995000,1.995000,1.996000,2.000000,2.000000,2.000000,2.000000,2.006000,2.006000,2.011000,2.016000,2.021000,2.022000,2.028000,2.028000,2.022000,2.032000,2.034000,2.034000,2.040000,2.037000,2.057000,0.000000,0.000000,0.000000,0.000000,0.000000,0.000000,0.000000,0.000000,
0.000000,0.000000,0.000000,0.000000,0.000000,0.000000,2.045000,2.010000,1.993000,1.991000,1.995000,1.995000,1.995000,1.995000,2.000000,2.000000,2.000000,2.006000,2.006000,2.011000,2.016000,2.021000,2.022000,2.027000,2.028000,2.028000,2.032000,2.034000,2.034000,2.037000,2.040000,2.044000,0.000000,0.000000,0.000000,0.000000,0.000000,0.000000,0.000000,0.000000,
0.000000,0.000000,0.000000,0.000000,0.000000,0.000000,2.050000,2.021000,1.989000,1.989000,1.991000,1.995000,1.995000,1.995000,2.000000,2.000000,2.000000,2.006000,2.006000,2.011000,2.017000,2.021000,2.022000,2.027000,2.028000,2.028000,2.032000,2.034000,2.034000,2.037000,2.044000,2.045000,0.000000,0.000000,0.000000,0.000000,0.000000,0.000000,0.000000,0.000000,
0.000000,0.000000,0.000000,0.000000,0.000000,0.000000,2.040000,2.020000,1.993000,1.989000,1.991000,1.995000,1.995000,1.995000,2.000000,2.000000,2.000000,2.006000,2.006000,2.011000,2.012000,2.017000,2.021000,2.027000,2.028000,2.028000,2.029000,2.032000,2.034000,2.037000,2.040000,2.040000,0.000000,0.000000,0.000000,0.000000,0.000000,0.000000,0.000000,0.000000,
0.000000,0.000000,0.000000,0.000000,0.000000,0.000000,2.710000,2.025000,1.993000,1.989000,1.992000,1.995000,1.995000,1.995000,1.995000,2.000000,2.000000,2.000000,2.000000,2.006000,2.010000,2.016000,2.017000,2.022000,2.023000,2.028000,2.028000,2.032000,2.034000,2.034000,2.037000,2.040000,2.743000,0.000000,0.000000,0.000000,0.000000,0.000000,0.000000,0.000000,
0.000000,0.000000,0.000000,0.000000,0.000000,0.000000,2.859000,2.017000,1.993000,1.989000,1.989000,1.992000,1.995000,1.995000,1.996000,2.000000,1.996000,2.000000,2.000000,2.006000,2.011000,2.011000,2.011000,2.022000,2.022000,2.028000,2.028000,2.029000,2.034000,2.034000,2.037000,2.042000,2.746000,0.000000,0.000000,0.000000,0.000000,0.000000,0.000000,0.000000,
0.000000,0.000000,0.000000,0.000000,0.000000,0.000000,2.891000,2.036000,1.993000,1.987000,1.986000,1.989000,1.989000,1.991000,1.995000,1.996000,1.995000,2.000000,2.004000,2.010000,2.011000,2.011000,2.014000,2.022000,2.023000,2.022000,2.028000,2.028000,2.031000,2.034000,2.035000,2.036000,2.740000,0.000000,0.000000,0.000000,0.000000,0.000000,0.000000,0.000000,
0.000000,0.000000,0.000000,0.000000,0.000000,0.000000,2.895000,2.035000,1.995000,1.987000,1.984000,1.989000,1.989000,1.990000,1.995000,1.995000,1.995000,2.000000,2.002000,2.006000,2.006000,2.015000,2.017000,2.022000,2.024000,2.024000,2.028000,2.028000,2.031000,2.034000,2.034000,2.024000,2.733000,0.000000,0.000000,0.000000,0.000000,0.000000,0.000000,0.000000,
0.000000,0.000000,0.000000,0.000000,0.000000,0.000000,2.874000,2.029000,2.003000,1.987000,1.984000,1.989000,1.989000,1.990000,1.995000,1.995000,1.995000,2.000000,2.000000,2.002000,2.006000,2.016000,2.017000,2.022000,2.022000,2.022000,2.027000,2.028000,2.031000,2.034000,2.034000,2.026000,2.734000,0.000000,0.000000,0.000000,0.000000,0.000000,0.000000,0.000000,
0.000000,0.000000,0.000000,0.000000,0.000000,0.000000,2.874000,2.027000,2.003000,1.987000,1.986000,1.989000,1.989000,1.995000,1.995000,1.995000,1.995000,2.000000,2.000000,2.004000,2.006000,2.016000,2.017000,2.019000,2.022000,2.022000,2.026000,2.028000,2.034000,2.034000,2.034000,2.028000,2.322000,0.000000,0.000000,0.000000,0.000000,0.000000,0.000000,0.000000,
0.000000,0.000000,0.000000,0.000000,0.000000,0.000000,0.000000,2.516000,1.991000,1.984000,1.984000,1.984000,1.986000,1.989000,1.992000,1.995000,1.995000,1.997000,2.000000,2.000000,2.006000,2.013000,2.011000,2.017000,2.022000,2.022000,2.026000,2.028000,2.029000,2.032000,2.036000,2.037000,2.037000,0.000000,0.000000,0.000000,0.000000,0.000000,0.000000,0.000000,
0.000000,0.000000,0.000000,0.000000,0.000000,0.000000,0.000000,2.925000,1.998000,1.982000,1.981000,1.984000,1.984000,1.987000,1.989000,1.995000,1.995000,1.998000,2.000000,2.000000,2.006000,2.010000,2.011000,2.016000,2.022000,2.022000,2.026000,2.028000,2.028000,2.033000,2.037000,2.040000,2.043000,0.000000,0.000000,0.000000,0.000000,0.000000,0.000000,0.000000,
0.000000,0.000000,0.000000,0.000000,0.000000,0.000000,0.000000,2.932000,2.010000,1.987000,1.984000,1.983000,1.982000,1.985000,1.989000,1.995000,1.995000,1.998000,2.000000,2.000000,2.003000,2.010000,2.011000,2.016000,2.024000,2.022000,2.024000,2.028000,2.030000,2.034000,2.034000,2.037000,2.040000,0.000000,0.000000,0.000000,0.000000,0.000000,0.000000,0.000000,
0.000000,0.000000,0.000000,0.000000,0.000000,0.000000,0.000000,2.939000,2.013000,1.990000,1.983000,1.981000,1.980000,1.984000,1.990000,1.995000,1.995000,1.995000,1.998000,2.000000,2.000000,2.005000,2.011000,2.016000,2.022000,2.022000,2.022000,2.028000,2.028000,2.034000,2.034000,2.034000,2.040000,0.000000,0.000000,0.000000,0.000000,0.000000,0.000000,0.000000,
0.000000,0.000000,0.000000,0.000000,0.000000,0.000000,0.000000,0.000000,2.010000,1.992000,1.981000,1.979000,1.980000,1.985000,1.990000,1.995000,1.995000,1.995000,1.995000,2.000000,2.000000,2.007000,2.011000,2.017000,2.022000,2.022000,2.022000,2.028000,2.028000,2.031000,2.032000,2.034000,2.038000,0.000000,0.000000,0.000000,0.000000,0.000000,0.000000,0.000000,
0.000000,0.000000,0.000000,0.000000,0.000000,0.000000,0.000000,2.554000,1.998000,1.986000,1.979000,1.979000,1.984000,1.985000,1.990000,1.993000,1.995000,1.995000,1.995000,2.000000,2.000000,2.010000,2.011000,2.016000,2.022000,2.022000,2.022000,2.028000,2.028000,2.031000,2.030000,2.028000,2.028000,0.000000,0.000000,0.000000,0.000000,0.000000,0.000000,0.000000,
0.000000,0.000000,0.000000,0.000000,0.000000,0.000000,0.000000,2.680000,2.027000,1.982000,1.979000,1.979000,1.984000,1.984000,1.989000,1.990000,1.995000,1.995000,1.995000,2.000000,2.004000,2.010000,2.011000,2.016000,2.022000,2.022000,2.022000,2.028000,2.028000,2.034000,2.037000,2.028000,2.028000,0.000000,0.000000,0.000000,0.000000,0.000000,0.000000,0.000000,
0.000000,0.000000,0.000000,0.000000,0.000000,0.000000,0.000000,2.058000,2.032000,1.987000,1.979000,1.979000,1.984000,1.985000,1.988000,1.989000,1.995000,1.995000,1.995000,2.000000,2.000000,2.010000,2.011000,2.016000,2.022000,2.022000,2.024000,2.028000,2.028000,2.031000,2.034000,2.034000,2.036000,0.000000,0.000000,0.000000,0.000000,0.000000,0.000000,0.000000,
0.000000,0.000000,0.000000,0.000000,0.000000,0.000000,0.000000,2.054000,2.040000,1.988000,1.979000,1.980000,1.984000,1.984000,1.984000,1.988000,1.995000,1.995000,1.995000,2.000000,2.005000,2.010000,2.011000,2.016000,2.021000,2.022000,2.022000,2.028000,2.028000,2.028000,2.028000,2.037000,1.618000,0.000000,0.000000,0.000000,0.000000,0.000000,0.000000,0.000000,
0.000000,0.000000,0.000000,0.000000,0.000000,0.000000,0.000000,2.929000,2.037000,2.015000,1.979000,1.980000,1.983000,1.984000,1.984000,1.984000,1.989000,1.995000,2.000000,2.000000,2.004000,2.010000,2.011000,2.015000,2.021000,2.022000,2.026000,2.028000,2.028000,2.028000,2.028000,2.033000,2.040000,0.000000,0.000000,0.000000,0.000000,0.000000,0.000000,0.000000,
0.000000,0.000000,0.000000,0.000000,0.000000,0.000000,0.000000,0.000000,2.028000,1.991000,1.979000,1.979000,1.979000,1.983000,1.984000,1.989000,1.995000,1.995000,1.999000,1.999000,2.000000,2.009000,2.011000,2.011000,2.017000,2.022000,2.026000,2.028000,2.028000,2.028000,2.028000,2.036000,2.039000,0.000000,0.000000,0.000000,0.000000,0.000000,0.000000,0.000000,
0.000000,0.000000,0.000000,0.000000,0.000000,0.000000,0.000000,2.310000,1.927000,1.992000,1.979000,1.979000,1.979000,1.979000,1.980000,1.989000,1.995000,1.995000,1.995000,1.995000,2.000000,2.006000,2.010000,2.011000,2.017000,2.022000,2.022000,2.025000,2.028000,2.028000,2.034000,2.034000,2.028000,0.000000,0.000000,0.000000,0.000000,0.000000,0.000000,0.000000,
0.000000,0.000000,0.000000,0.000000,0.000000,0.000000,2.906000,0.000000,1.209000,1.991000,1.979000,1.979000,1.979000,1.979000,1.984000,1.989000,1.989000,1.995000,1.995000,1.995000,2.000000,2.005000,2.006000,2.011000,2.017000,2.017000,2.022000,2.022000,2.022000,2.028000,2.034000,2.063000,2.748000,0.000000,0.000000,0.000000,0.000000,0.000000,0.000000,0.000000,
0.000000,0.000000,0.000000,0.000000,0.000000,0.000000,2.326000,2.333000,2.206000,1.993000,1.982000,1.979000,1.979000,1.980000,1.984000,1.989000,1.989000,1.995000,2.000000,1.995000,1.995000,1.996000,2.004000,2.014000,2.017000,2.017000,2.017000,2.020000,2.981000,0.000000,0.000000,0.000000,0.000000,0.000000,0.000000,0.000000,0.000000,0.000000,0.000000,0.000000,
0.000000,0.000000,0.000000,0.000000,0.000000,0.000000,2.322000,2.326000,2.311000,2.186000,1.982000,1.979000,1.979000,1.979000,1.984000,1.989000,1.989000,2.000000,2.000000,1.995000,1.995000,1.995000,1.762000,2.013000,2.028000,0.000000,0.000000,0.000000,0.000000,0.000000,0.000000,0.000000,0.000000,0.000000,0.000000,0.000000,0.000000,0.000000,0.000000,0.000000,
0.000000,0.000000,0.000000,0.000000,0.000000,0.000000,0.000000,2.949000,2.760000,2.920000,1.973000,1.972000,1.971000,1.984000,1.977000,1.967000,1.994000,2.015000,2.010000,2.000000,1.894000,0.000000,0.000000,2.004000,2.023000,0.000000,0.000000,0.000000,0.000000,0.000000,0.000000,0.000000,0.000000,0.000000,0.000000,0.000000,0.000000,0.000000,0.000000,0.000000,
0.000000,0.000000,0.000000,0.000000,0.000000,0.000000,0.000000,0.000000,0.000000,0.000000,0.000000,0.000000,0.000000,1.278000,0.000000,2.050000,2.064000,2.063000,2.016000,2.016000,2.090000,2.070000,0.000000,1.692000,2.027000,2.027000,2.256000,0.000000,0.000000,0.000000,0.000000,0.000000,0.000000,0.000000,0.000000,0.000000,0.000000,0.000000,0.000000,0.000000,
0.000000,0.000000,0.000000,0.000000,0.000000,0.000000,0.000000,0.000000,0.000000,0.000000,0.000000,0.000000,0.000000,0.000000,0.000000,2.057000,2.057000,2.062000,2.017000,2.021000,2.094000,2.094000,1.892000,1.975000,2.033000,2.033000,1.816000,2.540000,0.000000,0.000000,0.000000,0.000000,0.000000,0.000000,0.000000,0.000000,0.000000,0.000000,0.000000,0.000000,
0.000000,0.000000,0.000000,0.000000,0.000000,0.000000,0.000000,0.000000,0.000000,0.000000,0.000000,0.000000,0.000000,0.000000,2.070000,2.071000,2.080000,2.080000,2.011000,2.017000,2.079000,2.074000,2.073000,2.043000,2.044000,2.050000,2.063000,0.000000,0.000000,0.000000,0.000000,0.000000,0.000000,0.000000,0.000000,0.000000,0.000000,0.000000,0.000000,0.000000,
0.000000,0.000000,0.000000,0.000000,0.000000,0.000000,0.000000,0.000000,0.000000,0.000000,0.000000,0.000000,0.000000,0.000000,2.068000,2.065000,2.066000,2.057000,2.006000,2.021000,2.045000,2.038000,2.024000,2.026000,2.031000,2.030000,2.025000,2.026000,2.493000,0.000000,0.000000,0.000000,0.000000,0.000000,0.000000,0.000000,0.000000,0.000000,0.000000,0.000000,
0.000000,0.000000,0.000000,0.000000,0.000000,0.000000,0.000000,0.000000,0.000000,0.000000,0.000000,0.000000,0.000000,2.970000,2.061000,2.037000,2.025000,2.005000,2.011000,2.020000,2.022000,2.013000,2.011000,2.011000,2.008000,2.012000,2.017000,2.011000,2.009000,0.000000,0.000000,0.000000,0.000000,0.000000,0.000000,0.000000,0.000000,0.000000,0.000000,0.000000,
