40 40
0.000000 0.000000 0.000000 0.000000 0.000000 0.000000 0.000000 0.000000 0.000000 0.000000 0.000000 0.000000 0.000000 0.000000 0.000000 0.000000 0.000000 0.000000 0.000000 0.000000 0.000000 0.000000 0.000000 0.000000 0.000000 0.000000 0.000000 0.000000 0.000000 0.000000 0.000000 0.000000 0.000000 0.000000 0.000000 0.000000 0.000000 0.000000 0.000000 0.000000 
0.000000 0.000000 0.000000 0.000000 0.000000 0.000000 0.000000 0.000000 0.000000 0.000000 0.000000 0.000000 0.000000 0.000000 0.000000 0.000000 0.000000 0.000000 0.000000 0.000000 0.000000 0.000000 0.000000 0.000000 0.000000 0.000000 0.000000 0.000000 0.000000 0.000000 0.000000 0.000000 0.000000 0.000000 0.000000 0.000000 0.000000 0.000000 0.000000 0.000000 
0.000000 0.000000 0.000000 0.000000 0.000000 0.000000 0.000000 0.000000 0.000000 0.000000 0.000000 0.000000 0.000000 0.000000 0.000000 0.000000 0.000000 0.000000 0.000000 0.000000 0.000000 0.000000 0.000000 0.000000 0.000000 0.000000 0.000000 0.000000 0.000000 0.000000 0.000000 0.000000 0.000000 0.000000 0.000000 0.000000 0.000000 0.000000 0.000000 0.000000 
0.000000 0.000000 0.000000 0.000000 0.000000 0.000000 0.000000 0.000000 0.000000 0.000000 0.000000 0.000000 0.000000 0.000000 0.000000 0.000000 0.000000 0.000000 2.918000 2.904000 2.578000 2.113000 2.117000 2.120000 2.124000 2.128000 2.721000 0.000000 0.000000 0.000000 0.000000 0.000000 0.000000 0.000000 0.000000 0.000000 0.000000 0.000000 0.000000 0.000000 
0.000000 0.000000 0.000000 0.000000 0.000000 0.000000 0.000000 0.000000 0.000000 2.877000 2.861000 2.848000 2.052000 2.046000 2.049000 1.995000 2.751000 2.075000 2.066000 2.068000 2.082000 2.087000 2.080000 2.069000 2.110000 2.099000 2.084000 2.064000 2.072000 0.000000 2.682000 2.812000 0.000000 0.000000 0.000000 0.000000 0.000000 0.000000 0.000000 0.000000 
0.000000 0.000000 0.000000 0.000000 0.000000 0.000000 0.000000 0.000000 2.340000 2.058000 2.046000 2.040000 2.036000 2.034000 2.012000 1.991000 1.993000 2.025000 2.022000 2.028000 2.028000 2.038000 2.036000 2.037000 2.040000 2.040000 2.053000 2.058000 2.059000 2.064000 2.072000 2.149000 2.784000 0.000000 0.000000 0.000000 0.000000 0.000000 0.000000 0.000000 
0.000000 0.000000 0.000000 0.000000 0.000000 0.000000 0.000000 1.402000 1.915000 2.048000 2.037000 2.026000 2.017000 2.007000 1.988000 1.982000 1.983000 1.988000 1.993000 2.000000 2.003000 2.006000 2.014000 2.021000 2.025000 2.025000 2.036000 2.051000 2.057000 2.062000 2.064000 2.068000 2.412000 0.000000 0.000000 0.000000 0.000000 0.000000 0.000000 0.000000 
0.000000 0.000000 0.000000 0.000000 0.000000 0.000000 0.000000 1.426000 2.057000 2.043000 2.037000 2.027000 2.012000 1.996000 1.981000 1.976000 1.972000 1.978000 1.987000 1.997000 2.000000 2.005000 2.008000 2.018000 2.025000 2.025000 2.035000 2.046000 2.057000 2.062000 2.063000 2.063000 2.131000 0.000000 0.000000 0.000000 0.000000 0.000000 0.000000 0.000000 
0.000000 0.000000 0.000000 0.000000 0.000000 0.000000 0.000000 1.426000 2.057000 2.048000 2.041000 2.026000 2.011000 2.000000 1.981000 1.976000 1.971000 1.977000 1.987000 1.994000 2.002000 2.007000 2.013000 2.020000 2.025000 2.025000 2.040000 2.046000 2.052000 2.062000 2.062000 2.062000 2.363000 0.000000 0.000000 0.000000 0.000000 0.000000 0.000000 0.000000 
0.000000 0.000000 0.000000 0.000000 0.000000 0.000000 0.000000 1.429000 2.059000 2.050000 2.037000 2.026000 2.015000 1.996000 1.981000 1.976000 1.977000 1.981000 1.983000 1.992000 2.000000 2.005000 2.013000 2.020000 2.020000 2.030000 2.041000 2.046000 2.052000 2.062000 2.062000 2.062000 2.412000 0.000000 0.000000 0.000000 0.000000 0.000000 0.000000 0.000000 
0.000000 0.000000 0.000000 0.000000 0.000000 0.000000 0.000000 2.057000 2.057000 2.050000 2.037000 2.022000 2.011000 1.992000 1.981000 1.976000 1.976000 1.981000 1.984000 1.992000 2.000000 2.005000 2.013000 2.020000 2.023000 2.033000 2.041000 2.041000 2.052000 2.062000 2.062000 2.068000 0.000000 0.000000 0.000000 0.000000 0.000000 0.000000 0.000000 0.000000 
0.000000 0.000000 0.000000 0.000000 0.000000 0.000000 0.000000 2.057000 2.057000 2.050000 2.037000 2.022000 2.011000 1.992000 1.981000 1.976000 1.976000 1.982000 1.987000 1.992000 2.000000 2.005000 2.013000 2.020000 2.023000 2.033000 2.041000 2.046000 2.052000 2.062000 2.062000 2.062000 0.000000 0.000000 0.000000 0.000000 0.000000 0.000000 0.000000 0.000000 
0.000000 0.000000 0.000000 0.000000 0.000000 0.000000 0.000000 1.429000 2.059000 2.048000 2.037000 2.022000 2.011000 1.992000 1.981000 1.976000 1.976000 1.982000 1.986000 1.989000 2.000000 2.005000 2.013000 2.020000 2.024000 2.033000 2.045000 2.046000 2.057000 2.062000 2.068000 2.062000 2.423000 0.000000 0.000000 0.000000 0.000000 0.000000 0.000000 0.000000 
0.000000 0.000000 0.000000 0.000000 0.000000 0.000000 0.000000 1.431000 2.064000 2.050000 2.037000 2.022000 2.015000 1.987000 1.981000 1.976000 1.977000 1.981000 1.986000 1.989000 2.000000 2.002000 2.013000 2.022000 2.025000 2.030000 2.043000 2.046000 2.057000 2.062000 2.068000 2.074000 0.000000 0.000000 0.000000 0.000000 0.000000 0.000000 0.000000 0.000000 
0.000000 0.000000 0.000000 0.000000 0.000000 0.000000 0.000000 2.069000 2.059000 2.050000 2.037000 2.022000 2.015000 1.991000 1.981000 1.976000 1.977000 1.981000 1.986000 1.993000 2.000000 2.002000 2.013000 2.021000 2.024000 2.025000 2.039000 2.046000 2.055000 2.062000 2.068000 2.072000 1.689000 0.000000 0.000000 0.000000 0.000000 0.000000 0.000000 0.000000 
0.000000 0.000000 0.000000 0.000000 0.000000 0.000000 0.000000 2.066000 2.059000 2.050000 2.036000 2.019000 2.015000 1.996000 1.981000 1.976000 1.976000 1.982000 1.986000 1.994000 2.000000 2.002000 2.013000 2.023000 2.025000 2.030000 2.040000 2.045000 2.053000 2.062000 2.068000 2.068000 1.299000 0.000000 0.000000 0.000000 0.000000 0.000000 0.000000 0.000000 
0.000000 0.000000 0.000000 0.000000 0.000000 0.000000 0.000000 1.797000 2.058000 2.048000 2.034000 2.018000 2.011000 1.993000 1.981000 1.976000 1.976000 1.981000 1.985000 1.994000 2.000000 2.002000 2.013000 2.020000 2.029000 2.037000 2.041000 2.046000 2.057000 2.062000 2.068000 2.126000 2.416000 0.000000 0.000000 0.000000 0.000000 0.000000 0.000000 0.000000 
0.000000 0.000000 0.000000 0.000000 0.000000 0.000000 0.000000 1.731000 2.057000 2.048000 2.037000 2.021000 2.011000 1.991000 1.979000 1.976000 1.976000 1.981000 1.982000 1.994000 2.000000 2.005000 2.015000 2.020000 2.027000 2.037000 2.045000 2.046000 2.054000 2.062000 2.068000 2.071000 2.300000 0.000000 0.000000 0.000000 0.000000 0.000000 0.000000 0.000000 
0.000000 0.000000 0.000000 0.000000 0.000000 0.000000 0.000000 2.066000 2.058000 2.048000 2.037000 2.022000 2.011000 1.987000 1.976000 1.976000 1.976000 1.981000 1.982000 1.994000 2.000000 2.002000 2.016000 2.020000 2.025000 2.033000 2.043000 2.046000 2.052000 2.057000 2.068000 2.077000 2.170000 0.000000 0.000000 0.000000 0.000000 0.000000 0.000000 0.000000 
0.000000 0.000000 0.000000 0.000000 0.000000 0.000000 0.000000 2.076000 2.059000 2.045000 2.037000 2.022000 2.011000 1.991000 1.979000 1.976000 1.977000 1.981000 1.984000 1.994000 2.000000 2.005000 2.010000 2.022000 2.025000 2.033000 2.041000 2.046000 2.052000 2.062000 2.063000 2.076000 2.114000 0.000000 0.000000 0.000000 0.000000 0.000000 0.000000 0.000000 
0.000000 0.000000 0.000000 0.000000 0.000000 0.000000 0.000000 2.081000 2.059000 2.043000 2.037000 2.021000 2.011000 1.992000 1.981000 1.973000 1.978000 1.981000 1.982000 1.994000 2.002000 2.005000 2.008000 2.023000 2.025000 2.033000 2.044000 2.046000 2.055000 2.062000 2.066000 2.060000 2.140000 0.000000 0.000000 0.000000 0.000000 0.000000 0.000000 0.000000 
0.000000 0.000000 0.000000 0.000000 0.000000 0.000000 0.000000 2.076000 2.059000 2.043000 2.037000 2.021000 2.011000 1.995000 1.976000 1.971000 1.976000 1.982000 1.987000 1.994000 2.002000 2.005000 2.008000 2.023000 2.025000 2.039000 2.045000 2.046000 2.057000 2.062000 2.068000 2.061000 2.142000 0.000000 0.000000 0.000000 0.000000 0.000000 0.000000 0.000000 
0.000000 0.000000 0.000000 0.000000 0.000000 0.000000 0.000000 2.063000 2.062000 2.049000 2.037000 2.021000 2.011000 1.992000 1.981000 1.976000 1.976000 1.982000 1.987000 1.996000 2.002000 2.005000 2.015000 2.025000 2.025000 2.035000 2.045000 2.046000 2.057000 2.062000 2.068000 2.072000 2.074000 0.000000 0.000000 0.000000 0.000000 0.000000 0.000000 0.000000 
0.000000 0.000000 0.000000 0.000000 0.000000 0.000000 0.000000 2.058000 2.062000 2.045000 2.036000 2.022000 2.011000 1.991000 1.981000 1.976000 1.981000 1.982000 1.987000 1.994000 2.002000 2.007000 2.015000 2.025000 2.030000 2.039000 2.041000 2.046000 2.061000 2.068000 2.068000 2.068000 2.044000 0.000000 0.000000 0.000000 0.000000 0.000000 0.000000 0.000000 
0.000000 0.000000 0.000000 0.000000 0.000000 0.000000 0.000000 2.057000 2.057000 2.045000 2.036000 2.022000 2.011000 1.991000 1.981000 1.976000 1.981000 1.986000 1.987000 1.994000 2.002000 2.005000 2.013000 2.025000 2.029000 2.040000 2.046000 2.046000 2.062000 2.068000 2.073000 2.067000 2.037000 0.000000 0.000000 0.000000 0.000000 0.000000 0.000000 0.000000 
0.000000 0.000000 0.000000 0.000000 0.000000 0.000000 0.000000 2.057000 2.057000 2.045000 2.036000 2.021000 2.011000 1.991000 1.981000 1.976000 1.977000 1.982000 1.987000 1.994000 2.002000 2.005000 2.013000 2.025000 2.031000 2.039000 2.046000 2.051000 2.062000 2.068000 2.074000 2.079000 2.426000 0.000000 0.000000 0.000000 0.000000 0.000000 0.000000 0.000000 
0.000000 0.000000 0.000000 0.000000 0.000000 0.000000 0.000000 2.002000 2.056000 2.043000 2.036000 2.021000 2.002000 1.995000 1.976000 1.976000 1.977000 1.981000 1.987000 1.996000 2.000000 2.005000 2.018000 2.025000 2.031000 2.040000 2.046000 2.052000 2.062000 2.067000 2.068000 2.073000 0.000000 0.000000 0.000000 0.000000 0.000000 0.000000 0.000000 0.000000 
0.000000 0.000000 0.000000 0.000000 0.000000 0.000000 0.000000 1.432000 2.061000 2.045000 2.036000 2.021000 2.002000 1.995000 1.981000 1.976000 1.977000 1.981000 1.986000 1.993000 2.000000 2.007000 2.021000 2.025000 2.029000 2.042000 2.046000 2.052000 2.062000 2.062000 2.068000 2.068000 2.441000 0.000000 0.000000 0.000000 0.000000 0.000000 0.000000 0.000000 
0.000000 0.000000 0.000000 0.000000 0.000000 0.000000 0.000000 1.578000 2.061000 2.043000 2.032000 2.021000 2.002000 1.994000 1.981000 1.976000 1.981000 1.981000 1.988000 1.997000 2.001000 2.005000 2.021000 2.025000 2.029000 2.044000 2.047000 2.051000 2.062000 2.068000 2.070000 2.069000 2.436000 0.000000 0.000000 0.000000 0.000000 0.000000 0.000000 0.000000 
0.000000 0.000000 0.000000 0.000000 0.000000 0.000000 0.000000 2.062000 2.059000 2.043000 2.032000 2.021000 2.002000 1.991000 1.981000 1.976000 1.981000 1.985000 1.991000 1.998000 2.005000 2.005000 2.021000 2.025000 2.032000 2.040000 2.046000 2.052000 2.062000 2.068000 2.073000 2.073000 2.795000 0.000000 0.000000 0.000000 0.000000 0.000000 0.000000 0.000000 
0.000000 0.000000 0.000000 0.000000 0.000000 0.000000 0.000000 2.060000 2.057000 2.045000 2.032000 2.021000 2.001000 1.991000 1.981000 1.981000 1.981000 1.982000 1.989000 1.998000 2.005000 2.006000 2.020000 2.025000 2.038000 2.041000 2.046000 2.052000 2.062000 2.068000 2.068000 2.073000 0.000000 0.000000 0.000000 0.000000 0.000000 0.000000 0.000000 0.000000 
0.000000 0.000000 0.000000 0.000000 0.000000 0.000000 0.000000 2.058000 2.057000 2.045000 2.034000 2.021000 2.001000 1.991000 1.981000 1.981000 1.981000 1.982000 1.992000 1.998000 2.005000 2.007000 2.020000 2.027000 2.035000 2.041000 2.046000 2.052000 2.062000 2.068000 2.070000 2.076000 0.000000 0.000000 0.000000 0.000000 0.000000 0.000000 0.000000 0.000000 
0.000000 0.000000 0.000000 0.000000 0.000000 0.000000 0.000000 2.057000 2.057000 2.045000 2.037000 2.021000 2.001000 1.993000 1.981000 1.981000 1.981000 1.982000 1.992000 1.998000 2.005000 2.010000 2.023000 2.029000 2.033000 2.045000 2.048000 2.057000 2.065000 2.068000 2.076000 2.084000 0.000000 0.000000 0.000000 0.000000 0.000000 0.000000 0.000000 0.000000 
0.000000 0.000000 0.000000 0.000000 0.000000 0.000000 0.000000 2.060000 2.058000 2.043000 2.034000 2.017000 2.001000 1.991000 1.981000 1.976000 1.981000 1.984000 1.992000 2.000000 2.005000 2.012000 2.024000 2.029000 2.031000 2.038000 2.046000 2.057000 2.062000 2.068000 2.078000 2.075000 0.000000 0.000000 0.000000 0.000000 0.000000 0.000000 0.000000 0.000000 
0.000000 0.000000 0.000000 0.000000 0.000000 0.000000 0.000000 2.059000 2.058000 2.043000 2.033000 2.016000 2.004000 1.987000 1.981000 1.979000 1.981000 1.986000 1.994000 2.002000 2.005000 2.016000 2.025000 2.030000 2.034000 2.038000 2.056000 2.057000 2.062000 2.068000 2.068000 2.068000 0.000000 0.000000 0.000000 0.000000 0.000000 0.000000 0.000000 0.000000 
0.000000 0.000000 0.000000 0.000000 0.000000 0.000000 0.000000 2.060000 2.057000 2.044000 2.027000 2.016000 2.001000 1.987000 1.981000 1.981000 1.982000 1.991000 1.993000 2.002000 2.006000 2.017000 2.027000 2.034000 2.041000 2.045000 2.052000 2.056000 2.062000 2.073000 2.076000 2.070000 2.765000 0.000000 0.000000 0.000000 0.000000 0.000000 0.000000 0.000000 
0.000000 0.000000 0.000000 0.000000 0.000000 0.000000 0.000000 2.061000 2.054000 2.045000 2.027000 2.016000 2.001000 1.990000 1.981000 1.981000 1.982000 1.987000 1.992000 2.002000 2.007000 2.019000 2.028000 2.034000 2.041000 2.041000 2.051000 2.060000 2.066000 2.073000 2.079000 2.083000 2.435000 0.000000 0.000000 0.000000 0.000000 0.000000 0.000000 0.000000 
0.000000 0.000000 0.000000 0.000000 0.000000 0.000000 0.000000 0.000000 0.000000 0.000000 0.000000 0.000000 0.000000 0.000000 0.000000 0.000000 0.000000 0.000000 0.000000 0.000000 0.000000 0.000000 0.000000 0.000000 0.000000 0.000000 0.000000 0.000000 0.000000 0.000000 0.000000 0.000000 0.000000 0.000000 0.000000 0.000000 0.000000 0.000000 0.000000 0.000000 
0.000000 0.000000 0.000000 0.000000 0.000000 0.000000 0.000000 0.000000 0.000000 0.000000 0.000000 0.000000 0.000000 0.000000 0.000000 0.000000 0.000000 0.000000 0.000000 0.000000 0.000000 0.000000 0.000000 0.000000 0.000000 0.000000 0.000000 0.000000 0.000000 0.000000 0.000000 0.000000 0.000000 0.000000 0.000000 0.000000 0.000000 0.000000 0.000000 0.000000 
0.000000 0.000000 0.000000 0.000000 0.000000 0.000000 0.000000 0.000000 0.000000 0.000000 0.000000 0.000000 0.000000 0.000000 0.000000 0.000000 0.000000 0.000000 0.000000 0.000000 0.000000 0.000000 0.000000 0.000000 0.000000 0.000000 0.000000 0.000000 0.000000 0.000000 0.000000 0.000000 0.000000 0.000000 0.000000 0.000000 0.000000 0.000000 0.000000 0.000000 
