0.000000,0.000000,0.000000,0.000000,0.000000,0.000000,0.000000,0.000000,2.031000,0.000000,2.023000,2.020000,2.561000,2.010000,2.014000,1.997000,1.997000,1.996000,1.996000,1.991000,1.985000,1.984000,1.983000,1.980000,1.977000,1.976000,1.974000,1.971000,1.978000,2.036000,1.029000,0.000000,0.000000,0.000000,0.000000,0.000000,0.000000,0.000000,0.000000,0.000000,
0.000000,0.000000,0.000000,0.000000,0.000000,0.000000,2.025000,2.019000,2.018000,2.021000,2.018000,2.017000,2.014000,2.006000,2.003000,2.002000,1.997000,1.993000,1.993000,1.992000,1.987000,1.986000,1.983000,1.979000,1.977000,1.976000,1.974000,1.971000,1.974000,2.036000,1.030000,0.000000,0.000000,0.000000,0.000000,0.000000,0.000000,0.000000,0.000000,0.000000,
0.000000,0.000000,0.000000,0.000000,0.000000,0.000000,2.025000,2.017000,2.017000,2.020000,2.020000,2.016000,2.012000,2.006000,2.003000,2.003000,2.000000,1.997000,1.993000,1.990000,1.987000,1.987000,1.983000,1.979000,1.977000,1.977000,1.974000,1.971000,1.974000,2.035000,1.306000,0.000000,0.000000,0.000000,0.000000,0.000000,0.000000,0.000000,0.000000,0.000000,
0.000000,0.000000,0.000000,0.000000,0.000000,0.000000,2.027000,2.022000,2.019000,2.020000,2.018000,2.017000,2.016000,2.007000,2.007000,2.003000,2.000000,1.999000,1.993000,1.990000,1.989000,1.987000,1.981000,1.980000,1.979000,1.979000,1.974000,1.971000,1.971000,2.013000,2.041000,0.000000,0.000000,0.000000,0.000000,0.000000,0.000000,0.000000,0.000000,0.000000,
0.000000,0.000000,0.000000,0.000000,0.000000,0.000000,2.028000,2.027000,2.021000,2.020000,2.018000,2.017000,2.014000,2.009000,2.007000,2.003000,2.001000,1.998000,1.993000,1.993000,1.990000,1.988000,1.985000,1.980000,1.980000,1.979000,1.975000,1.974000,1.971000,2.008000,2.038000,0.000000,0.000000,0.000000,0.000000,0.000000,0.000000,0.000000,0.000000,0.000000,
0.000000,0.000000,0.000000,0.000000,0.000000,0.000000,2.027000,2.027000,2.024000,2.020000,2.018000,2.016000,2.014000,2.010000,2.007000,2.003000,2.003000,2.000000,1.993000,1.993000,1.992000,1.990000,1.987000,1.980000,1.980000,1.980000,1.977000,1.974000,1.974000,1.994000,1.833000,0.000000,0.000000,0.000000,0.000000,0.000000,0.000000,0.000000,0.000000,0.000000,
0.000000,0.000000,0.000000,0.000000,0.000000,0.000000,2.028000,2.027000,2.025000,2.023000,2.020000,2.017000,2.015000,2.009000,2.007000,2.006000,2.001000,2.000000,1.994000,1.993000,1.993000,1.990000,1.984000,1.980000,1.980000,1.980000,1.977000,1.976000,1.974000,2.003000,2.043000,0.000000,0.000000,0.000000,0.000000,0.000000,0.000000,0.000000,0.000000,0.000000,
0.000000,0.000000,0.000000,0.000000,0.000000,0.000000,2.027000,2.027000,2.027000,2.024000,2.023000,2.017000,2.015000,2.009000,2.007000,2.006000,2.003000,2.002000,1.994000,1.993000,1.993000,1.990000,1.987000,1.980000,1.980000,1.980000,1.975000,1.976000,1.972000,1.993000,2.037000,0.000000,0.000000,0.000000,0.000000,0.000000,0.000000,0.000000,0.000000,0.000000,
0.000000,0.000000,0.000000,0.000000,0.000000,0.000000,2.028000,2.027000,2.024000,2.026000,2.020000,2.018000,2.017000,2.011000,2.008000,2.007000,2.007000,2.003000,1.994000,1.993000,1.993000,1.990000,1.987000,1.980000,1.980000,1.982000,1.977000,1.975000,1.972000,1.989000,1.027000,2.920000,0.000000,0.000000,0.000000,0.000000,0.000000,0.000000,0.000000,0.000000,
0.000000,0.000000,0.000000,0.000000,0.000000,0.000000,2.031000,2.029000,2.027000,2.024000,2.020000,2.019000,2.017000,2.013000,2.008000,2.007000,2.007000,2.002000,1.997000,1.996000,1.993000,1.990000,1.987000,1.984000,1.984000,1.980000,1.980000,1.975000,1.974000,1.979000,1.837000,0.000000,0.000000,0.000000,0.000000,0.000000,0.000000,0.000000,0.000000,0.000000,
0.000000,0.000000,0.000000,0.000000,0.000000,0.000000,2.032000,2.031000,2.027000,2.024000,2.020000,2.020000,2.017000,2.010000,2.010000,2.009000,2.007000,2.003000,1.998000,1.996000,1.993000,1.991000,1.990000,1.986000,1.984000,1.982000,1.980000,1.979000,1.977000,1.978000,2.021000,1.579000,0.000000,0.000000,0.000000,0.000000,0.000000,0.000000,0.000000,0.000000,
0.000000,0.000000,0.000000,0.000000,0.000000,0.000000,2.037000,2.027000,2.025000,2.025000,2.020000,2.018000,2.017000,2.012000,2.010000,2.009000,2.007000,2.006000,2.001000,1.996000,1.993000,1.992000,1.990000,1.987000,1.984000,1.984000,1.980000,1.980000,1.977000,1.982000,2.023000,1.576000,1.001000,1.806000,0.000000,0.000000,0.000000,0.000000,0.000000,0.000000,
0.000000,0.000000,0.000000,0.000000,0.000000,0.000000,0.000000,2.027000,2.027000,2.030000,2.024000,2.020000,2.017000,2.016000,2.011000,2.007000,2.004000,2.003000,2.000000,1.997000,1.995000,1.992000,1.990000,1.987000,1.984000,1.984000,1.980000,1.980000,1.977000,1.979000,2.028000,2.042000,0.000000,0.000000,0.000000,0.000000,0.000000,0.000000,0.000000,0.000000,
0.000000,0.000000,0.000000,0.000000,0.000000,0.000000,0.000000,2.027000,2.027000,2.027000,2.024000,2.020000,2.018000,2.017000,2.014000,2.010000,2.007000,2.003000,2.003000,2.000000,1.997000,1.993000,1.990000,1.987000,1.984000,1.984000,1.983000,1.980000,1.977000,1.978000,2.028000,2.040000,0.000000,0.000000,0.000000,0.000000,0.000000,0.000000,0.000000,0.000000,
0.000000,0.000000,0.000000,0.000000,0.000000,0.000000,0.000000,2.032000,2.027000,2.026000,2.024000,2.020000,2.018000,2.017000,2.014000,2.014000,2.012000,2.007000,2.003000,2.002000,1.998000,1.993000,1.993000,1.989000,1.984000,1.984000,1.984000,1.980000,1.978000,1.978000,2.003000,2.041000,0.000000,0.000000,0.000000,0.000000,0.000000,0.000000,0.000000,0.000000,
0.000000,0.000000,0.000000,0.000000,0.000000,0.000000,0.000000,2.034000,2.030000,2.027000,2.025000,2.020000,2.018000,2.017000,2.015000,2.014000,2.014000,2.007000,2.003000,2.002000,2.000000,1.996000,1.990000,1.987000,1.984000,1.985000,1.984000,1.984000,1.980000,1.980000,1.996000,2.040000,1.016000,0.000000,0.000000,0.000000,0.000000,0.000000,0.000000,0.000000,
0.000000,0.000000,0.000000,0.000000,0.000000,0.000000,0.000000,2.031000,2.027000,2.031000,2.027000,2.022000,2.020000,2.018000,2.017000,2.015000,2.011000,2.007000,2.003000,2.000000,1.997000,1.997000,1.990000,1.987000,1.984000,1.987000,1.987000,1.980000,1.980000,1.980000,2.001000,2.034000,1.016000,0.000000,0.000000,0.000000,0.000000,0.000000,0.000000,0.000000,
0.000000,0.000000,0.000000,0.000000,0.000000,0.000000,0.000000,2.031000,2.031000,2.031000,2.025000,2.020000,2.020000,2.019000,2.017000,2.014000,2.014000,2.007000,2.004000,2.003000,2.000000,1.999000,1.993000,1.989000,1.987000,1.988000,1.987000,1.984000,1.980000,1.980000,1.990000,2.037000,1.915000,0.000000,0.000000,0.000000,0.000000,0.000000,0.000000,0.000000,
0.000000,0.000000,0.000000,0.000000,0.000000,0.000000,0.000000,2.027000,2.027000,2.027000,2.027000,2.023000,2.020000,2.020000,2.017000,2.010000,2.007000,2.007000,2.007000,2.003000,2.000000,1.997000,1.993000,1.990000,1.988000,1.988000,1.984000,1.982000,1.980000,1.981000,1.990000,2.032000,2.050000,0.000000,0.000000,0.000000,0.000000,0.000000,0.000000,0.000000,
0.000000,0.000000,0.000000,0.000000,0.000000,0.000000,0.000000,1.215000,2.027000,2.030000,2.027000,2.026000,2.021000,2.020000,2.017000,2.010000,2.013000,2.007000,2.007000,2.002000,2.000000,1.999000,1.993000,1.990000,1.990000,1.990000,1.984000,1.982000,1.980000,1.980000,1.984000,2.033000,2.052000,2.064000,0.000000,0.000000,0.000000,0.000000,0.000000,0.000000,
0.000000,0.000000,0.000000,0.000000,0.000000,0.000000,0.000000,1.216000,2.031000,2.032000,2.028000,2.023000,2.020000,2.019000,2.017000,2.013000,2.014000,2.007000,2.007000,2.002000,1.999000,1.996000,1.993000,1.990000,1.990000,1.990000,1.985000,1.984000,1.980000,1.977000,1.986000,2.019000,2.053000,1.614000,0.000000,0.000000,0.000000,0.000000,0.000000,0.000000,
0.000000,0.000000,0.000000,0.000000,0.000000,0.000000,0.000000,0.000000,2.035000,2.030000,2.025000,2.024000,2.020000,2.019000,2.017000,2.017000,2.015000,2.007000,2.007000,2.003000,1.997000,1.997000,1.993000,1.992000,1.990000,1.990000,1.987000,1.984000,1.980000,1.977000,1.984000,2.024000,2.050000,0.000000,0.000000,0.000000,0.000000,0.000000,0.000000,0.000000,
0.000000,0.000000,0.000000,0.000000,0.000000,0.000000,0.000000,0.000000,1.881000,2.031000,2.027000,2.024000,2.024000,2.020000,2.020000,2.016000,2.010000,2.007000,2.007000,2.004000,2.000000,1.999000,1.993000,1.993000,1.993000,1.991000,1.987000,1.984000,1.980000,1.977000,1.980000,2.018000,2.042000,0.000000,0.000000,0.000000,0.000000,0.000000,0.000000,0.000000,
0.000000,0.000000,0.000000,0.000000,0.000000,0.000000,0.000000,0.000000,2.038000,2.034000,2.031000,2.023000,2.020000,2.023000,2.020000,2.016000,2.008000,2.007000,2.007000,2.003000,2.000000,1.997000,1.994000,1.992000,1.990000,1.993000,1.990000,1.984000,1.980000,1.980000,1.980000,2.020000,2.038000,0.000000,0.000000,0.000000,0.000000,0.000000,0.000000,0.000000,
0.000000,0.000000,0.000000,0.000000,0.000000,0.000000,0.000000,0.000000,1.927000,2.034000,2.031000,2.023000,2.022000,2.020000,2.020000,2.017000,2.012000,2.011000,2.007000,2.004000,2.000000,1.997000,1.997000,1.993000,1.993000,1.993000,1.990000,1.984000,1.984000,1.980000,1.984000,2.017000,2.043000,1.396000,0.000000,0.000000,0.000000,0.000000,0.000000,0.000000,
0.000000,0.000000,0.000000,0.000000,0.000000,0.000000,0.000000,0.000000,1.774000,2.031000,2.031000,2.027000,2.025000,2.020000,2.018000,2.017000,2.017000,2.014000,2.008000,2.007000,2.003000,2.000000,1.997000,1.993000,1.993000,1.993000,1.990000,1.984000,1.984000,1.980000,1.984000,2.000000,2.045000,2.053000,0.000000,0.000000,0.000000,0.000000,0.000000,0.000000,
0.000000,0.000000,0.000000,0.000000,0.000000,0.000000,0.000000,0.000000,1.774000,2.034000,2.031000,2.029000,2.027000,2.020000,2.020000,2.017000,2.017000,2.013000,2.007000,2.007000,2.004000,2.002000,1.999000,1.993000,1.993000,1.993000,1.990000,1.987000,1.984000,1.982000,1.984000,2.000000,2.048000,2.053000,0.000000,0.000000,0.000000,0.000000,0.000000,0.000000,
0.000000,0.000000,0.000000,0.000000,0.000000,0.000000,1.868000,0.000000,1.779000,2.034000,2.031000,2.030000,2.027000,2.023000,2.020000,2.017000,2.017000,2.013000,2.007000,2.007000,2.004000,2.002000,2.000000,1.995000,1.993000,1.997000,1.993000,1.987000,1.984000,1.984000,1.984000,2.002000,2.049000,2.053000,0.000000,0.000000,0.000000,0.000000,0.000000,0.000000,
0.000000,0.000000,0.000000,0.000000,0.000000,0.000000,1.363000,0.000000,0.000000,2.035000,2.031000,2.030000,2.027000,2.023000,2.020000,2.018000,2.017000,2.014000,2.009000,2.007000,2.005000,2.003000,1.999000,1.997000,1.995000,1.993000,1.993000,1.987000,1.985000,1.984000,1.984000,1.998000,2.042000,2.044000,0.000000,0.000000,0.000000,0.000000,0.000000,0.000000,
0.000000,0.000000,0.000000,0.000000,0.000000,0.000000,0.000000,0.000000,0.000000,2.035000,2.031000,2.031000,2.027000,2.026000,2.024000,2.020000,2.017000,2.014000,2.014000,2.013000,2.007000,2.002000,2.000000,1.997000,1.997000,1.997000,1.993000,1.990000,1.987000,1.986000,1.984000,1.992000,2.014000,2.049000,0.000000,0.000000,0.000000,0.000000,0.000000,0.000000,
0.000000,0.000000,0.000000,0.000000,0.000000,0.000000,0.000000,0.000000,0.000000,1.669000,2.035000,2.031000,2.031000,2.023000,2.020000,2.020000,2.017000,2.012000,2.010000,2.009000,2.005000,2.002000,1.997000,1.997000,1.997000,1.997000,1.993000,1.990000,1.990000,1.984000,1.984000,1.988000,2.030000,2.048000,0.000000,0.000000,0.000000,0.000000,0.000000,0.000000,
0.000000,0.000000,0.000000,0.000000,0.000000,0.000000,0.000000,0.000000,0.000000,1.232000,2.035000,2.031000,2.031000,2.027000,2.024000,2.019000,2.017000,2.014000,2.014000,2.009000,2.007000,2.003000,2.003000,2.000000,1.997000,1.997000,1.993000,1.990000,1.987000,1.984000,1.984000,1.988000,1.998000,2.042000,0.000000,0.000000,0.000000,0.000000,0.000000,0.000000,
0.000000,0.000000,0.000000,0.000000,0.000000,0.000000,0.000000,0.000000,0.000000,1.608000,2.035000,2.031000,2.031000,2.026000,2.022000,2.020000,2.019000,2.017000,2.015000,2.011000,2.007000,2.003000,2.000000,2.000000,2.000000,2.000000,1.997000,1.990000,1.989000,1.987000,1.984000,1.985000,1.991000,0.000000,0.000000,0.000000,0.000000,0.000000,0.000000,0.000000,
0.000000,0.000000,0.000000,0.000000,0.000000,0.000000,0.000000,0.000000,0.000000,2.031000,2.031000,2.034000,2.031000,2.027000,2.021000,2.020000,2.020000,2.019000,2.017000,2.013000,2.007000,2.006000,2.003000,2.003000,2.003000,2.000000,1.997000,1.993000,1.990000,1.989000,1.984000,1.984000,1.984000,0.000000,0.000000,0.000000,0.000000,0.000000,0.000000,0.000000,
0.000000,0.000000,0.000000,0.000000,0.000000,0.000000,0.000000,0.000000,0.000000,0.000000,1.919000,2.031000,2.027000,2.026000,2.023000,2.020000,2.018000,2.020000,2.020000,2.015000,2.007000,2.003000,2.000000,2.003000,2.005000,1.997000,1.997000,1.996000,1.993000,0.000000,1.428000,1.990000,1.476000,0.000000,0.000000,0.000000,0.000000,0.000000,0.000000,0.000000,
0.000000,0.000000,0.000000,0.000000,0.000000,0.000000,0.000000,0.000000,0.000000,0.000000,0.000000,0.000000,0.000000,2.017000,0.000000,0.000000,0.000000,2.024000,2.028000,2.027000,1.111000,0.000000,1.947000,2.020000,2.020000,2.017000,2.085000,0.000000,2.090000,0.000000,0.000000,0.000000,0.000000,0.000000,0.000000,0.000000,0.000000,0.000000,0.000000,0.000000,
0.000000,0.000000,0.000000,0.000000,0.000000,0.000000,0.000000,0.000000,0.000000,0.000000,0.000000,0.000000,0.000000,0.000000,0.000000,0.000000,0.000000,0.000000,1.940000,2.031000,2.104000,2.116000,2.111000,2.082000,2.017000,2.032000,2.095000,2.100000,2.101000,1.862000,0.000000,0.000000,0.000000,0.000000,0.000000,0.000000,0.000000,0.000000,0.000000,0.000000,
0.000000,0.000000,0.000000,0.000000,0.000000,0.000000,0.000000,0.000000,0.000000,0.000000,0.000000,0.000000,0.000000,0.000000,0.000000,0.000000,0.000000,0.000000,2.035000,2.060000,2.100000,2.098000,2.095000,2.072000,2.024000,2.044000,2.083000,2.077000,2.075000,2.090000,1.035000,0.000000,0.000000,0.000000,0.000000,0.000000,0.000000,0.000000,0.000000,0.000000,
0.000000,0.000000,0.000000,0.000000,0.000000,0.000000,0.000000,0.000000,0.000000,0.000000,0.000000,0.000000,0.000000,0.000000,0.000000,0.000000,0.000000,0.000000,1.945000,2.049000,2.082000,2.067000,2.066000,2.053000,2.028000,2.061000,2.058000,2.057000,2.062000,2.072000,2.099000,1.909000,0.000000,0.000000,0.000000,0.000000,0.000000,0.000000,0.000000,0.000000,
0.000000,0.000000,0.000000,0.000000,0.000000,0.000000,0.000000,0.000000,0.000000,0.000000,0.000000,0.000000,0.000000,0.000000,0.000000,0.000000,2.050000,2.045000,2.042000,2.038000,2.044000,2.055000,2.049000,2.040000,2.038000,2.038000,2.035000,2.031000,2.035000,2.095000,2.111000,1.896000,0.000000,0.000000,0.000000,0.000000,0.000000,0.000000,0.000000,0.000000,
