40 40
0.000000 0.000000 0.000000 0.000000 0.000000 0.000000 0.000000 0.000000 0.000000 0.000000 0.000000 0.000000 0.000000 0.000000 0.000000 0.000000 0.000000 0.000000 0.000000 0.000000 0.000000 0.000000 0.000000 0.000000 0.000000 0.000000 0.000000 0.000000 0.000000 0.000000 0.000000 0.000000 0.000000 0.000000 0.000000 0.000000 0.000000 0.000000 0.000000 0.000000 
0.000000 0.000000 0.000000 0.000000 0.000000 0.000000 0.000000 0.000000 0.000000 0.000000 0.000000 0.000000 0.000000 0.000000 0.000000 0.000000 0.000000 0.000000 0.000000 0.000000 0.000000 0.000000 0.000000 0.000000 0.000000 0.000000 0.000000 0.000000 0.000000 0.000000 0.000000 0.000000 0.000000 0.000000 0.000000 0.000000 0.000000 0.000000 0.000000 0.000000 
0.000000 0.000000 0.000000 0.000000 0.000000 0.000000 0.000000 0.000000 0.000000 0.000000 0.000000 0.000000 0.000000 2.087000 2.097000 2.104000 2.097000 0.000000 0.000000 0.000000 0.000000 0.000000 0.000000 0.000000 0.000000 0.000000 0.000000 0.000000 0.000000 0.000000 0.000000 0.000000 0.000000 0.000000 0.000000 0.000000 0.000000 0.000000 0.000000 0.000000 
0.000000 0.000000 0.000000 0.000000 0.000000 0.000000 0.000000 0.000000 0.000000 0.000000 0.000000 0.000000 2.072000 2.087000 2.094000 2.097000 2.097000 2.097000 0.000000 0.000000 0.000000 0.000000 0.000000 0.000000 0.000000 0.000000 0.000000 0.000000 0.000000 0.000000 0.000000 0.000000 0.000000 0.000000 0.000000 0.000000 0.000000 0.000000 0.000000 0.000000 
0.000000 0.000000 0.000000 0.000000 0.000000 0.000000 0.000000 0.000000 0.000000 0.000000 0.000000 2.075000 2.073000 2.083000 2.088000 2.089000 2.089000 2.092000 2.092000 2.827000 0.000000 0.000000 0.000000 0.000000 0.000000 0.000000 0.000000 0.000000 0.000000 0.000000 0.000000 0.000000 0.000000 0.000000 0.000000 0.000000 0.000000 0.000000 0.000000 0.000000 
0.000000 0.000000 0.000000 0.000000 0.000000 0.000000 0.000000 0.000000 0.000000 2.059000 2.061000 2.061000 2.063000 2.070000 2.079000 2.086000 2.086000 2.086000 2.089000 2.089000 2.088000 0.000000 0.000000 0.000000 0.000000 0.000000 0.000000 0.000000 0.000000 0.000000 0.000000 0.000000 0.000000 0.000000 0.000000 0.000000 0.000000 0.000000 0.000000 0.000000 
0.000000 0.000000 0.000000 0.000000 0.000000 0.000000 0.000000 0.000000 2.081000 2.049000 2.055000 2.055000 2.055000 2.063000 2.069000 2.080000 2.080000 2.080000 2.089000 2.089000 2.084000 2.097000 0.000000 0.000000 0.000000 0.000000 0.000000 0.000000 0.000000 0.000000 0.000000 0.000000 0.000000 0.000000 0.000000 0.000000 0.000000 0.000000 0.000000 0.000000 
0.000000 0.000000 0.000000 0.000000 0.000000 0.000000 2.776000 2.039000 2.039000 2.041000 2.047000 2.047000 2.047000 2.054000 2.062000 2.067000 2.067000 2.075000 2.075000 2.079000 2.089000 2.089000 2.089000 2.985000 0.000000 0.000000 0.000000 0.000000 0.000000 0.000000 0.000000 0.000000 0.000000 0.000000 0.000000 0.000000 0.000000 0.000000 0.000000 0.000000 
0.000000 0.000000 0.000000 0.000000 0.000000 2.793000 2.025000 2.023000 2.038000 2.039000 2.044000 2.045000 2.047000 2.052000 2.060000 2.064000 2.064000 2.064000 2.064000 2.071000 2.075000 2.085000 2.089000 2.088000 2.365000 0.000000 0.000000 0.000000 0.000000 0.000000 0.000000 0.000000 0.000000 0.000000 0.000000 0.000000 0.000000 0.000000 0.000000 0.000000 
0.000000 0.000000 0.000000 0.000000 2.268000 2.031000 2.031000 2.031000 2.031000 2.031000 2.038000 2.039000 2.047000 2.047000 2.052000 2.064000 2.064000 2.064000 2.064000 2.064000 2.064000 2.066000 2.079000 2.084000 2.080000 2.183000 0.000000 0.000000 0.000000 0.000000 0.000000 0.000000 0.000000 0.000000 0.000000 0.000000 0.000000 0.000000 0.000000 0.000000 
0.000000 0.000000 0.000000 2.816000 2.006000 2.014000 2.020000 2.019000 2.019000 2.026000 2.023000 2.025000 2.030000 2.041000 2.047000 2.051000 2.055000 2.057000 2.064000 2.064000 2.064000 2.064000 2.067000 2.072000 2.072000 2.075000 2.075000 2.210000 0.000000 0.000000 0.000000 0.000000 0.000000 0.000000 0.000000 0.000000 0.000000 0.000000 0.000000 0.000000 
0.000000 0.000000 1.993000 1.987000 1.993000 2.004000 2.008000 2.006000 2.011000 2.014000 2.016000 2.019000 2.021000 2.026000 2.033000 2.038000 2.045000 2.046000 2.055000 2.062000 2.064000 2.055000 2.061000 2.062000 2.070000 2.070000 2.070000 2.071000 2.083000 0.000000 0.000000 0.000000 0.000000 0.000000 0.000000 0.000000 0.000000 0.000000 0.000000 0.000000 
0.000000 2.048000 2.005000 1.993000 1.993000 2.000000 2.001000 2.000000 2.000000 2.003000 2.009000 2.016000 2.016000 2.016000 2.020000 2.024000 2.031000 2.032000 2.034000 2.040000 2.048000 2.049000 2.055000 2.055000 2.064000 2.064000 2.064000 2.064000 2.065000 2.081000 2.512000 0.000000 0.000000 0.000000 0.000000 0.000000 0.000000 0.000000 0.000000 0.000000 
0.000000 2.013000 2.015000 2.003000 2.000000 1.997000 1.993000 1.993000 1.993000 1.995000 2.000000 2.008000 2.011000 2.011000 2.020000 2.023000 2.023000 2.025000 2.031000 2.031000 2.031000 2.035000 2.044000 2.048000 2.050000 2.054000 2.059000 2.064000 2.064000 2.066000 2.068000 2.827000 0.000000 0.000000 0.000000 0.000000 0.000000 0.000000 0.000000 0.000000 
2.047000 2.039000 2.024000 2.014000 2.002000 1.996000 1.993000 1.991000 1.991000 1.992000 1.993000 1.999000 1.999000 2.005000 2.019000 2.023000 2.023000 2.023000 2.024000 2.029000 2.031000 2.031000 2.031000 2.038000 2.039000 2.044000 2.047000 2.053000 2.055000 2.058000 2.062000 2.064000 2.845000 0.000000 0.000000 0.000000 0.000000 0.000000 0.000000 0.000000 
2.052000 2.046000 2.041000 2.020000 2.015000 2.002000 1.993000 1.985000 1.985000 1.987000 1.993000 1.993000 1.993000 1.994000 2.010000 2.017000 2.017000 2.017000 2.023000 2.023000 2.024000 2.031000 2.031000 2.031000 2.032000 2.032000 2.040000 2.041000 2.048000 2.051000 2.055000 2.062000 2.064000 2.085000 2.275000 0.000000 0.000000 0.000000 0.000000 0.000000 
2.054000 2.052000 2.045000 2.029000 2.016000 2.014000 2.002000 1.993000 1.990000 1.993000 1.993000 1.988000 1.988000 1.993000 1.999000 2.005000 2.011000 2.011000 2.019000 2.019000 2.019000 2.026000 2.030000 2.026000 2.031000 2.031000 2.031000 2.031000 2.034000 2.042000 2.050000 2.054000 2.055000 2.055000 2.055000 2.059000 2.139000 0.000000 0.000000 0.000000 
2.055000 2.055000 2.048000 2.038000 2.025000 2.020000 2.008000 2.002000 1.995000 1.993000 1.993000 1.986000 1.985000 1.985000 1.990000 1.998000 2.000000 2.000000 2.001000 2.013000 2.014000 2.016000 2.021000 2.023000 2.023000 2.028000 2.029000 2.029000 2.029000 2.034000 2.037000 2.044000 2.049000 2.053000 2.055000 2.055000 2.055000 2.043000 2.733000 0.000000 
2.070000 2.055000 2.050000 2.047000 2.038000 2.026000 2.016000 2.015000 2.010000 1.998000 1.993000 1.988000 1.985000 1.985000 1.986000 1.993000 1.994000 1.994000 1.995000 2.001000 2.001000 2.001000 2.002000 2.017000 2.023000 2.023000 2.023000 2.023000 2.023000 2.027000 2.031000 2.037000 2.039000 2.041000 2.048000 2.048000 2.048000 2.052000 2.057000 2.442000 
2.080000 2.068000 2.060000 2.054000 2.047000 2.038000 2.026000 2.020000 2.017000 2.004000 2.001000 1.992000 1.983000 1.978000 1.980000 1.983000 1.989000 1.993000 1.993000 1.996000 2.000000 2.000000 2.000000 2.002000 2.005000 2.012000 2.012000 2.012000 2.022000 2.023000 2.023000 2.027000 2.031000 2.031000 2.035000 2.035000 2.035000 2.041000 2.052000 2.055000 
2.735000 2.087000 2.074000 2.063000 2.055000 2.048000 2.039000 2.025000 2.020000 2.016000 2.010000 2.003000 1.986000 1.980000 1.979000 1.981000 1.985000 1.985000 1.991000 1.993000 1.993000 1.993000 1.998000 1.999000 1.999000 2.000000 2.003000 2.007000 2.019000 2.022000 2.022000 2.023000 2.026000 2.029000 2.023000 2.029000 2.029000 2.031000 2.050000 2.055000 
0.000000 2.121000 2.080000 2.070000 2.055000 2.054000 2.047000 2.032000 2.026000 2.022000 2.016000 2.010000 1.993000 1.986000 1.985000 1.985000 1.985000 1.985000 1.985000 1.986000 1.993000 1.993000 1.993000 1.993000 1.993000 1.994000 1.997000 2.000000 2.001000 2.005000 2.009000 2.010000 2.017000 2.023000 2.023000 2.023000 2.023000 2.029000 2.043000 2.048000 
0.000000 0.000000 0.000000 0.000000 2.121000 2.057000 2.054000 2.047000 2.038000 2.029000 2.020000 2.018000 2.008000 1.993000 1.995000 1.996000 1.993000 1.985000 1.978000 1.978000 1.983000 1.981000 1.981000 1.985000 1.989000 1.993000 1.993000 1.993000 1.999000 2.000000 2.000000 2.003000 2.007000 2.016000 2.019000 2.021000 2.023000 2.023000 2.036000 2.039000 
0.000000 0.000000 0.000000 0.000000 0.000000 2.669000 2.062000 2.057000 2.051000 2.045000 2.027000 2.021000 2.015000 2.004000 2.002000 1.999000 1.993000 1.989000 1.978000 1.977000 1.977000 1.970000 1.970000 1.973000 1.984000 1.990000 1.992000 1.992000 1.993000 1.996000 1.999000 2.000000 2.000000 2.007000 2.008000 2.011000 2.016000 2.022000 2.034000 2.595000 
0.000000 0.000000 0.000000 0.000000 0.000000 0.000000 0.000000 2.064000 2.063000 2.052000 2.046000 2.038000 2.028000 2.022000 2.018000 2.005000 1.999000 1.989000 1.978000 1.971000 1.970000 1.969000 1.964000 1.970000 1.973000 1.979000 1.979000 1.980000 1.986000 1.993000 1.993000 1.994000 2.000000 2.000000 2.001000 2.001000 2.009000 2.014000 2.873000 0.000000 
0.000000 0.000000 0.000000 0.000000 0.000000 0.000000 0.000000 0.000000 2.064000 2.055000 2.051000 2.047000 2.037000 2.024000 2.023000 2.018000 2.005000 2.000000 1.996000 1.990000 1.981000 1.973000 1.967000 1.970000 1.970000 1.970000 1.970000 1.971000 1.981000 1.985000 1.985000 1.988000 1.992000 1.996000 1.996000 1.998000 2.008000 2.018000 0.000000 0.000000 
0.000000 0.000000 0.000000 0.000000 0.000000 0.000000 0.000000 0.000000 2.575000 2.055000 2.054000 2.046000 2.044000 2.032000 2.031000 2.023000 2.018000 2.012000 2.001000 1.995000 1.989000 1.984000 1.978000 1.970000 1.963000 1.963000 1.963000 1.971000 1.977000 1.977000 1.977000 1.977000 1.980000 1.984000 1.983000 1.990000 2.011000 2.027000 2.034000 2.155000 
0.000000 0.000000 0.000000 0.000000 0.000000 0.000000 0.000000 0.000000 0.000000 0.000000 2.235000 2.042000 2.039000 2.038000 2.038000 2.030000 2.024000 2.018000 2.013000 2.007000 1.996000 1.990000 1.984000 1.979000 1.969000 1.964000 1.963000 1.965000 1.970000 1.964000 1.964000 1.964000 1.971000 1.978000 1.972000 1.428000 2.023000 2.029000 2.035000 2.031000 
0.000000 0.000000 0.000000 0.000000 0.000000 0.000000 0.000000 0.000000 0.000000 0.000000 0.000000 0.000000 2.051000 2.051000 2.053000 2.049000 2.032000 2.027000 2.022000 2.013000 2.002000 1.996000 1.993000 1.983000 1.970000 1.964000 1.963000 1.963000 1.960000 1.960000 1.960000 1.962000 1.965000 1.970000 1.395000 0.000000 0.000000 0.000000 0.000000 1.243000 
0.000000 0.000000 0.000000 0.000000 0.000000 0.000000 0.000000 0.000000 0.000000 0.000000 0.000000 0.000000 0.000000 2.098000 2.061000 2.056000 2.049000 2.033000 2.031000 2.024000 2.016000 2.001000 2.000000 1.993000 1.978000 1.965000 1.964000 1.962000 1.956000 1.956000 1.956000 1.962000 1.963000 1.948000 0.000000 0.000000 0.000000 0.000000 0.000000 0.000000 
0.000000 0.000000 0.000000 0.000000 0.000000 0.000000 0.000000 0.000000 0.000000 0.000000 0.000000 0.000000 0.000000 0.000000 2.064000 2.062000 2.055000 2.046000 2.031000 2.030000 2.022000 2.013000 2.006000 1.996000 1.989000 1.971000 1.967000 1.962000 1.956000 1.956000 1.956000 1.957000 1.960000 0.000000 0.000000 0.000000 0.000000 0.000000 0.000000 0.000000 
0.000000 0.000000 0.000000 0.000000 0.000000 0.000000 0.000000 0.000000 0.000000 0.000000 0.000000 0.000000 0.000000 0.000000 0.000000 0.000000 0.000000 2.051000 2.038000 2.032000 2.027000 2.022000 2.012000 2.002000 1.995000 1.983000 1.972000 1.966000 1.960000 1.961000 1.956000 1.956000 0.000000 0.000000 0.000000 0.000000 0.000000 0.000000 0.000000 1.165000 
0.000000 0.000000 0.000000 0.000000 0.000000 0.000000 0.000000 0.000000 0.000000 0.000000 0.000000 0.000000 0.000000 0.000000 0.000000 0.000000 0.000000 0.000000 2.049000 2.040000 2.035000 2.023000 2.017000 2.005000 2.000000 1.987000 1.986000 1.977000 1.965000 1.963000 1.934000 0.000000 0.000000 0.000000 0.000000 0.000000 0.000000 0.000000 0.000000 1.970000 
0.000000 0.000000 0.000000 0.000000 0.000000 0.000000 0.000000 0.000000 0.000000 0.000000 0.000000 0.000000 0.000000 0.000000 0.000000 0.000000 0.000000 0.000000 0.000000 2.052000 2.038000 2.031000 2.024000 2.021000 2.008000 2.000000 1.993000 1.983000 1.973000 1.967000 1.774000 0.000000 0.000000 0.000000 0.000000 0.000000 0.000000 0.000000 1.016000 1.976000 
0.000000 0.000000 0.000000 0.000000 0.000000 0.000000 0.000000 0.000000 0.000000 0.000000 0.000000 0.000000 0.000000 0.000000 0.000000 0.000000 0.000000 0.000000 0.000000 0.000000 0.000000 2.035000 2.035000 2.030000 2.019000 2.009000 2.000000 1.989000 1.985000 1.980000 0.000000 0.000000 0.000000 0.000000 0.000000 0.000000 0.000000 1.097000 1.997000 1.981000 
0.000000 0.000000 0.000000 0.000000 0.000000 0.000000 0.000000 0.000000 0.000000 0.000000 0.000000 0.000000 0.000000 0.000000 0.000000 0.000000 0.000000 0.000000 0.000000 0.000000 0.000000 0.000000 2.538000 2.035000 2.030000 2.023000 2.009000 1.999000 1.993000 1.997000 0.000000 0.000000 0.000000 0.000000 0.000000 1.086000 2.056000 2.008000 2.000000 1.993000 
0.000000 0.000000 0.000000 0.000000 0.000000 0.000000 0.000000 0.000000 0.000000 0.000000 0.000000 0.000000 0.000000 0.000000 0.000000 0.000000 0.000000 0.000000 0.000000 0.000000 0.000000 0.000000 0.000000 0.000000 2.031000 2.029000 2.019000 2.005000 1.998000 0.000000 0.000000 0.000000 0.000000 0.000000 0.000000 1.083000 2.022000 2.010000 2.007000 1.998000 
0.000000 0.000000 0.000000 0.000000 0.000000 0.000000 0.000000 0.000000 0.000000 0.000000 0.000000 0.000000 0.000000 0.000000 0.000000 0.000000 0.000000 0.000000 0.000000 0.000000 0.000000 0.000000 0.000000 0.000000 0.000000 2.585000 2.027000 2.023000 2.023000 0.000000 0.000000 0.000000 0.000000 0.000000 1.633000 2.034000 2.031000 2.020000 2.013000 2.000000 
0.000000 0.000000 0.000000 0.000000 0.000000 0.000000 0.000000 0.000000 0.000000 0.000000 0.000000 0.000000 0.000000 0.000000 0.000000 0.000000 0.000000 0.000000 0.000000 0.000000 0.000000 0.000000 0.000000 0.000000 0.000000 0.000000 0.000000 0.000000 0.000000 0.000000 0.000000 0.000000 0.000000 0.000000 0.000000 0.000000 0.000000 0.000000 0.000000 0.000000 
0.000000 0.000000 0.000000 0.000000 0.000000 0.000000 0.000000 0.000000 0.000000 0.000000 0.000000 0.000000 0.000000 0.000000 0.000000 0.000000 0.000000 0.000000 0.000000 0.000000 0.000000 0.000000 0.000000 0.000000 0.000000 0.000000 0.000000 0.000000 0.000000 0.000000 0.000000 0.000000 0.000000 0.000000 0.000000 0.000000 0.000000 0.000000 0.000000 0.000000 
