0.000000,0.000000,0.000000,0.000000,0.000000,0.000000,0.000000,0.000000,0.000000,0.000000,0.000000,0.000000,0.000000,0.000000,0.000000,0.000000,0.000000,0.000000,0.000000,0.000000,0.000000,0.000000,0.000000,0.000000,0.000000,0.000000,0.000000,0.000000,0.000000,0.000000,0.000000,0.000000,0.000000,0.000000,0.000000,0.000000,0.000000,0.000000,0.000000,0.000000,
0.000000,0.000000,0.000000,0.000000,0.000000,0.000000,0.000000,0.000000,0.000000,0.000000,2.034000,2.037000,2.045000,2.048000,2.044000,2.043000,2.043000,2.043000,0.000000,0.000000,0.000000,0.000000,0.000000,0.000000,0.000000,0.000000,0.000000,0.000000,0.000000,0.000000,0.000000,0.000000,0.000000,0.000000,0.000000,0.000000,0.000000,0.000000,0.000000,0.000000,
0.000000,0.000000,0.000000,0.000000,0.000000,0.000000,0.000000,0.000000,1.537000,2.045000,2.036000,2.032000,2.041000,2.040000,2.043000,2.043000,2.043000,2.043000,2.043000,2.043000,2.037000,0.000000,0.000000,0.000000,0.000000,0.000000,0.000000,0.000000,0.000000,0.000000,0.000000,0.000000,0.000000,0.000000,0.000000,0.000000,0.000000,0.000000,0.000000,0.000000,
0.000000,0.000000,0.000000,0.000000,0.000000,0.000000,0.000000,2.722000,0.000000,1.754000,2.034000,2.032000,2.036000,2.037000,2.043000,2.043000,2.040000,2.043000,2.043000,2.043000,2.043000,2.048000,2.045000,2.043000,2.043000,2.048000,2.048000,2.048000,2.362000,0.000000,0.000000,0.000000,0.000000,0.000000,0.000000,0.000000,0.000000,0.000000,0.000000,0.000000,
0.000000,0.000000,0.000000,0.000000,0.000000,0.000000,0.000000,0.000000,0.000000,1.832000,2.032000,2.030000,2.031000,2.033000,2.037000,2.039000,2.037000,2.039000,2.043000,2.043000,2.043000,2.045000,2.043000,2.043000,2.048000,2.052000,2.054000,2.052000,2.052000,2.049000,2.050000,2.058000,2.061000,2.065000,0.000000,0.000000,0.000000,0.000000,0.000000,0.000000,
0.000000,0.000000,0.000000,0.000000,0.000000,0.000000,2.771000,0.000000,0.000000,2.027000,2.029000,2.027000,2.027000,2.027000,2.028000,2.032000,2.027000,2.032000,2.037000,2.043000,2.043000,2.043000,2.043000,2.043000,2.048000,2.048000,2.048000,2.048000,2.048000,2.048000,2.049000,2.056000,2.053000,2.047000,0.000000,0.000000,0.000000,0.000000,0.000000,0.000000,
0.000000,0.000000,0.000000,0.000000,0.000000,0.000000,0.000000,2.005000,1.839000,2.026000,2.027000,2.027000,2.027000,2.027000,2.027000,2.032000,2.027000,2.031000,2.037000,2.037000,2.039000,2.037000,2.043000,2.043000,2.045000,2.048000,2.043000,2.045000,2.048000,2.048000,2.048000,2.050000,2.048000,2.046000,0.000000,0.000000,0.000000,0.000000,0.000000,0.000000,
0.000000,0.000000,0.000000,0.000000,0.000000,0.000000,0.000000,2.675000,2.018000,2.020000,2.021000,2.023000,2.023000,2.023000,2.027000,2.027000,2.027000,2.029000,2.029000,2.032000,2.037000,2.037000,2.037000,2.039000,2.043000,2.043000,2.043000,2.047000,2.047000,2.045000,2.045000,2.048000,2.048000,2.048000,0.000000,0.000000,0.000000,0.000000,0.000000,0.000000,
0.000000,0.000000,0.000000,0.000000,0.000000,0.000000,0.000000,1.244000,2.018000,2.016000,2.017000,2.021000,2.021000,2.021000,2.022000,2.027000,2.023000,2.027000,2.027000,2.027000,2.032000,2.028000,2.032000,2.032000,2.039000,2.037000,2.043000,2.043000,2.043000,2.043000,2.043000,2.044000,2.039000,2.039000,0.000000,0.000000,0.000000,0.000000,0.000000,0.000000,
0.000000,0.000000,0.000000,0.000000,0.000000,0.000000,0.000000,1.441000,2.012000,2.012000,2.015000,2.017000,2.021000,2.021000,2.021000,2.027000,2.022000,2.023000,2.027000,2.027000,2.027000,2.027000,2.027000,2.027000,2.030000,2.034000,2.037000,2.039000,2.043000,2.039000,2.040000,2.043000,2.041000,2.041000,0.000000,0.000000,0.000000,0.000000,0.000000,0.000000,
0.000000,0.000000,0.000000,0.000000,0.000000,0.000000,0.000000,1.885000,2.011000,2.011000,2.012000,2.016000,2.017000,2.016000,2.016000,2.021000,2.021000,2.021000,2.027000,2.027000,2.027000,2.022000,2.027000,2.027000,2.027000,2.032000,2.033000,2.033000,2.033000,2.037000,2.037000,2.038000,2.043000,0.000000,0.000000,0.000000,0.000000,0.000000,0.000000,0.000000,
0.000000,0.000000,0.000000,0.000000,0.000000,0.000000,2.744000,2.017000,2.008000,2.006000,2.006000,2.007000,2.010000,2.011000,2.015000,2.017000,2.021000,2.021000,2.023000,2.022000,2.021000,2.021000,2.022000,2.027000,2.027000,2.028000,2.032000,2.032000,2.032000,2.032000,2.032000,2.032000,1.717000,0.000000,0.000000,0.000000,0.000000,0.000000,0.000000,0.000000,
0.000000,0.000000,0.000000,0.000000,0.000000,0.000000,2.771000,2.011000,2.006000,2.003000,2.000000,2.004000,2.006000,2.010000,2.011000,2.015000,2.016000,2.021000,2.021000,2.021000,2.021000,2.021000,2.021000,2.027000,2.027000,2.027000,2.027000,2.027000,2.027000,2.027000,2.028000,2.032000,1.639000,0.000000,0.000000,0.000000,0.000000,0.000000,0.000000,0.000000,
0.000000,0.000000,0.000000,0.000000,0.000000,0.000000,0.000000,1.517000,2.001000,2.000000,2.000000,2.004000,2.006000,2.007000,2.011000,2.015000,2.020000,2.021000,2.017000,2.021000,2.021000,2.017000,2.017000,2.021000,2.021000,2.022000,2.027000,2.027000,2.027000,2.027000,2.028000,2.031000,2.027000,0.000000,0.000000,0.000000,0.000000,0.000000,0.000000,0.000000,
0.000000,0.000000,0.000000,0.000000,0.000000,0.000000,1.396000,1.997000,1.995000,2.000000,2.000000,2.000000,2.000000,2.006000,2.006000,2.006000,2.014000,2.016000,2.012000,2.016000,2.016000,2.007000,2.011000,2.021000,2.017000,2.021000,2.026000,2.021000,2.027000,2.021000,2.022000,2.027000,2.028000,0.000000,0.000000,0.000000,0.000000,0.000000,0.000000,0.000000,
0.000000,0.000000,0.000000,0.000000,0.000000,0.000000,0.000000,1.985000,1.986000,1.989000,1.991000,1.995000,2.000000,2.002000,2.000000,2.005000,2.006000,2.006000,2.006000,2.006000,2.011000,2.006000,2.011000,2.016000,2.016000,2.016000,2.016000,2.017000,2.021000,2.021000,2.021000,2.027000,1.635000,0.000000,0.000000,0.000000,0.000000,0.000000,0.000000,0.000000,
0.000000,0.000000,0.000000,0.000000,0.000000,2.754000,0.000000,1.985000,1.985000,1.985000,1.985000,1.990000,1.992000,1.998000,2.000000,2.000000,2.000000,2.005000,2.006000,2.006000,2.006000,2.006000,2.011000,2.011000,2.011000,2.012000,2.016000,2.016000,2.016000,2.017000,2.021000,2.023000,1.635000,0.000000,0.000000,0.000000,0.000000,0.000000,0.000000,0.000000,
0.000000,0.000000,0.000000,0.000000,0.000000,0.000000,0.000000,1.980000,1.980000,1.985000,1.985000,1.985000,1.985000,1.990000,1.994000,2.000000,1.995000,2.000000,2.000000,2.006000,2.000000,2.006000,2.006000,2.011000,2.011000,2.011000,2.016000,2.016000,2.011000,2.011000,2.012000,2.016000,2.288000,0.000000,0.000000,0.000000,0.000000,0.000000,0.000000,0.000000,
0.000000,0.000000,0.000000,0.000000,0.000000,0.000000,0.000000,1.975000,1.985000,1.985000,1.980000,1.980000,1.985000,1.989000,1.995000,1.991000,1.990000,1.999000,2.000000,2.000000,2.000000,2.000000,2.000000,2.011000,2.006000,2.006000,2.007000,2.011000,2.011000,2.011000,2.011000,2.010000,2.259000,0.000000,0.000000,0.000000,0.000000,0.000000,0.000000,0.000000,
0.000000,0.000000,0.000000,0.000000,0.000000,0.000000,1.382000,1.978000,1.980000,1.983000,1.980000,1.980000,1.985000,1.989000,1.990000,1.990000,1.994000,1.995000,1.999000,2.000000,2.000000,2.000000,2.000000,2.006000,2.006000,2.006000,2.006000,2.006000,2.006000,2.007000,2.011000,1.662000,0.000000,0.000000,0.000000,0.000000,0.000000,0.000000,0.000000,0.000000,
0.000000,0.000000,0.000000,0.000000,0.000000,1.341000,1.418000,1.972000,1.976000,1.980000,1.980000,1.980000,1.980000,1.983000,1.985000,1.985000,1.990000,1.995000,1.995000,1.995000,1.995000,1.995000,2.000000,2.000000,2.000000,2.001000,2.006000,2.006000,2.006000,2.006000,2.006000,1.658000,0.000000,0.000000,0.000000,0.000000,0.000000,0.000000,0.000000,0.000000,
0.000000,0.000000,0.000000,0.000000,0.000000,1.961000,1.966000,1.974000,1.978000,1.980000,1.980000,1.980000,1.980000,1.980000,1.985000,1.985000,1.986000,1.989000,1.994000,1.995000,1.990000,1.995000,1.995000,1.995000,2.000000,2.000000,2.000000,2.000000,2.000000,2.006000,2.000000,0.000000,2.100000,0.000000,0.000000,0.000000,0.000000,0.000000,0.000000,0.000000,
0.000000,0.000000,0.000000,0.000000,0.000000,1.956000,1.966000,1.968000,1.976000,1.980000,1.979000,1.979000,1.980000,1.980000,1.980000,1.980000,1.984000,1.985000,1.989000,1.990000,1.990000,1.994000,1.995000,1.995000,1.995000,2.000000,2.000000,2.000000,1.999000,2.000000,2.000000,0.000000,0.000000,0.000000,0.000000,0.000000,0.000000,0.000000,0.000000,0.000000,
0.000000,0.000000,0.000000,0.000000,0.000000,1.966000,1.966000,1.966000,1.969000,1.976000,1.974000,1.975000,1.975000,1.975000,1.980000,1.980000,1.980000,1.980000,1.985000,1.985000,1.985000,1.990000,1.990000,1.994000,1.995000,2.000000,2.000000,2.000000,1.996000,1.999000,1.954000,0.000000,2.239000,0.000000,0.000000,0.000000,0.000000,0.000000,0.000000,0.000000,
0.000000,0.000000,0.000000,0.000000,0.000000,1.450000,1.964000,1.964000,1.966000,1.965000,1.965000,1.972000,1.975000,1.974000,1.977000,1.979000,1.980000,1.980000,1.984000,1.985000,1.984000,1.985000,1.989000,1.989000,1.994000,1.995000,1.995000,1.996000,2.000000,1.994000,1.688000,0.000000,2.231000,0.000000,0.000000,0.000000,0.000000,0.000000,0.000000,0.000000,
0.000000,0.000000,0.000000,0.000000,0.000000,1.338000,1.961000,1.961000,1.963000,1.961000,1.961000,1.971000,1.974000,1.971000,1.966000,1.974000,1.975000,1.980000,1.979000,1.979000,1.980000,1.984000,1.984000,1.985000,1.989000,1.989000,1.990000,1.994000,1.994000,1.990000,1.928000,0.000000,2.196000,0.000000,0.000000,0.000000,0.000000,0.000000,0.000000,0.000000,
0.000000,0.000000,0.000000,0.000000,0.000000,1.337000,1.958000,1.959000,1.961000,1.961000,1.961000,1.961000,1.964000,1.966000,1.966000,1.972000,1.978000,1.979000,1.975000,1.975000,1.979000,1.981000,1.980000,1.980000,1.980000,1.984000,1.985000,1.984000,1.986000,1.985000,1.680000,0.000000,2.215000,0.000000,0.000000,0.000000,0.000000,0.000000,0.000000,0.000000,
0.000000,0.000000,0.000000,0.000000,0.000000,1.958000,1.951000,1.954000,1.958000,1.961000,1.961000,1.961000,1.961000,1.966000,1.965000,1.966000,1.972000,1.969000,1.970000,1.974000,1.975000,1.980000,1.980000,1.980000,1.980000,1.980000,1.980000,1.980000,1.981000,1.985000,1.680000,0.000000,0.000000,0.000000,0.000000,0.000000,0.000000,0.000000,0.000000,0.000000,
0.000000,0.000000,0.000000,0.000000,0.000000,1.955000,1.948000,1.948000,1.954000,1.955000,1.959000,1.961000,1.961000,1.961000,1.961000,1.961000,1.966000,1.966000,1.966000,1.966000,1.975000,1.980000,1.975000,1.979000,1.979000,1.980000,1.980000,1.980000,1.980000,1.981000,1.668000,0.000000,2.185000,0.000000,0.000000,0.000000,0.000000,0.000000,0.000000,0.000000,
0.000000,0.000000,0.000000,0.000000,0.000000,1.954000,1.946000,1.946000,1.952000,1.951000,1.951000,1.956000,1.957000,1.960000,1.961000,1.961000,1.961000,1.965000,1.966000,1.966000,1.969000,1.973000,1.970000,1.970000,1.971000,1.979000,1.980000,1.980000,1.980000,1.978000,1.351000,0.000000,0.000000,0.000000,0.000000,0.000000,0.000000,0.000000,0.000000,0.000000,
0.000000,0.000000,0.000000,0.000000,0.000000,1.946000,1.946000,1.945000,1.946000,1.950000,1.949000,1.949000,1.954000,1.956000,1.959000,1.961000,1.961000,1.964000,1.961000,1.961000,1.966000,1.969000,1.970000,1.970000,1.970000,1.975000,1.973000,1.974000,1.976000,1.980000,0.000000,1.567000,0.000000,0.000000,0.000000,0.000000,0.000000,0.000000,0.000000,0.000000,
0.000000,0.000000,0.000000,0.000000,0.000000,1.948000,1.944000,1.942000,1.942000,1.946000,1.946000,1.946000,1.948000,1.953000,1.954000,1.960000,1.959000,1.961000,1.959000,1.961000,1.964000,1.966000,1.966000,1.966000,1.970000,1.970000,1.968000,1.968000,1.968000,1.974000,1.300000,0.000000,0.000000,0.000000,0.000000,0.000000,0.000000,0.000000,0.000000,0.000000,
0.000000,0.000000,0.000000,0.000000,0.000000,1.938000,1.939000,1.940000,1.942000,1.943000,1.945000,1.946000,1.946000,1.946000,1.946000,1.958000,1.957000,1.959000,1.956000,1.961000,1.961000,1.961000,1.964000,1.966000,1.968000,1.968000,1.966000,1.966000,1.966000,1.860000,0.000000,2.076000,0.000000,0.000000,0.000000,0.000000,0.000000,0.000000,0.000000,0.000000,
0.000000,0.000000,0.000000,0.000000,0.000000,1.933000,1.933000,1.940000,1.941000,1.941000,1.942000,1.945000,1.946000,1.946000,1.946000,1.951000,1.949000,1.953000,1.956000,1.956000,1.961000,1.961000,1.961000,1.964000,1.964000,1.966000,1.966000,1.966000,1.967000,1.705000,0.000000,2.054000,0.000000,0.000000,0.000000,0.000000,0.000000,0.000000,0.000000,0.000000,
0.000000,0.000000,0.000000,0.000000,0.000000,1.933000,1.933000,1.935000,1.935000,1.937000,1.937000,1.945000,1.946000,1.944000,1.946000,1.950000,1.946000,1.946000,1.955000,1.956000,1.961000,1.959000,1.959000,1.961000,1.961000,1.961000,1.964000,1.964000,1.966000,1.844000,0.000000,2.032000,0.000000,0.000000,0.000000,0.000000,0.000000,0.000000,0.000000,0.000000,
0.000000,0.000000,0.000000,0.000000,0.000000,1.933000,1.934000,1.933000,1.933000,1.937000,1.940000,1.945000,1.946000,1.942000,1.942000,1.946000,1.947000,1.946000,1.951000,1.949000,1.949000,1.951000,1.954000,1.951000,1.951000,1.956000,1.961000,1.961000,1.961000,1.699000,0.000000,0.000000,0.000000,0.000000,0.000000,0.000000,0.000000,0.000000,0.000000,0.000000,
0.000000,0.000000,0.000000,0.000000,0.000000,1.928000,2.810000,2.635000,1.933000,1.936000,1.940000,1.942000,1.945000,1.942000,1.942000,1.945000,1.948000,1.946000,1.946000,1.942000,1.946000,1.946000,1.951000,1.951000,1.951000,1.956000,1.961000,1.955000,1.953000,1.826000,1.300000,0.000000,0.000000,0.000000,0.000000,0.000000,0.000000,0.000000,0.000000,0.000000,
0.000000,0.000000,0.000000,0.000000,0.000000,0.000000,0.000000,0.000000,0.000000,0.000000,0.000000,0.000000,0.000000,2.420000,1.942000,1.942000,1.950000,1.947000,1.946000,1.942000,1.942000,1.937000,1.946000,1.946000,1.946000,1.951000,1.953000,1.950000,1.946000,1.946000,1.874000,0.000000,0.000000,0.000000,0.000000,0.000000,0.000000,0.000000,0.000000,0.000000,
0.000000,0.000000,0.000000,0.000000,0.000000,0.000000,0.000000,0.000000,0.000000,0.000000,0.000000,0.000000,0.000000,0.000000,0.000000,0.000000,0.000000,0.000000,0.000000,0.000000,0.000000,0.000000,0.000000,0.000000,0.000000,0.000000,0.000000,0.000000,0.000000,0.000000,0.000000,0.000000,0.000000,0.000000,0.000000,0.000000,0.000000,0.000000,0.000000,0.000000,
0.000000,0.000000,0.000000,0.000000,0.000000,0.000000,0.000000,0.000000,0.000000,0.000000,0.000000,0.000000,0.000000,0.000000,0.000000,0.000000,0.000000,0.000000,0.000000,0.000000,0.000000,0.000000,0.000000,0.000000,0.000000,0.000000,0.000000,0.000000,0.000000,0.000000,0.000000,0.000000,0.000000,0.000000,0.000000,0.000000,0.000000,0.000000,0.000000,0.000000,
