0.000000,0.000000,0.000000,0.000000,0.000000,0.000000,0.000000,0.000000,0.000000,0.000000,0.000000,0.000000,0.000000,0.000000,0.000000,0.000000,0.000000,0.000000,0.000000,0.000000,0.000000,0.000000,0.000000,0.000000,0.000000,0.000000,0.000000,0.000000,0.000000,0.000000,0.000000,0.000000,0.000000,0.000000,0.000000,0.000000,0.000000,0.000000,0.000000,0.000000,
0.000000,0.000000,0.000000,0.000000,0.000000,0.000000,0.000000,0.000000,0.000000,0.000000,0.000000,0.000000,0.000000,0.000000,0.000000,0.000000,0.000000,0.000000,0.000000,0.000000,0.000000,0.000000,0.000000,0.000000,0.000000,0.000000,0.000000,0.000000,0.000000,0.000000,0.000000,0.000000,0.000000,0.000000,0.000000,0.000000,0.000000,0.000000,0.000000,0.000000,
1.987000,1.989000,1.990000,1.838000,1.262000,2.794000,0.000000,0.000000,0.000000,1.314000,0.000000,0.000000,2.017000,2.017000,1.455000,1.262000,0.000000,0.000000,0.000000,0.000000,0.000000,0.000000,0.000000,0.000000,0.000000,0.000000,0.000000,0.000000,0.000000,0.000000,0.000000,0.000000,0.000000,0.000000,0.000000,0.000000,0.000000,0.000000,0.000000,0.000000,
1.985000,1.987000,1.993000,1.262000,1.262000,0.000000,0.000000,0.000000,1.262000,1.262000,1.262000,2.016000,2.016000,2.017000,2.020000,1.986000,2.613000,0.000000,0.000000,0.000000,0.000000,0.000000,0.000000,0.000000,0.000000,0.000000,0.000000,0.000000,0.000000,0.000000,0.000000,0.000000,0.000000,0.000000,0.000000,0.000000,0.000000,0.000000,0.000000,0.000000,
1.983000,1.993000,2.019000,1.262000,1.262000,1.887000,0.000000,2.499000,1.262000,1.262000,2.011000,2.013000,2.014000,2.016000,2.016000,2.017000,2.021000,1.306000,0.000000,0.000000,0.000000,0.000000,0.000000,0.000000,0.000000,0.000000,0.000000,0.000000,0.000000,0.000000,0.000000,0.000000,0.000000,0.000000,0.000000,0.000000,0.000000,0.000000,0.000000,0.000000,
1.982000,2.003000,1.607000,2.017000,2.017000,1.262000,1.262000,1.262000,1.262000,2.004000,2.009000,2.009000,2.012000,2.014000,2.016000,2.017000,2.019000,2.023000,1.588000,1.368000,0.000000,0.000000,0.000000,0.000000,0.000000,0.000000,0.000000,0.000000,0.000000,0.000000,0.000000,0.000000,0.000000,0.000000,0.000000,0.000000,0.000000,0.000000,0.000000,0.000000,
1.787000,1.262000,1.262000,1.286000,2.016000,2.012000,1.996000,1.262000,1.511000,2.006000,2.008000,2.009000,2.009000,2.011000,2.014000,2.014000,2.016000,2.018000,2.022000,2.023000,2.021000,0.000000,0.000000,0.000000,0.000000,0.000000,0.000000,0.000000,0.000000,0.000000,0.000000,0.000000,0.000000,0.000000,0.000000,0.000000,0.000000,0.000000,0.000000,0.000000,
1.262000,1.262000,1.262000,1.262000,1.262000,1.827000,2.011000,2.006000,2.001000,2.003000,2.006000,2.008000,2.010000,2.011000,2.012000,2.014000,2.016000,2.017000,2.017000,2.020000,2.022000,2.024000,1.779000,0.000000,0.000000,0.000000,0.000000,0.000000,0.000000,0.000000,0.000000,0.000000,0.000000,0.000000,0.000000,0.000000,0.000000,0.000000,0.000000,0.000000,
1.262000,1.262000,1.262000,1.262000,1.262000,1.262000,1.273000,1.998000,2.000000,2.001000,2.004000,2.008000,2.008000,2.009000,2.011000,2.011000,2.014000,2.014000,2.017000,2.017000,2.017000,2.023000,2.023000,1.958000,0.000000,0.000000,0.000000,0.000000,0.000000,0.000000,0.000000,0.000000,0.000000,0.000000,0.000000,0.000000,0.000000,0.000000,0.000000,0.000000,
1.820000,1.262000,1.262000,1.262000,1.262000,1.262000,1.997000,1.995000,1.996000,2.000000,2.004000,2.004000,2.004000,2.007000,2.008000,2.011000,2.011000,2.012000,2.016000,2.017000,2.017000,2.019000,2.023000,2.024000,2.024000,2.272000,0.000000,0.000000,0.000000,0.000000,0.000000,0.000000,0.000000,0.000000,0.000000,0.000000,0.000000,0.000000,0.000000,0.000000,
2.002000,2.003000,1.262000,1.262000,1.262000,1.994000,1.994000,1.995000,1.996000,1.997000,2.000000,2.003000,2.004000,2.004000,2.008000,2.009000,2.011000,2.012000,2.014000,2.016000,2.016000,2.017000,2.019000,2.024000,2.024000,2.024000,1.636000,0.000000,0.000000,0.000000,0.000000,0.000000,0.000000,0.000000,0.000000,0.000000,0.000000,0.000000,0.000000,0.000000,
1.262000,1.986000,2.004000,1.276000,1.280000,1.990000,1.992000,1.993000,1.995000,1.996000,1.998000,2.001000,2.003000,2.003000,2.004000,2.008000,2.009000,2.009000,2.011000,2.015000,2.014000,2.016000,2.017000,2.019000,2.019000,2.023000,2.021000,1.272000,1.262000,0.000000,0.000000,0.000000,0.000000,0.000000,0.000000,0.000000,0.000000,0.000000,0.000000,0.000000,
1.808000,1.262000,1.804000,2.006000,1.986000,1.989000,1.990000,1.992000,1.993000,1.994000,1.998000,2.000000,2.001000,2.003000,2.003000,2.007000,2.007000,2.009000,2.009000,2.011000,2.011000,2.014000,2.016000,2.017000,2.019000,2.019000,2.023000,2.024000,1.728000,2.664000,0.000000,0.000000,0.000000,0.000000,0.000000,0.000000,0.000000,0.000000,0.000000,0.000000,
2.063000,2.064000,1.829000,1.985000,1.988000,1.986000,1.989000,1.990000,1.991000,1.992000,1.996000,1.996000,2.000000,2.001000,2.003000,2.004000,2.005000,2.009000,2.009000,2.010000,2.011000,2.012000,2.015000,2.016000,2.017000,2.017000,2.021000,2.021000,2.023000,2.024000,2.025000,0.000000,0.000000,0.000000,0.000000,0.000000,0.000000,0.000000,0.000000,0.000000,
1.262000,1.318000,2.020000,1.983000,1.984000,1.985000,1.987000,1.989000,1.989000,1.992000,1.996000,1.996000,1.998000,2.000000,2.000000,2.001000,2.004000,2.004000,2.008000,2.008000,2.009000,2.011000,2.012000,2.016000,2.014000,2.017000,2.019000,2.021000,2.021000,2.023000,2.024000,2.029000,0.000000,0.000000,0.000000,0.000000,0.000000,0.000000,0.000000,0.000000,
1.262000,1.262000,1.979000,1.982000,1.984000,1.984000,1.984000,1.987000,1.989000,1.990000,1.994000,1.994000,1.996000,1.998000,1.998000,2.001000,2.003000,2.003000,2.004000,2.008000,2.009000,2.009000,2.011000,2.012000,2.014000,2.016000,2.018000,2.018000,2.019000,2.021000,2.023000,2.028000,2.027000,1.946000,0.000000,0.000000,0.000000,0.000000,0.000000,0.000000,
1.262000,1.976000,1.977000,1.981000,1.981000,1.983000,1.984000,1.985000,1.989000,1.989000,1.990000,1.992000,1.996000,1.997000,1.998000,1.998000,2.000000,2.003000,2.003000,2.004000,2.004000,2.009000,2.009000,2.011000,2.011000,2.016000,2.014000,2.016000,2.017000,2.019000,2.023000,2.023000,2.024000,2.028000,2.029000,2.954000,0.000000,0.000000,0.000000,0.000000,
1.449000,1.975000,1.976000,1.978000,1.981000,1.982000,1.984000,1.984000,1.987000,1.987000,1.990000,1.992000,1.992000,1.994000,1.996000,1.998000,1.999000,2.000000,2.002000,2.003000,2.004000,2.005000,2.008000,2.011000,2.010000,2.012000,2.012000,2.015000,2.017000,2.019000,2.021000,2.023000,2.024000,2.026000,2.029000,2.029000,1.262000,1.776000,0.000000,0.000000,
1.972000,1.972000,1.975000,1.976000,1.979000,1.980000,1.982000,1.983000,1.984000,1.987000,1.990000,1.990000,1.992000,1.992000,1.996000,1.996000,1.996000,1.998000,1.998000,2.003000,2.004000,2.004000,2.006000,2.007000,2.009000,2.010000,2.012000,2.014000,2.014000,2.017000,2.020000,2.023000,2.023000,2.024000,2.025000,2.029000,2.029000,1.939000,2.836000,0.000000,
1.973000,1.972000,1.975000,1.976000,1.978000,1.979000,1.979000,1.981000,1.983000,1.984000,1.988000,1.989000,1.990000,1.992000,1.993000,1.993000,1.996000,1.998000,1.999000,2.001000,2.003000,2.003000,2.004000,2.006000,2.008000,2.009000,2.010000,2.011000,2.012000,2.016000,2.017000,2.021000,2.021000,2.023000,2.024000,2.026000,2.028000,2.029000,2.031000,1.337000,
1.825000,1.977000,1.973000,1.975000,1.977000,1.978000,1.979000,1.981000,1.982000,1.984000,1.985000,1.986000,1.989000,1.990000,1.992000,1.992000,1.994000,1.995000,1.998000,1.999000,2.000000,2.001000,2.003000,2.004000,2.007000,2.007000,2.008000,2.010000,2.012000,2.015000,2.016000,2.017000,2.019000,2.020000,2.023000,2.024000,2.027000,2.025000,2.029000,2.028000,
1.262000,1.262000,1.985000,1.976000,1.976000,1.976000,1.977000,1.979000,1.981000,1.982000,1.984000,1.985000,1.987000,1.988000,1.990000,1.990000,1.992000,1.993000,1.995000,1.996000,1.999000,2.000000,2.002000,2.004000,2.004000,2.005000,2.008000,2.008000,2.011000,2.014000,2.016000,2.017000,2.017000,2.019000,2.023000,2.023000,2.025000,2.024000,2.029000,2.028000,
1.262000,2.004000,2.035000,1.999000,1.979000,1.976000,1.976000,1.978000,1.979000,1.981000,1.983000,1.985000,1.985000,1.987000,1.987000,1.990000,1.992000,1.992000,1.994000,1.995000,1.996000,1.998000,2.001000,2.001000,2.003000,2.004000,2.004000,2.006000,2.009000,2.012000,2.013000,2.016000,2.016000,2.017000,2.019000,2.021000,2.023000,2.023000,2.027000,2.042000,
1.262000,1.262000,2.049000,2.038000,2.010000,1.990000,1.977000,1.976000,1.978000,1.978000,1.982000,1.983000,1.984000,1.985000,1.985000,1.989000,1.990000,1.991000,1.992000,1.993000,1.995000,1.996000,1.998000,2.001000,2.002000,2.003000,2.004000,2.008000,2.008000,2.009000,2.010000,2.013000,2.014000,2.017000,2.018000,2.019000,2.020000,2.023000,1.708000,1.262000,
0.000000,2.294000,1.262000,1.389000,2.049000,2.029000,2.014000,1.981000,1.978000,1.978000,1.980000,1.981000,1.983000,1.984000,1.985000,1.985000,1.988000,1.990000,1.991000,1.992000,1.993000,1.995000,1.996000,1.998000,2.001000,2.003000,2.003000,2.004000,2.006000,2.009000,2.009000,2.011000,2.011000,2.016000,2.016000,2.017000,2.019000,2.019000,1.262000,2.077000,
0.000000,0.000000,0.000000,1.262000,1.329000,2.061000,2.049000,2.016000,1.985000,1.978000,1.978000,1.979000,1.981000,1.982000,1.984000,1.985000,1.986000,1.989000,1.990000,1.990000,1.992000,1.994000,1.995000,1.995000,1.997000,2.000000,2.001000,2.003000,2.004000,2.007000,2.009000,2.009000,2.011000,2.011000,2.014000,2.016000,2.017000,1.262000,1.262000,0.000000,
0.000000,0.000000,0.000000,0.000000,1.526000,1.262000,2.063000,2.045000,2.032000,2.002000,1.984000,1.979000,1.979000,1.981000,1.982000,1.983000,1.984000,1.985000,1.987000,1.989000,1.990000,1.992000,1.993000,1.995000,1.996000,1.998000,1.999000,2.003000,2.003000,2.004000,2.009000,2.009000,2.010000,2.010000,2.011000,2.013000,1.957000,1.262000,0.000000,0.000000,
0.000000,0.000000,0.000000,0.000000,0.000000,0.000000,1.262000,1.761000,2.056000,2.043000,2.026000,1.992000,1.979000,1.979000,1.979000,1.982000,1.984000,1.984000,1.985000,1.985000,1.989000,1.990000,1.992000,1.993000,1.995000,1.996000,1.996000,1.998000,2.003000,2.004000,2.006000,2.008000,2.008000,2.009000,2.009000,2.011000,1.262000,1.262000,0.000000,0.000000,
0.000000,0.000000,0.000000,0.000000,0.000000,0.000000,0.000000,0.000000,2.064000,2.058000,2.042000,2.037000,1.993000,1.983000,1.979000,1.979000,1.981000,1.984000,1.985000,1.984000,1.987000,1.987000,1.991000,1.992000,1.992000,1.995000,1.996000,1.998000,1.998000,2.002000,2.003000,2.004000,2.006000,2.009000,2.009000,2.010000,1.262000,0.000000,0.000000,0.000000,
0.000000,0.000000,0.000000,0.000000,0.000000,0.000000,0.000000,0.000000,0.000000,0.000000,2.056000,2.052000,2.034000,2.010000,1.992000,1.980000,1.980000,1.982000,1.984000,1.984000,1.985000,1.987000,1.990000,1.990000,1.991000,1.993000,1.995000,1.997000,1.998000,2.001000,2.001000,2.004000,2.005000,2.007000,2.007000,1.262000,0.000000,0.000000,0.000000,0.000000,
0.000000,0.000000,0.000000,0.000000,0.000000,0.000000,0.000000,0.000000,0.000000,0.000000,0.000000,1.262000,1.262000,2.055000,2.040000,2.012000,1.980000,1.979000,1.981000,1.982000,1.984000,1.985000,1.985000,1.989000,1.990000,1.992000,1.993000,1.996000,1.998000,1.998000,2.002000,2.003000,2.004000,2.003000,1.346000,1.262000,0.000000,0.000000,0.000000,0.000000,
0.000000,0.000000,0.000000,0.000000,0.000000,0.000000,0.000000,0.000000,0.000000,0.000000,0.000000,0.000000,1.440000,1.716000,2.063000,2.033000,2.025000,2.010000,1.982000,1.982000,1.982000,1.984000,1.985000,1.987000,1.989000,1.990000,1.992000,1.994000,1.996000,1.996000,1.999000,2.001000,2.003000,2.001000,1.262000,1.262000,0.000000,0.000000,0.000000,0.000000,
0.000000,0.000000,0.000000,0.000000,0.000000,0.000000,0.000000,0.000000,0.000000,0.000000,0.000000,0.000000,0.000000,2.411000,1.262000,2.015000,2.054000,2.033000,2.009000,1.990000,1.982000,1.984000,1.985000,1.985000,1.987000,1.989000,1.990000,1.992000,1.993000,1.995000,1.998000,1.999000,2.003000,1.262000,1.262000,0.000000,0.000000,0.000000,0.000000,0.000000,
0.000000,0.000000,0.000000,0.000000,0.000000,0.000000,0.000000,0.000000,0.000000,0.000000,0.000000,0.000000,0.000000,0.000000,0.000000,1.262000,2.065000,2.058000,2.040000,2.018000,2.001000,1.984000,1.984000,1.985000,1.986000,1.989000,1.990000,1.992000,1.992000,1.995000,1.996000,1.998000,1.560000,1.262000,0.000000,0.000000,0.000000,0.000000,0.000000,0.000000,
0.000000,0.000000,0.000000,0.000000,0.000000,0.000000,0.000000,0.000000,0.000000,0.000000,0.000000,0.000000,0.000000,0.000000,0.000000,0.000000,0.000000,2.060000,2.063000,2.044000,2.038000,2.012000,1.986000,1.985000,1.985000,1.986000,1.990000,1.990000,1.992000,1.993000,1.996000,1.998000,1.262000,2.052000,0.000000,0.000000,0.000000,0.000000,0.000000,0.000000,
0.000000,0.000000,0.000000,0.000000,0.000000,0.000000,0.000000,0.000000,0.000000,0.000000,0.000000,0.000000,0.000000,0.000000,0.000000,0.000000,0.000000,0.000000,2.765000,1.868000,2.057000,2.035000,2.016000,1.994000,1.985000,1.985000,1.987000,1.989000,1.990000,1.993000,1.993000,1.276000,1.262000,0.000000,0.000000,0.000000,0.000000,0.000000,0.000000,0.000000,
0.000000,0.000000,0.000000,0.000000,0.000000,0.000000,0.000000,0.000000,0.000000,0.000000,0.000000,0.000000,0.000000,0.000000,0.000000,0.000000,0.000000,0.000000,0.000000,0.000000,1.262000,1.324000,2.058000,2.033000,2.010000,1.989000,1.987000,1.989000,1.989000,1.992000,1.993000,1.262000,1.262000,0.000000,0.000000,0.000000,0.000000,0.000000,0.000000,0.000000,
0.000000,0.000000,0.000000,0.000000,0.000000,0.000000,0.000000,0.000000,0.000000,0.000000,0.000000,0.000000,0.000000,0.000000,0.000000,0.000000,0.000000,0.000000,0.000000,0.000000,0.000000,1.880000,1.262000,2.061000,2.045000,2.021000,1.997000,1.990000,1.990000,1.990000,1.496000,1.262000,0.000000,0.000000,0.000000,0.000000,0.000000,0.000000,0.000000,0.000000,
0.000000,0.000000,0.000000,0.000000,0.000000,0.000000,0.000000,0.000000,0.000000,0.000000,0.000000,0.000000,0.000000,0.000000,0.000000,0.000000,0.000000,0.000000,0.000000,0.000000,0.000000,0.000000,0.000000,0.000000,0.000000,0.000000,0.000000,0.000000,0.000000,0.000000,0.000000,0.000000,0.000000,0.000000,0.000000,0.000000,0.000000,0.000000,0.000000,0.000000,
0.000000,0.000000,0.000000,0.000000,0.000000,0.000000,0.000000,0.000000,0.000000,0.000000,0.000000,0.000000,0.000000,0.000000,0.000000,0.000000,0.000000,0.000000,0.000000,0.000000,0.000000,0.000000,0.000000,0.000000,0.000000,0.000000,0.000000,0.000000,0.000000,0.000000,0.000000,0.000000,0.000000,0.000000,0.000000,0.000000,0.000000,0.000000,0.000000,0.000000,
