0.000000,0.000000,0.000000,2.052000,2.049000,2.036000,2.036000,2.027000,2.018000,2.018000,2.019000,2.035000,2.060000,2.562000,0.000000,0.000000,0.000000,2.049000,0.000000,0.000000,0.000000,1.982000,1.983000,1.988000,2.000000,2.998000,0.000000,0.000000,0.000000,0.000000,0.000000,0.000000,0.000000,0.000000,0.000000,0.000000,0.000000,0.000000,0.000000,0.000000,
0.000000,0.000000,0.000000,2.055000,2.055000,2.055000,2.055000,2.055000,2.046000,2.041000,2.367000,2.075000,2.155000,0.000000,0.000000,2.014000,2.013000,2.003000,1.987000,1.983000,1.967000,1.967000,1.986000,2.000000,2.000000,2.000000,0.000000,0.000000,0.000000,0.000000,0.000000,0.000000,0.000000,0.000000,0.000000,0.000000,0.000000,0.000000,0.000000,0.000000,
0.000000,0.000000,0.000000,2.070000,2.071000,2.254000,2.714000,2.388000,2.070000,2.070000,0.000000,2.188000,2.047000,2.034000,2.009000,1.998000,1.989000,1.983000,1.980000,1.978000,1.971000,1.971000,1.985000,1.997000,2.000000,2.000000,0.000000,0.000000,0.000000,0.000000,0.000000,0.000000,0.000000,0.000000,0.000000,0.000000,0.000000,0.000000,0.000000,0.000000,
0.000000,0.000000,0.000000,0.000000,2.958000,0.000000,0.000000,0.000000,2.966000,2.937000,0.000000,2.124000,2.027000,2.000000,2.000000,1.994000,1.983000,1.979000,1.969000,1.966000,1.982000,1.983000,1.983000,1.988000,2.000000,2.000000,0.000000,0.000000,0.000000,0.000000,0.000000,0.000000,0.000000,0.000000,0.000000,0.000000,0.000000,0.000000,0.000000,0.000000,
0.000000,0.000000,0.000000,0.000000,0.000000,0.000000,0.000000,0.000000,0.000000,0.000000,2.237000,2.027000,2.016000,2.000000,2.000000,1.994000,1.983000,1.973000,1.966000,1.966000,1.982000,1.983000,1.983000,1.985000,1.995000,2.004000,0.000000,0.000000,0.000000,0.000000,0.000000,0.000000,0.000000,0.000000,0.000000,0.000000,0.000000,0.000000,0.000000,0.000000,
0.000000,0.000000,0.000000,0.000000,0.000000,0.000000,0.000000,0.000000,2.983000,2.052000,2.038000,2.018000,2.006000,2.000000,2.000000,1.994000,1.983000,1.973000,1.966000,1.966000,1.982000,1.983000,1.983000,1.983000,1.989000,2.008000,2.566000,0.000000,0.000000,0.000000,0.000000,0.000000,0.000000,0.000000,0.000000,0.000000,0.000000,0.000000,0.000000,0.000000,
0.000000,0.000000,0.000000,0.000000,0.000000,0.000000,0.000000,0.000000,2.983000,2.052000,2.038000,2.030000,2.000000,2.000000,2.000000,1.994000,1.983000,1.973000,1.966000,1.966000,1.970000,1.983000,1.983000,1.986000,1.997000,2.002000,2.005000,0.000000,0.000000,0.000000,0.000000,0.000000,0.000000,0.000000,0.000000,0.000000,0.000000,0.000000,0.000000,0.000000,
0.000000,0.000000,0.000000,0.000000,0.000000,2.528000,2.513000,2.495000,2.223000,2.052000,2.038000,2.035000,2.029000,2.027000,2.010000,1.999000,1.990000,1.973000,1.966000,1.966000,1.966000,1.983000,1.983000,1.984000,1.991000,2.000000,1.992000,2.256000,0.000000,0.000000,0.000000,0.000000,0.000000,0.000000,0.000000,0.000000,0.000000,0.000000,0.000000,0.000000,
0.000000,0.000000,0.000000,2.308000,2.264000,2.126000,2.119000,2.098000,2.076000,2.057000,2.051000,2.051000,2.050000,2.032000,2.017000,2.010000,1.992000,1.982000,1.982000,1.969000,1.966000,1.983000,1.983000,1.983000,1.983000,1.992000,1.990000,1.983000,2.094000,0.000000,0.000000,0.000000,0.000000,0.000000,0.000000,0.000000,0.000000,0.000000,0.000000,0.000000,
0.000000,0.000000,0.000000,2.126000,2.123000,2.107000,2.107000,2.098000,2.088000,2.063000,2.053000,2.052000,2.052000,2.049000,2.030000,2.011000,2.000000,1.990000,1.983000,1.970000,1.967000,1.983000,1.983000,1.983000,1.983000,1.991000,2.000000,1.988000,1.983000,1.983000,0.000000,0.000000,0.000000,0.000000,0.000000,0.000000,0.000000,0.000000,0.000000,0.000000,
0.000000,0.000000,0.000000,2.126000,2.123000,2.110000,2.109000,2.099000,2.089000,2.088000,2.073000,2.053000,2.052000,2.050000,2.037000,2.023000,2.001000,1.991000,1.984000,1.983000,1.983000,1.983000,1.983000,1.983000,1.983000,1.991000,2.000000,1.988000,1.983000,1.983000,0.000000,0.000000,0.000000,0.000000,0.000000,0.000000,0.000000,0.000000,0.000000,0.000000,
0.000000,0.000000,0.000000,2.126000,2.126000,2.126000,2.121000,2.110000,2.095000,2.088000,2.073000,2.053000,2.052000,2.052000,2.047000,2.028000,2.009000,2.000000,1.991000,1.984000,1.983000,1.983000,1.983000,1.983000,1.983000,1.989000,1.998000,1.991000,1.988000,1.988000,0.000000,0.000000,0.000000,0.000000,0.000000,0.000000,0.000000,0.000000,0.000000,0.000000,
0.000000,0.000000,0.000000,2.133000,2.132000,2.126000,2.126000,2.117000,2.100000,2.090000,2.073000,2.060000,2.052000,2.052000,2.047000,2.028000,2.009000,2.000000,2.000000,1.991000,1.989000,1.983000,1.983000,1.983000,1.983000,1.983000,1.993000,2.000000,2.000000,2.006000,0.000000,0.000000,0.000000,0.000000,0.000000,0.000000,0.000000,0.000000,0.000000,0.000000,
0.000000,0.000000,0.000000,2.145000,2.143000,2.133000,2.126000,2.121000,2.111000,2.100000,2.082000,2.071000,2.052000,2.052000,2.050000,2.037000,2.017000,2.008000,2.002000,2.000000,2.000000,1.983000,1.983000,1.983000,1.983000,1.983000,1.993000,2.000000,2.000000,2.016000,0.000000,0.000000,0.000000,0.000000,0.000000,0.000000,0.000000,0.000000,0.000000,0.000000,
0.000000,0.000000,0.000000,0.000000,2.145000,2.140000,2.126000,2.126000,2.114000,2.107000,2.091000,2.071000,2.063000,2.061000,2.052000,2.046000,2.026000,2.017000,2.005000,2.000000,2.000000,1.983000,1.983000,1.983000,1.983000,1.983000,1.993000,2.000000,2.000000,2.016000,2.139000,0.000000,0.000000,0.000000,0.000000,0.000000,0.000000,0.000000,0.000000,0.000000,
0.000000,0.000000,0.000000,0.000000,0.000000,2.143000,2.134000,2.126000,2.123000,2.111000,2.091000,2.083000,2.070000,2.067000,2.052000,2.046000,2.026000,2.017000,2.005000,2.000000,2.000000,1.983000,1.983000,1.983000,1.983000,1.983000,1.993000,2.000000,2.000000,2.016000,2.040000,2.872000,0.000000,0.000000,0.000000,0.000000,0.000000,0.000000,0.000000,0.000000,
0.000000,0.000000,0.000000,0.000000,0.000000,2.156000,2.144000,2.134000,2.126000,2.112000,2.104000,2.089000,2.070000,2.067000,2.052000,2.051000,2.041000,2.032000,2.019000,2.002000,2.000000,1.983000,1.983000,1.983000,1.988000,1.997000,1.999000,2.000000,2.000000,2.003000,2.000000,2.327000,0.000000,0.000000,0.000000,0.000000,0.000000,0.000000,0.000000,0.000000,
0.000000,0.000000,0.000000,0.000000,0.000000,2.159000,2.145000,2.144000,2.133000,2.125000,2.125000,2.107000,2.086000,2.070000,2.064000,2.052000,2.044000,2.035000,2.022000,2.003000,2.000000,1.983000,1.983000,1.983000,1.989000,2.000000,2.000000,2.000000,2.000000,2.000000,2.000000,2.026000,2.695000,0.000000,0.000000,0.000000,0.000000,0.000000,0.000000,0.000000,
0.000000,0.000000,0.000000,0.000000,0.000000,0.000000,2.157000,2.145000,2.145000,2.131000,2.126000,2.108000,2.087000,2.070000,2.070000,2.063000,2.052000,2.052000,2.027000,2.004000,2.000000,1.983000,1.983000,1.983000,1.983000,1.991000,2.000000,2.000000,2.000000,2.000000,2.016000,2.017000,2.554000,0.000000,0.000000,0.000000,0.000000,0.000000,0.000000,0.000000,
0.000000,0.000000,0.000000,0.000000,0.000000,0.000000,2.157000,2.145000,2.145000,2.131000,2.126000,2.108000,2.090000,2.072000,2.070000,2.063000,2.052000,2.050000,2.026000,2.017000,2.001000,1.986000,1.983000,1.983000,1.983000,1.990000,1.997000,1.997000,2.000000,2.000000,2.001000,2.017000,2.017000,2.817000,0.000000,0.000000,0.000000,0.000000,0.000000,0.000000,
0.000000,0.000000,0.000000,0.000000,0.000000,0.000000,2.551000,2.148000,2.145000,2.131000,2.126000,2.108000,2.106000,2.090000,2.073000,2.063000,2.052000,2.042000,2.022000,2.017000,2.001000,1.999000,1.988000,1.986000,1.983000,1.983000,1.983000,1.983000,1.997000,2.000000,2.001000,2.017000,2.017000,2.817000,0.000000,0.000000,0.000000,0.000000,0.000000,0.000000,
0.000000,0.000000,0.000000,0.000000,0.000000,0.000000,0.000000,2.614000,2.148000,2.131000,2.126000,2.115000,2.107000,2.104000,2.083000,2.066000,2.055000,2.046000,2.029000,2.018000,2.007000,2.000000,2.000000,1.997000,1.989000,1.989000,1.989000,1.989000,1.998000,2.000000,2.001000,2.017000,2.017000,2.518000,0.000000,0.000000,0.000000,0.000000,0.000000,0.000000,
0.000000,0.000000,0.000000,0.000000,0.000000,0.000000,0.000000,0.000000,2.149000,2.131000,2.126000,2.126000,2.116000,2.112000,2.085000,2.075000,2.065000,2.055000,2.040000,2.020000,2.017000,2.000000,2.000000,2.000000,1.997000,1.992000,1.992000,1.998000,2.000000,2.000000,2.000000,2.010000,2.017000,2.020000,0.000000,0.000000,0.000000,0.000000,0.000000,0.000000,
0.000000,0.000000,0.000000,0.000000,0.000000,0.000000,0.000000,0.000000,2.145000,2.131000,2.126000,2.126000,2.126000,2.122000,2.096000,2.081000,2.070000,2.066000,2.050000,2.031000,2.018000,2.010000,2.009000,2.000000,1.994000,1.983000,1.983000,1.995000,2.000000,2.000000,2.000000,2.003000,2.017000,2.017000,0.000000,0.000000,0.000000,0.000000,0.000000,0.000000,
0.000000,0.000000,0.000000,0.000000,0.000000,0.000000,0.000000,0.000000,2.132000,2.137000,2.139000,2.127000,2.126000,2.123000,2.102000,2.081000,2.070000,2.070000,2.057000,2.048000,2.031000,2.029000,2.016000,2.009000,1.994000,1.983000,1.983000,1.987000,1.998000,2.000000,2.000000,2.003000,2.020000,2.030000,2.347000,0.000000,0.000000,0.000000,0.000000,0.000000,
0.000000,0.000000,0.000000,0.000000,0.000000,0.000000,0.000000,0.000000,2.126000,2.128000,2.142000,2.142000,2.126000,2.125000,2.113000,2.087000,2.077000,2.070000,2.068000,2.055000,2.036000,2.035000,2.029000,2.012000,1.994000,1.983000,1.983000,1.983000,1.997000,2.000000,2.000000,2.003000,2.022000,2.035000,2.043000,2.286000,0.000000,0.000000,0.000000,0.000000,
0.000000,0.000000,0.000000,0.000000,0.000000,0.000000,0.000000,0.000000,2.990000,2.126000,2.142000,2.145000,2.144000,2.141000,2.120000,2.099000,2.087000,2.077000,2.070000,2.055000,2.051000,2.035000,2.032000,2.012000,1.994000,1.983000,1.983000,1.983000,1.997000,2.000000,2.001000,2.016000,2.022000,2.035000,2.036000,2.026000,2.127000,0.000000,0.000000,0.000000,
0.000000,0.000000,0.000000,0.000000,0.000000,0.000000,0.000000,0.000000,0.000000,2.127000,2.142000,2.163000,2.146000,2.142000,2.121000,2.107000,2.098000,2.088000,2.088000,2.073000,2.053000,2.051000,2.036000,2.030000,2.011000,2.000000,2.000000,2.000000,2.000000,2.000000,2.001000,2.017000,2.022000,2.035000,2.026000,2.017000,2.016000,0.000000,0.000000,0.000000,
0.000000,0.000000,0.000000,0.000000,0.000000,0.000000,0.000000,0.000000,0.000000,2.253000,2.148000,2.163000,2.163000,2.142000,2.121000,2.107000,2.107000,2.097000,2.089000,2.073000,2.053000,2.052000,2.049000,2.035000,2.023000,2.001000,2.000000,2.000000,2.000000,2.000000,2.001000,2.015000,2.021000,2.033000,2.026000,2.007000,2.000000,0.000000,0.000000,0.000000,
0.000000,0.000000,0.000000,0.000000,0.000000,0.000000,0.000000,0.000000,0.000000,2.867000,2.171000,2.164000,2.158000,2.142000,2.122000,2.112000,2.112000,2.109000,2.093000,2.073000,2.058000,2.056000,2.050000,2.039000,2.033000,2.011000,2.000000,2.000000,2.000000,2.000000,2.000000,2.003000,2.017000,2.022000,2.024000,2.010000,2.001000,0.000000,0.000000,0.000000,
0.000000,0.000000,0.000000,0.000000,0.000000,0.000000,0.000000,0.000000,0.000000,0.000000,2.339000,2.165000,2.145000,2.142000,2.126000,2.126000,2.126000,2.119000,2.095000,2.073000,2.070000,2.069000,2.052000,2.052000,2.046000,2.021000,2.003000,2.000000,2.000000,2.000000,2.000000,2.003000,2.017000,2.017000,2.017000,2.017000,2.005000,0.000000,0.000000,0.000000,
0.000000,0.000000,0.000000,0.000000,0.000000,0.000000,0.000000,0.000000,0.000000,0.000000,2.590000,2.165000,2.145000,2.143000,2.133000,2.126000,2.126000,2.126000,2.105000,2.082000,2.071000,2.069000,2.052000,2.052000,2.046000,2.030000,2.015000,2.002000,2.000000,2.000000,2.000000,2.003000,2.017000,2.017000,2.017000,2.022000,2.019000,0.000000,0.000000,0.000000,
0.000000,0.000000,0.000000,0.000000,0.000000,0.000000,0.000000,0.000000,0.000000,0.000000,2.590000,2.165000,2.156000,2.145000,2.143000,2.133000,2.126000,2.126000,2.112000,2.101000,2.092000,2.080000,2.063000,2.060000,2.049000,2.040000,2.024000,2.012000,2.010000,2.010000,2.010000,2.011000,2.017000,2.021000,2.028000,2.038000,2.045000,0.000000,0.000000,0.000000,
0.000000,0.000000,0.000000,0.000000,0.000000,0.000000,0.000000,0.000000,0.000000,0.000000,0.000000,2.266000,2.163000,2.145000,2.145000,2.138000,2.126000,2.126000,2.122000,2.120000,2.108000,2.087000,2.070000,2.069000,2.060000,2.044000,2.032000,2.021000,2.017000,2.017000,2.017000,2.017000,2.017000,2.024000,2.035000,2.045000,2.052000,0.000000,0.000000,0.000000,
0.000000,0.000000,0.000000,0.000000,0.000000,0.000000,0.000000,0.000000,0.000000,0.000000,0.000000,2.323000,2.164000,2.160000,2.156000,2.144000,2.141000,2.141000,2.130000,2.126000,2.123000,2.102000,2.070000,2.070000,2.069000,2.058000,2.041000,2.022000,2.017000,2.017000,2.003000,2.005000,2.017000,2.018000,2.027000,2.045000,0.000000,0.000000,0.000000,0.000000,
0.000000,0.000000,0.000000,0.000000,0.000000,0.000000,0.000000,0.000000,0.000000,0.000000,0.000000,0.000000,2.164000,2.164000,2.159000,2.145000,2.145000,2.145000,2.144000,2.129000,2.126000,2.106000,2.084000,2.070000,2.070000,2.061000,2.042000,2.022000,2.017000,2.017000,2.000000,2.003000,2.017000,2.017000,2.026000,0.000000,0.000000,0.000000,0.000000,0.000000,
0.000000,0.000000,0.000000,0.000000,0.000000,0.000000,0.000000,0.000000,0.000000,0.000000,0.000000,0.000000,2.164000,2.164000,2.165000,2.165000,2.155000,2.145000,2.145000,2.129000,2.126000,2.124000,2.088000,2.083000,2.070000,2.062000,2.042000,2.035000,2.035000,2.019000,2.018000,2.018000,2.018000,2.056000,2.136000,0.000000,0.000000,0.000000,0.000000,0.000000,
0.000000,0.000000,0.000000,0.000000,0.000000,0.000000,0.000000,0.000000,0.000000,0.000000,0.000000,0.000000,2.167000,2.169000,2.183000,2.183000,2.174000,2.153000,2.131000,2.126000,2.126000,2.124000,2.091000,2.086000,2.072000,2.070000,2.059000,2.042000,2.035000,2.035000,2.035000,2.037000,2.133000,0.000000,0.000000,0.000000,0.000000,0.000000,0.000000,0.000000,
0.000000,0.000000,0.000000,0.000000,0.000000,0.000000,0.000000,0.000000,0.000000,0.000000,0.000000,0.000000,2.782000,2.183000,2.182000,2.178000,2.171000,2.153000,2.135000,2.127000,2.126000,2.125000,2.112000,2.106000,2.081000,2.070000,2.424000,2.661000,2.651000,2.649000,2.649000,2.661000,0.000000,0.000000,0.000000,0.000000,0.000000,0.000000,0.000000,0.000000,
0.000000,0.000000,0.000000,0.000000,0.000000,0.000000,0.000000,0.000000,0.000000,0.000000,0.000000,0.000000,0.000000,0.000000,2.835000,2.164000,2.164000,2.153000,2.145000,2.135000,2.126000,2.167000,0.000000,0.000000,2.994000,2.962000,0.000000,0.000000,0.000000,0.000000,0.000000,0.000000,0.000000,0.000000,0.000000,0.000000,0.000000,0.000000,0.000000,0.000000,
