0.000000,0.000000,0.000000,0.000000,0.000000,0.000000,0.000000,0.000000,0.000000,0.000000,0.000000,0.000000,0.000000,0.000000,0.000000,0.000000,0.000000,0.000000,0.000000,0.000000,0.000000,1.957000,1.962000,1.967000,1.969000,1.979000,0.000000,0.000000,0.000000,0.000000,0.000000,0.000000,0.000000,0.000000,0.000000,0.000000,0.000000,0.000000,0.000000,0.000000,
0.000000,0.000000,0.000000,0.000000,0.000000,0.000000,0.000000,0.000000,0.000000,0.000000,0.000000,0.000000,0.000000,0.000000,0.000000,0.000000,0.000000,0.000000,0.000000,0.000000,1.963000,1.963000,1.963000,1.962000,1.961000,1.961000,0.000000,0.000000,0.000000,0.000000,0.000000,0.000000,0.000000,0.000000,0.000000,0.000000,0.000000,0.000000,0.000000,0.000000,
0.000000,0.000000,0.000000,0.000000,0.000000,0.000000,0.000000,0.000000,0.000000,0.000000,0.000000,0.000000,0.000000,0.000000,0.000000,0.000000,0.000000,0.000000,0.000000,1.963000,1.963000,1.963000,1.962000,1.958000,1.957000,1.957000,1.957000,0.000000,0.000000,0.000000,0.000000,0.000000,0.000000,0.000000,0.000000,0.000000,0.000000,0.000000,0.000000,0.000000,
0.000000,0.000000,0.000000,0.000000,0.000000,0.000000,0.000000,0.000000,0.000000,0.000000,0.000000,0.000000,0.000000,0.000000,0.000000,0.000000,0.000000,0.000000,1.969000,1.967000,1.963000,1.963000,1.958000,1.957000,1.960000,1.957000,1.957000,2.138000,0.000000,0.000000,0.000000,0.000000,0.000000,0.000000,0.000000,0.000000,0.000000,0.000000,0.000000,0.000000,
0.000000,0.000000,0.000000,0.000000,0.000000,0.000000,0.000000,0.000000,0.000000,0.000000,0.000000,0.000000,0.000000,0.000000,0.000000,0.000000,2.734000,2.122000,1.969000,1.967000,1.963000,1.963000,1.958000,1.957000,1.962000,1.957000,1.957000,1.963000,1.963000,0.000000,0.000000,0.000000,0.000000,0.000000,0.000000,0.000000,0.000000,0.000000,0.000000,0.000000,
0.000000,0.000000,0.000000,0.000000,0.000000,0.000000,0.000000,0.000000,0.000000,0.000000,0.000000,0.000000,0.000000,0.000000,0.000000,2.876000,1.970000,1.969000,1.969000,1.969000,1.968000,1.963000,1.963000,1.963000,1.963000,1.957000,1.957000,1.957000,1.959000,0.000000,0.000000,0.000000,0.000000,0.000000,0.000000,0.000000,0.000000,0.000000,0.000000,0.000000,
0.000000,0.000000,0.000000,0.000000,0.000000,0.000000,0.000000,0.000000,0.000000,0.000000,0.000000,0.000000,0.000000,0.000000,0.000000,1.975000,1.972000,1.972000,1.969000,1.971000,1.969000,1.969000,1.963000,1.963000,1.960000,1.957000,1.957000,1.957000,1.957000,1.952000,2.643000,0.000000,0.000000,0.000000,0.000000,0.000000,0.000000,0.000000,0.000000,0.000000,
0.000000,0.000000,0.000000,0.000000,0.000000,0.000000,0.000000,0.000000,0.000000,0.000000,0.000000,0.000000,0.000000,0.000000,1.141000,1.969000,1.974000,1.975000,1.975000,1.975000,1.974000,1.969000,1.963000,1.963000,1.963000,1.961000,1.958000,1.957000,1.957000,1.953000,1.956000,1.956000,0.000000,0.000000,0.000000,0.000000,0.000000,0.000000,0.000000,0.000000,
0.000000,0.000000,0.000000,0.000000,0.000000,0.000000,0.000000,0.000000,0.000000,0.000000,0.000000,0.000000,0.000000,0.000000,1.980000,1.975000,1.975000,1.975000,1.975000,1.975000,1.975000,1.969000,1.969000,1.965000,1.963000,1.963000,1.962000,1.957000,1.957000,1.957000,1.952000,1.946000,1.946000,0.000000,0.000000,0.000000,0.000000,0.000000,0.000000,0.000000,
0.000000,0.000000,0.000000,0.000000,0.000000,0.000000,0.000000,0.000000,0.000000,0.000000,0.000000,0.000000,0.000000,1.987000,1.980000,1.975000,1.975000,1.975000,1.975000,1.975000,1.975000,1.975000,1.970000,1.969000,1.966000,1.963000,1.963000,1.957000,1.957000,1.957000,1.952000,1.952000,1.952000,1.957000,1.995000,0.000000,0.000000,0.000000,0.000000,0.000000,
0.000000,0.000000,0.000000,0.000000,0.000000,0.000000,0.000000,0.000000,0.000000,0.000000,0.000000,0.000000,2.203000,1.987000,1.981000,1.981000,1.981000,1.977000,1.975000,1.977000,1.980000,1.975000,1.970000,1.969000,1.969000,1.969000,1.963000,1.961000,1.957000,1.957000,1.954000,1.952000,1.952000,1.946000,1.951000,2.258000,0.000000,0.000000,0.000000,0.000000,
0.000000,0.000000,0.000000,0.000000,0.000000,0.000000,0.000000,0.000000,0.000000,0.000000,0.000000,0.000000,1.997000,1.990000,1.987000,1.985000,1.981000,1.977000,1.975000,1.977000,1.981000,1.981000,1.973000,1.973000,1.971000,1.967000,1.963000,1.962000,1.957000,1.957000,1.957000,1.957000,1.957000,1.952000,1.952000,1.946000,2.389000,0.000000,0.000000,0.000000,
0.000000,0.000000,0.000000,0.000000,0.000000,0.000000,0.000000,0.000000,0.000000,0.000000,0.000000,2.001000,1.996000,1.993000,1.990000,1.987000,1.982000,1.977000,1.975000,1.977000,1.981000,1.981000,1.978000,1.978000,1.976000,1.970000,1.963000,1.963000,1.963000,1.961000,1.960000,1.957000,1.957000,1.957000,1.952000,1.947000,1.950000,2.428000,0.000000,0.000000,
0.000000,0.000000,0.000000,0.000000,0.000000,0.000000,0.000000,0.000000,0.000000,2.045000,2.006000,2.000000,1.996000,1.995000,1.994000,1.989000,1.982000,1.977000,1.975000,1.977000,1.981000,1.981000,1.981000,1.981000,1.981000,1.979000,1.963000,1.963000,1.963000,1.963000,1.963000,1.959000,1.957000,1.957000,1.954000,1.952000,1.952000,1.952000,1.952000,1.952000,
0.000000,0.000000,0.000000,0.000000,0.000000,0.000000,0.000000,0.000000,2.006000,2.006000,2.006000,2.000000,2.000000,2.000000,1.994000,1.994000,1.984000,1.981000,1.978000,1.978000,1.981000,1.982000,1.981000,1.981000,1.981000,1.976000,1.969000,1.964000,1.969000,1.969000,1.963000,1.963000,1.958000,1.957000,1.957000,1.953000,1.952000,1.952000,1.952000,1.951000,
0.000000,0.000000,0.000000,0.000000,0.000000,0.000000,0.000000,0.000000,2.011000,2.006000,2.006000,2.002000,2.000000,2.000000,1.999000,1.994000,1.994000,1.983000,1.981000,1.983000,1.987000,1.987000,1.982000,1.981000,1.981000,1.976000,1.969000,1.969000,1.969000,1.969000,1.963000,1.963000,1.961000,1.957000,1.957000,1.953000,1.952000,1.952000,1.950000,1.946000,
0.000000,0.000000,0.000000,0.000000,0.000000,0.000000,0.000000,2.017000,2.012000,2.006000,2.006000,2.006000,2.003000,2.000000,2.000000,2.000000,1.995000,1.989000,1.987000,1.986000,1.987000,1.987000,1.982000,1.981000,1.981000,1.978000,1.974000,1.975000,1.975000,1.969000,1.963000,1.963000,1.961000,1.957000,1.957000,1.953000,1.955000,1.957000,1.955000,1.951000,
0.000000,0.000000,0.000000,0.000000,0.000000,0.000000,2.414000,2.014000,2.012000,2.006000,2.006000,2.006000,2.006000,2.000000,2.000000,2.000000,1.995000,1.989000,1.987000,1.990000,1.987000,1.987000,1.987000,1.985000,1.981000,1.980000,1.975000,1.975000,1.975000,1.970000,1.969000,1.968000,1.963000,1.961000,1.957000,1.957000,1.957000,1.957000,1.953000,1.946000,
0.000000,0.000000,0.000000,0.000000,0.000000,2.476000,2.017000,2.012000,2.012000,2.012000,2.006000,2.006000,2.006000,2.005000,2.000000,2.000000,1.998000,1.995000,1.991000,1.992000,1.987000,1.987000,1.987000,1.987000,1.982000,1.981000,1.981000,1.978000,1.975000,1.975000,1.975000,1.972000,1.969000,1.965000,1.957000,1.960000,1.957000,1.957000,2.958000,0.000000,
2.264000,0.000000,0.000000,0.000000,2.363000,2.026000,2.022000,2.019000,2.018000,2.015000,2.009000,2.006000,2.006000,2.006000,2.003000,2.000000,2.000000,2.000000,1.997000,1.996000,1.993000,1.987000,1.987000,1.987000,1.984000,1.981000,1.981000,1.975000,1.975000,1.977000,1.975000,1.971000,1.969000,1.963000,1.959000,1.960000,1.957000,2.288000,0.000000,0.000000,
2.264000,0.000000,0.000000,2.165000,2.028000,2.025000,2.025000,2.024000,2.020000,2.019000,2.012000,2.006000,2.006000,2.006000,2.001000,2.000000,2.000000,2.000000,2.000000,2.000000,1.999000,1.994000,1.987000,1.987000,1.987000,1.985000,1.981000,1.981000,1.981000,1.981000,1.975000,1.970000,1.968000,1.964000,1.963000,1.957000,2.215000,0.000000,0.000000,0.000000,
2.269000,2.267000,2.242000,2.046000,2.027000,2.025000,2.025000,2.025000,2.025000,2.019000,2.012000,2.006000,2.006000,2.006000,2.006000,2.006000,2.000000,2.000000,2.000000,2.000000,1.999000,1.994000,1.994000,1.987000,1.987000,1.987000,1.981000,1.981000,1.981000,1.981000,1.975000,1.972000,1.963000,1.969000,1.964000,2.039000,0.000000,0.000000,0.000000,0.000000,
2.273000,2.273000,2.050000,2.039000,2.031000,2.031000,2.025000,2.025000,2.025000,2.025000,2.019000,2.011000,2.006000,2.006000,2.006000,2.006000,2.006000,2.000000,2.000000,2.000000,1.999000,1.994000,1.994000,1.993000,1.987000,1.987000,1.981000,1.981000,1.981000,1.975000,1.977000,1.975000,1.974000,1.969000,1.969000,0.000000,0.000000,0.000000,0.000000,0.000000,
0.000000,2.109000,2.044000,2.038000,2.032000,2.031000,2.028000,2.025000,2.025000,2.025000,2.025000,2.023000,2.012000,2.011000,2.010000,2.006000,2.006000,2.000000,2.000000,2.000000,2.000000,1.998000,1.994000,1.994000,1.987000,1.987000,1.987000,1.985000,1.981000,1.981000,1.980000,1.979000,1.975000,1.974000,1.969000,0.000000,0.000000,0.000000,0.000000,0.000000,
2.045000,2.045000,2.044000,2.038000,2.036000,2.031000,2.031000,2.025000,2.025000,2.025000,2.025000,2.025000,2.019000,2.015000,2.011000,2.006000,2.006000,2.002000,2.000000,2.002000,2.005000,2.003000,2.003000,1.998000,1.987000,1.987000,1.987000,1.987000,1.981000,1.981000,1.981000,1.981000,1.978000,2.205000,0.000000,0.000000,0.000000,0.000000,0.000000,0.000000,
2.045000,2.045000,2.044000,2.038000,2.038000,2.031000,2.031000,2.030000,2.025000,2.025000,2.025000,2.025000,2.020000,2.017000,2.012000,2.012000,2.006000,2.006000,2.002000,2.005000,2.006000,2.000000,2.000000,2.000000,1.994000,1.991000,1.987000,1.987000,1.984000,1.983000,1.981000,1.981000,2.205000,0.000000,0.000000,0.000000,0.000000,0.000000,0.000000,0.000000,
2.044000,2.044000,2.045000,2.038000,2.038000,2.032000,2.031000,2.031000,2.030000,2.025000,2.025000,2.025000,2.022000,2.017000,2.012000,2.012000,2.007000,2.006000,2.006000,2.008000,2.006000,2.001000,2.000000,2.000000,1.995000,1.994000,1.987000,1.987000,1.987000,1.987000,1.982000,2.190000,0.000000,0.000000,0.000000,0.000000,0.000000,0.000000,0.000000,0.000000,
2.165000,2.041000,2.045000,2.045000,2.040000,2.031000,2.031000,2.031000,2.031000,2.031000,2.025000,2.025000,2.025000,2.019000,2.018000,2.012000,2.012000,2.012000,2.009000,2.008000,2.006000,2.006000,2.006000,2.000000,2.000000,1.994000,1.987000,1.987000,1.987000,1.987000,2.087000,0.000000,0.000000,0.000000,0.000000,0.000000,0.000000,0.000000,0.000000,0.000000,
0.000000,0.000000,2.051000,2.051000,2.046000,2.037000,2.031000,2.036000,2.031000,2.031000,2.026000,2.025000,2.025000,2.023000,2.018000,2.012000,2.012000,2.012000,2.009000,2.008000,2.012000,2.006000,2.006000,2.006000,2.000000,1.994000,1.992000,1.987000,1.987000,1.987000,0.000000,0.000000,0.000000,0.000000,0.000000,0.000000,0.000000,0.000000,0.000000,0.000000,
0.000000,0.000000,0.000000,2.051000,2.051000,2.045000,2.042000,2.036000,2.031000,2.031000,2.030000,2.030000,2.027000,2.023000,2.019000,2.012000,2.012000,2.012000,2.009000,2.008000,2.006000,2.012000,2.011000,2.006000,2.005000,1.999000,1.996000,1.987000,1.987000,0.000000,0.000000,0.000000,0.000000,0.000000,0.000000,0.000000,0.000000,0.000000,0.000000,0.000000,
0.000000,0.000000,0.000000,2.140000,2.046000,2.045000,2.042000,2.036000,2.031000,2.031000,2.031000,2.031000,2.030000,2.024000,2.023000,2.023000,2.020000,2.013000,2.009000,2.008000,2.012000,2.012000,2.012000,2.006000,2.006000,2.000000,1.997000,2.089000,0.000000,0.000000,0.000000,0.000000,0.000000,0.000000,0.000000,0.000000,0.000000,0.000000,0.000000,0.000000,
0.000000,0.000000,0.000000,2.767000,2.048000,2.050000,2.046000,2.038000,2.038000,2.034000,2.032000,2.031000,2.025000,2.025000,2.025000,2.025000,2.025000,2.019000,2.013000,2.013000,2.012000,2.012000,2.012000,2.006000,2.006000,2.000000,2.213000,0.000000,0.000000,0.000000,0.000000,0.000000,0.000000,0.000000,0.000000,0.000000,0.000000,0.000000,0.000000,0.000000,
0.000000,0.000000,0.000000,0.000000,1.390000,1.629000,1.818000,2.040000,2.041000,2.045000,2.038000,2.031000,2.031000,2.031000,2.029000,2.025000,2.025000,2.021000,2.015000,2.015000,2.012000,2.012000,2.012000,2.006000,2.006000,2.230000,0.000000,0.000000,0.000000,0.000000,0.000000,0.000000,0.000000,0.000000,0.000000,0.000000,0.000000,0.000000,0.000000,0.000000,
0.000000,0.000000,2.142000,2.142000,0.000000,0.000000,1.149000,2.051000,2.045000,2.045000,2.039000,2.038000,2.031000,2.031000,2.025000,2.025000,2.025000,2.025000,2.019000,2.019000,2.012000,2.012000,2.012000,2.007000,2.142000,0.000000,0.000000,0.000000,0.000000,0.000000,0.000000,0.000000,0.000000,0.000000,0.000000,0.000000,0.000000,0.000000,0.000000,0.000000,
2.094000,2.109000,2.128000,2.122000,0.000000,0.000000,0.000000,1.029000,2.050000,2.045000,2.039000,2.038000,2.038000,2.031000,2.030000,2.025000,2.025000,2.025000,2.025000,2.025000,2.019000,2.018000,2.012000,2.012000,0.000000,0.000000,0.000000,0.000000,0.000000,0.000000,0.000000,0.000000,0.000000,0.000000,0.000000,0.000000,0.000000,0.000000,0.000000,0.000000,
2.059000,2.068000,2.101000,2.106000,1.884000,1.832000,1.250000,0.000000,1.882000,2.015000,2.049000,2.045000,2.038000,2.035000,2.031000,2.025000,2.025000,2.025000,2.025000,2.027000,2.025000,2.019000,2.012000,0.000000,0.000000,0.000000,0.000000,0.000000,0.000000,0.000000,0.000000,0.000000,0.000000,0.000000,0.000000,0.000000,0.000000,0.000000,0.000000,0.000000,
2.058000,2.058000,2.066000,2.080000,2.134000,2.138000,2.149000,1.753000,1.443000,1.069000,2.052000,2.051000,2.047000,2.043000,2.031000,2.025000,2.025000,2.025000,2.025000,2.027000,2.029000,2.027000,0.000000,0.000000,0.000000,0.000000,0.000000,0.000000,0.000000,0.000000,0.000000,0.000000,0.000000,0.000000,0.000000,0.000000,0.000000,0.000000,0.000000,0.000000,
2.058000,2.058000,2.058000,2.065000,2.101000,2.122000,2.143000,2.153000,2.174000,2.115000,2.159000,2.048000,2.045000,2.045000,2.037000,2.028000,2.028000,2.025000,2.025000,2.027000,2.032000,2.082000,0.000000,0.000000,0.000000,0.000000,0.000000,0.000000,0.000000,0.000000,0.000000,0.000000,0.000000,0.000000,0.000000,0.000000,0.000000,0.000000,0.000000,0.000000,
2.058000,2.058000,2.058000,2.058000,2.070000,2.088000,2.109000,2.119000,2.143000,1.083000,2.048000,2.273000,2.118000,2.038000,2.038000,2.031000,2.031000,2.027000,2.026000,2.028000,2.040000,0.000000,0.000000,0.000000,0.000000,0.000000,0.000000,0.000000,0.000000,0.000000,0.000000,0.000000,0.000000,0.000000,0.000000,0.000000,0.000000,0.000000,0.000000,0.000000,
2.063000,2.058000,2.059000,2.058000,2.058000,2.058000,2.075000,2.078000,2.085000,2.141000,2.142000,2.273000,2.273000,2.031000,2.038000,2.031000,2.031000,2.031000,2.031000,2.035000,2.717000,0.000000,0.000000,0.000000,0.000000,0.000000,0.000000,0.000000,0.000000,0.000000,0.000000,0.000000,0.000000,0.000000,0.000000,0.000000,0.000000,0.000000,0.000000,0.000000,
