40 40
0.000000 0.000000 0.000000 0.000000 0.000000 0.000000 0.000000 0.000000 0.000000 0.000000 0.000000 0.000000 0.000000 0.000000 0.000000 0.000000 0.000000 0.000000 0.000000 0.000000 0.000000 0.000000 0.000000 0.000000 0.000000 0.000000 0.000000 0.000000 0.000000 0.000000 0.000000 0.000000 0.000000 0.000000 0.000000 0.000000 0.000000 0.000000 0.000000 0.000000 
0.000000 0.000000 0.000000 0.000000 0.000000 0.000000 0.000000 0.000000 0.000000 2.251000 2.072000 2.056000 2.047000 2.047000 2.059000 2.060000 2.060000 2.060000 2.060000 2.060000 2.060000 2.060000 2.060000 2.060000 2.060000 0.000000 0.000000 0.000000 0.000000 0.000000 0.000000 0.000000 0.000000 0.000000 0.000000 0.000000 0.000000 0.000000 0.000000 0.000000 
0.000000 0.000000 0.000000 0.000000 0.000000 0.000000 0.000000 0.000000 0.000000 2.226000 2.060000 2.058000 2.055000 2.059000 2.060000 2.060000 2.060000 2.060000 2.060000 2.060000 2.059000 2.055000 2.055000 2.055000 2.055000 2.057000 2.045000 2.045000 2.045000 2.055000 2.045000 2.045000 2.035000 2.030000 0.000000 0.000000 0.000000 0.000000 0.000000 0.000000 
0.000000 0.000000 0.000000 0.000000 0.000000 0.000000 0.000000 0.000000 0.000000 2.223000 2.060000 2.055000 2.045000 2.056000 2.060000 2.060000 2.060000 2.060000 2.060000 2.060000 2.057000 2.045000 2.045000 2.045000 2.045000 2.059000 2.050000 2.045000 2.045000 2.045000 2.045000 2.045000 2.035000 2.017000 0.000000 0.000000 0.000000 0.000000 0.000000 0.000000 
0.000000 0.000000 0.000000 0.000000 0.000000 0.000000 0.000000 0.000000 0.000000 2.221000 2.060000 2.055000 2.045000 2.048000 2.059000 2.060000 2.060000 2.060000 2.060000 2.060000 2.057000 2.045000 2.045000 2.045000 2.045000 2.058000 2.048000 2.045000 2.045000 2.045000 2.045000 2.045000 2.035000 2.005000 0.000000 0.000000 0.000000 0.000000 0.000000 0.000000 
0.000000 0.000000 0.000000 0.000000 0.000000 0.000000 0.000000 0.000000 2.780000 2.075000 2.060000 2.055000 2.045000 2.045000 2.059000 2.060000 2.060000 2.060000 2.060000 2.047000 2.046000 2.045000 2.045000 2.045000 2.045000 2.046000 2.045000 2.045000 2.045000 2.045000 2.045000 2.045000 2.035000 2.028000 0.000000 0.000000 0.000000 0.000000 0.000000 0.000000 
0.000000 0.000000 0.000000 0.000000 0.000000 0.000000 0.000000 0.000000 2.670000 2.061000 2.060000 2.054000 2.045000 2.045000 2.045000 2.060000 2.059000 2.058000 2.048000 2.045000 2.045000 2.044000 2.043000 2.043000 2.043000 2.043000 2.043000 2.044000 2.045000 2.045000 2.045000 2.037000 2.028000 2.028000 0.000000 0.000000 0.000000 0.000000 0.000000 0.000000 
0.000000 0.000000 0.000000 0.000000 0.000000 0.000000 0.000000 0.000000 2.662000 2.061000 2.054000 2.045000 2.045000 2.045000 2.045000 2.059000 2.051000 2.045000 2.045000 2.045000 2.044000 2.036000 2.030000 2.030000 2.030000 2.030000 2.030000 2.036000 2.040000 2.040000 2.038000 2.024000 2.012000 2.010000 0.000000 0.000000 0.000000 0.000000 0.000000 0.000000 
0.000000 0.000000 0.000000 0.000000 0.000000 0.000000 0.000000 0.000000 2.644000 2.060000 2.045000 2.045000 2.045000 2.045000 2.045000 2.051000 2.045000 2.045000 2.045000 2.045000 2.042000 2.030000 2.030000 2.024000 2.022000 2.030000 2.030000 2.030000 2.030000 2.030000 2.030000 2.024000 2.005000 2.000000 0.000000 0.000000 0.000000 0.000000 0.000000 0.000000 
0.000000 0.000000 0.000000 0.000000 0.000000 0.000000 0.000000 0.000000 2.211000 2.060000 2.045000 2.045000 2.045000 2.045000 2.045000 2.043000 2.034000 2.034000 2.042000 2.045000 2.033000 2.030000 2.030000 2.018000 2.015000 2.030000 2.030000 2.030000 2.030000 2.019000 2.019000 2.012000 2.001000 2.000000 0.000000 0.000000 0.000000 0.000000 0.000000 0.000000 
0.000000 0.000000 0.000000 0.000000 0.000000 0.000000 0.000000 0.000000 2.050000 2.046000 2.045000 2.045000 2.045000 2.045000 2.045000 2.043000 2.030000 2.030000 2.031000 2.031000 2.030000 2.030000 2.030000 2.029000 2.029000 2.030000 2.030000 2.030000 2.018000 2.015000 2.012000 2.000000 2.000000 2.000000 0.000000 0.000000 0.000000 0.000000 0.000000 0.000000 
0.000000 0.000000 0.000000 0.000000 0.000000 0.000000 0.000000 0.000000 2.558000 2.045000 2.045000 2.045000 2.045000 2.045000 2.045000 2.043000 2.031000 2.030000 2.030000 2.030000 2.030000 2.030000 2.030000 2.030000 2.030000 2.028000 2.028000 2.020000 2.015000 2.015000 2.010000 1.999000 1.998000 1.998000 0.000000 0.000000 0.000000 0.000000 0.000000 0.000000 
0.000000 0.000000 0.000000 0.000000 0.000000 0.000000 0.000000 0.000000 2.045000 2.045000 2.045000 2.045000 2.042000 2.040000 2.040000 2.040000 2.040000 2.030000 2.030000 2.030000 2.029000 2.025000 2.025000 2.029000 2.030000 2.015000 2.015000 2.015000 2.015000 2.015000 2.000000 1.994000 1.986000 1.986000 0.000000 0.000000 0.000000 0.000000 0.000000 0.000000 
0.000000 0.000000 0.000000 0.000000 0.000000 0.000000 0.000000 0.000000 2.045000 2.045000 2.045000 2.045000 2.037000 2.030000 2.030000 2.031000 2.034000 2.030000 2.030000 2.030000 2.027000 2.015000 2.015000 2.027000 2.030000 2.015000 2.015000 2.015000 2.015000 2.015000 2.007000 1.994000 1.986000 1.986000 0.000000 0.000000 0.000000 0.000000 0.000000 0.000000 
0.000000 0.000000 0.000000 0.000000 0.000000 0.000000 0.000000 0.000000 2.045000 2.045000 2.045000 2.045000 2.037000 2.030000 2.030000 2.030000 2.030000 2.030000 2.030000 2.030000 2.018000 2.015000 2.022000 2.029000 2.019000 2.015000 2.015000 2.015000 2.015000 2.015000 2.012000 1.994000 1.986000 0.000000 0.000000 0.000000 0.000000 0.000000 0.000000 0.000000 
0.000000 0.000000 0.000000 0.000000 0.000000 0.000000 0.000000 0.000000 2.045000 2.045000 2.043000 2.030000 2.030000 2.019000 2.015000 2.028000 2.015000 2.024000 2.030000 2.016000 2.015000 2.015000 2.024000 2.030000 2.015000 2.015000 2.015000 2.006000 2.000000 2.015000 2.012000 2.000000 2.000000 0.000000 0.000000 0.000000 0.000000 0.000000 0.000000 0.000000 
0.000000 0.000000 0.000000 0.000000 0.000000 0.000000 0.000000 2.941000 2.034000 2.030000 2.030000 2.027000 2.029000 2.019000 2.015000 2.026000 2.015000 2.015000 2.015000 2.015000 2.012000 2.013000 2.015000 2.015000 2.015000 2.014000 2.007000 2.000000 2.000000 2.000000 2.012000 2.007000 2.000000 0.000000 0.000000 0.000000 0.000000 0.000000 0.000000 0.000000 
0.000000 0.000000 0.000000 0.000000 0.000000 1.931000 1.944000 1.985000 2.028000 2.030000 2.028000 2.015000 2.020000 2.017000 2.015000 2.015000 2.015000 2.015000 2.015000 2.015000 2.000000 2.006000 2.015000 2.015000 2.009000 2.007000 2.000000 2.000000 2.000000 2.000000 2.000000 2.000000 2.000000 0.000000 0.000000 0.000000 0.000000 0.000000 0.000000 0.000000 
0.000000 0.000000 0.000000 0.000000 0.000000 1.939000 1.952000 1.992000 2.026000 2.022000 2.020000 2.015000 2.015000 2.015000 2.015000 2.015000 2.015000 2.015000 2.015000 2.015000 2.009000 2.011000 2.015000 2.015000 2.000000 2.000000 2.000000 2.000000 2.000000 2.000000 2.000000 2.000000 2.000000 0.000000 0.000000 0.000000 0.000000 0.000000 0.000000 0.000000 
0.000000 0.000000 0.000000 0.000000 0.000000 1.944000 1.968000 2.018000 2.017000 2.015000 2.003000 2.003000 2.003000 2.003000 2.014000 2.015000 2.011000 2.003000 2.012000 2.004000 2.003000 2.008000 2.008000 2.003000 2.000000 2.000000 2.000000 2.000000 2.000000 2.000000 1.998000 1.989000 0.000000 0.000000 0.000000 0.000000 0.000000 0.000000 0.000000 0.000000 
0.000000 0.000000 0.000000 0.000000 0.000000 0.000000 0.000000 0.000000 2.015000 2.015000 2.000000 2.000000 2.000000 2.000000 2.000000 2.000000 2.000000 2.000000 2.000000 2.000000 2.000000 2.006000 2.006000 2.000000 2.000000 2.000000 2.000000 2.000000 2.000000 2.000000 1.997000 1.986000 0.000000 0.000000 0.000000 0.000000 0.000000 0.000000 0.000000 0.000000 
0.000000 0.000000 0.000000 0.000000 0.000000 0.000000 0.000000 0.000000 2.000000 2.000000 2.000000 2.000000 2.000000 2.000000 2.000000 2.000000 2.000000 2.000000 2.000000 2.000000 2.000000 2.000000 2.000000 2.000000 2.000000 2.000000 1.999000 1.990000 1.986000 1.986000 1.986000 1.986000 0.000000 0.000000 0.000000 0.000000 0.000000 0.000000 0.000000 0.000000 
0.000000 0.000000 0.000000 0.000000 0.000000 0.000000 0.000000 2.650000 2.000000 2.000000 2.000000 2.000000 2.000000 2.000000 2.000000 2.000000 2.000000 2.000000 2.000000 2.000000 2.000000 2.000000 2.000000 2.000000 2.000000 2.000000 1.994000 1.986000 1.986000 1.986000 1.986000 1.986000 0.000000 0.000000 0.000000 0.000000 0.000000 0.000000 0.000000 0.000000 
0.000000 0.000000 0.000000 0.000000 0.000000 0.000000 0.000000 2.000000 2.000000 2.000000 2.000000 2.000000 2.000000 2.000000 2.000000 2.000000 2.000000 2.000000 2.000000 1.992000 1.991000 1.995000 2.000000 2.000000 2.000000 2.000000 1.994000 1.986000 1.986000 1.986000 1.986000 1.986000 0.000000 0.000000 0.000000 0.000000 0.000000 0.000000 0.000000 0.000000 
0.000000 0.000000 0.000000 0.000000 0.000000 0.000000 0.000000 2.000000 2.000000 2.000000 2.000000 2.000000 2.000000 2.000000 2.000000 2.000000 2.000000 2.000000 2.000000 1.986000 1.986000 1.987000 1.989000 1.989000 1.989000 1.989000 1.988000 1.986000 1.986000 1.986000 1.986000 1.986000 0.000000 0.000000 0.000000 0.000000 0.000000 0.000000 0.000000 0.000000 
0.000000 0.000000 0.000000 0.000000 0.000000 0.000000 0.000000 2.000000 2.000000 2.000000 2.000000 2.000000 2.000000 2.000000 2.000000 2.000000 1.995000 1.986000 1.997000 2.000000 1.997000 1.986000 1.986000 1.986000 1.986000 1.986000 1.986000 1.986000 1.986000 1.986000 1.986000 0.000000 0.000000 0.000000 0.000000 0.000000 0.000000 0.000000 0.000000 0.000000 
0.000000 0.000000 0.000000 0.000000 0.000000 0.000000 2.010000 2.000000 1.990000 1.986000 1.987000 1.997000 1.997000 1.999000 2.000000 1.998000 1.986000 1.986000 1.986000 1.986000 1.986000 1.986000 1.986000 1.986000 1.986000 1.986000 1.980000 1.972000 1.981000 1.972000 1.975000 0.000000 0.000000 0.000000 0.000000 0.000000 0.000000 0.000000 0.000000 0.000000 
0.000000 0.000000 0.000000 0.000000 0.000000 2.036000 2.010000 1.997000 1.988000 1.986000 1.986000 1.986000 1.986000 1.992000 1.994000 1.993000 1.986000 1.986000 1.986000 1.986000 1.986000 1.986000 1.986000 1.986000 1.986000 1.986000 1.980000 1.972000 1.972000 1.972000 1.974000 0.000000 0.000000 0.000000 0.000000 0.000000 0.000000 0.000000 0.000000 0.000000 
0.000000 0.000000 0.000000 0.000000 0.000000 2.027000 2.004000 1.993000 1.986000 1.986000 1.986000 1.986000 1.986000 1.986000 1.986000 1.986000 1.986000 1.986000 1.986000 1.977000 1.977000 1.981000 1.986000 1.986000 1.986000 1.986000 1.980000 1.972000 1.972000 1.972000 1.972000 0.000000 0.000000 0.000000 0.000000 0.000000 0.000000 0.000000 0.000000 0.000000 
0.000000 0.000000 0.000000 0.000000 0.000000 0.000000 2.000000 1.993000 1.986000 1.997000 1.996000 1.986000 1.986000 1.986000 1.986000 1.986000 1.986000 1.986000 1.986000 1.972000 1.972000 1.977000 1.986000 1.986000 1.986000 1.974000 1.973000 1.972000 1.972000 1.960000 1.949000 0.000000 0.000000 0.000000 0.000000 0.000000 0.000000 0.000000 0.000000 0.000000 
0.000000 0.000000 0.000000 0.000000 0.000000 0.000000 1.986000 1.993000 1.999000 2.000000 1.986000 1.986000 1.986000 1.975000 1.972000 1.972000 1.977000 1.986000 1.985000 1.972000 1.972000 1.977000 1.986000 1.975000 1.972000 1.972000 1.972000 1.972000 1.972000 1.958000 1.945000 0.000000 0.000000 0.000000 0.000000 0.000000 0.000000 0.000000 0.000000 0.000000 
0.000000 0.000000 0.000000 0.000000 0.000000 0.000000 1.986000 1.986000 1.986000 1.996000 1.986000 1.983000 1.977000 1.972000 1.972000 1.972000 1.976000 1.977000 1.969000 1.969000 1.969000 1.974000 1.983000 1.974000 1.972000 1.972000 1.972000 1.970000 1.969000 1.958000 1.958000 0.000000 0.000000 0.000000 0.000000 0.000000 0.000000 0.000000 0.000000 0.000000 
0.000000 0.000000 0.000000 0.000000 0.000000 1.999000 1.986000 1.986000 1.986000 1.986000 1.979000 1.970000 1.966000 1.970000 1.972000 1.972000 1.972000 1.968000 1.960000 1.958000 1.958000 1.963000 1.972000 1.972000 1.972000 1.972000 1.969000 1.961000 1.953000 1.952000 1.952000 0.000000 0.000000 0.000000 0.000000 0.000000 0.000000 0.000000 0.000000 0.000000 
0.000000 0.000000 0.000000 0.000000 0.000000 1.990000 1.983000 1.977000 1.977000 1.985000 1.972000 1.967000 1.958000 1.962000 1.972000 1.972000 1.972000 1.964000 1.958000 1.958000 1.958000 1.963000 1.972000 1.972000 1.972000 1.972000 1.966000 1.958000 1.947000 1.935000 1.935000 0.000000 0.000000 0.000000 0.000000 0.000000 0.000000 0.000000 0.000000 0.000000 
0.000000 0.000000 0.000000 0.000000 0.000000 1.974000 1.973000 1.972000 1.972000 1.974000 1.972000 1.971000 1.964000 1.958000 1.971000 1.970000 1.960000 1.959000 1.958000 1.958000 1.958000 1.963000 1.972000 1.972000 1.972000 1.970000 1.959000 1.958000 1.937000 1.895000 1.895000 0.000000 0.000000 0.000000 0.000000 0.000000 0.000000 0.000000 0.000000 0.000000 
0.000000 0.000000 0.000000 0.000000 0.000000 2.099000 1.972000 1.972000 1.972000 1.972000 1.973000 1.973000 1.972000 1.972000 1.972000 1.970000 1.959000 1.958000 1.959000 1.959000 1.961000 1.972000 1.971000 1.971000 1.971000 1.958000 1.958000 1.949000 1.933000 1.890000 1.890000 0.000000 0.000000 0.000000 0.000000 0.000000 0.000000 0.000000 0.000000 0.000000 
0.000000 0.000000 0.000000 0.000000 0.000000 0.000000 2.558000 2.565000 2.573000 2.022000 1.986000 1.986000 1.981000 1.976000 1.976000 1.972000 1.967000 1.958000 1.969000 1.972000 1.972000 1.972000 1.964000 1.955000 1.954000 1.954000 1.956000 1.949000 1.933000 1.901000 2.064000 0.000000 0.000000 0.000000 0.000000 0.000000 0.000000 0.000000 0.000000 0.000000 
0.000000 0.000000 0.000000 0.000000 0.000000 0.000000 0.000000 0.000000 0.000000 0.000000 0.000000 0.000000 0.000000 2.262000 1.986000 1.979000 1.976000 1.971000 1.977000 1.979000 1.979000 1.976000 1.964000 1.947000 1.944000 1.944000 1.947000 1.943000 1.931000 0.000000 0.000000 0.000000 0.000000 0.000000 0.000000 0.000000 0.000000 0.000000 0.000000 0.000000 
0.000000 0.000000 0.000000 0.000000 0.000000 0.000000 0.000000 0.000000 0.000000 0.000000 0.000000 0.000000 0.000000 0.000000 0.000000 0.000000 0.000000 0.000000 0.000000 0.000000 0.000000 0.000000 0.000000 0.000000 0.000000 0.000000 0.000000 0.000000 0.000000 0.000000 0.000000 0.000000 0.000000 0.000000 0.000000 0.000000 0.000000 0.000000 0.000000 0.000000 
0.000000 0.000000 0.000000 0.000000 0.000000 0.000000 0.000000 0.000000 0.000000 0.000000 0.000000 0.000000 0.000000 0.000000 0.000000 0.000000 0.000000 0.000000 0.000000 0.000000 0.000000 0.000000 0.000000 0.000000 0.000000 0.000000 0.000000 0.000000 0.000000 0.000000 0.000000 0.000000 0.000000 0.000000 0.000000 0.000000 0.000000 0.000000 0.000000 0.000000 
