40 40
0.000000 0.000000 0.000000 0.000000 0.000000 0.000000 0.000000 0.000000 0.000000 0.000000 0.000000 0.000000 0.000000 0.000000 0.000000 0.000000 0.000000 0.000000 0.000000 0.000000 0.000000 0.000000 0.000000 0.000000 0.000000 0.000000 0.000000 0.000000 0.000000 0.000000 0.000000 0.000000 0.000000 0.000000 0.000000 0.000000 0.000000 0.000000 0.000000 0.000000 
0.000000 0.000000 0.000000 0.000000 0.000000 0.000000 0.000000 0.000000 0.000000 0.000000 0.000000 0.000000 0.000000 0.000000 0.000000 0.000000 0.000000 0.000000 0.000000 0.000000 0.000000 0.000000 0.000000 0.000000 0.000000 0.000000 0.000000 0.000000 0.000000 0.000000 0.000000 0.000000 0.000000 0.000000 0.000000 0.000000 0.000000 0.000000 0.000000 0.000000 
0.000000 0.000000 0.000000 0.000000 0.000000 0.000000 0.000000 0.000000 0.000000 0.000000 0.000000 0.000000 0.000000 0.000000 0.000000 0.000000 0.000000 0.000000 0.000000 0.000000 0.000000 0.000000 0.000000 0.000000 0.000000 0.000000 0.000000 0.000000 0.000000 0.000000 0.000000 0.000000 0.000000 0.000000 0.000000 0.000000 0.000000 0.000000 0.000000 0.000000 
0.000000 0.000000 0.000000 0.000000 0.000000 0.000000 0.000000 0.000000 0.000000 0.000000 0.000000 0.000000 0.000000 0.000000 0.000000 0.000000 0.000000 0.000000 0.000000 0.000000 0.000000 0.000000 0.000000 0.000000 0.000000 0.000000 0.000000 0.000000 0.000000 0.000000 0.000000 0.000000 0.000000 0.000000 0.000000 0.000000 0.000000 0.000000 0.000000 0.000000 
0.000000 0.000000 0.000000 0.000000 0.000000 0.000000 0.000000 0.000000 0.000000 0.000000 0.000000 0.000000 0.000000 0.000000 0.000000 0.000000 0.000000 0.000000 0.000000 0.000000 0.000000 0.000000 0.000000 0.000000 0.000000 0.000000 0.000000 0.000000 0.000000 0.000000 0.000000 0.000000 0.000000 0.000000 0.000000 0.000000 0.000000 0.000000 0.000000 0.000000 
0.000000 0.000000 0.000000 0.000000 0.000000 0.000000 0.000000 0.000000 0.000000 0.000000 0.000000 0.000000 0.000000 0.000000 0.000000 0.000000 0.000000 0.000000 0.000000 0.000000 0.000000 0.000000 0.000000 0.000000 0.000000 0.000000 0.000000 0.000000 0.000000 0.000000 0.000000 0.000000 0.000000 0.000000 0.000000 0.000000 0.000000 0.000000 0.000000 0.000000 
0.000000 0.000000 0.000000 0.000000 0.000000 0.000000 0.000000 0.000000 0.000000 0.000000 0.000000 0.000000 0.000000 0.000000 0.000000 0.000000 0.000000 0.000000 0.000000 0.000000 0.000000 0.000000 0.000000 0.000000 0.000000 0.000000 0.000000 0.000000 0.000000 0.000000 0.000000 0.000000 0.000000 0.000000 0.000000 0.000000 0.000000 0.000000 0.000000 0.000000 
0.000000 0.000000 0.000000 0.000000 0.000000 0.000000 0.000000 0.000000 0.000000 0.000000 0.000000 0.000000 0.000000 0.000000 0.000000 0.000000 0.000000 0.000000 0.000000 0.000000 0.000000 0.000000 0.000000 0.000000 0.000000 0.000000 0.000000 0.000000 0.000000 0.000000 0.000000 0.000000 0.000000 0.000000 0.000000 0.000000 0.000000 0.000000 0.000000 0.000000 
0.000000 0.000000 2.023000 2.017000 2.014000 2.015000 2.017000 2.017000 2.017000 2.017000 2.014000 2.012000 2.002000 2.000000 2.000000 2.000000 2.000000 2.002000 2.397000 0.000000 2.024000 2.023000 2.027000 2.058000 1.972000 0.000000 0.000000 0.000000 0.000000 0.000000 2.901000 2.916000 2.896000 2.886000 0.000000 0.000000 0.000000 0.000000 0.000000 0.000000 
0.000000 0.000000 2.022000 2.011000 2.011000 2.012000 2.017000 2.011000 2.005000 2.010000 2.004000 2.001000 2.000000 1.994000 1.994000 1.994000 1.994000 1.994000 1.994000 1.994000 1.992000 1.989000 1.987000 1.980000 1.978000 1.987000 1.989000 1.985000 1.983000 1.981000 1.981000 1.983000 1.982000 1.979000 1.970000 1.976000 1.969000 1.962000 1.962000 0.000000 
0.000000 0.000000 2.035000 2.011000 2.011000 2.017000 2.017000 2.011000 2.005000 2.011000 2.001000 2.000000 2.000000 2.000000 1.998000 1.994000 1.996000 1.995000 1.994000 1.993000 1.989000 1.989000 1.983000 1.978000 1.978000 1.982000 1.983000 1.983000 1.980000 1.978000 1.978000 1.978000 1.978000 1.977000 1.969000 1.972000 1.969000 1.967000 1.962000 0.000000 
0.000000 1.178000 2.021000 2.017000 2.017000 2.017000 2.017000 2.011000 2.011000 2.011000 2.002000 2.001000 2.001000 2.001000 2.000000 2.000000 2.000000 1.998000 1.994000 1.994000 1.989000 1.989000 1.985000 1.983000 1.978000 1.982000 1.983000 1.983000 1.983000 1.980000 1.978000 1.978000 1.978000 1.978000 1.972000 1.972000 1.971000 1.972000 1.965000 0.000000 
0.000000 0.000000 2.021000 2.017000 2.017000 2.018000 2.018000 2.017000 2.017000 2.012000 2.005000 2.005000 2.005000 2.002000 2.000000 2.000000 2.000000 1.998000 1.994000 1.994000 1.989000 1.989000 1.989000 1.984000 1.984000 1.983000 1.983000 1.983000 1.983000 1.978000 1.978000 1.978000 1.978000 1.978000 1.973000 1.967000 1.967000 1.972000 1.967000 0.000000 
1.311000 1.299000 2.023000 2.017000 2.017000 2.018000 2.023000 2.018000 2.017000 2.012000 2.011000 2.007000 2.005000 2.003000 2.000000 2.000000 2.000000 2.000000 1.995000 1.994000 1.990000 1.990000 1.989000 1.989000 1.989000 1.989000 1.984000 1.989000 1.983000 1.979000 1.979000 1.981000 1.978000 1.978000 1.977000 1.972000 1.972000 1.972000 1.967000 0.000000 
1.303000 2.083000 2.027000 2.021000 2.017000 2.018000 2.023000 2.023000 2.017000 2.017000 2.017000 2.006000 2.005000 2.011000 2.000000 2.000000 2.000000 2.000000 1.994000 1.994000 1.994000 1.994000 1.994000 1.989000 1.989000 1.989000 1.989000 1.994000 1.983000 1.983000 1.983000 1.983000 1.983000 1.978000 1.977000 1.972000 1.967000 1.972000 1.968000 0.000000 
0.000000 2.083000 2.032000 2.023000 2.023000 2.023000 2.023000 2.023000 2.023000 2.018000 2.011000 2.005000 2.009000 2.011000 2.002000 2.000000 2.000000 2.000000 1.994000 1.994000 1.994000 1.994000 1.994000 1.994000 1.990000 1.989000 1.989000 1.983000 1.983000 1.983000 1.983000 1.983000 1.983000 1.982000 1.978000 1.978000 1.967000 1.972000 1.972000 0.000000 
1.305000 2.081000 2.036000 2.023000 2.022000 2.018000 2.023000 2.023000 2.023000 2.017000 2.012000 2.011000 2.011000 2.007000 2.005000 2.000000 2.000000 2.000000 2.000000 1.998000 1.994000 1.994000 1.994000 1.994000 1.990000 1.989000 1.989000 1.983000 1.983000 1.983000 1.978000 1.980000 1.983000 1.982000 1.978000 1.978000 1.972000 1.972000 1.967000 0.000000 
2.127000 2.084000 2.033000 2.023000 2.017000 2.018000 2.023000 2.023000 2.017000 2.017000 2.017000 2.011000 2.011000 2.007000 2.005000 2.000000 2.000000 2.000000 1.995000 1.994000 1.994000 1.994000 1.989000 1.994000 1.990000 1.989000 1.989000 1.989000 1.983000 1.978000 1.978000 1.983000 1.983000 1.978000 1.978000 1.978000 1.972000 1.972000 1.971000 0.000000 
2.129000 2.092000 2.030000 2.023000 2.023000 2.022000 2.023000 2.023000 2.017000 2.017000 2.017000 2.011000 2.016000 2.013000 2.008000 2.005000 2.005000 2.000000 1.999000 1.998000 1.994000 1.994000 1.994000 1.994000 1.990000 1.989000 1.989000 1.990000 1.985000 1.982000 1.983000 1.983000 1.979000 1.978000 1.979000 1.982000 1.978000 1.978000 1.972000 0.000000 
2.133000 2.065000 2.030000 2.023000 2.024000 2.027000 2.023000 2.023000 2.022000 2.021000 2.017000 2.015000 2.017000 2.014000 2.011000 2.006000 2.000000 2.002000 2.000000 2.000000 1.999000 1.994000 1.994000 1.994000 1.990000 1.992000 1.990000 1.989000 1.988000 1.985000 1.983000 1.983000 1.980000 1.978000 1.979000 1.979000 1.978000 1.974000 1.963000 0.000000 
2.117000 2.065000 2.032000 2.027000 2.024000 2.024000 2.023000 2.023000 2.023000 2.023000 2.017000 2.011000 2.017000 2.013000 2.011000 2.009000 2.000000 2.003000 2.000000 2.000000 2.000000 1.998000 1.994000 1.989000 1.989000 1.993000 1.994000 1.993000 1.992000 1.991000 1.986000 1.983000 1.983000 1.980000 1.978000 1.978000 1.978000 1.976000 1.963000 0.000000 
2.082000 2.062000 2.034000 2.027000 2.017000 2.018000 2.023000 2.023000 2.023000 2.023000 2.017000 2.011000 2.015000 2.013000 2.011000 2.011000 2.003000 2.004000 2.002000 2.000000 2.000000 2.000000 1.994000 1.992000 1.989000 1.998000 1.994000 1.994000 1.994000 1.992000 1.990000 1.985000 1.983000 1.982000 1.980000 1.978000 1.978000 1.978000 1.195000 0.000000 
0.000000 2.060000 2.038000 2.027000 2.020000 2.021000 2.023000 2.028000 2.023000 2.023000 2.017000 2.017000 2.011000 2.011000 2.012000 2.011000 2.005000 2.003000 2.000000 2.003000 2.002000 2.000000 2.000000 1.994000 1.994000 1.999000 1.996000 1.994000 1.994000 1.991000 1.989000 1.985000 1.983000 1.983000 1.983000 1.981000 1.980000 1.978000 0.000000 0.000000 
0.000000 2.047000 2.034000 2.028000 2.025000 2.026000 2.028000 2.028000 2.025000 2.023000 2.018000 2.017000 2.014000 2.014000 2.015000 2.012000 2.011000 2.003000 2.000000 2.000000 2.000000 2.000000 2.000000 1.994000 1.994000 1.999000 2.000000 1.997000 1.994000 1.991000 1.989000 1.985000 1.983000 1.983000 1.983000 1.983000 1.983000 1.978000 0.000000 0.000000 
2.069000 2.044000 2.036000 2.034000 2.030000 2.028000 2.028000 2.028000 2.023000 2.023000 2.023000 2.023000 2.017000 2.017000 2.017000 2.017000 2.015000 2.006000 2.003000 2.003000 2.000000 2.000000 2.000000 1.994000 1.994000 1.999000 2.000000 2.000000 1.994000 1.989000 1.995000 1.990000 1.985000 1.983000 1.983000 1.983000 1.983000 1.961000 0.000000 0.000000 
2.078000 2.044000 2.038000 2.034000 2.034000 2.034000 2.034000 2.028000 2.023000 2.023000 2.023000 2.023000 2.023000 2.017000 2.017000 2.017000 2.015000 2.011000 2.009000 2.000000 2.000000 2.000000 2.000000 1.996000 1.994000 1.999000 2.000000 2.000000 1.994000 1.994000 1.994000 1.993000 1.989000 1.987000 1.983000 1.983000 1.983000 1.962000 0.000000 0.000000 
2.080000 2.045000 2.038000 2.034000 2.034000 2.035000 2.034000 2.030000 2.023000 2.023000 2.023000 2.023000 2.017000 2.017000 2.017000 2.017000 2.015000 2.009000 2.005000 2.004000 2.000000 2.000000 2.000000 2.000000 1.995000 1.999000 2.000000 2.000000 2.000000 1.996000 1.994000 1.993000 1.992000 1.988000 1.984000 1.983000 1.983000 1.966000 0.000000 0.000000 
2.068000 2.047000 2.038000 2.035000 2.034000 2.034000 2.034000 2.034000 2.028000 2.023000 2.023000 2.023000 2.019000 2.017000 2.017000 2.017000 2.014000 2.009000 2.005000 2.005000 2.004000 2.001000 2.000000 2.000000 1.995000 1.999000 2.000000 1.999000 1.994000 1.994000 1.994000 1.989000 1.992000 1.989000 1.988000 1.984000 1.983000 1.969000 0.000000 0.000000 
1.969000 2.041000 2.036000 2.040000 2.034000 2.034000 2.034000 2.033000 2.028000 2.024000 2.023000 2.023000 2.023000 2.017000 2.017000 2.017000 2.012000 2.012000 2.011000 2.011000 2.009000 2.005000 2.000000 2.000000 2.000000 2.001000 2.000000 1.996000 1.994000 1.994000 1.994000 1.990000 1.989000 1.990000 1.992000 1.988000 1.983000 1.976000 1.921000 0.000000 
1.230000 2.038000 2.034000 2.034000 2.034000 2.034000 2.040000 2.028000 2.028000 2.028000 2.023000 2.023000 2.023000 2.023000 2.017000 2.017000 2.017000 2.017000 2.015000 2.010000 2.005000 2.000000 2.000000 2.000000 2.000000 2.004000 2.000000 1.996000 1.994000 1.994000 1.994000 1.994000 1.992000 1.990000 1.989000 1.983000 1.983000 1.968000 1.831000 0.000000 
1.313000 2.059000 2.038000 2.034000 2.034000 2.035000 2.040000 2.034000 2.028000 2.028000 2.024000 2.023000 2.023000 2.023000 2.017000 2.017000 2.017000 2.015000 2.011000 2.010000 2.004000 2.000000 2.000000 2.000000 2.000000 2.004000 2.001000 2.000000 2.000000 2.000000 2.000000 1.994000 1.994000 1.994000 1.993000 1.983000 1.983000 1.978000 0.000000 0.000000 
0.000000 0.000000 2.040000 0.000000 0.000000 0.000000 0.000000 2.034000 2.029000 2.033000 2.024000 2.023000 2.023000 2.017000 2.017000 2.017000 2.017000 2.004000 2.001000 2.000000 2.001000 2.005000 2.005000 2.000000 2.000000 2.004000 2.005000 2.000000 2.000000 2.000000 2.000000 2.000000 2.000000 1.994000 1.993000 1.989000 1.983000 1.983000 0.000000 0.000000 
0.000000 0.000000 0.000000 0.000000 0.000000 0.000000 0.000000 0.000000 0.000000 0.000000 0.000000 0.000000 0.000000 0.000000 0.000000 0.000000 0.000000 0.000000 0.000000 0.000000 0.000000 0.000000 0.000000 0.000000 0.000000 0.000000 0.000000 0.000000 0.000000 0.000000 0.000000 0.000000 0.000000 0.000000 0.000000 0.000000 0.000000 0.000000 0.000000 0.000000 
0.000000 0.000000 0.000000 0.000000 0.000000 0.000000 0.000000 0.000000 0.000000 0.000000 0.000000 0.000000 0.000000 0.000000 0.000000 0.000000 0.000000 0.000000 0.000000 0.000000 0.000000 0.000000 0.000000 0.000000 0.000000 0.000000 0.000000 0.000000 0.000000 0.000000 0.000000 0.000000 0.000000 0.000000 0.000000 0.000000 0.000000 0.000000 0.000000 0.000000 
0.000000 0.000000 0.000000 0.000000 0.000000 0.000000 0.000000 0.000000 0.000000 0.000000 0.000000 0.000000 0.000000 0.000000 0.000000 0.000000 0.000000 0.000000 0.000000 0.000000 0.000000 0.000000 0.000000 0.000000 0.000000 0.000000 0.000000 0.000000 0.000000 0.000000 0.000000 0.000000 0.000000 0.000000 0.000000 0.000000 0.000000 0.000000 0.000000 0.000000 
0.000000 0.000000 0.000000 0.000000 0.000000 0.000000 0.000000 0.000000 0.000000 0.000000 0.000000 0.000000 0.000000 0.000000 0.000000 0.000000 0.000000 0.000000 0.000000 0.000000 0.000000 0.000000 0.000000 0.000000 0.000000 0.000000 0.000000 0.000000 0.000000 0.000000 0.000000 0.000000 0.000000 0.000000 0.000000 0.000000 0.000000 0.000000 0.000000 0.000000 
0.000000 0.000000 0.000000 0.000000 0.000000 0.000000 0.000000 0.000000 0.000000 0.000000 0.000000 0.000000 0.000000 0.000000 0.000000 0.000000 0.000000 0.000000 0.000000 0.000000 0.000000 0.000000 0.000000 0.000000 0.000000 0.000000 0.000000 0.000000 0.000000 0.000000 0.000000 0.000000 0.000000 0.000000 0.000000 0.000000 0.000000 0.000000 0.000000 0.000000 
0.000000 0.000000 0.000000 0.000000 0.000000 0.000000 0.000000 0.000000 0.000000 0.000000 0.000000 0.000000 0.000000 0.000000 0.000000 0.000000 0.000000 0.000000 0.000000 0.000000 0.000000 0.000000 0.000000 0.000000 0.000000 0.000000 0.000000 0.000000 0.000000 0.000000 0.000000 0.000000 0.000000 0.000000 0.000000 0.000000 0.000000 0.000000 0.000000 0.000000 
0.000000 0.000000 0.000000 0.000000 0.000000 0.000000 0.000000 0.000000 0.000000 0.000000 0.000000 0.000000 0.000000 0.000000 0.000000 0.000000 0.000000 0.000000 0.000000 0.000000 0.000000 0.000000 0.000000 0.000000 0.000000 0.000000 0.000000 0.000000 0.000000 0.000000 0.000000 0.000000 0.000000 0.000000 0.000000 0.000000 0.000000 0.000000 0.000000 0.000000 
0.000000 0.000000 0.000000 0.000000 0.000000 0.000000 0.000000 0.000000 0.000000 0.000000 0.000000 0.000000 0.000000 0.000000 0.000000 0.000000 0.000000 0.000000 0.000000 0.000000 0.000000 0.000000 0.000000 0.000000 0.000000 0.000000 0.000000 0.000000 0.000000 0.000000 0.000000 0.000000 0.000000 0.000000 0.000000 0.000000 0.000000 0.000000 0.000000 0.000000 
