40 40
0.000000 0.000000 0.000000 0.000000 0.000000 0.000000 2.848000 0.000000 0.000000 0.000000 0.000000 2.873000 2.014000 2.016000 2.086000 0.000000 0.000000 0.000000 0.000000 0.000000 0.000000 0.000000 0.000000 0.000000 0.000000 0.000000 0.000000 0.000000 0.000000 0.000000 0.000000 0.000000 0.000000 0.000000 0.000000 0.000000 0.000000 0.000000 0.000000 0.000000 
0.000000 0.000000 0.000000 0.000000 0.000000 0.000000 2.821000 0.000000 0.000000 0.000000 2.216000 2.008000 2.007000 2.006000 2.002000 2.000000 2.007000 2.471000 2.771000 0.000000 2.457000 0.000000 0.000000 0.000000 0.000000 0.000000 0.000000 0.000000 0.000000 0.000000 0.000000 0.000000 0.000000 0.000000 0.000000 0.000000 0.000000 0.000000 0.000000 0.000000 
0.000000 0.000000 0.000000 0.000000 0.000000 0.000000 2.776000 2.905000 0.000000 0.000000 2.008000 2.008000 2.006000 2.003000 2.006000 2.002000 2.000000 1.999000 1.996000 1.994000 1.989000 1.984000 1.986000 1.988000 1.971000 1.984000 1.985000 1.981000 1.985000 2.579000 1.987000 1.988000 0.000000 1.019000 0.000000 0.000000 0.000000 0.000000 0.000000 0.000000 
0.000000 0.000000 0.000000 0.000000 0.000000 0.000000 2.771000 2.899000 0.000000 0.000000 2.011000 2.008000 2.006000 2.005000 2.006000 2.002000 2.000000 1.997000 1.996000 1.992000 1.990000 1.986000 1.986000 1.983000 1.983000 1.983000 1.980000 1.975000 1.977000 1.978000 1.974000 1.973000 1.970000 1.965000 0.000000 0.000000 0.000000 0.000000 0.000000 0.000000 
0.000000 0.000000 0.000000 0.000000 0.000000 0.000000 2.927000 2.934000 0.000000 2.240000 2.011000 2.007000 2.006000 2.006000 2.006000 2.003000 2.000000 1.997000 1.996000 1.993000 1.992000 1.988000 1.986000 1.983000 1.983000 1.982000 1.980000 1.975000 1.977000 1.975000 1.972000 1.970000 1.967000 1.967000 0.000000 0.000000 0.000000 0.000000 0.000000 0.000000 
0.000000 0.000000 0.000000 0.000000 0.000000 0.000000 0.000000 0.000000 0.000000 1.019000 2.013000 2.009000 2.006000 2.006000 2.006000 2.005000 2.003000 1.998000 1.998000 1.994000 1.992000 1.989000 1.988000 1.983000 1.983000 1.983000 1.980000 1.975000 1.976000 1.977000 1.975000 1.973000 1.968000 1.966000 0.000000 0.000000 0.000000 0.000000 0.000000 0.000000 
0.000000 0.000000 0.000000 0.000000 0.000000 0.000000 2.900000 2.125000 1.019000 1.019000 2.012000 2.008000 2.006000 2.006000 2.006000 2.006000 2.004000 2.000000 1.997000 1.994000 1.994000 1.990000 1.986000 1.986000 1.983000 1.981000 1.979000 1.976000 1.977000 1.975000 1.975000 1.970000 1.970000 1.967000 0.000000 0.000000 0.000000 0.000000 0.000000 0.000000 
0.000000 0.000000 0.000000 0.000000 0.000000 0.000000 2.885000 2.671000 1.019000 1.019000 2.011000 2.008000 2.006000 2.006000 2.006000 2.006000 2.006000 2.000000 1.997000 1.994000 1.994000 1.992000 1.989000 1.986000 1.986000 1.983000 1.981000 1.975000 1.977000 1.977000 1.975000 1.970000 1.970000 1.967000 0.000000 0.000000 0.000000 0.000000 0.000000 0.000000 
0.000000 0.000000 0.000000 0.000000 0.000000 0.000000 2.699000 2.503000 1.019000 1.019000 2.011000 2.008000 2.006000 2.007000 2.006000 2.006000 2.003000 1.999000 1.997000 1.994000 1.994000 1.992000 1.989000 1.986000 1.986000 1.983000 1.981000 1.975000 1.978000 1.975000 1.975000 1.972000 1.973000 1.972000 0.000000 0.000000 0.000000 0.000000 0.000000 0.000000 
0.000000 0.000000 0.000000 0.000000 0.000000 2.711000 2.626000 2.619000 1.019000 1.822000 2.011000 2.008000 2.007000 2.008000 2.006000 2.006000 2.003000 1.999000 1.997000 1.997000 1.994000 1.992000 1.989000 1.986000 1.985000 1.983000 1.982000 1.975000 1.977000 1.977000 1.975000 1.975000 1.974000 1.971000 0.000000 0.000000 0.000000 0.000000 0.000000 0.000000 
0.000000 0.000000 0.000000 0.000000 0.000000 0.000000 2.602000 2.602000 1.019000 1.817000 2.011000 2.008000 2.006000 2.007000 2.007000 2.005000 2.003000 2.001000 1.997000 1.997000 1.994000 1.993000 1.991000 1.986000 1.986000 1.983000 1.982000 1.978000 1.980000 1.978000 1.975000 1.973000 1.970000 1.973000 0.000000 0.000000 0.000000 0.000000 0.000000 0.000000 
0.000000 0.000000 0.000000 0.000000 0.000000 2.581000 2.583000 2.591000 1.019000 1.815000 2.012000 2.007000 2.006000 2.007000 2.008000 2.005000 2.003000 2.001000 1.997000 1.997000 1.994000 1.992000 1.989000 1.986000 1.986000 1.983000 1.982000 1.981000 1.980000 1.978000 1.975000 1.973000 1.972000 1.975000 0.000000 0.000000 0.000000 0.000000 0.000000 0.000000 
0.000000 0.000000 0.000000 0.000000 0.000000 2.567000 2.571000 2.571000 1.019000 1.819000 2.012000 2.009000 2.006000 2.008000 2.008000 2.006000 2.006000 2.001000 1.997000 1.997000 1.994000 1.994000 1.992000 1.989000 1.986000 1.985000 1.983000 1.981000 1.980000 1.978000 1.975000 1.975000 1.973000 1.330000 0.000000 0.000000 0.000000 0.000000 0.000000 0.000000 
0.000000 0.000000 0.000000 0.000000 0.000000 2.636000 2.548000 2.546000 1.019000 1.820000 2.012000 2.008000 2.006000 2.007000 2.008000 2.006000 2.006000 2.000000 2.000000 1.997000 1.994000 1.994000 1.992000 1.989000 1.987000 1.984000 1.983000 1.981000 1.980000 1.978000 1.975000 1.975000 1.975000 1.019000 0.000000 0.000000 0.000000 0.000000 0.000000 0.000000 
0.000000 0.000000 0.000000 0.000000 0.000000 0.000000 2.527000 2.530000 1.221000 1.848000 2.012000 2.008000 2.008000 2.008000 2.008000 2.006000 2.006000 2.003000 2.000000 1.997000 1.997000 1.994000 1.992000 1.992000 1.989000 1.986000 1.983000 1.981000 1.981000 1.978000 1.975000 1.975000 1.974000 1.019000 0.000000 0.000000 0.000000 0.000000 0.000000 0.000000 
0.000000 0.000000 0.000000 0.000000 0.000000 0.000000 2.505000 2.509000 1.192000 2.014000 2.014000 2.008000 2.008000 2.008000 2.008000 2.006000 2.006000 2.004000 2.000000 1.997000 1.997000 1.994000 1.993000 1.992000 1.990000 1.986000 1.983000 1.983000 1.979000 1.978000 1.978000 1.975000 1.974000 1.019000 0.000000 0.000000 0.000000 0.000000 0.000000 0.000000 
0.000000 0.000000 0.000000 0.000000 0.000000 0.000000 2.492000 2.494000 1.088000 2.017000 2.013000 2.011000 2.011000 2.008000 2.008000 2.008000 2.006000 2.001000 2.000000 1.997000 1.995000 1.994000 1.993000 1.992000 1.989000 1.986000 1.984000 1.983000 1.979000 1.978000 1.978000 1.978000 1.977000 1.019000 0.000000 0.000000 0.000000 0.000000 0.000000 0.000000 
0.000000 0.000000 0.000000 0.000000 0.000000 0.000000 2.475000 2.467000 1.547000 2.014000 2.013000 2.010000 2.006000 2.008000 2.006000 2.007000 2.006000 2.002000 1.999000 1.998000 1.995000 1.994000 1.993000 1.992000 1.987000 1.986000 1.986000 1.983000 1.979000 1.979000 1.978000 1.978000 1.978000 1.019000 0.000000 0.000000 0.000000 0.000000 0.000000 0.000000 
0.000000 0.000000 0.000000 0.000000 0.000000 0.000000 2.452000 2.446000 2.353000 2.017000 2.014000 2.010000 2.006000 2.008000 2.008000 2.006000 2.006000 2.003000 2.002000 2.000000 1.997000 1.995000 1.994000 1.992000 1.989000 1.986000 1.986000 1.983000 1.979000 1.981000 1.978000 1.978000 1.976000 1.019000 0.000000 0.000000 0.000000 0.000000 0.000000 0.000000 
0.000000 0.000000 0.000000 0.000000 0.000000 0.000000 2.435000 2.431000 2.391000 2.014000 2.014000 2.011000 2.008000 2.008000 2.008000 2.006000 2.006000 2.003000 2.003000 2.000000 1.997000 1.997000 1.994000 1.992000 1.989000 1.986000 1.985000 1.983000 1.982000 1.980000 1.978000 1.978000 1.977000 1.019000 0.000000 0.000000 0.000000 0.000000 0.000000 0.000000 
0.000000 0.000000 0.000000 0.000000 0.000000 0.000000 2.426000 2.422000 1.088000 2.017000 2.013000 2.011000 2.011000 2.010000 2.008000 2.006000 2.006000 2.003000 2.000000 1.998000 1.997000 1.997000 1.994000 1.992000 1.989000 1.987000 1.986000 1.983000 1.982000 1.981000 1.978000 1.978000 1.978000 1.019000 0.000000 0.000000 0.000000 0.000000 0.000000 0.000000 
0.000000 0.000000 0.000000 0.000000 0.000000 0.000000 2.403000 2.404000 2.014000 2.017000 2.012000 2.011000 2.011000 2.010000 2.008000 2.008000 2.003000 2.003000 2.000000 1.998000 1.998000 1.994000 1.994000 1.992000 1.989000 1.987000 1.985000 1.983000 1.984000 1.982000 1.978000 1.975000 1.975000 1.019000 0.000000 0.000000 0.000000 0.000000 0.000000 0.000000 
0.000000 0.000000 0.000000 0.000000 0.000000 0.000000 2.384000 2.011000 2.011000 2.013000 2.012000 2.011000 2.011000 2.010000 2.008000 2.008000 2.006000 2.004000 2.003000 2.003000 1.997000 1.997000 1.994000 1.994000 1.992000 1.989000 1.986000 1.983000 1.983000 1.982000 1.981000 1.978000 1.322000 1.019000 0.000000 0.000000 0.000000 0.000000 0.000000 0.000000 
0.000000 0.000000 0.000000 0.000000 0.000000 0.000000 2.379000 2.376000 2.014000 2.017000 2.012000 2.011000 2.008000 2.008000 2.010000 2.008000 2.006000 2.004000 2.003000 2.001000 1.997000 1.995000 1.994000 1.992000 1.990000 1.986000 1.986000 1.982000 1.983000 1.983000 1.978000 1.978000 1.323000 1.019000 0.000000 0.000000 0.000000 0.000000 0.000000 0.000000 
0.000000 0.000000 0.000000 0.000000 0.000000 0.000000 2.360000 2.360000 2.020000 2.017000 2.015000 2.011000 2.011000 2.008000 2.008000 2.008000 2.006000 2.004000 2.002000 2.000000 1.997000 1.995000 1.994000 1.992000 1.989000 1.986000 1.985000 1.985000 1.984000 1.985000 1.981000 1.978000 1.019000 1.019000 0.000000 0.000000 0.000000 0.000000 0.000000 0.000000 
0.000000 0.000000 0.000000 0.000000 0.000000 2.456000 2.347000 2.352000 2.022000 2.017000 2.015000 2.013000 2.008000 2.010000 2.008000 2.008000 2.006000 2.006000 2.003000 2.000000 1.997000 1.995000 1.994000 1.992000 1.989000 1.986000 1.984000 1.984000 1.985000 1.986000 1.980000 1.979000 1.019000 1.019000 0.000000 0.000000 0.000000 0.000000 0.000000 0.000000 
0.000000 0.000000 0.000000 0.000000 0.000000 0.000000 2.333000 2.321000 2.017000 2.018000 2.014000 2.013000 2.011000 2.008000 2.008000 2.006000 2.006000 2.006000 2.003000 2.003000 1.997000 1.995000 1.994000 1.992000 1.989000 1.989000 1.986000 1.986000 1.985000 1.986000 1.982000 1.981000 1.019000 1.019000 0.000000 0.000000 0.000000 0.000000 0.000000 0.000000 
0.000000 0.000000 0.000000 0.000000 0.000000 0.000000 2.314000 2.318000 2.020000 2.017000 2.014000 2.014000 2.011000 2.013000 2.009000 2.008000 2.006000 2.006000 2.004000 2.000000 1.997000 1.994000 1.994000 1.994000 1.994000 1.990000 1.989000 1.986000 1.987000 1.986000 1.983000 1.982000 1.019000 1.019000 0.000000 0.000000 0.000000 0.000000 0.000000 0.000000 
0.000000 0.000000 0.000000 0.000000 0.000000 2.415000 2.298000 2.301000 2.019000 2.017000 2.014000 2.014000 2.012000 2.012000 2.009000 2.008000 2.007000 2.006000 2.006000 2.003000 1.997000 1.996000 1.994000 1.994000 1.994000 1.990000 1.986000 1.984000 1.987000 1.986000 1.983000 1.983000 1.019000 1.019000 0.000000 0.000000 0.000000 0.000000 0.000000 0.000000 
0.000000 0.000000 0.000000 0.000000 0.000000 0.000000 2.286000 2.283000 2.022000 2.018000 2.017000 2.014000 2.014000 2.012000 2.008000 2.008000 2.008000 2.006000 2.005000 2.003000 2.003000 1.997000 1.994000 1.994000 1.992000 1.989000 1.986000 1.983000 1.986000 1.986000 1.986000 1.983000 1.019000 1.434000 0.000000 0.000000 0.000000 0.000000 0.000000 0.000000 
0.000000 0.000000 0.000000 0.000000 0.000000 0.000000 2.276000 2.276000 2.017000 2.018000 2.015000 2.014000 2.014000 2.014000 2.008000 2.008000 2.008000 2.008000 2.006000 2.003000 1.998000 1.997000 1.996000 1.994000 1.994000 1.988000 1.985000 1.983000 1.986000 1.986000 1.983000 1.981000 1.019000 0.000000 0.000000 0.000000 0.000000 0.000000 0.000000 0.000000 
0.000000 0.000000 0.000000 0.000000 0.000000 2.396000 2.265000 2.267000 2.019000 2.020000 2.017000 2.016000 2.014000 2.014000 2.011000 2.008000 2.008000 2.006000 2.004000 2.006000 1.998000 1.997000 1.996000 1.994000 1.994000 1.987000 1.987000 1.986000 1.988000 1.986000 1.985000 1.987000 1.019000 2.073000 0.000000 0.000000 0.000000 0.000000 0.000000 0.000000 
0.000000 0.000000 0.000000 0.000000 0.000000 2.254000 2.249000 2.246000 2.021000 2.018000 2.017000 2.017000 2.014000 2.016000 2.010000 2.008000 2.008000 2.006000 2.004000 2.001000 2.000000 1.998000 1.997000 1.997000 1.994000 1.994000 1.991000 1.988000 1.989000 1.986000 1.986000 1.989000 1.019000 1.019000 0.000000 0.000000 0.000000 0.000000 0.000000 0.000000 
0.000000 0.000000 0.000000 0.000000 0.000000 2.246000 2.242000 2.235000 2.026000 2.020000 2.020000 2.019000 2.014000 2.016000 2.010000 2.006000 2.008000 2.007000 2.006000 2.003000 1.997000 2.000000 1.997000 1.997000 1.994000 1.994000 1.994000 1.994000 1.990000 1.988000 1.986000 1.989000 1.019000 0.000000 0.000000 0.000000 0.000000 0.000000 0.000000 0.000000 
0.000000 0.000000 0.000000 0.000000 0.000000 2.229000 2.227000 2.225000 2.023000 2.018000 2.018000 2.017000 2.014000 2.012000 2.012000 2.008000 2.008000 2.006000 2.006000 2.005000 2.000000 2.000000 1.996000 1.994000 1.994000 1.994000 1.993000 1.990000 1.990000 1.988000 1.986000 1.990000 1.019000 0.000000 0.000000 0.000000 0.000000 0.000000 0.000000 0.000000 
0.000000 0.000000 0.000000 0.000000 0.000000 2.221000 2.212000 2.212000 2.082000 1.464000 1.464000 2.017000 2.017000 2.014000 2.014000 2.011000 2.008000 2.008000 2.006000 2.002000 2.000000 2.001000 1.997000 1.994000 1.992000 1.992000 1.990000 1.987000 1.989000 1.989000 1.986000 1.989000 1.019000 1.019000 0.000000 0.000000 0.000000 0.000000 0.000000 0.000000 
0.000000 0.000000 0.000000 0.000000 0.000000 2.315000 2.200000 2.204000 1.291000 1.019000 1.019000 1.019000 1.019000 1.726000 1.729000 1.783000 2.013000 2.010000 2.006000 2.003000 2.000000 2.002000 1.997000 1.995000 1.994000 1.993000 1.989000 1.986000 1.989000 1.986000 1.986000 1.988000 1.019000 1.819000 0.000000 0.000000 0.000000 0.000000 0.000000 0.000000 
0.000000 0.000000 0.000000 0.000000 0.000000 2.200000 2.196000 2.139000 2.029000 1.220000 1.019000 1.019000 1.019000 1.019000 1.019000 1.024000 2.032000 2.026000 2.091000 2.005000 2.000000 1.997000 2.001000 1.997000 1.995000 1.994000 1.989000 1.989000 1.989000 1.986000 1.986000 1.994000 0.000000 0.000000 0.000000 0.000000 0.000000 0.000000 0.000000 0.000000 
0.000000 0.000000 0.000000 0.000000 0.000000 2.184000 2.071000 2.029000 2.032000 2.035000 1.019000 1.870000 2.053000 1.019000 1.019000 1.843000 2.032000 2.081000 2.092000 2.104000 2.104000 2.103000 2.014000 2.002000 1.396000 1.256000 0.000000 0.000000 1.987000 1.986000 2.246000 0.000000 0.000000 0.000000 0.000000 0.000000 0.000000 0.000000 0.000000 0.000000 
0.000000 0.000000 0.000000 0.000000 0.000000 2.038000 2.033000 2.024000 2.023000 2.030000 2.034000 2.044000 2.049000 1.662000 2.076000 2.050000 2.032000 2.061000 2.082000 2.089000 2.087000 2.046000 2.017000 1.019000 1.019000 1.019000 2.303000 0.000000 0.000000 0.000000 0.000000 0.000000 0.000000 0.000000 0.000000 0.000000 0.000000 0.000000 0.000000 0.000000 
