40 40
0.000000 0.000000 0.000000 0.000000 0.000000 0.000000 0.000000 0.000000 0.000000 0.000000 0.000000 0.000000 0.000000 0.000000 0.000000 0.000000 0.000000 0.000000 0.000000 0.000000 0.000000 0.000000 0.000000 0.000000 0.000000 0.000000 0.000000 0.000000 0.000000 0.000000 0.000000 0.000000 0.000000 0.000000 0.000000 0.000000 0.000000 0.000000 0.000000 0.000000 
0.000000 0.000000 0.000000 0.000000 0.000000 0.000000 0.000000 0.000000 0.000000 0.000000 0.000000 0.000000 0.000000 0.000000 0.000000 0.000000 0.000000 0.000000 0.000000 0.000000 0.000000 0.000000 0.000000 0.000000 0.000000 0.000000 0.000000 0.000000 0.000000 0.000000 0.000000 0.000000 0.000000 0.000000 0.000000 0.000000 0.000000 0.000000 0.000000 0.000000 
0.000000 0.000000 0.000000 0.000000 0.000000 0.000000 0.000000 0.000000 0.000000 0.000000 0.000000 0.000000 0.000000 0.000000 0.000000 0.000000 0.000000 0.000000 0.000000 0.000000 0.000000 0.000000 0.000000 0.000000 0.000000 0.000000 0.000000 0.000000 0.000000 0.000000 0.000000 0.000000 0.000000 0.000000 0.000000 0.000000 0.000000 0.000000 0.000000 0.000000 
0.000000 0.000000 0.000000 0.000000 0.000000 0.000000 0.000000 0.000000 0.000000 0.000000 0.000000 0.000000 0.000000 0.000000 0.000000 0.000000 0.000000 0.000000 0.000000 0.000000 0.000000 0.000000 0.000000 0.000000 0.000000 0.000000 0.000000 0.000000 0.000000 0.000000 0.000000 0.000000 0.000000 0.000000 0.000000 0.000000 0.000000 0.000000 0.000000 0.000000 
1.979000 1.997000 1.270000 1.270000 1.270000 1.270000 1.270000 1.283000 1.997000 1.998000 1.998000 2.001000 2.001000 2.001000 2.003000 2.004000 2.006000 2.009000 2.011000 1.520000 0.000000 0.000000 0.000000 0.000000 0.000000 0.000000 0.000000 0.000000 0.000000 0.000000 0.000000 0.000000 0.000000 0.000000 0.000000 0.000000 0.000000 0.000000 0.000000 0.000000 
1.992000 2.006000 2.007000 1.278000 1.270000 1.270000 1.270000 1.997000 1.997000 1.997000 1.998000 2.000000 2.001000 2.001000 2.003000 2.003000 2.004000 2.008000 2.008000 2.011000 2.012000 2.012000 0.000000 0.000000 0.000000 0.000000 0.000000 0.000000 0.000000 0.000000 0.000000 0.000000 0.000000 0.000000 0.000000 0.000000 0.000000 0.000000 0.000000 0.000000 
2.013000 2.029000 2.008000 2.006000 1.758000 1.270000 1.270000 1.992000 1.997000 1.997000 1.998000 2.000000 2.000000 2.001000 2.003000 2.003000 2.004000 2.006000 2.008000 2.011000 2.011000 2.011000 2.012000 2.011000 0.000000 0.000000 0.000000 0.000000 0.000000 0.000000 0.000000 0.000000 0.000000 0.000000 0.000000 0.000000 0.000000 0.000000 0.000000 0.000000 
2.049000 2.064000 2.073000 1.742000 1.270000 1.270000 1.994000 1.993000 1.994000 1.997000 1.997000 1.998000 1.998000 1.999000 2.002000 2.003000 2.004000 2.006000 2.008000 2.010000 2.009000 2.011000 2.012000 2.011000 2.012000 2.014000 0.000000 0.000000 0.000000 0.000000 0.000000 0.000000 0.000000 0.000000 0.000000 0.000000 0.000000 0.000000 0.000000 0.000000 
2.041000 2.068000 2.044000 1.270000 1.270000 1.287000 1.992000 1.992000 1.993000 1.994000 1.997000 1.997000 1.998000 1.998000 2.002000 2.002000 2.003000 2.004000 2.006000 2.009000 2.009000 2.011000 2.011000 2.012000 2.014000 2.016000 2.019000 2.019000 0.000000 0.000000 0.000000 0.000000 0.000000 0.000000 0.000000 0.000000 0.000000 0.000000 0.000000 0.000000 
2.051000 2.083000 1.529000 1.270000 1.270000 1.990000 1.990000 1.990000 1.992000 1.993000 1.996000 1.997000 1.998000 1.998000 2.000000 2.001000 2.003000 2.003000 2.005000 2.008000 2.009000 2.011000 2.011000 2.011000 2.012000 2.014000 2.015000 2.017000 2.019000 2.612000 0.000000 0.000000 0.000000 0.000000 0.000000 0.000000 0.000000 0.000000 0.000000 0.000000 
2.077000 2.081000 1.270000 1.270000 1.294000 1.990000 1.989000 1.990000 1.992000 1.992000 1.993000 1.997000 1.997000 1.998000 1.998000 1.999000 2.002000 2.004000 2.006000 2.006000 2.006000 2.008000 2.011000 2.011000 2.012000 2.013000 2.016000 2.015000 2.016000 2.017000 2.019000 2.019000 0.000000 0.000000 0.000000 0.000000 0.000000 0.000000 0.000000 0.000000 
1.998000 1.270000 1.270000 1.270000 1.986000 1.988000 1.989000 1.990000 1.990000 1.992000 1.993000 1.993000 1.997000 1.997000 1.998000 2.000000 2.000000 2.004000 2.004000 2.006000 2.006000 2.004000 2.011000 2.011000 2.011000 2.012000 2.014000 2.016000 2.017000 2.019000 2.019000 2.019000 2.019000 2.022000 0.000000 0.000000 0.000000 0.000000 0.000000 0.000000 
1.469000 1.998000 1.999000 1.458000 1.986000 1.986000 1.987000 1.989000 1.990000 1.990000 1.992000 1.993000 1.995000 1.996000 1.998000 1.998000 2.000000 2.003000 2.004000 2.004000 2.006000 2.006000 2.009000 2.011000 2.011000 2.011000 2.014000 2.012000 2.017000 2.017000 2.018000 2.019000 2.019000 2.022000 2.022000 2.024000 0.000000 0.000000 0.000000 0.000000 
1.270000 1.270000 2.005000 1.997000 1.985000 1.984000 1.986000 1.988000 1.987000 1.990000 1.992000 1.992000 1.994000 1.995000 1.997000 1.997000 2.000000 2.001000 2.004000 2.004000 2.004000 2.006000 2.006000 2.009000 2.011000 2.011000 2.012000 2.012000 2.016000 2.015000 2.017000 2.017000 2.019000 2.019000 2.021000 2.024000 2.024000 2.023000 0.000000 0.000000 
1.270000 1.270000 1.307000 1.983000 1.984000 1.984000 1.986000 1.986000 1.989000 1.990000 1.990000 1.992000 1.992000 1.995000 1.997000 1.997000 2.000000 2.000000 2.003000 2.003000 2.004000 2.006000 2.006000 2.008000 2.009000 2.011000 2.011000 2.012000 2.014000 2.014000 2.017000 2.017000 2.019000 2.019000 2.020000 2.020000 2.022000 2.025000 2.025000 2.025000 
1.270000 1.270000 1.981000 1.983000 1.984000 1.984000 1.986000 1.986000 1.986000 1.988000 1.990000 1.992000 1.992000 1.995000 1.993000 1.997000 2.000000 2.000000 2.002000 2.003000 2.004000 2.004000 2.006000 2.008000 2.009000 2.011000 2.011000 2.012000 2.012000 2.012000 2.014000 2.017000 2.017000 2.019000 2.019000 2.020000 2.022000 2.024000 2.025000 2.026000 
1.270000 1.576000 1.980000 1.981000 1.983000 1.984000 1.986000 1.986000 1.986000 1.986000 1.990000 1.990000 1.992000 1.992000 1.993000 1.997000 1.998000 2.000000 2.000000 2.003000 2.004000 2.003000 2.004000 2.006000 2.008000 2.009000 2.009000 2.011000 2.011000 2.011000 2.013000 2.014000 2.017000 2.017000 2.019000 2.019000 2.023000 2.024000 2.023000 2.024000 
1.270000 1.978000 1.979000 1.980000 1.983000 1.983000 1.984000 1.986000 1.986000 1.988000 1.990000 1.990000 1.992000 1.992000 1.993000 1.997000 1.998000 1.998000 2.000000 2.000000 2.003000 2.004000 2.004000 2.006000 2.006000 2.006000 2.009000 2.011000 2.011000 2.012000 2.014000 2.016000 2.016000 2.017000 2.018000 2.019000 2.020000 2.021000 2.022000 2.033000 
1.509000 1.980000 1.980000 1.980000 1.983000 1.984000 1.984000 1.984000 1.984000 1.986000 1.989000 1.990000 1.991000 1.992000 1.992000 1.993000 1.997000 1.997000 1.999000 2.000000 2.001000 2.003000 2.004000 2.004000 2.005000 2.007000 2.008000 2.010000 2.011000 2.012000 2.012000 2.014000 2.014000 2.017000 2.017000 2.019000 2.019000 2.020000 2.022000 2.028000 
1.978000 1.978000 1.978000 1.979000 1.980000 1.981000 1.984000 1.983000 1.984000 1.986000 1.987000 1.990000 1.990000 1.992000 1.992000 1.993000 1.997000 1.997000 1.998000 2.000000 2.000000 2.001000 2.003000 2.004000 2.004000 2.006000 2.008000 2.009000 2.009000 2.011000 2.011000 2.013000 2.012000 2.015000 2.017000 2.019000 2.019000 2.021000 2.024000 1.270000 
1.977000 1.977000 1.978000 1.979000 1.980000 1.980000 1.982000 1.983000 1.984000 1.985000 1.987000 1.989000 1.990000 1.990000 1.992000 1.993000 1.997000 1.997000 1.998000 2.000000 2.000000 2.000000 2.003000 2.003000 2.003000 2.004000 2.008000 2.008000 2.009000 2.011000 2.011000 2.011000 2.012000 2.015000 2.016000 2.017000 2.020000 2.021000 2.025000 1.270000 
1.270000 1.416000 1.977000 1.978000 1.978000 1.980000 1.981000 1.983000 1.984000 1.985000 1.986000 1.987000 1.989000 1.990000 1.990000 1.992000 1.994000 1.997000 1.998000 1.998000 2.000000 2.000000 2.002000 2.003000 2.004000 2.006000 2.006000 2.006000 2.008000 2.011000 2.011000 2.011000 2.012000 2.012000 2.015000 2.017000 2.018000 2.019000 1.270000 1.270000 
1.270000 1.270000 1.270000 1.270000 1.980000 1.979000 1.981000 1.981000 1.984000 1.984000 1.986000 1.989000 1.988000 1.990000 1.990000 1.991000 1.993000 1.995000 1.997000 1.998000 2.000000 2.000000 2.000000 2.001000 2.003000 2.004000 2.005000 2.006000 2.008000 2.009000 2.011000 2.011000 2.012000 2.012000 2.014000 2.014000 2.017000 2.018000 1.309000 2.163000 
1.731000 1.740000 1.270000 1.270000 1.270000 1.270000 1.980000 1.981000 1.984000 1.985000 1.986000 1.987000 1.987000 1.989000 1.990000 1.990000 1.993000 1.995000 1.997000 1.998000 1.998000 2.000000 2.000000 2.000000 2.002000 2.004000 2.004000 2.006000 2.008000 2.009000 2.010000 2.011000 2.011000 2.012000 2.014000 2.016000 2.017000 1.812000 1.270000 0.000000 
0.000000 0.000000 0.000000 1.270000 1.270000 1.270000 1.545000 1.957000 1.984000 1.984000 1.984000 1.986000 1.987000 1.989000 1.990000 1.991000 1.993000 1.993000 1.995000 1.997000 1.997000 1.999000 2.000000 2.000000 2.001000 2.003000 2.003000 2.004000 2.006000 2.008000 2.008000 2.009000 2.011000 2.011000 2.012000 2.012000 2.014000 1.270000 1.270000 0.000000 
0.000000 0.000000 0.000000 0.000000 2.905000 1.754000 1.270000 1.270000 1.270000 1.417000 1.986000 1.987000 1.987000 1.987000 1.989000 1.990000 1.992000 1.992000 1.994000 1.995000 1.998000 1.998000 1.998000 1.999000 2.000000 2.001000 2.001000 2.004000 2.006000 2.006000 2.008000 2.009000 2.010000 2.011000 2.012000 2.013000 1.793000 1.270000 0.000000 0.000000 
0.000000 0.000000 0.000000 0.000000 0.000000 0.000000 0.000000 1.270000 1.270000 1.270000 1.270000 1.730000 1.525000 1.989000 1.989000 1.989000 1.992000 1.992000 1.993000 1.993000 1.995000 1.996000 1.998000 1.998000 2.000000 2.000000 2.003000 2.003000 2.004000 2.006000 2.006000 2.008000 2.009000 2.009000 2.011000 2.012000 1.270000 1.270000 0.000000 0.000000 
0.000000 0.000000 0.000000 0.000000 0.000000 0.000000 0.000000 0.000000 0.000000 1.270000 1.270000 1.270000 1.270000 1.270000 1.386000 1.989000 1.992000 1.992000 1.993000 1.995000 1.993000 1.995000 1.997000 1.997000 1.999000 2.000000 2.001000 2.003000 2.003000 2.004000 2.006000 2.008000 2.008000 2.011000 2.012000 2.011000 1.270000 2.133000 0.000000 0.000000 
0.000000 0.000000 0.000000 0.000000 0.000000 0.000000 0.000000 0.000000 0.000000 0.000000 0.000000 2.978000 1.270000 1.270000 1.270000 1.270000 1.623000 1.993000 1.992000 1.993000 1.993000 1.993000 1.995000 1.997000 1.998000 1.999000 2.000000 2.000000 2.003000 2.004000 2.004000 2.006000 2.008000 2.010000 2.011000 1.325000 1.270000 0.000000 0.000000 0.000000 
0.000000 0.000000 0.000000 0.000000 0.000000 0.000000 0.000000 0.000000 0.000000 0.000000 0.000000 0.000000 0.000000 1.885000 1.270000 1.270000 1.270000 1.270000 1.588000 1.993000 1.993000 1.993000 1.995000 1.997000 1.998000 1.998000 1.998000 2.000000 2.001000 2.004000 2.004000 2.006000 2.006000 2.009000 1.973000 1.270000 0.000000 0.000000 0.000000 0.000000 
0.000000 0.000000 0.000000 0.000000 0.000000 0.000000 0.000000 0.000000 0.000000 0.000000 0.000000 0.000000 0.000000 0.000000 0.000000 0.000000 1.270000 1.270000 1.270000 1.270000 1.868000 1.996000 1.993000 1.995000 1.998000 1.998000 1.998000 2.000000 2.002000 2.003000 2.004000 2.004000 2.006000 2.008000 1.270000 1.270000 0.000000 0.000000 0.000000 0.000000 
0.000000 0.000000 0.000000 0.000000 0.000000 0.000000 0.000000 0.000000 0.000000 0.000000 0.000000 0.000000 0.000000 0.000000 0.000000 0.000000 0.000000 0.000000 2.198000 1.270000 1.270000 1.270000 1.674000 1.996000 1.997000 1.997000 1.998000 2.000000 2.001000 2.001000 2.003000 2.003000 2.004000 2.006000 1.270000 1.270000 0.000000 0.000000 0.000000 0.000000 
0.000000 0.000000 0.000000 0.000000 0.000000 0.000000 0.000000 0.000000 0.000000 0.000000 0.000000 0.000000 0.000000 0.000000 0.000000 0.000000 0.000000 0.000000 0.000000 1.963000 1.270000 1.270000 1.270000 1.270000 1.850000 1.998000 1.998000 1.998000 2.000000 2.001000 2.003000 2.003000 2.006000 1.515000 1.270000 0.000000 0.000000 0.000000 0.000000 0.000000 
0.000000 0.000000 0.000000 0.000000 0.000000 0.000000 0.000000 0.000000 0.000000 0.000000 0.000000 0.000000 0.000000 0.000000 0.000000 0.000000 0.000000 0.000000 0.000000 0.000000 0.000000 0.000000 1.270000 1.270000 1.270000 1.270000 1.357000 1.700000 2.000000 2.000000 2.001000 2.003000 2.003000 1.270000 1.270000 0.000000 0.000000 0.000000 0.000000 0.000000 
0.000000 0.000000 0.000000 0.000000 0.000000 0.000000 0.000000 0.000000 0.000000 0.000000 0.000000 0.000000 0.000000 0.000000 0.000000 0.000000 0.000000 0.000000 0.000000 0.000000 0.000000 0.000000 0.000000 0.000000 2.183000 1.270000 1.270000 1.270000 0.000000 0.000000 2.001000 2.001000 2.003000 1.270000 0.000000 0.000000 0.000000 0.000000 0.000000 0.000000 
0.000000 0.000000 0.000000 0.000000 0.000000 0.000000 0.000000 0.000000 0.000000 0.000000 0.000000 0.000000 0.000000 0.000000 0.000000 0.000000 0.000000 0.000000 0.000000 0.000000 0.000000 0.000000 0.000000 0.000000 0.000000 0.000000 0.000000 0.000000 0.000000 0.000000 0.000000 0.000000 0.000000 0.000000 0.000000 0.000000 0.000000 0.000000 0.000000 0.000000 
0.000000 0.000000 0.000000 0.000000 0.000000 0.000000 0.000000 0.000000 0.000000 0.000000 0.000000 0.000000 0.000000 0.000000 0.000000 0.000000 0.000000 0.000000 0.000000 0.000000 0.000000 0.000000 0.000000 0.000000 0.000000 0.000000 0.000000 0.000000 0.000000 0.000000 0.000000 0.000000 0.000000 0.000000 0.000000 0.000000 0.000000 0.000000 0.000000 0.000000 
0.000000 0.000000 0.000000 0.000000 0.000000 0.000000 0.000000 0.000000 0.000000 0.000000 0.000000 0.000000 0.000000 0.000000 0.000000 0.000000 0.000000 0.000000 0.000000 0.000000 0.000000 0.000000 0.000000 0.000000 0.000000 0.000000 0.000000 0.000000 0.000000 0.000000 0.000000 0.000000 0.000000 0.000000 0.000000 0.000000 0.000000 0.000000 0.000000 0.000000 
0.000000 0.000000 0.000000 0.000000 0.000000 0.000000 0.000000 0.000000 0.000000 0.000000 0.000000 0.000000 0.000000 0.000000 0.000000 0.000000 0.000000 0.000000 0.000000 0.000000 0.000000 0.000000 0.000000 0.000000 0.000000 0.000000 0.000000 0.000000 0.000000 0.000000 0.000000 0.000000 0.000000 0.000000 0.000000 0.000000 0.000000 0.000000 0.000000 0.000000 
0.000000 0.000000 0.000000 0.000000 0.000000 0.000000 0.000000 0.000000 0.000000 0.000000 0.000000 0.000000 0.000000 0.000000 0.000000 0.000000 0.000000 0.000000 0.000000 0.000000 0.000000 0.000000 0.000000 0.000000 0.000000 0.000000 0.000000 0.000000 0.000000 0.000000 0.000000 0.000000 0.000000 0.000000 0.000000 0.000000 0.000000 0.000000 0.000000 0.000000 
