40 40
0.000000 0.000000 0.000000 0.000000 0.000000 0.000000 0.000000 0.000000 0.000000 0.000000 2.993000 2.993000 2.993000 2.993000 2.993000 2.952000 2.917000 2.917000 2.917000 2.917000 2.917000 2.885000 2.844000 2.844000 2.844000 2.842000 2.796000 2.772000 2.772000 2.772000 2.772000 2.772000 2.772000 2.582000 1.988000 1.832000 1.809000 1.809000 1.809000 1.809000 
0.000000 0.000000 0.000000 0.000000 0.000000 0.000000 0.000000 0.000000 0.000000 0.000000 2.993000 2.993000 2.971000 2.957000 2.957000 2.917000 2.883000 2.883000 2.883000 2.883000 2.883000 2.866000 2.844000 2.844000 2.844000 2.843000 2.818000 2.806000 2.806000 2.785000 2.772000 2.772000 2.772000 2.582000 1.988000 1.832000 1.809000 1.809000 1.809000 1.809000 
0.000000 0.000000 0.000000 0.000000 0.000000 0.000000 0.000000 0.000000 0.000000 0.000000 2.993000 2.993000 2.947000 2.917000 2.917000 2.877000 2.844000 2.844000 2.844000 2.844000 2.844000 2.844000 2.844000 2.844000 2.844000 2.844000 2.844000 2.841000 2.836000 2.796000 2.772000 2.772000 2.710000 2.495000 1.972000 1.832000 1.809000 1.809000 1.809000 1.809000 
0.000000 0.000000 0.000000 0.000000 0.000000 0.000000 0.000000 0.000000 0.000000 0.000000 2.993000 2.993000 2.947000 2.917000 2.917000 2.877000 2.844000 2.844000 2.844000 2.844000 2.844000 2.844000 2.844000 2.844000 2.844000 2.844000 2.844000 2.826000 2.791000 2.778000 2.772000 2.772000 2.378000 2.024000 1.886000 1.832000 1.809000 1.809000 1.809000 1.809000 
0.000000 0.000000 0.000000 0.000000 0.000000 0.000000 0.000000 0.000000 0.000000 0.000000 0.000000 2.995000 2.947000 2.917000 2.917000 2.877000 2.844000 2.844000 2.844000 2.844000 2.844000 2.844000 2.844000 2.844000 2.844000 2.843000 2.824000 2.801000 2.773000 2.537000 2.391000 2.391000 2.091000 1.855000 1.855000 1.841000 1.825000 1.813000 1.809000 1.809000 
0.000000 0.000000 0.000000 0.000000 0.000000 0.000000 0.000000 0.000000 0.000000 0.000000 0.000000 2.997000 2.947000 2.917000 2.917000 2.877000 2.844000 2.844000 2.844000 2.844000 2.844000 2.844000 2.844000 2.844000 2.842000 2.838000 2.794000 2.753000 2.715000 2.185000 1.854000 1.852000 1.852000 1.852000 1.852000 1.854000 1.848000 1.821000 1.812000 1.812000 
0.000000 0.000000 0.000000 0.000000 0.000000 0.000000 0.000000 0.000000 0.000000 0.000000 0.000000 2.997000 2.947000 2.917000 2.917000 2.877000 2.844000 2.844000 2.844000 2.844000 2.844000 2.844000 2.844000 2.844000 2.825000 2.792000 2.779000 2.563000 2.140000 1.957000 1.846000 1.825000 1.822000 1.822000 1.822000 1.839000 1.853000 1.844000 1.842000 1.842000 
0.000000 0.000000 0.000000 0.000000 0.000000 0.000000 0.000000 0.000000 0.000000 0.000000 0.000000 2.995000 2.964000 2.944000 2.944000 2.904000 2.865000 2.848000 2.844000 2.848000 2.865000 2.870000 2.866000 2.832000 2.696000 2.494000 2.494000 2.290000 1.876000 1.855000 1.843000 1.813000 1.809000 1.809000 1.809000 1.832000 1.855000 1.855000 1.855000 1.855000 
0.000000 0.000000 0.000000 0.000000 0.000000 2.993000 2.993000 2.993000 2.993000 2.993000 2.993000 2.993000 2.993000 2.993000 2.993000 2.952000 2.903000 2.856000 2.845000 2.854000 2.901000 2.917000 2.905000 2.811000 2.482000 2.000000 2.000000 1.954000 1.860000 1.855000 1.843000 1.813000 1.809000 1.809000 1.809000 1.832000 1.855000 1.855000 1.855000 1.855000 
0.000000 0.000000 0.000000 0.000000 0.000000 2.993000 2.993000 2.993000 2.993000 2.993000 2.993000 2.993000 2.993000 2.993000 2.993000 2.952000 2.912000 2.896000 2.892000 2.895000 2.912000 2.917000 2.905000 2.811000 2.482000 1.999000 1.978000 1.941000 1.888000 1.867000 1.851000 1.841000 1.839000 1.839000 1.839000 1.847000 1.855000 1.855000 1.855000 1.855000 
0.000000 0.000000 2.993000 2.993000 2.993000 2.993000 2.993000 2.993000 2.993000 0.000000 0.000000 2.994000 2.993000 2.993000 2.993000 2.952000 2.917000 2.917000 2.917000 2.917000 2.917000 2.803000 2.645000 2.569000 2.336000 1.999000 1.966000 1.939000 1.918000 1.887000 1.869000 1.869000 1.861000 1.855000 1.855000 1.855000 1.855000 1.855000 1.855000 1.855000 
0.000000 0.000000 2.993000 2.993000 2.993000 2.993000 2.993000 2.993000 2.994000 0.000000 0.000000 2.997000 2.993000 2.993000 2.993000 2.952000 2.917000 2.917000 2.917000 2.917000 2.917000 2.561000 2.088000 2.052000 2.023000 1.999000 1.966000 1.949000 1.948000 1.918000 1.900000 1.900000 1.875000 1.855000 1.855000 1.855000 1.855000 1.855000 1.855000 1.855000 
0.000000 0.000000 0.000000 0.000000 0.000000 2.993000 2.993000 0.000000 0.000000 0.000000 0.000000 0.000000 0.000000 0.000000 2.998000 2.976000 2.848000 2.462000 2.352000 2.333000 2.314000 2.159000 1.960000 1.947000 1.952000 1.970000 1.957000 1.950000 1.950000 1.938000 1.923000 1.905000 1.891000 1.877000 1.859000 1.855000 1.855000 1.855000 1.855000 1.855000 
0.000000 0.000000 0.000000 0.000000 0.000000 0.000000 0.000000 0.000000 0.000000 0.000000 0.000000 0.000000 0.000000 0.000000 0.000000 2.868000 2.604000 2.120000 1.976000 1.943000 1.912000 1.902000 1.902000 1.902000 1.920000 1.950000 1.950000 1.950000 1.950000 1.950000 1.937000 1.906000 1.902000 1.892000 1.862000 1.855000 1.855000 1.855000 1.855000 1.855000 
0.000000 0.000000 0.000000 0.000000 0.000000 0.000000 0.000000 0.000000 0.000000 0.000000 0.000000 0.000000 0.000000 0.000000 0.000000 2.541000 2.084000 2.017000 1.976000 1.943000 1.912000 1.902000 1.902000 1.902000 1.920000 1.950000 1.950000 1.950000 1.950000 1.950000 1.937000 1.906000 1.902000 1.892000 1.862000 1.855000 1.855000 1.855000 1.855000 1.855000 
2.993000 2.993000 0.000000 0.000000 0.000000 0.000000 0.000000 0.000000 0.000000 0.000000 0.000000 0.000000 0.000000 2.927000 2.549000 2.223000 2.000000 2.000000 1.976000 1.947000 1.933000 1.928000 1.928000 1.928000 1.936000 1.950000 1.950000 1.950000 1.950000 1.950000 1.937000 1.906000 1.888000 1.867000 1.837000 1.830000 1.830000 1.830000 0.000000 0.000000 
0.000000 0.000000 0.000000 0.000000 0.000000 0.000000 0.000000 0.000000 0.000000 0.000000 0.000000 0.000000 2.948000 2.651000 2.090000 2.000000 2.000000 2.000000 1.976000 1.950000 1.950000 1.950000 1.950000 1.950000 1.950000 1.950000 1.950000 1.950000 1.950000 1.950000 1.937000 1.906000 1.876000 1.845000 1.816000 1.809000 1.809000 1.809000 0.000000 0.000000 
0.000000 0.000000 0.000000 0.000000 0.000000 0.000000 0.000000 0.000000 0.000000 0.000000 0.000000 0.000000 2.532000 2.129000 2.018000 2.000000 2.000000 2.000000 1.976000 1.950000 1.950000 1.950000 1.950000 1.950000 1.950000 1.950000 1.950000 1.950000 1.950000 1.950000 1.937000 1.906000 1.876000 1.845000 1.816000 1.809000 1.809000 1.809000 0.000000 0.000000 
0.000000 0.000000 0.000000 0.000000 0.000000 0.000000 0.000000 0.000000 0.000000 0.000000 2.912000 2.574000 2.220000 2.000000 2.000000 2.000000 2.000000 2.000000 1.988000 1.974000 1.974000 1.974000 1.972000 1.957000 1.950000 1.951000 1.966000 1.974000 1.974000 1.974000 1.961000 1.930000 1.886000 1.845000 1.816000 1.809000 1.518000 0.000000 0.000000 0.000000 
0.000000 0.000000 0.000000 0.000000 0.000000 0.000000 0.000000 0.000000 0.000000 2.975000 2.638000 2.038000 1.997000 2.002000 2.006000 2.007000 2.007000 2.007000 2.004000 2.000000 2.000000 2.000000 1.997000 1.969000 1.957000 1.958000 1.986000 2.000000 2.000000 2.004000 1.996000 1.968000 1.600000 1.305000 1.279000 1.273000 0.000000 0.000000 0.000000 0.000000 
0.000000 0.000000 0.000000 0.000000 0.000000 0.000000 0.000000 0.000000 0.000000 2.517000 2.122000 1.972000 1.984000 2.010000 2.036000 2.040000 2.040000 2.040000 2.020000 2.000000 2.000000 2.000000 1.999000 1.992000 1.989000 1.989000 1.996000 2.000000 2.000000 2.025000 2.037000 2.030000 0.000000 0.000000 0.000000 0.000000 0.000000 0.000000 0.000000 0.000000 
0.000000 0.000000 0.000000 0.000000 0.000000 0.000000 0.000000 0.000000 2.739000 2.224000 1.950000 1.950000 1.993000 2.029000 2.048000 2.051000 2.051000 2.051000 2.026000 2.000000 2.000000 2.000000 2.000000 2.000000 2.000000 2.000000 2.000000 2.000000 2.000000 2.031000 1.575000 0.000000 0.000000 0.000000 0.000000 0.000000 0.000000 0.000000 0.000000 0.000000 
0.000000 0.000000 0.000000 0.000000 0.000000 0.000000 0.000000 2.765000 2.208000 2.050000 1.964000 1.958000 2.014000 2.051000 2.051000 2.051000 2.051000 2.051000 2.028000 2.004000 2.001000 2.000000 2.000000 2.000000 2.000000 2.000000 2.000000 2.000000 2.000000 2.031000 0.000000 0.000000 0.000000 0.000000 0.000000 0.000000 0.000000 0.000000 0.000000 0.000000 
0.000000 0.000000 0.000000 0.000000 2.884000 2.505000 2.478000 2.374000 2.209000 2.138000 2.077000 2.027000 2.040000 2.051000 2.051000 2.051000 2.051000 2.051000 2.044000 2.032000 2.008000 2.000000 2.000000 2.000000 2.000000 2.000000 2.000000 2.000000 2.000000 2.031000 0.000000 0.000000 0.000000 0.000000 0.000000 0.000000 0.000000 0.000000 0.000000 0.000000 
0.000000 0.000000 0.000000 2.923000 2.580000 2.243000 2.220000 2.210000 2.210000 2.175000 2.124000 2.056000 2.051000 2.051000 2.051000 2.051000 2.051000 2.051000 2.051000 2.044000 2.011000 2.000000 2.000000 2.000000 2.000000 2.000000 2.000000 1.503000 0.000000 0.000000 0.000000 0.000000 0.000000 0.000000 0.000000 0.000000 0.000000 0.000000 0.000000 0.000000 
0.000000 0.000000 0.000000 2.510000 2.242000 2.210000 2.210000 2.210000 2.210000 2.175000 2.124000 2.057000 2.052000 2.052000 2.052000 2.052000 2.052000 2.051000 2.051000 2.044000 2.011000 2.000000 1.992000 1.929000 1.903000 1.903000 1.903000 0.000000 0.000000 0.000000 0.000000 0.000000 0.000000 0.000000 0.000000 0.000000 0.000000 0.000000 0.000000 0.000000 
0.000000 0.000000 0.000000 2.482000 2.221000 2.210000 2.210000 2.210000 2.210000 2.175000 2.135000 2.089000 2.085000 2.085000 2.085000 2.085000 2.079000 2.056000 2.051000 2.044000 2.011000 2.000000 1.779000 0.000000 0.000000 0.000000 0.000000 0.000000 0.000000 0.000000 0.000000 0.000000 0.000000 0.000000 0.000000 0.000000 0.000000 0.000000 0.000000 0.000000 
2.984000 2.975000 2.875000 2.385000 2.210000 2.209000 2.198000 2.193000 2.192000 2.147000 2.111000 2.087000 2.086000 2.086000 2.086000 2.086000 2.082000 2.070000 2.067000 1.879000 0.000000 0.000000 0.000000 0.000000 0.000000 0.000000 0.000000 0.000000 0.000000 0.000000 0.000000 0.000000 0.000000 0.000000 0.000000 0.000000 0.000000 0.000000 0.000000 0.000000 
2.300000 2.275000 2.242000 2.218000 2.210000 2.207000 2.173000 2.158000 2.157000 2.090000 2.054000 2.053000 2.053000 2.053000 2.053000 2.053000 2.062000 2.093000 2.100000 1.543000 0.000000 0.000000 0.000000 0.000000 0.000000 0.000000 0.000000 0.000000 0.000000 0.000000 0.000000 0.000000 0.000000 0.000000 0.000000 0.000000 0.000000 0.000000 0.000000 0.000000 
2.266000 2.240000 2.210000 2.210000 2.210000 2.207000 2.172000 2.156000 2.155000 2.087000 2.051000 2.051000 2.051000 2.051000 2.051000 2.051000 2.061000 2.094000 2.102000 1.527000 0.000000 0.000000 0.000000 0.000000 0.000000 0.000000 0.000000 0.000000 0.000000 0.000000 0.000000 0.000000 0.000000 0.000000 0.000000 0.000000 0.000000 0.000000 0.000000 0.000000 
2.251000 2.232000 2.210000 2.210000 2.210000 2.207000 2.182000 2.170000 2.169000 2.092000 2.047000 2.038000 2.038000 2.041000 2.050000 2.051000 2.061000 2.094000 2.109000 1.539000 0.000000 0.000000 0.000000 0.000000 0.000000 0.000000 0.000000 0.000000 0.000000 0.000000 0.000000 0.000000 0.000000 0.000000 0.000000 0.000000 0.000000 0.000000 0.000000 0.000000 
2.215000 2.213000 2.210000 2.210000 2.210000 2.210000 2.207000 2.205000 2.204000 2.104000 2.037000 2.007000 2.005000 2.016000 2.046000 2.051000 2.061000 2.094000 2.126000 1.569000 0.000000 0.000000 0.000000 0.000000 0.000000 0.000000 0.000000 0.000000 0.000000 0.000000 0.000000 0.000000 0.000000 0.000000 0.000000 0.000000 0.000000 0.000000 0.000000 0.000000 
2.210000 2.210000 2.210000 2.210000 2.210000 2.210000 2.210000 2.199000 2.179000 2.095000 2.027000 1.976000 1.972000 1.985000 2.017000 2.022000 1.583000 0.000000 0.000000 0.000000 0.000000 0.000000 0.000000 0.000000 0.000000 0.000000 0.000000 0.000000 0.000000 0.000000 0.000000 0.000000 0.000000 0.000000 0.000000 0.000000 0.000000 0.000000 0.000000 0.000000 
2.222000 2.216000 2.210000 2.210000 2.210000 2.210000 2.210000 2.191000 2.155000 2.087000 2.020000 1.955000 1.950000 1.962000 1.995000 2.000000 1.206000 0.000000 0.000000 0.000000 0.000000 0.000000 0.000000 0.000000 0.000000 0.000000 0.000000 0.000000 0.000000 0.000000 0.000000 0.000000 0.000000 0.000000 0.000000 0.000000 0.000000 0.000000 0.000000 0.000000 
2.258000 2.235000 2.210000 2.210000 2.210000 2.210000 2.210000 2.191000 2.155000 2.087000 2.020000 1.955000 1.950000 1.962000 1.995000 2.000000 1.206000 0.000000 0.000000 0.000000 0.000000 0.000000 0.000000 0.000000 0.000000 0.000000 0.000000 0.000000 0.000000 0.000000 0.000000 0.000000 0.000000 0.000000 0.000000 0.000000 0.000000 0.000000 0.000000 0.000000 
2.266000 2.253000 2.238000 2.238000 2.226000 2.210000 2.210000 2.191000 2.156000 2.122000 2.089000 2.056000 0.000000 0.000000 0.000000 0.000000 0.000000 0.000000 0.000000 0.000000 0.000000 0.000000 0.000000 0.000000 0.000000 0.000000 0.000000 0.000000 0.000000 0.000000 0.000000 0.000000 0.000000 0.000000 0.000000 0.000000 0.000000 0.000000 0.000000 0.000000 
2.266000 2.266000 2.266000 2.266000 2.246000 2.218000 2.212000 2.191000 2.156000 2.156000 1.958000 1.537000 0.000000 0.000000 0.000000 0.000000 0.000000 0.000000 0.000000 0.000000 0.000000 0.000000 0.000000 0.000000 0.000000 0.000000 0.000000 0.000000 0.000000 0.000000 0.000000 0.000000 0.000000 0.000000 0.000000 0.000000 0.000000 0.000000 0.000000 0.000000 
2.266000 2.266000 2.266000 2.266000 2.261000 2.252000 2.223000 2.191000 2.156000 2.156000 1.113000 0.000000 0.000000 0.000000 0.000000 0.000000 0.000000 0.000000 0.000000 0.000000 0.000000 0.000000 0.000000 0.000000 0.000000 0.000000 0.000000 0.000000 0.000000 0.000000 0.000000 0.000000 0.000000 0.000000 0.000000 0.000000 0.000000 0.000000 0.000000 0.000000 
2.266000 2.266000 2.266000 2.266000 2.266000 2.262000 2.226000 2.199000 2.165000 0.000000 0.000000 0.000000 0.000000 0.000000 0.000000 0.000000 0.000000 0.000000 0.000000 0.000000 0.000000 0.000000 0.000000 0.000000 0.000000 0.000000 0.000000 0.000000 0.000000 0.000000 0.000000 0.000000 0.000000 0.000000 0.000000 0.000000 0.000000 0.000000 0.000000 0.000000 
2.266000 2.266000 2.266000 2.266000 2.266000 2.262000 2.226000 2.210000 2.176000 0.000000 0.000000 0.000000 0.000000 0.000000 0.000000 0.000000 0.000000 0.000000 0.000000 0.000000 0.000000 0.000000 0.000000 0.000000 0.000000 0.000000 0.000000 0.000000 0.000000 0.000000 0.000000 0.000000 0.000000 0.000000 0.000000 0.000000 0.000000 0.000000 0.000000 0.000000 
