40 40
0.000000 0.000000 0.000000 0.000000 0.000000 0.000000 0.000000 0.000000 0.000000 0.000000 0.000000 0.000000 0.000000 0.000000 0.000000 0.000000 0.000000 0.000000 0.000000 0.000000 0.000000 0.000000 0.000000 0.000000 0.000000 0.000000 0.000000 0.000000 0.000000 0.000000 0.000000 0.000000 0.000000 0.000000 0.000000 0.000000 0.000000 0.000000 0.000000 0.000000 
0.000000 0.000000 0.000000 0.000000 0.000000 0.000000 0.000000 0.000000 0.000000 0.000000 0.000000 0.000000 0.000000 0.000000 0.000000 0.000000 0.000000 2.410000 2.036000 2.000000 1.949000 1.948000 1.948000 1.954000 1.973000 1.983000 0.000000 0.000000 0.000000 0.000000 0.000000 0.000000 0.000000 0.000000 0.000000 0.000000 0.000000 0.000000 0.000000 0.000000 
0.000000 0.000000 0.000000 0.000000 0.000000 0.000000 0.000000 0.000000 0.000000 0.000000 0.000000 0.000000 0.000000 2.130000 2.118000 2.110000 2.081000 2.042000 2.036000 2.000000 1.966000 1.950000 1.950000 1.955000 1.972000 1.981000 1.982000 1.995000 2.012000 2.018000 0.000000 0.000000 0.000000 0.000000 0.000000 0.000000 0.000000 0.000000 0.000000 0.000000 
0.000000 0.000000 0.000000 0.000000 0.000000 0.000000 0.000000 0.000000 0.000000 0.000000 0.000000 0.000000 2.129000 2.120000 2.101000 2.093000 2.065000 2.039000 2.032000 2.000000 1.981000 1.965000 1.965000 1.965000 1.965000 1.965000 1.976000 1.992000 1.999000 2.012000 2.014000 0.000000 0.000000 0.000000 0.000000 0.000000 0.000000 0.000000 0.000000 0.000000 
0.000000 0.000000 0.000000 0.000000 0.000000 0.000000 0.000000 0.000000 0.000000 0.000000 2.147000 2.129000 2.120000 2.109000 2.095000 2.087000 2.063000 2.039000 2.015000 1.995000 1.982000 1.970000 1.965000 1.965000 1.967000 1.970000 1.978000 1.983000 1.992000 1.995000 2.000000 0.000000 0.000000 0.000000 0.000000 0.000000 0.000000 0.000000 0.000000 0.000000 
0.000000 0.000000 0.000000 0.000000 0.000000 0.000000 0.000000 0.000000 0.000000 2.169000 2.147000 2.125000 2.112000 2.103000 2.082000 2.069000 2.052000 2.038000 2.003000 1.983000 1.983000 1.981000 1.972000 1.972000 1.977000 1.983000 1.983000 1.983000 1.983000 1.983000 1.999000 0.000000 0.000000 0.000000 0.000000 0.000000 0.000000 0.000000 0.000000 0.000000 
0.000000 0.000000 0.000000 0.000000 0.000000 0.000000 0.000000 0.000000 2.191000 2.169000 2.147000 2.125000 2.112000 2.103000 2.082000 2.062000 2.041000 2.036000 2.011000 1.991000 1.983000 1.981000 1.974000 1.977000 1.983000 1.983000 1.983000 1.983000 1.983000 1.983000 1.999000 0.000000 0.000000 0.000000 0.000000 0.000000 0.000000 0.000000 0.000000 0.000000 
0.000000 0.000000 0.000000 0.000000 0.000000 0.000000 0.000000 0.000000 2.191000 2.169000 2.144000 2.118000 2.108000 2.097000 2.076000 2.058000 2.041000 2.036000 2.020000 2.000000 1.982000 1.971000 1.965000 1.971000 1.983000 1.983000 1.983000 1.983000 1.983000 1.983000 1.990000 0.000000 0.000000 0.000000 0.000000 0.000000 0.000000 0.000000 0.000000 0.000000 
0.000000 0.000000 0.000000 0.000000 0.000000 0.000000 0.000000 0.000000 2.191000 2.169000 2.143000 2.112000 2.105000 2.087000 2.066000 2.055000 2.041000 2.026000 2.019000 1.989000 1.981000 1.965000 1.965000 1.967000 1.976000 1.989000 1.987000 1.983000 1.983000 1.983000 1.983000 0.000000 0.000000 0.000000 0.000000 0.000000 0.000000 0.000000 0.000000 0.000000 
0.000000 0.000000 0.000000 0.000000 0.000000 0.000000 0.000000 0.000000 2.191000 2.169000 2.143000 2.112000 2.105000 2.084000 2.063000 2.055000 2.041000 2.021000 2.006000 1.983000 1.969000 1.965000 1.965000 1.965000 1.973000 1.985000 1.985000 1.983000 1.983000 1.983000 1.995000 0.000000 0.000000 0.000000 0.000000 0.000000 0.000000 0.000000 0.000000 0.000000 
0.000000 0.000000 0.000000 0.000000 0.000000 0.000000 0.000000 0.000000 2.191000 2.169000 2.143000 2.112000 2.105000 2.084000 2.063000 2.055000 2.041000 2.033000 2.003000 1.983000 1.965000 1.965000 1.965000 1.965000 1.966000 1.968000 1.968000 1.968000 1.980000 1.983000 1.986000 0.000000 0.000000 0.000000 0.000000 0.000000 0.000000 0.000000 0.000000 0.000000 
0.000000 0.000000 0.000000 0.000000 0.000000 0.000000 0.000000 0.000000 2.191000 2.169000 2.143000 2.112000 2.105000 2.084000 2.053000 2.038000 2.036000 2.036000 2.018000 1.998000 1.965000 1.965000 1.965000 1.965000 1.965000 1.965000 1.965000 1.965000 1.966000 1.981000 1.983000 0.000000 0.000000 0.000000 0.000000 0.000000 0.000000 0.000000 0.000000 0.000000 
0.000000 0.000000 0.000000 0.000000 0.000000 0.000000 0.000000 0.000000 2.171000 2.151000 2.143000 2.112000 2.105000 2.084000 2.052000 2.036000 2.036000 2.036000 2.020000 2.000000 1.965000 1.965000 1.965000 1.965000 1.965000 1.965000 1.965000 1.965000 1.965000 1.981000 1.983000 0.000000 0.000000 0.000000 0.000000 0.000000 0.000000 0.000000 0.000000 0.000000 
0.000000 0.000000 0.000000 0.000000 0.000000 0.000000 0.000000 0.000000 2.151000 2.151000 2.143000 2.113000 2.105000 2.086000 2.064000 2.055000 2.041000 2.036000 2.020000 2.000000 1.966000 1.965000 1.965000 1.965000 1.965000 1.965000 1.965000 1.965000 1.965000 1.965000 1.982000 0.000000 0.000000 0.000000 0.000000 0.000000 0.000000 0.000000 0.000000 0.000000 
0.000000 0.000000 0.000000 0.000000 0.000000 0.000000 0.000000 0.000000 2.155000 2.151000 2.147000 2.125000 2.112000 2.103000 2.073000 2.056000 2.041000 2.036000 2.020000 2.000000 1.981000 1.964000 1.962000 1.963000 1.965000 1.965000 1.965000 1.965000 1.965000 1.965000 1.979000 0.000000 0.000000 0.000000 0.000000 0.000000 0.000000 0.000000 0.000000 0.000000 
0.000000 0.000000 0.000000 0.000000 0.000000 0.000000 0.000000 0.000000 2.171000 2.151000 2.148000 2.129000 2.110000 2.100000 2.082000 2.062000 2.041000 2.036000 2.020000 1.995000 1.977000 1.958000 1.948000 1.952000 1.962000 1.965000 1.965000 1.965000 1.965000 1.965000 1.965000 0.000000 0.000000 0.000000 0.000000 0.000000 0.000000 0.000000 0.000000 0.000000 
0.000000 0.000000 0.000000 0.000000 0.000000 0.000000 0.000000 0.000000 2.911000 2.157000 2.151000 2.139000 2.105000 2.093000 2.082000 2.062000 2.041000 2.031000 2.019000 1.983000 1.963000 1.948000 1.948000 1.948000 1.955000 1.965000 1.965000 1.969000 1.971000 1.971000 1.971000 0.000000 0.000000 0.000000 0.000000 0.000000 0.000000 0.000000 0.000000 0.000000 
0.000000 0.000000 0.000000 0.000000 0.000000 0.000000 0.000000 0.000000 0.000000 2.160000 2.142000 2.133000 2.105000 2.093000 2.082000 2.062000 2.041000 2.021000 2.018000 1.990000 1.964000 1.954000 1.948000 1.948000 1.955000 1.965000 1.965000 1.978000 1.983000 1.983000 1.983000 0.000000 0.000000 0.000000 0.000000 0.000000 0.000000 0.000000 0.000000 0.000000 
0.000000 0.000000 0.000000 0.000000 0.000000 0.000000 0.000000 0.000000 0.000000 2.148000 2.131000 2.125000 2.105000 2.093000 2.082000 2.062000 2.041000 2.021000 2.018000 2.000000 1.974000 1.964000 1.957000 1.957000 1.960000 1.965000 1.965000 1.978000 1.983000 1.983000 1.983000 0.000000 0.000000 0.000000 0.000000 0.000000 0.000000 0.000000 0.000000 0.000000 
0.000000 0.000000 0.000000 0.000000 0.000000 0.000000 0.000000 0.000000 0.000000 2.161000 2.141000 2.125000 2.105000 2.093000 2.082000 2.062000 2.041000 2.021000 2.018000 2.000000 1.981000 1.965000 1.965000 1.965000 1.965000 1.965000 1.965000 1.970000 1.981000 1.983000 1.983000 0.000000 0.000000 0.000000 0.000000 0.000000 0.000000 0.000000 0.000000 0.000000 
0.000000 0.000000 0.000000 0.000000 0.000000 0.000000 0.000000 0.000000 2.178000 2.169000 2.147000 2.125000 2.105000 2.093000 2.082000 2.070000 2.044000 2.021000 2.006000 1.988000 1.970000 1.965000 1.965000 1.965000 1.965000 1.965000 1.965000 1.965000 1.979000 1.983000 1.983000 0.000000 0.000000 0.000000 0.000000 0.000000 0.000000 0.000000 0.000000 0.000000 
0.000000 0.000000 0.000000 0.000000 0.000000 0.000000 0.000000 0.000000 2.141000 2.171000 2.163000 2.141000 2.119000 2.101000 2.082000 2.074000 2.046000 2.021000 2.002000 1.983000 1.965000 1.965000 1.965000 1.965000 1.965000 1.965000 1.965000 1.965000 1.979000 1.995000 1.996000 0.000000 0.000000 0.000000 0.000000 0.000000 0.000000 0.000000 0.000000 0.000000 
0.000000 0.000000 0.000000 0.000000 0.000000 0.000000 0.000000 0.000000 2.133000 2.172000 2.167000 2.145000 2.124000 2.103000 2.082000 2.063000 2.042000 2.021000 2.002000 1.983000 1.965000 1.965000 1.965000 1.965000 1.972000 1.981000 1.981000 1.981000 1.983000 1.998000 2.000000 0.000000 0.000000 0.000000 0.000000 0.000000 0.000000 0.000000 0.000000 0.000000 
0.000000 0.000000 0.000000 0.000000 0.000000 0.000000 0.000000 0.000000 2.170000 2.172000 2.167000 2.145000 2.124000 2.103000 2.082000 2.062000 2.041000 2.021000 2.017000 1.983000 1.965000 1.965000 1.965000 1.965000 1.973000 1.983000 1.983000 1.983000 1.996000 1.986000 1.984000 0.000000 0.000000 0.000000 0.000000 0.000000 0.000000 0.000000 0.000000 0.000000 
0.000000 0.000000 0.000000 0.000000 0.000000 0.000000 0.000000 0.000000 2.276000 2.172000 2.163000 2.125000 2.112000 2.102000 2.082000 2.062000 2.041000 2.021000 2.018000 2.000000 1.966000 1.965000 1.965000 1.965000 1.973000 1.983000 1.993000 1.999000 1.999000 1.985000 1.983000 0.000000 0.000000 0.000000 0.000000 0.000000 0.000000 0.000000 0.000000 0.000000 
0.000000 0.000000 0.000000 0.000000 0.000000 0.000000 0.000000 0.000000 0.000000 2.174000 2.160000 2.123000 2.105000 2.093000 2.082000 2.062000 2.041000 2.021000 2.018000 2.000000 1.981000 1.965000 1.965000 1.965000 1.973000 1.983000 1.983000 1.983000 1.983000 1.983000 1.983000 0.000000 0.000000 0.000000 0.000000 0.000000 0.000000 0.000000 0.000000 0.000000 
0.000000 0.000000 0.000000 0.000000 0.000000 0.000000 0.000000 0.000000 0.000000 2.187000 2.143000 2.112000 2.105000 2.093000 2.082000 2.062000 2.041000 2.021000 2.018000 2.000000 1.982000 1.968000 1.965000 1.965000 1.973000 1.983000 1.983000 1.983000 1.983000 1.983000 1.983000 0.000000 0.000000 0.000000 0.000000 0.000000 0.000000 0.000000 0.000000 0.000000 
0.000000 0.000000 0.000000 0.000000 0.000000 0.000000 0.000000 0.000000 0.000000 2.187000 2.143000 2.112000 2.105000 2.093000 2.082000 2.058000 2.039000 2.021000 2.018000 1.995000 1.983000 1.975000 1.965000 1.965000 1.973000 1.983000 1.983000 1.983000 1.983000 1.983000 1.983000 0.000000 0.000000 0.000000 0.000000 0.000000 0.000000 0.000000 0.000000 0.000000 
0.000000 0.000000 0.000000 0.000000 0.000000 0.000000 0.000000 0.000000 2.212000 2.187000 2.143000 2.112000 2.105000 2.093000 2.082000 2.049000 2.036000 2.021000 2.018000 1.983000 1.981000 1.965000 1.965000 1.965000 1.973000 1.983000 1.983000 1.988000 1.984000 1.977000 1.976000 0.000000 0.000000 0.000000 0.000000 0.000000 0.000000 0.000000 0.000000 0.000000 
0.000000 0.000000 0.000000 0.000000 0.000000 0.000000 0.000000 0.000000 2.212000 2.187000 2.145000 2.118000 2.108000 2.098000 2.082000 2.049000 2.036000 2.021000 2.018000 1.991000 1.973000 1.965000 1.965000 1.965000 1.973000 1.983000 1.983000 1.989000 1.985000 1.967000 1.965000 0.000000 0.000000 0.000000 0.000000 0.000000 0.000000 0.000000 0.000000 0.000000 
0.000000 0.000000 0.000000 0.000000 0.000000 0.000000 0.000000 0.000000 2.201000 2.188000 2.159000 2.133000 2.112000 2.103000 2.082000 2.056000 2.039000 2.021000 2.018000 2.000000 1.965000 1.965000 1.965000 1.965000 1.973000 1.983000 1.983000 1.983000 1.983000 1.959000 1.955000 0.000000 0.000000 0.000000 0.000000 0.000000 0.000000 0.000000 0.000000 0.000000 
0.000000 0.000000 0.000000 0.000000 0.000000 0.000000 0.000000 0.000000 2.191000 2.176000 2.154000 2.134000 2.120000 2.103000 2.089000 2.066000 2.041000 2.021000 2.007000 2.000000 1.977000 1.975000 1.965000 1.969000 1.980000 1.983000 1.983000 1.983000 1.983000 1.952000 1.948000 0.000000 0.000000 0.000000 0.000000 0.000000 0.000000 0.000000 0.000000 0.000000 
0.000000 0.000000 0.000000 0.000000 0.000000 0.000000 0.000000 0.000000 2.177000 2.169000 2.147000 2.131000 2.124000 2.103000 2.093000 2.068000 2.041000 2.021000 2.002000 2.000000 1.982000 1.969000 1.969000 1.980000 1.983000 1.983000 1.983000 1.983000 1.983000 1.975000 1.974000 0.000000 0.000000 0.000000 0.000000 0.000000 0.000000 0.000000 0.000000 0.000000 
0.000000 0.000000 0.000000 0.000000 0.000000 0.000000 0.000000 0.000000 2.172000 2.172000 2.164000 2.143000 2.124000 2.103000 2.084000 2.063000 2.041000 2.021000 2.002000 2.000000 1.981000 1.965000 1.970000 1.983000 1.983000 1.983000 1.983000 1.983000 1.994000 1.997000 2.012000 0.000000 0.000000 0.000000 0.000000 0.000000 0.000000 0.000000 0.000000 0.000000 
0.000000 0.000000 0.000000 0.000000 0.000000 0.000000 0.000000 0.000000 2.172000 2.172000 2.167000 2.145000 2.124000 2.103000 2.082000 2.062000 2.041000 2.021000 2.002000 2.000000 1.981000 1.965000 1.965000 1.966000 1.966000 1.975000 1.983000 1.983000 1.984000 1.984000 1.986000 0.000000 0.000000 0.000000 0.000000 0.000000 0.000000 0.000000 0.000000 0.000000 
0.000000 0.000000 0.000000 0.000000 0.000000 0.000000 0.000000 0.000000 0.000000 2.172000 2.167000 2.145000 2.124000 2.103000 2.082000 2.062000 2.055000 2.024000 2.002000 2.000000 1.981000 1.965000 1.965000 1.965000 1.965000 1.974000 1.983000 1.983000 1.983000 1.983000 1.983000 0.000000 0.000000 0.000000 0.000000 0.000000 0.000000 0.000000 0.000000 0.000000 
0.000000 0.000000 0.000000 0.000000 0.000000 0.000000 0.000000 0.000000 0.000000 2.171000 2.164000 2.144000 2.124000 2.113000 2.091000 2.065000 2.191000 2.041000 2.000000 2.000000 1.981000 1.965000 1.965000 1.965000 1.965000 1.975000 1.985000 1.985000 1.983000 1.983000 1.983000 0.000000 0.000000 0.000000 0.000000 0.000000 0.000000 0.000000 0.000000 0.000000 
0.000000 0.000000 0.000000 0.000000 0.000000 0.000000 0.000000 0.000000 0.000000 2.167000 2.131000 2.131000 2.131000 2.122000 2.101000 2.093000 0.000000 2.343000 2.000000 2.000000 1.981000 1.965000 1.965000 1.965000 1.965000 1.983000 2.000000 2.000000 1.987000 1.983000 1.983000 0.000000 0.000000 0.000000 0.000000 0.000000 0.000000 0.000000 0.000000 0.000000 
0.000000 0.000000 0.000000 0.000000 0.000000 0.000000 0.000000 0.000000 0.000000 0.000000 0.000000 0.000000 0.000000 0.000000 0.000000 0.000000 0.000000 0.000000 0.000000 0.000000 0.000000 0.000000 0.000000 0.000000 0.000000 0.000000 0.000000 0.000000 0.000000 0.000000 0.000000 0.000000 0.000000 0.000000 0.000000 0.000000 0.000000 0.000000 0.000000 0.000000 
0.000000 0.000000 0.000000 0.000000 0.000000 0.000000 0.000000 0.000000 0.000000 0.000000 0.000000 0.000000 0.000000 0.000000 0.000000 0.000000 0.000000 0.000000 0.000000 0.000000 0.000000 0.000000 0.000000 0.000000 0.000000 0.000000 0.000000 0.000000 0.000000 0.000000 0.000000 0.000000 0.000000 0.000000 0.000000 0.000000 0.000000 0.000000 0.000000 0.000000 
