0.000000,0.000000,0.000000,0.000000,0.000000,0.000000,0.000000,0.000000,0.000000,0.000000,0.000000,0.000000,0.000000,0.000000,0.000000,0.000000,0.000000,0.000000,0.000000,0.000000,0.000000,0.000000,0.000000,0.000000,0.000000,0.000000,0.000000,0.000000,0.000000,0.000000,0.000000,0.000000,0.000000,0.000000,0.000000,0.000000,0.000000,0.000000,0.000000,0.000000,
0.000000,0.000000,0.000000,0.000000,0.000000,0.000000,0.000000,0.000000,0.000000,0.000000,0.000000,0.000000,0.000000,0.000000,0.000000,0.000000,0.000000,0.000000,0.000000,0.000000,0.000000,0.000000,0.000000,0.000000,0.000000,0.000000,0.000000,0.000000,0.000000,0.000000,0.000000,0.000000,0.000000,0.000000,0.000000,0.000000,0.000000,0.000000,0.000000,0.000000,
0.000000,0.000000,0.000000,0.000000,0.000000,0.000000,0.000000,0.000000,0.000000,0.000000,0.000000,0.000000,0.000000,0.000000,0.000000,0.000000,0.000000,0.000000,0.000000,0.000000,0.000000,0.000000,0.000000,0.000000,0.000000,0.000000,0.000000,0.000000,0.000000,0.000000,0.000000,0.000000,0.000000,0.000000,0.000000,0.000000,0.000000,0.000000,0.000000,0.000000,
0.000000,0.000000,0.000000,0.000000,0.000000,0.000000,0.000000,0.000000,0.000000,2.089000,2.089000,2.089000,2.089000,2.089000,2.089000,2.089000,2.089000,2.089000,0.000000,0.000000,0.000000,0.000000,0.000000,0.000000,0.000000,0.000000,0.000000,0.000000,0.000000,0.000000,0.000000,0.000000,0.000000,0.000000,0.000000,0.000000,0.000000,0.000000,0.000000,0.000000,
0.000000,0.000000,0.000000,0.000000,0.000000,0.000000,0.000000,0.000000,2.965000,2.086000,2.070000,2.065000,2.065000,2.065000,2.065000,2.071000,2.088000,2.089000,2.642000,0.000000,0.000000,0.000000,0.000000,0.000000,0.000000,0.000000,0.000000,0.000000,0.000000,0.000000,0.000000,0.000000,0.000000,0.000000,0.000000,0.000000,0.000000,0.000000,0.000000,0.000000,
0.000000,0.000000,0.000000,0.000000,0.000000,0.000000,0.000000,2.734000,2.089000,2.084000,2.053000,2.044000,2.044000,2.044000,2.044000,2.056000,2.088000,2.089000,2.089000,2.089000,2.089000,0.000000,0.000000,0.000000,0.000000,0.000000,0.000000,0.000000,0.000000,0.000000,0.000000,0.000000,0.000000,0.000000,0.000000,0.000000,0.000000,0.000000,0.000000,0.000000,
0.000000,0.000000,0.000000,0.000000,0.000000,2.204000,2.284000,2.146000,2.089000,2.084000,2.053000,2.044000,2.044000,2.044000,2.044000,2.056000,2.088000,2.089000,2.089000,2.089000,2.089000,2.195000,2.781000,0.000000,0.000000,0.000000,0.000000,0.000000,0.000000,0.000000,0.000000,0.000000,0.000000,0.000000,0.000000,0.000000,0.000000,0.000000,0.000000,0.000000,
0.000000,0.000000,0.000000,0.000000,1.427000,1.990000,2.061000,2.061000,2.072000,2.084000,2.053000,2.044000,2.044000,2.044000,2.044000,2.049000,2.060000,2.079000,2.089000,2.089000,2.089000,2.089000,2.270000,0.000000,0.000000,0.000000,0.000000,0.000000,0.000000,0.000000,0.000000,0.000000,0.000000,0.000000,0.000000,0.000000,0.000000,0.000000,0.000000,0.000000,
0.000000,0.000000,0.000000,1.699000,1.957000,1.980000,2.030000,2.030000,2.042000,2.057000,2.036000,2.030000,2.032000,2.042000,2.044000,2.044000,2.044000,2.074000,2.089000,2.089000,2.089000,2.089000,2.089000,2.089000,2.089000,2.089000,2.089000,2.089000,2.798000,0.000000,0.000000,0.000000,0.000000,0.000000,0.000000,0.000000,0.000000,0.000000,0.000000,0.000000,
0.000000,0.000000,0.000000,1.699000,1.957000,1.971000,1.999000,1.999000,2.000000,2.000000,2.000000,2.000000,2.008000,2.039000,2.044000,2.044000,2.044000,2.073000,2.088000,2.088000,2.088000,2.089000,2.089000,2.089000,2.089000,2.089000,2.089000,2.089000,2.103000,2.134000,2.134000,0.000000,0.000000,0.000000,0.000000,0.000000,0.000000,0.000000,0.000000,0.000000,
0.000000,0.000000,0.000000,1.699000,1.957000,1.961000,1.969000,1.969000,1.982000,2.000000,2.000000,2.000000,2.008000,2.039000,2.044000,2.044000,2.044000,2.053000,2.057000,2.057000,2.057000,2.071000,2.089000,2.089000,2.089000,2.089000,2.089000,2.089000,2.093000,2.102000,2.102000,0.000000,0.000000,0.000000,0.000000,0.000000,0.000000,0.000000,0.000000,0.000000,
0.000000,0.000000,0.000000,1.806000,1.957000,1.957000,1.957000,1.957000,1.975000,2.000000,2.000000,2.000000,2.005000,2.023000,2.026000,2.031000,2.043000,2.044000,2.044000,2.044000,2.044000,2.056000,2.073000,2.086000,2.089000,2.089000,2.089000,2.089000,2.089000,2.089000,2.089000,2.840000,0.000000,0.000000,0.000000,0.000000,0.000000,0.000000,0.000000,0.000000,
0.000000,0.000000,1.986000,1.960000,1.957000,1.957000,1.957000,1.957000,1.975000,2.000000,2.000000,2.000000,2.000000,2.000000,2.000000,2.011000,2.038000,2.042000,2.044000,2.044000,2.044000,2.044000,2.050000,2.081000,2.089000,2.089000,2.089000,2.092000,2.092000,2.089000,2.089000,2.089000,2.089000,2.089000,0.000000,0.000000,0.000000,0.000000,0.000000,0.000000,
1.184000,1.608000,1.964000,1.958000,1.957000,1.957000,1.957000,1.957000,1.975000,2.000000,2.000000,2.000000,2.000000,2.000000,2.000000,2.002000,2.009000,2.032000,2.044000,2.044000,2.044000,2.044000,2.050000,2.081000,2.089000,2.089000,2.089000,2.111000,2.114000,2.089000,2.089000,2.089000,2.089000,2.089000,2.434000,2.811000,2.811000,2.811000,2.829000,2.878000,
1.957000,1.957000,1.957000,1.957000,1.957000,1.957000,1.957000,1.957000,1.966000,1.979000,1.979000,1.979000,1.979000,1.979000,1.991000,2.000000,2.000000,2.029000,2.044000,2.044000,2.044000,2.054000,2.069000,2.085000,2.089000,2.089000,2.089000,2.103000,2.105000,2.089000,2.089000,2.089000,2.091000,2.107000,2.112000,2.112000,2.112000,2.125000,2.141000,2.158000,
1.957000,1.957000,1.957000,1.957000,1.957000,1.957000,1.957000,1.957000,1.957000,1.957000,1.957000,1.957000,1.957000,1.957000,1.977000,1.994000,2.000000,2.024000,2.036000,2.036000,2.042000,2.060000,2.081000,2.081000,2.085000,2.089000,2.089000,2.089000,2.089000,2.089000,2.089000,2.089000,2.092000,2.118000,2.109000,2.089000,2.089000,2.110000,2.126000,2.126000,
1.957000,1.957000,1.957000,1.957000,1.957000,1.957000,1.957000,1.957000,1.957000,1.957000,1.957000,1.957000,1.957000,1.957000,1.960000,1.972000,1.999000,2.003000,2.005000,2.007000,2.034000,2.046000,2.049000,2.049000,2.070000,2.089000,2.089000,2.089000,2.089000,2.089000,2.089000,2.089000,2.089000,2.093000,2.092000,2.089000,2.089000,2.092000,2.094000,2.094000,
1.982000,1.968000,1.957000,1.957000,1.957000,1.957000,1.957000,1.957000,1.957000,1.957000,1.957000,1.957000,1.957000,1.957000,1.957000,1.962000,1.975000,1.975000,1.984000,2.001000,2.014000,2.019000,2.022000,2.040000,2.054000,2.069000,2.087000,2.089000,2.089000,2.089000,2.089000,2.089000,2.089000,2.089000,2.089000,2.089000,2.089000,2.089000,2.089000,2.089000,
2.012000,1.982000,1.957000,1.957000,1.957000,1.957000,1.957000,1.957000,1.962000,1.968000,1.959000,1.957000,1.957000,1.957000,1.957000,1.957000,1.957000,1.957000,1.972000,2.000000,2.000000,2.000000,2.004000,2.027000,2.032000,2.042000,2.073000,2.077000,2.077000,2.077000,2.077000,2.082000,2.089000,2.089000,2.089000,2.089000,2.089000,2.082000,2.077000,2.077000,
2.043000,1.996000,1.957000,1.957000,1.957000,1.957000,1.957000,1.957000,1.974000,1.994000,1.965000,1.957000,1.957000,1.957000,1.957000,1.957000,1.957000,1.957000,1.972000,2.000000,2.000000,2.000000,2.000000,2.001000,2.001000,2.011000,2.042000,2.045000,2.045000,2.045000,2.045000,2.063000,2.089000,2.089000,2.089000,2.089000,2.089000,2.065000,2.045000,2.045000,
2.044000,1.997000,1.957000,1.957000,1.957000,1.957000,1.957000,1.957000,1.963000,1.973000,1.983000,1.971000,1.957000,1.957000,1.957000,1.965000,1.985000,1.985000,1.980000,1.972000,1.972000,1.972000,1.972000,1.972000,1.972000,1.975000,1.985000,1.986000,2.004000,2.044000,2.044000,2.062000,2.089000,2.089000,2.089000,2.089000,2.089000,2.064000,2.044000,2.044000,
2.044000,1.997000,1.957000,1.957000,1.957000,1.957000,1.957000,1.957000,1.957000,1.961000,1.991000,1.986000,1.972000,1.972000,1.972000,1.980000,1.999000,2.000000,1.985000,1.957000,1.957000,1.957000,1.957000,1.957000,1.957000,1.957000,1.957000,1.957000,1.984000,2.044000,2.044000,2.055000,2.074000,2.086000,2.089000,2.089000,2.089000,2.073000,2.060000,2.060000,
2.046000,1.999000,1.959000,1.957000,1.957000,1.957000,1.957000,1.957000,1.957000,1.961000,1.991000,2.000000,2.000000,2.000000,2.000000,2.000000,2.000000,2.000000,1.985000,1.959000,1.959000,1.959000,1.959000,1.959000,1.959000,1.959000,1.959000,1.959000,1.985000,2.044000,2.044000,2.044000,2.048000,2.079000,2.089000,2.089000,2.089000,2.089000,2.089000,2.089000,
2.078000,2.030000,1.982000,1.959000,1.957000,1.957000,1.957000,1.957000,1.957000,1.961000,1.991000,2.000000,2.000000,2.000000,2.000000,2.000000,2.000000,2.000000,1.996000,1.989000,1.989000,1.989000,1.989000,1.989000,1.989000,1.989000,1.989000,1.989000,2.006000,2.044000,2.044000,2.044000,2.048000,2.079000,2.089000,2.089000,2.089000,2.089000,2.089000,2.089000,
0.000000,2.636000,1.994000,1.978000,1.964000,1.957000,1.957000,1.971000,1.976000,1.978000,1.995000,2.000000,2.000000,2.000000,2.000000,2.000000,2.000000,2.000000,2.000000,2.001000,2.015000,2.019000,2.019000,2.019000,2.009000,2.000000,2.000000,2.012000,2.027000,2.044000,2.044000,2.052000,2.066000,2.084000,2.089000,2.089000,2.089000,2.089000,2.474000,0.000000,
0.000000,0.000000,2.398000,2.398000,2.375000,2.361000,2.354000,2.104000,2.000000,2.000000,2.000000,2.000000,2.000000,2.000000,2.000000,2.000000,2.000000,2.000000,2.000000,2.002000,2.028000,2.041000,2.044000,2.044000,2.024000,2.006000,2.006000,2.029000,2.044000,2.044000,2.044000,2.059000,2.083000,2.083000,2.083000,2.083000,2.083000,2.086000,2.955000,0.000000,
0.000000,0.000000,0.000000,0.000000,0.000000,0.000000,0.000000,2.691000,2.000000,2.000000,2.000000,2.000000,2.000000,2.000000,2.000000,2.000000,2.000000,2.000000,2.000000,2.000000,2.006000,2.024000,2.044000,2.044000,2.040000,2.037000,2.037000,2.041000,2.044000,2.044000,2.044000,2.047000,2.052000,2.052000,2.052000,2.052000,2.052000,2.073000,2.927000,0.000000,
0.000000,0.000000,0.000000,0.000000,0.000000,0.000000,0.000000,0.000000,2.914000,2.021000,2.005000,2.000000,2.000000,2.000000,2.000000,2.000000,2.000000,2.000000,2.000000,2.000000,2.000000,2.009000,2.021000,2.021000,2.021000,2.021000,2.021000,2.035000,2.044000,2.044000,2.044000,2.044000,2.044000,2.044000,2.044000,2.044000,2.044000,0.000000,0.000000,0.000000,
0.000000,0.000000,0.000000,0.000000,0.000000,0.000000,0.000000,0.000000,0.000000,2.609000,2.137000,2.000000,2.000000,2.000000,2.000000,2.000000,2.000000,2.000000,2.000000,2.000000,2.000000,2.000000,2.000000,2.000000,2.000000,2.000000,2.000000,2.027000,2.044000,2.044000,2.044000,2.044000,2.044000,2.044000,2.044000,2.176000,2.706000,0.000000,0.000000,0.000000,
0.000000,0.000000,0.000000,0.000000,0.000000,0.000000,0.000000,0.000000,0.000000,0.000000,2.538000,2.000000,2.000000,2.000000,2.000000,2.000000,2.000000,2.000000,2.000000,2.000000,2.000000,2.000000,2.000000,2.000000,2.000000,2.000000,2.000000,2.027000,2.044000,2.044000,2.044000,2.044000,2.044000,2.044000,2.044000,2.587000,0.000000,0.000000,0.000000,0.000000,
0.000000,0.000000,0.000000,0.000000,0.000000,0.000000,0.000000,0.000000,0.000000,0.000000,0.000000,0.000000,0.000000,2.242000,2.011000,2.000000,2.000000,2.000000,2.000000,2.000000,2.000000,1.988000,1.974000,1.974000,1.988000,2.000000,2.000000,2.027000,2.044000,2.044000,2.044000,2.044000,2.044000,2.044000,2.044000,2.635000,0.000000,0.000000,0.000000,0.000000,
0.000000,0.000000,0.000000,0.000000,0.000000,0.000000,0.000000,0.000000,0.000000,0.000000,0.000000,0.000000,0.000000,0.000000,2.944000,2.678000,2.030000,2.000000,2.000000,2.000000,2.000000,1.981000,1.957000,1.957000,1.980000,2.000000,2.000000,2.027000,2.044000,2.044000,2.044000,2.044000,2.044000,2.044000,2.547000,0.000000,0.000000,0.000000,0.000000,0.000000,
0.000000,0.000000,0.000000,0.000000,0.000000,0.000000,0.000000,0.000000,0.000000,0.000000,0.000000,0.000000,0.000000,0.000000,0.000000,0.000000,2.106000,2.008000,2.005000,2.000000,2.000000,1.981000,1.957000,1.957000,1.980000,2.000000,2.000000,2.027000,2.044000,2.044000,2.044000,2.044000,2.044000,2.044000,0.000000,0.000000,0.000000,0.000000,0.000000,0.000000,
0.000000,0.000000,0.000000,0.000000,0.000000,0.000000,0.000000,0.000000,0.000000,0.000000,0.000000,0.000000,0.000000,0.000000,0.000000,0.000000,0.000000,0.000000,0.000000,2.029000,2.008000,1.981000,1.957000,1.957000,1.980000,2.000000,2.000000,2.027000,2.044000,2.044000,2.044000,2.044000,2.044000,2.044000,0.000000,0.000000,0.000000,0.000000,0.000000,0.000000,
0.000000,0.000000,0.000000,0.000000,0.000000,0.000000,0.000000,0.000000,0.000000,0.000000,0.000000,0.000000,0.000000,0.000000,0.000000,0.000000,0.000000,0.000000,0.000000,0.000000,0.000000,0.000000,0.000000,2.211000,2.023000,2.031000,2.019000,2.034000,2.044000,2.044000,2.044000,2.044000,2.046000,2.058000,0.000000,0.000000,0.000000,0.000000,0.000000,0.000000,
0.000000,0.000000,0.000000,0.000000,0.000000,0.000000,0.000000,0.000000,0.000000,0.000000,0.000000,0.000000,0.000000,0.000000,0.000000,0.000000,0.000000,0.000000,0.000000,0.000000,0.000000,0.000000,0.000000,2.605000,2.089000,2.079000,2.048000,2.044000,2.044000,2.044000,2.044000,2.044000,2.048000,2.079000,0.000000,0.000000,0.000000,0.000000,0.000000,0.000000,
0.000000,0.000000,0.000000,0.000000,0.000000,0.000000,0.000000,0.000000,0.000000,0.000000,0.000000,0.000000,0.000000,0.000000,0.000000,0.000000,0.000000,0.000000,0.000000,0.000000,0.000000,0.000000,0.000000,0.000000,0.000000,0.000000,0.000000,0.000000,0.000000,0.000000,0.000000,0.000000,0.000000,0.000000,0.000000,0.000000,0.000000,0.000000,0.000000,0.000000,
0.000000,0.000000,0.000000,0.000000,0.000000,0.000000,0.000000,0.000000,0.000000,0.000000,0.000000,0.000000,0.000000,0.000000,0.000000,0.000000,0.000000,0.000000,0.000000,0.000000,0.000000,0.000000,0.000000,0.000000,0.000000,0.000000,0.000000,0.000000,0.000000,0.000000,0.000000,0.000000,0.000000,0.000000,0.000000,0.000000,0.000000,0.000000,0.000000,0.000000,
0.000000,0.000000,0.000000,0.000000,0.000000,0.000000,0.000000,0.000000,0.000000,0.000000,0.000000,0.000000,0.000000,0.000000,0.000000,0.000000,0.000000,0.000000,0.000000,0.000000,0.000000,0.000000,0.000000,0.000000,0.000000,0.000000,0.000000,0.000000,0.000000,0.000000,0.000000,0.000000,0.000000,0.000000,0.000000,0.000000,0.000000,0.000000,0.000000,0.000000,
0.000000,0.000000,0.000000,0.000000,0.000000,0.000000,0.000000,0.000000,0.000000,0.000000,0.000000,0.000000,0.000000,0.000000,0.000000,0.000000,0.000000,0.000000,0.000000,0.000000,0.000000,0.000000,0.000000,0.000000,0.000000,0.000000,0.000000,0.000000,0.000000,0.000000,0.000000,0.000000,0.000000,0.000000,0.000000,0.000000,0.000000,0.000000,0.000000,0.000000,
