40 40
0.000000 0.000000 0.000000 0.000000 0.000000 0.000000 0.000000 0.000000 0.000000 0.000000 0.000000 2.027000 2.021000 2.079000 2.118000 2.167000 2.162000 2.879000 2.870000 2.867000 0.000000 0.000000 0.000000 0.000000 0.000000 0.000000 0.000000 0.000000 0.000000 0.000000 0.000000 0.000000 0.000000 0.000000 0.000000 0.000000 0.000000 0.000000 0.000000 0.000000 
0.000000 0.000000 0.000000 0.000000 0.000000 0.000000 0.000000 0.000000 2.210000 2.024000 2.019000 2.017000 2.016000 2.023000 2.024000 2.019000 2.022000 2.062000 2.062000 2.062000 2.284000 0.000000 0.000000 0.000000 0.000000 0.000000 0.000000 0.000000 0.000000 0.000000 0.000000 0.000000 0.000000 0.000000 0.000000 0.000000 0.000000 0.000000 0.000000 0.000000 
0.000000 0.000000 0.000000 0.000000 0.000000 0.000000 0.000000 0.000000 2.022000 2.024000 2.021000 2.016000 2.013000 2.010000 2.005000 2.002000 2.002000 1.997000 1.993000 1.989000 1.990000 1.977000 1.979000 1.984000 2.783000 0.000000 0.000000 0.000000 0.000000 0.000000 0.000000 0.000000 0.000000 0.000000 0.000000 0.000000 0.000000 0.000000 0.000000 0.000000 
0.000000 0.000000 0.000000 0.000000 0.000000 0.000000 0.000000 0.000000 2.026000 2.023000 2.021000 2.016000 2.013000 2.010000 2.005000 2.002000 2.000000 1.992000 1.987000 1.984000 1.981000 1.975000 1.973000 1.967000 1.968000 1.965000 1.961000 1.958000 1.959000 1.950000 0.000000 0.000000 1.054000 1.054000 0.000000 0.000000 0.000000 0.000000 0.000000 0.000000 
0.000000 0.000000 0.000000 0.000000 0.000000 0.000000 2.960000 1.054000 2.032000 2.024000 2.021000 2.018000 2.013000 2.010000 2.005000 2.002000 2.000000 1.992000 1.989000 1.984000 1.982000 1.977000 1.972000 1.964000 1.962000 1.962000 1.956000 1.954000 1.950000 1.947000 1.945000 1.944000 1.938000 1.054000 0.000000 0.000000 0.000000 0.000000 0.000000 0.000000 
0.000000 0.000000 0.000000 0.000000 0.000000 0.000000 1.639000 1.054000 2.032000 2.026000 2.024000 2.024000 2.014000 2.011000 2.009000 2.004000 2.000000 1.992000 1.990000 1.984000 1.984000 1.978000 1.972000 1.967000 1.964000 1.962000 1.956000 1.952000 1.949000 1.945000 1.943000 1.942000 1.935000 1.934000 0.000000 0.000000 0.000000 0.000000 0.000000 0.000000 
0.000000 0.000000 0.000000 0.000000 0.000000 0.000000 1.096000 1.054000 2.032000 2.029000 2.024000 2.024000 2.016000 2.013000 2.009000 2.004000 2.000000 1.994000 1.992000 1.988000 1.983000 1.978000 1.974000 1.969000 1.964000 1.962000 1.954000 1.952000 1.950000 1.945000 1.943000 1.942000 1.938000 1.934000 0.000000 0.000000 0.000000 0.000000 0.000000 0.000000 
0.000000 0.000000 0.000000 0.000000 0.000000 0.000000 1.054000 1.054000 2.035000 2.029000 2.026000 2.024000 2.016000 2.014000 2.012000 2.007000 2.002000 1.996000 1.992000 1.988000 1.983000 1.978000 1.972000 1.969000 1.967000 1.963000 1.957000 1.952000 1.951000 1.945000 1.943000 1.942000 1.939000 1.936000 0.000000 0.000000 0.000000 0.000000 0.000000 0.000000 
0.000000 0.000000 0.000000 0.000000 0.000000 0.000000 1.639000 1.054000 2.037000 2.031000 2.027000 2.024000 2.018000 2.015000 2.012000 2.007000 2.002000 1.999000 1.993000 1.991000 1.983000 1.981000 1.976000 1.972000 1.969000 1.964000 1.960000 1.955000 1.952000 1.948000 1.943000 1.943000 1.940000 1.054000 0.000000 0.000000 0.000000 0.000000 0.000000 0.000000 
0.000000 0.000000 0.000000 0.000000 0.000000 0.000000 1.054000 1.054000 2.038000 2.032000 2.029000 2.027000 2.022000 2.016000 2.014000 2.011000 2.005000 2.000000 1.993000 1.990000 1.984000 1.981000 1.977000 1.972000 1.967000 1.963000 1.959000 1.955000 1.952000 1.945000 1.943000 1.944000 1.937000 1.555000 0.000000 0.000000 0.000000 0.000000 0.000000 0.000000 
0.000000 0.000000 0.000000 0.000000 0.000000 0.000000 1.054000 1.054000 2.037000 2.034000 2.029000 2.024000 2.022000 2.016000 2.014000 2.009000 2.005000 2.000000 1.994000 1.990000 1.984000 1.981000 1.977000 1.973000 1.967000 1.963000 1.961000 1.955000 1.952000 1.948000 1.945000 1.945000 1.934000 1.054000 0.000000 0.000000 0.000000 0.000000 0.000000 0.000000 
0.000000 0.000000 0.000000 0.000000 0.000000 1.256000 1.054000 1.054000 2.038000 2.034000 2.029000 2.027000 2.022000 2.017000 2.015000 2.010000 2.005000 2.000000 1.995000 1.992000 1.986000 1.982000 1.979000 1.974000 1.970000 1.964000 1.962000 1.955000 1.955000 1.950000 1.946000 1.945000 1.939000 1.054000 0.000000 0.000000 0.000000 0.000000 0.000000 0.000000 
0.000000 0.000000 0.000000 0.000000 0.000000 1.054000 1.054000 1.635000 2.040000 2.034000 2.029000 2.027000 2.024000 2.019000 2.015000 2.012000 2.005000 2.002000 1.995000 1.993000 1.986000 1.983000 1.979000 1.974000 1.972000 1.967000 1.963000 1.959000 1.955000 1.952000 1.946000 1.946000 1.530000 1.054000 0.000000 0.000000 0.000000 0.000000 0.000000 0.000000 
0.000000 0.000000 0.000000 0.000000 0.000000 1.054000 1.054000 2.043000 2.041000 2.035000 2.032000 2.027000 2.024000 2.021000 2.016000 2.012000 2.005000 2.002000 1.998000 1.993000 1.988000 1.984000 1.981000 1.974000 1.972000 1.967000 1.964000 1.959000 1.955000 1.952000 1.948000 1.948000 1.532000 1.054000 0.000000 0.000000 0.000000 0.000000 0.000000 0.000000 
0.000000 0.000000 0.000000 0.000000 0.000000 1.054000 1.054000 2.044000 2.042000 2.035000 2.032000 2.029000 2.024000 2.021000 2.016000 2.013000 2.009000 2.002000 1.999000 1.994000 1.991000 1.984000 1.982000 1.977000 1.972000 1.969000 1.964000 1.961000 1.955000 1.952000 1.948000 1.948000 1.404000 1.054000 0.000000 0.000000 0.000000 0.000000 0.000000 0.000000 
0.000000 0.000000 0.000000 0.000000 0.000000 1.054000 1.054000 2.048000 2.043000 2.037000 2.032000 2.029000 2.024000 2.022000 2.017000 2.012000 2.009000 2.002000 2.000000 1.995000 1.990000 1.984000 1.983000 1.978000 1.974000 1.970000 1.964000 1.961000 1.957000 1.952000 1.950000 1.948000 2.181000 2.449000 0.000000 0.000000 0.000000 0.000000 0.000000 0.000000 
0.000000 0.000000 0.000000 0.000000 0.000000 1.054000 1.054000 2.047000 2.043000 2.037000 2.032000 2.032000 2.027000 2.021000 2.016000 2.011000 2.010000 2.005000 2.001000 1.997000 1.991000 1.986000 1.982000 1.979000 1.974000 1.972000 1.966000 1.962000 1.958000 1.955000 1.950000 1.944000 2.171000 2.435000 0.000000 0.000000 0.000000 0.000000 0.000000 0.000000 
0.000000 0.000000 0.000000 0.000000 0.000000 1.054000 1.054000 2.049000 2.045000 2.038000 2.035000 2.033000 2.027000 2.024000 2.020000 2.013000 2.010000 2.005000 2.000000 1.997000 1.993000 1.987000 1.984000 1.979000 1.974000 1.970000 1.966000 1.961000 1.960000 1.956000 1.951000 1.950000 1.898000 2.435000 0.000000 0.000000 0.000000 0.000000 0.000000 0.000000 
0.000000 0.000000 0.000000 0.000000 0.000000 1.054000 1.769000 2.050000 2.045000 2.043000 2.035000 2.035000 2.029000 2.025000 2.023000 2.015000 2.010000 2.005000 2.002000 1.998000 1.993000 1.987000 1.984000 1.982000 1.975000 1.972000 1.967000 1.962000 1.962000 1.955000 1.952000 1.954000 1.054000 1.054000 0.000000 0.000000 0.000000 0.000000 0.000000 0.000000 
0.000000 0.000000 0.000000 0.000000 0.000000 1.054000 1.807000 2.050000 2.046000 2.042000 2.035000 2.035000 2.032000 2.027000 2.021000 2.015000 2.013000 2.005000 2.000000 1.998000 1.994000 1.991000 1.984000 1.982000 1.977000 1.974000 1.968000 1.963000 1.961000 1.955000 1.953000 1.952000 1.054000 1.054000 0.000000 0.000000 0.000000 0.000000 0.000000 0.000000 
0.000000 0.000000 0.000000 0.000000 0.000000 1.054000 1.811000 2.053000 2.047000 2.042000 2.035000 2.035000 2.029000 2.027000 2.023000 2.016000 2.013000 2.008000 2.003000 2.000000 1.995000 1.992000 1.987000 1.982000 1.978000 1.974000 1.969000 1.964000 1.962000 1.960000 1.953000 1.955000 1.054000 0.000000 0.000000 0.000000 0.000000 0.000000 0.000000 0.000000 
0.000000 0.000000 0.000000 0.000000 0.000000 1.054000 2.060000 2.054000 2.048000 2.042000 2.038000 2.035000 2.030000 2.027000 2.023000 2.016000 2.013000 2.008000 2.003000 2.001000 1.996000 1.992000 1.987000 1.982000 1.980000 1.973000 1.970000 1.966000 1.962000 1.957000 1.955000 1.388000 1.054000 0.000000 0.000000 0.000000 0.000000 0.000000 0.000000 0.000000 
0.000000 0.000000 0.000000 0.000000 0.000000 1.054000 2.062000 2.056000 2.049000 2.042000 2.039000 2.038000 2.032000 2.027000 2.024000 2.019000 2.014000 2.010000 2.005000 2.002000 1.996000 1.993000 1.987000 1.984000 1.982000 1.975000 1.973000 1.967000 1.962000 1.960000 1.958000 1.292000 2.341000 0.000000 0.000000 0.000000 0.000000 0.000000 0.000000 0.000000 
0.000000 0.000000 0.000000 0.000000 0.000000 1.054000 2.065000 2.056000 2.050000 2.043000 2.041000 2.035000 2.032000 2.028000 2.027000 2.020000 2.016000 2.013000 2.006000 2.001000 1.996000 1.993000 1.989000 1.984000 1.982000 1.976000 1.973000 1.964000 1.962000 1.962000 1.962000 1.054000 2.351000 0.000000 0.000000 0.000000 0.000000 0.000000 0.000000 0.000000 
0.000000 0.000000 0.000000 0.000000 0.000000 1.054000 2.062000 2.058000 2.052000 2.043000 2.043000 2.038000 2.033000 2.032000 2.027000 2.022000 2.016000 2.013000 2.010000 2.002000 1.997000 1.993000 1.992000 1.987000 1.982000 1.979000 1.973000 1.969000 1.967000 1.962000 1.960000 1.054000 2.380000 0.000000 0.000000 0.000000 0.000000 0.000000 0.000000 0.000000 
0.000000 0.000000 0.000000 0.000000 0.000000 1.054000 2.064000 2.058000 2.052000 2.046000 2.043000 2.039000 2.036000 2.033000 2.027000 2.024000 2.016000 2.013000 2.008000 2.003000 1.999000 1.993000 1.992000 1.987000 1.982000 1.979000 1.973000 1.971000 1.964000 1.962000 1.962000 1.054000 0.000000 0.000000 0.000000 0.000000 0.000000 0.000000 0.000000 0.000000 
0.000000 0.000000 0.000000 0.000000 0.000000 1.643000 2.066000 2.059000 2.055000 2.047000 2.043000 2.041000 2.035000 2.033000 2.027000 2.025000 2.018000 2.016000 2.011000 2.005000 2.001000 1.994000 1.992000 1.987000 1.984000 1.980000 1.974000 1.972000 1.968000 1.964000 1.508000 2.101000 0.000000 0.000000 0.000000 0.000000 0.000000 0.000000 0.000000 0.000000 
0.000000 0.000000 0.000000 0.000000 0.000000 1.983000 2.066000 2.059000 2.055000 2.049000 2.044000 2.043000 2.037000 2.036000 2.029000 2.026000 2.021000 2.016000 2.013000 2.006000 2.002000 1.999000 1.993000 1.987000 1.984000 1.979000 1.974000 1.972000 1.968000 1.964000 1.577000 1.538000 0.000000 0.000000 0.000000 0.000000 0.000000 0.000000 0.000000 0.000000 
0.000000 0.000000 0.000000 0.000000 0.000000 2.071000 2.065000 2.061000 2.057000 2.054000 2.046000 2.046000 2.039000 2.036000 2.033000 2.026000 2.021000 2.016000 2.013000 2.009000 2.004000 2.001000 1.994000 1.990000 1.984000 1.982000 1.975000 1.974000 1.972000 1.967000 1.054000 0.000000 0.000000 0.000000 0.000000 0.000000 0.000000 0.000000 0.000000 0.000000 
0.000000 0.000000 0.000000 0.000000 0.000000 2.073000 2.067000 2.062000 2.058000 2.054000 2.046000 2.046000 2.041000 2.036000 2.035000 2.027000 2.024000 2.018000 2.013000 2.010000 2.005000 1.999000 1.994000 1.992000 1.985000 1.982000 1.979000 1.973000 1.972000 1.969000 1.216000 0.000000 0.000000 0.000000 0.000000 0.000000 0.000000 0.000000 0.000000 0.000000 
0.000000 0.000000 0.000000 0.000000 0.000000 2.070000 2.070000 2.065000 2.058000 2.054000 2.046000 2.046000 2.041000 2.038000 2.034000 2.027000 2.024000 2.021000 2.014000 2.008000 2.004000 2.001000 1.994000 1.994000 1.990000 1.984000 1.981000 1.974000 1.972000 1.969000 1.054000 0.000000 0.000000 0.000000 0.000000 0.000000 0.000000 0.000000 0.000000 0.000000 
0.000000 0.000000 0.000000 0.000000 0.000000 2.070000 2.068000 2.067000 2.059000 2.054000 2.046000 2.046000 2.043000 2.039000 2.034000 2.027000 2.024000 2.017000 2.016000 2.006000 2.004000 2.001000 1.994000 1.992000 1.989000 1.983000 1.981000 1.974000 1.972000 1.972000 1.054000 0.000000 0.000000 0.000000 0.000000 0.000000 0.000000 0.000000 0.000000 0.000000 
0.000000 0.000000 0.000000 0.000000 0.000000 2.078000 2.069000 2.065000 2.061000 2.057000 2.051000 2.049000 2.045000 2.039000 2.034000 2.028000 2.027000 2.018000 2.016000 2.010000 2.005000 2.002000 1.999000 1.994000 1.988000 1.984000 1.980000 1.978000 1.973000 1.972000 1.122000 0.000000 0.000000 0.000000 0.000000 0.000000 0.000000 0.000000 0.000000 0.000000 
0.000000 0.000000 0.000000 0.000000 0.000000 2.699000 2.218000 2.065000 2.063000 2.057000 2.050000 2.049000 2.046000 2.040000 2.035000 2.029000 2.027000 2.023000 2.014000 2.009000 2.005000 2.004000 2.001000 1.994000 1.992000 1.985000 1.981000 1.978000 1.974000 1.972000 1.054000 0.000000 0.000000 0.000000 0.000000 0.000000 0.000000 0.000000 0.000000 0.000000 
0.000000 0.000000 0.000000 0.000000 0.000000 0.000000 0.000000 0.000000 2.272000 2.052000 2.049000 2.049000 2.046000 2.042000 2.035000 2.028000 2.027000 2.021000 2.017000 2.014000 2.007000 2.002000 2.002000 1.997000 1.992000 1.986000 1.982000 1.980000 1.975000 1.365000 1.054000 0.000000 0.000000 0.000000 0.000000 0.000000 0.000000 0.000000 0.000000 0.000000 
0.000000 0.000000 0.000000 0.000000 0.000000 0.000000 0.000000 0.000000 0.000000 0.000000 0.000000 1.054000 1.054000 1.987000 2.035000 2.031000 2.026000 2.024000 2.019000 2.013000 2.008000 2.005000 2.002000 1.997000 1.994000 1.988000 1.982000 1.982000 1.979000 1.086000 0.000000 0.000000 0.000000 0.000000 0.000000 0.000000 0.000000 0.000000 0.000000 0.000000 
0.000000 0.000000 0.000000 0.000000 0.000000 0.000000 0.000000 0.000000 0.000000 0.000000 0.000000 1.054000 1.054000 1.065000 2.139000 2.146000 2.133000 2.024000 2.022000 2.014000 2.010000 2.005000 2.002000 2.000000 1.994000 1.990000 1.984000 1.983000 1.868000 1.054000 0.000000 0.000000 0.000000 0.000000 0.000000 0.000000 0.000000 0.000000 0.000000 0.000000 
0.000000 0.000000 0.000000 0.000000 0.000000 0.000000 0.000000 0.000000 0.000000 1.332000 1.054000 2.122000 1.897000 1.573000 2.121000 2.135000 2.132000 2.135000 2.119000 2.027000 2.012000 2.007000 2.002000 2.000000 1.994000 1.990000 1.986000 1.983000 1.982000 1.084000 0.000000 0.000000 0.000000 0.000000 0.000000 0.000000 0.000000 0.000000 0.000000 0.000000 
0.000000 0.000000 0.000000 0.000000 0.000000 0.000000 0.000000 0.000000 2.224000 1.054000 2.096000 2.097000 2.096000 2.103000 2.107000 2.109000 2.112000 2.112000 1.588000 1.054000 1.054000 1.386000 1.385000 1.971000 1.995000 1.992000 1.989000 1.984000 1.979000 2.601000 0.000000 0.000000 0.000000 0.000000 0.000000 0.000000 0.000000 0.000000 0.000000 0.000000 
0.000000 0.000000 0.000000 0.000000 0.000000 2.004000 2.332000 2.078000 1.054000 1.318000 2.079000 2.084000 2.068000 2.078000 2.087000 2.087000 2.087000 2.090000 1.289000 1.054000 1.054000 1.054000 1.054000 1.909000 2.912000 2.936000 2.241000 1.987000 2.568000 0.000000 0.000000 0.000000 0.000000 0.000000 0.000000 0.000000 0.000000 0.000000 0.000000 0.000000 
