40 40
1.958000 1.961000 1.962000 1.962000 1.962000 1.968000 1.970000 0.000000 1.166000 2.312000 0.000000 0.000000 0.000000 0.000000 1.987000 1.987000 1.987000 0.000000 0.000000 0.000000 0.000000 0.000000 0.000000 0.000000 0.000000 0.000000 0.000000 0.000000 0.000000 0.000000 0.000000 0.000000 0.000000 0.000000 0.000000 0.000000 0.000000 0.000000 0.000000 0.000000 
1.958000 1.962000 1.962000 1.962000 1.962000 1.971000 1.071000 0.000000 1.428000 0.000000 0.000000 0.000000 2.687000 1.986000 1.983000 1.987000 1.987000 1.987000 1.994000 2.027000 0.000000 0.000000 0.000000 0.000000 0.000000 0.000000 0.000000 0.000000 0.000000 0.000000 0.000000 0.000000 0.000000 0.000000 0.000000 0.000000 0.000000 0.000000 0.000000 0.000000 
1.966000 1.963000 1.962000 1.963000 1.972000 1.983000 1.986000 0.000000 0.000000 0.000000 0.000000 1.969000 1.989000 1.987000 1.986000 1.985000 1.987000 1.987000 1.991000 1.996000 1.999000 0.000000 0.000000 0.000000 0.000000 0.000000 0.000000 0.000000 0.000000 0.000000 0.000000 0.000000 0.000000 0.000000 0.000000 0.000000 0.000000 0.000000 0.000000 0.000000 
1.966000 1.966000 1.963000 0.000000 0.000000 0.000000 0.000000 0.000000 0.000000 0.000000 0.000000 1.986000 1.983000 1.987000 1.987000 1.987000 1.987000 1.987000 1.990000 1.988000 1.997000 2.057000 2.070000 0.000000 0.000000 0.000000 0.000000 0.000000 0.000000 0.000000 0.000000 0.000000 0.000000 0.000000 0.000000 0.000000 0.000000 0.000000 0.000000 0.000000 
1.965000 1.962000 1.970000 0.000000 0.000000 0.000000 0.000000 0.000000 2.003000 2.002000 1.989000 1.983000 1.987000 1.987000 1.987000 1.987000 1.987000 1.987000 1.987000 1.988000 1.990000 2.002000 2.062000 2.138000 0.000000 0.000000 0.000000 0.000000 0.000000 0.000000 0.000000 0.000000 0.000000 0.000000 0.000000 0.000000 0.000000 0.000000 0.000000 0.000000 
1.967000 1.970000 0.000000 0.000000 0.000000 0.000000 0.000000 0.000000 1.995000 1.993000 1.988000 1.983000 1.987000 1.987000 1.987000 1.987000 1.987000 1.989000 1.989000 1.989000 1.990000 1.991000 1.996000 2.069000 2.075000 0.000000 0.000000 0.000000 0.000000 0.000000 0.000000 0.000000 0.000000 0.000000 0.000000 0.000000 0.000000 0.000000 0.000000 0.000000 
1.972000 1.989000 0.000000 0.000000 0.000000 0.000000 0.000000 0.000000 1.981000 1.987000 1.984000 1.987000 1.987000 1.987000 1.987000 1.987000 1.987000 1.991000 1.991000 1.991000 1.991000 1.993000 1.996000 1.998000 2.031000 2.079000 0.000000 0.000000 0.000000 0.000000 0.000000 0.000000 0.000000 0.000000 0.000000 0.000000 0.000000 0.000000 0.000000 0.000000 
0.000000 0.000000 0.000000 0.000000 0.000000 0.000000 0.000000 1.971000 1.980000 1.983000 1.983000 1.987000 1.990000 1.991000 1.991000 1.987000 1.987000 1.991000 1.991000 1.991000 1.991000 1.993000 1.991000 1.996000 1.998000 2.009000 2.096000 0.000000 0.000000 0.000000 0.000000 0.000000 0.000000 0.000000 0.000000 0.000000 0.000000 0.000000 0.000000 0.000000 
2.457000 0.000000 0.000000 0.000000 0.000000 0.000000 1.728000 1.983000 1.983000 1.987000 1.985000 1.986000 1.987000 1.990000 1.991000 1.987000 1.987000 1.991000 1.991000 1.991000 1.991000 1.996000 1.996000 1.996000 1.997000 2.003000 2.021000 2.065000 0.000000 0.000000 0.000000 0.000000 0.000000 0.000000 0.000000 0.000000 0.000000 0.000000 0.000000 0.000000 
0.000000 1.117000 0.000000 0.000000 2.003000 1.179000 1.980000 1.983000 1.985000 1.987000 1.987000 1.987000 1.987000 1.987000 1.987000 1.988000 1.988000 1.991000 1.991000 1.991000 1.991000 1.995000 1.996000 1.996000 1.997000 2.000000 2.006000 2.050000 2.073000 0.000000 0.000000 0.000000 0.000000 0.000000 0.000000 0.000000 0.000000 0.000000 0.000000 0.000000 
0.000000 0.000000 0.000000 0.000000 1.588000 1.983000 1.983000 1.983000 1.987000 1.987000 1.987000 1.987000 1.987000 1.987000 1.987000 1.991000 1.991000 1.991000 1.991000 1.991000 1.991000 1.994000 1.996000 1.996000 1.999000 2.000000 2.000000 2.003000 2.022000 2.051000 0.000000 0.000000 0.000000 0.000000 0.000000 0.000000 0.000000 0.000000 0.000000 0.000000 
0.000000 0.000000 2.118000 0.000000 1.987000 1.983000 1.983000 1.983000 1.987000 1.987000 1.987000 1.987000 1.987000 1.987000 1.990000 1.991000 1.991000 1.991000 1.991000 1.991000 1.991000 1.996000 1.996000 1.996000 2.003000 2.002000 2.002000 2.004000 2.005000 2.020000 1.688000 0.000000 0.000000 0.000000 0.000000 0.000000 0.000000 0.000000 0.000000 0.000000 
0.000000 2.132000 0.000000 1.990000 1.987000 1.987000 1.987000 1.987000 1.987000 1.988000 1.991000 1.991000 1.991000 1.991000 1.991000 1.991000 1.991000 1.991000 1.991000 1.991000 1.991000 1.991000 1.996000 2.000000 2.004000 2.002000 2.000000 2.004000 2.004000 2.006000 2.014000 1.530000 0.000000 0.000000 0.000000 0.000000 0.000000 0.000000 0.000000 0.000000 
2.601000 1.790000 1.987000 1.987000 1.987000 1.987000 1.987000 1.987000 1.987000 1.988000 1.991000 1.991000 1.991000 1.991000 1.991000 1.989000 1.990000 1.995000 1.992000 1.996000 1.994000 1.991000 1.996000 1.996000 2.000000 2.002000 2.000000 2.004000 2.004000 2.004000 2.006000 2.013000 1.158000 0.000000 0.000000 0.000000 0.000000 0.000000 0.000000 0.000000 
0.000000 1.983000 1.983000 1.985000 1.987000 1.991000 1.987000 1.987000 1.988000 1.991000 1.991000 1.991000 1.991000 1.991000 1.991000 1.991000 1.991000 1.992000 1.991000 1.992000 1.996000 1.992000 1.996000 1.996000 1.997000 2.004000 2.004000 2.003000 2.001000 2.004000 2.004000 2.004000 2.009000 2.065000 0.000000 0.000000 0.000000 0.000000 0.000000 0.000000 
1.987000 1.984000 1.985000 1.987000 1.987000 1.987000 1.987000 1.987000 1.991000 1.989000 1.991000 1.988000 1.991000 1.991000 1.991000 1.991000 1.991000 1.996000 1.991000 1.995000 1.996000 1.996000 1.996000 1.996000 1.998000 2.002000 2.002000 2.000000 2.004000 2.004000 2.004000 2.004000 2.004000 2.011000 2.045000 2.659000 0.000000 0.000000 0.000000 0.000000 
1.987000 1.986000 1.987000 1.987000 1.987000 1.987000 1.987000 1.987000 1.990000 1.987000 1.991000 1.988000 1.988000 1.991000 1.991000 1.991000 1.991000 1.991000 1.996000 1.996000 1.996000 1.996000 1.996000 1.996000 2.000000 2.000000 2.000000 2.003000 2.004000 2.004000 2.004000 2.004000 2.004000 2.006000 2.012000 2.050000 2.643000 0.000000 0.000000 0.000000 
1.987000 1.987000 1.987000 1.987000 1.987000 1.983000 1.986000 1.991000 1.991000 1.991000 1.991000 1.991000 1.991000 1.991000 1.995000 1.991000 1.991000 1.991000 1.996000 1.996000 1.996000 1.998000 2.000000 2.000000 2.000000 2.000000 2.000000 2.004000 2.004000 2.004000 2.004000 2.004000 2.004000 2.004000 2.005000 2.009000 2.030000 2.076000 2.461000 0.000000 
2.093000 1.986000 1.987000 1.987000 1.987000 1.987000 1.987000 1.987000 1.987000 1.991000 1.991000 1.991000 1.991000 1.991000 1.992000 1.996000 1.996000 1.991000 1.996000 1.996000 1.998000 1.996000 2.000000 2.000000 2.004000 2.004000 2.004000 2.004000 2.004000 2.004000 2.004000 2.004000 2.004000 2.004000 2.005000 2.009000 2.023000 2.042000 2.050000 0.000000 
0.000000 1.974000 1.979000 1.988000 1.987000 1.987000 1.987000 1.987000 1.988000 1.991000 1.991000 1.991000 1.991000 1.991000 1.992000 1.996000 1.996000 1.996000 1.996000 1.996000 1.999000 2.000000 2.000000 2.004000 2.004000 2.000000 2.004000 2.004000 2.004000 2.004000 2.004000 2.004000 2.009000 2.009000 2.009000 2.009000 2.011000 2.016000 2.046000 2.075000 
0.000000 0.000000 0.000000 1.987000 1.984000 1.983000 1.987000 1.987000 1.988000 1.991000 1.991000 1.991000 1.991000 1.991000 1.994000 1.996000 1.996000 1.996000 1.996000 1.998000 1.997000 2.000000 2.004000 2.004000 2.004000 2.004000 2.004000 2.004000 2.004000 2.004000 2.006000 2.006000 2.009000 2.004000 2.009000 2.009000 2.009000 2.009000 2.011000 2.050000 
0.000000 0.000000 0.000000 0.000000 1.983000 1.986000 1.987000 1.987000 1.991000 1.991000 1.991000 1.991000 1.991000 1.994000 1.991000 1.996000 1.999000 1.999000 1.996000 2.000000 1.999000 2.000000 2.004000 2.004000 2.004000 2.004000 2.004000 2.004000 2.004000 2.004000 2.006000 2.009000 2.006000 2.004000 2.009000 2.009000 2.009000 2.009000 2.009000 2.014000 
0.000000 0.000000 0.000000 0.000000 1.987000 1.987000 1.987000 1.987000 1.991000 1.991000 1.991000 1.991000 1.995000 1.996000 1.996000 1.998000 1.996000 2.000000 1.996000 2.001000 2.002000 2.000000 2.004000 2.004000 2.004000 2.004000 2.004000 2.004000 2.004000 2.004000 2.004000 2.009000 2.008000 2.004000 2.009000 2.009000 2.009000 2.009000 2.009000 2.009000 
0.000000 0.000000 0.000000 0.000000 0.000000 2.045000 1.987000 1.991000 1.991000 1.991000 1.991000 1.991000 1.991000 1.992000 1.996000 2.000000 2.000000 2.000000 2.000000 2.004000 2.004000 2.004000 2.004000 2.000000 2.001000 2.004000 2.004000 2.004000 2.004000 2.004000 2.009000 2.009000 2.009000 2.009000 2.009000 2.009000 2.009000 2.009000 2.009000 2.013000 
0.000000 0.000000 0.000000 0.000000 0.000000 0.000000 2.674000 1.992000 1.991000 1.991000 1.991000 1.991000 1.991000 1.992000 1.996000 2.000000 2.000000 2.000000 1.999000 2.003000 2.004000 2.003000 2.004000 2.001000 2.002000 2.004000 2.004000 2.004000 2.004000 2.009000 2.009000 2.009000 2.009000 2.009000 2.009000 2.009000 2.009000 2.009000 2.009000 2.018000 
0.000000 0.000000 0.000000 0.000000 0.000000 0.000000 0.000000 0.000000 1.996000 1.992000 1.991000 1.991000 1.991000 1.993000 1.996000 1.998000 2.000000 1.996000 1.998000 2.001000 2.004000 2.000000 2.004000 2.004000 2.004000 2.004000 2.004000 2.004000 2.004000 2.009000 2.009000 2.009000 2.009000 2.009000 2.009000 2.009000 2.009000 2.009000 2.009000 2.018000 
0.000000 0.000000 0.000000 0.000000 0.000000 0.000000 0.000000 0.000000 1.272000 1.495000 1.994000 1.992000 1.996000 1.996000 1.996000 1.996000 1.996000 1.996000 2.000000 2.000000 2.003000 2.004000 2.004000 2.004000 2.004000 2.004000 2.004000 2.006000 2.009000 2.009000 2.009000 2.009000 2.009000 2.009000 2.009000 2.009000 2.009000 2.009000 2.006000 2.275000 
0.000000 0.000000 0.000000 0.000000 0.000000 0.000000 0.000000 0.000000 0.000000 2.799000 1.534000 1.995000 1.996000 1.996000 1.998000 1.999000 2.000000 2.000000 2.000000 2.003000 2.002000 2.001000 2.004000 2.004000 2.004000 2.004000 2.004000 2.008000 2.009000 2.009000 2.009000 2.009000 2.009000 2.009000 2.009000 2.009000 2.009000 2.009000 2.008000 0.000000 
0.000000 0.000000 0.000000 0.000000 0.000000 0.000000 0.000000 0.000000 0.000000 0.000000 0.000000 1.654000 1.996000 1.996000 2.000000 2.000000 2.000000 2.000000 2.000000 2.004000 2.004000 2.004000 2.004000 2.004000 2.004000 2.004000 2.007000 2.009000 2.009000 2.009000 2.009000 2.009000 2.009000 2.009000 2.013000 2.012000 2.009000 2.009000 0.000000 0.000000 
0.000000 0.000000 0.000000 0.000000 0.000000 0.000000 0.000000 0.000000 0.000000 0.000000 0.000000 0.000000 2.067000 2.000000 2.000000 2.000000 2.001000 2.000000 2.000000 2.004000 2.000000 2.004000 2.004000 2.004000 2.004000 2.004000 2.004000 2.004000 2.009000 2.009000 2.009000 2.009000 2.009000 2.009000 2.009000 2.011000 2.009000 0.000000 0.000000 0.000000 
0.000000 0.000000 0.000000 0.000000 0.000000 0.000000 0.000000 0.000000 0.000000 0.000000 0.000000 0.000000 0.000000 1.581000 2.003000 2.001000 2.002000 2.002000 2.002000 2.004000 2.004000 2.004000 2.004000 2.004000 2.004000 2.004000 2.006000 2.006000 2.009000 2.007000 2.009000 2.009000 2.009000 2.009000 2.009000 2.011000 0.000000 0.000000 0.000000 0.000000 
0.000000 0.000000 0.000000 0.000000 0.000000 0.000000 0.000000 0.000000 0.000000 0.000000 0.000000 0.000000 0.000000 0.000000 0.000000 2.002000 2.000000 2.004000 2.004000 2.004000 2.004000 2.004000 2.004000 2.004000 2.004000 2.005000 2.009000 2.009000 2.009000 2.005000 2.009000 2.009000 2.009000 2.009000 2.338000 0.000000 0.000000 0.000000 0.000000 0.000000 
0.000000 0.000000 0.000000 0.000000 0.000000 0.000000 0.000000 0.000000 0.000000 0.000000 0.000000 0.000000 0.000000 0.000000 0.000000 0.000000 2.003000 2.004000 2.004000 2.004000 2.004000 2.004000 2.004000 2.004000 2.004000 2.007000 2.009000 2.009000 2.009000 2.008000 2.009000 2.009000 2.009000 2.009000 0.000000 0.000000 0.000000 0.000000 0.000000 0.000000 
0.000000 0.000000 0.000000 0.000000 0.000000 0.000000 0.000000 0.000000 0.000000 0.000000 0.000000 0.000000 0.000000 0.000000 0.000000 0.000000 2.004000 1.996000 2.004000 2.004000 2.004000 2.004000 2.004000 2.004000 2.009000 2.004000 2.004000 2.009000 2.009000 2.009000 2.009000 2.009000 2.004000 0.000000 0.000000 0.000000 0.000000 0.000000 0.000000 0.000000 
0.000000 0.000000 0.000000 0.000000 0.000000 0.000000 0.000000 0.000000 0.000000 0.000000 0.000000 0.000000 0.000000 0.000000 0.000000 0.000000 0.000000 2.076000 2.004000 2.004000 2.004000 2.004000 2.005000 2.009000 2.009000 2.009000 2.009000 2.009000 2.009000 2.009000 2.009000 2.009000 0.000000 0.000000 0.000000 0.000000 0.000000 0.000000 0.000000 0.000000 
0.000000 0.000000 0.000000 0.000000 0.000000 0.000000 0.000000 0.000000 0.000000 0.000000 0.000000 0.000000 0.000000 0.000000 0.000000 0.000000 0.000000 0.000000 0.000000 2.008000 2.006000 2.006000 2.009000 2.009000 2.009000 2.009000 2.009000 2.009000 2.009000 2.009000 2.009000 2.755000 0.000000 0.000000 0.000000 0.000000 0.000000 0.000000 0.000000 0.000000 
0.000000 0.000000 0.000000 0.000000 0.000000 0.000000 0.000000 0.000000 0.000000 0.000000 0.000000 0.000000 0.000000 0.000000 0.000000 0.000000 0.000000 0.000000 0.000000 0.000000 2.010000 2.009000 2.009000 2.009000 2.009000 2.009000 2.009000 2.009000 2.009000 2.004000 2.808000 0.000000 0.000000 0.000000 0.000000 0.000000 0.000000 0.000000 0.000000 0.000000 
0.000000 0.000000 0.000000 0.000000 0.000000 0.000000 0.000000 0.000000 0.000000 0.000000 0.000000 0.000000 0.000000 0.000000 0.000000 0.000000 0.000000 0.000000 0.000000 0.000000 0.000000 2.009000 2.009000 2.009000 2.009000 2.004000 2.009000 2.009000 2.009000 2.498000 0.000000 0.000000 0.000000 0.000000 0.000000 0.000000 0.000000 0.000000 0.000000 0.000000 
0.000000 0.000000 0.000000 0.000000 0.000000 0.000000 0.000000 0.000000 0.000000 0.000000 0.000000 0.000000 0.000000 0.000000 0.000000 0.000000 0.000000 0.000000 0.000000 0.000000 0.000000 0.000000 2.606000 2.009000 2.012000 2.009000 2.006000 2.000000 2.004000 0.000000 0.000000 0.000000 0.000000 0.000000 0.000000 0.000000 0.000000 0.000000 0.000000 0.000000 
0.000000 0.000000 0.000000 0.000000 0.000000 0.000000 0.000000 0.000000 0.000000 0.000000 0.000000 0.000000 0.000000 0.000000 0.000000 0.000000 0.000000 0.000000 0.000000 0.000000 0.000000 0.000000 0.000000 0.000000 2.013000 2.009000 2.002000 2.000000 0.000000 0.000000 0.000000 0.000000 0.000000 0.000000 0.000000 0.000000 0.000000 0.000000 0.000000 0.000000 
