40 40
0.000000 0.000000 0.000000 0.000000 0.000000 0.000000 0.000000 0.000000 0.000000 0.000000 0.000000 0.000000 0.000000 0.000000 0.000000 0.000000 0.000000 0.000000 0.000000 0.000000 0.000000 0.000000 0.000000 0.000000 0.000000 0.000000 0.000000 0.000000 0.000000 0.000000 0.000000 0.000000 0.000000 0.000000 0.000000 0.000000 0.000000 0.000000 0.000000 0.000000 
0.000000 0.000000 0.000000 0.000000 0.000000 0.000000 0.000000 0.000000 0.000000 0.000000 0.000000 0.000000 0.000000 0.000000 0.000000 0.000000 0.000000 0.000000 0.000000 0.000000 0.000000 0.000000 0.000000 0.000000 0.000000 0.000000 0.000000 0.000000 0.000000 0.000000 0.000000 0.000000 0.000000 0.000000 0.000000 0.000000 0.000000 0.000000 0.000000 0.000000 
0.000000 0.000000 0.000000 0.000000 0.000000 0.000000 0.000000 0.000000 0.000000 0.000000 2.008000 2.015000 2.013000 2.013000 2.012000 1.993000 1.993000 1.993000 1.993000 1.993000 0.000000 0.000000 2.007000 1.992000 1.985000 1.987000 1.985000 1.982000 1.982000 1.985000 1.990000 2.489000 0.000000 0.000000 0.000000 0.000000 0.000000 0.000000 0.000000 0.000000 
0.000000 0.000000 0.000000 0.000000 0.000000 0.000000 2.022000 2.016000 2.008000 2.000000 2.000000 2.008000 2.008000 2.002000 1.993000 1.993000 1.993000 1.993000 1.993000 1.985000 1.978000 1.985000 1.989000 1.985000 1.985000 1.985000 1.977000 1.970000 1.970000 1.977000 1.985000 2.503000 0.000000 0.000000 0.000000 0.000000 0.000000 0.000000 0.000000 0.000000 
0.000000 0.000000 0.000000 0.000000 0.000000 0.000000 2.008000 2.008000 2.008000 1.993000 1.993000 2.006000 1.996000 1.996000 1.993000 1.993000 1.985000 1.993000 1.993000 1.985000 1.982000 1.985000 1.989000 1.985000 1.985000 1.985000 1.970000 1.970000 1.971000 1.981000 1.985000 2.197000 0.000000 0.000000 0.000000 0.000000 0.000000 0.000000 0.000000 0.000000 
0.000000 0.000000 0.000000 0.000000 0.000000 0.000000 2.007000 2.008000 2.008000 1.998000 1.993000 2.000000 1.993000 1.993000 1.994000 2.000000 1.994000 1.993000 1.993000 1.988000 1.985000 1.985000 1.989000 1.985000 1.985000 1.985000 1.978000 1.972000 1.973000 1.977000 1.993000 1.622000 0.000000 0.000000 0.000000 0.000000 0.000000 0.000000 0.000000 0.000000 
0.000000 0.000000 0.000000 0.000000 0.000000 0.000000 2.003000 2.008000 2.008000 2.007000 2.000000 2.000000 1.993000 1.993000 1.996000 2.000000 1.995000 1.993000 1.993000 1.985000 1.985000 1.985000 1.992000 1.985000 1.985000 1.985000 1.985000 1.984000 1.977000 1.977000 1.993000 1.952000 0.000000 0.000000 0.000000 0.000000 0.000000 0.000000 0.000000 0.000000 
0.000000 0.000000 0.000000 0.000000 0.000000 0.000000 2.008000 2.008000 2.008000 2.008000 2.008000 2.006000 2.004000 2.001000 2.000000 2.000000 1.995000 1.993000 1.993000 1.993000 1.991000 1.985000 1.989000 1.988000 1.985000 1.985000 1.985000 1.985000 1.977000 1.977000 1.997000 2.041000 0.000000 0.000000 0.000000 0.000000 0.000000 0.000000 0.000000 0.000000 
0.000000 0.000000 0.000000 0.000000 0.000000 0.000000 2.007000 2.008000 2.008000 2.008000 2.008000 2.009000 2.009000 2.003000 2.000000 2.001000 2.000000 1.998000 1.993000 1.993000 1.990000 1.985000 1.985000 1.985000 1.985000 1.985000 1.985000 1.985000 1.985000 1.985000 1.998000 2.041000 0.000000 0.000000 0.000000 0.000000 0.000000 0.000000 0.000000 0.000000 
0.000000 0.000000 0.000000 0.000000 0.000000 0.000000 2.003000 2.014000 2.008000 2.008000 2.008000 2.016000 2.016000 2.009000 2.006000 2.008000 2.001000 1.998000 1.993000 1.989000 1.985000 1.985000 1.991000 1.985000 1.985000 1.985000 1.985000 1.985000 1.985000 1.985000 2.003000 2.034000 0.000000 0.000000 0.000000 0.000000 0.000000 0.000000 0.000000 0.000000 
0.000000 0.000000 0.000000 0.000000 0.000000 0.000000 2.008000 2.008000 2.008000 2.008000 2.008000 2.016000 2.016000 2.010000 2.008000 2.008000 2.000000 2.000000 2.000000 1.988000 1.985000 1.985000 1.993000 1.985000 1.985000 1.985000 1.985000 1.985000 1.980000 1.977000 1.999000 2.217000 0.000000 0.000000 0.000000 0.000000 0.000000 0.000000 0.000000 0.000000 
0.000000 0.000000 0.000000 0.000000 0.000000 0.000000 2.016000 2.016000 2.008000 2.008000 2.008000 2.016000 2.016000 2.010000 2.008000 2.008000 2.003000 2.000000 2.000000 1.993000 1.993000 1.993000 1.993000 1.993000 1.987000 1.985000 1.985000 1.985000 1.977000 1.985000 1.994000 2.473000 0.000000 0.000000 0.000000 0.000000 0.000000 0.000000 0.000000 0.000000 
0.000000 0.000000 0.000000 0.000000 0.000000 0.000000 2.020000 2.016000 2.014000 2.008000 2.008000 2.016000 2.016000 2.010000 2.008000 2.008000 2.006000 2.005000 2.000000 1.993000 1.993000 1.993000 1.993000 1.993000 1.993000 1.985000 1.985000 1.985000 1.985000 1.985000 1.997000 2.018000 0.000000 0.000000 0.000000 0.000000 0.000000 0.000000 0.000000 0.000000 
0.000000 0.000000 0.000000 0.000000 0.000000 0.000000 2.023000 2.016000 2.016000 2.010000 2.008000 2.016000 2.016000 2.016000 2.013000 2.008000 2.008000 2.008000 2.000000 1.993000 1.993000 1.993000 1.993000 1.993000 1.993000 1.988000 1.987000 1.985000 1.985000 1.985000 1.994000 2.024000 0.000000 0.000000 0.000000 0.000000 0.000000 0.000000 0.000000 0.000000 
0.000000 0.000000 0.000000 0.000000 0.000000 0.000000 0.000000 2.016000 2.016000 2.014000 2.008000 2.016000 2.016000 2.016000 2.016000 2.016000 2.016000 2.013000 2.000000 1.996000 1.993000 1.993000 1.993000 1.993000 1.993000 1.993000 1.993000 1.985000 1.985000 1.985000 2.001000 2.032000 0.000000 0.000000 0.000000 0.000000 0.000000 0.000000 0.000000 0.000000 
0.000000 0.000000 0.000000 0.000000 0.000000 0.000000 0.000000 2.016000 2.016000 2.016000 2.016000 2.022000 2.016000 2.016000 2.016000 2.016000 2.016000 2.013000 2.000000 1.996000 1.994000 1.997000 1.995000 1.993000 1.993000 1.993000 1.993000 1.990000 1.990000 1.990000 2.002000 2.024000 0.000000 0.000000 0.000000 0.000000 0.000000 0.000000 0.000000 0.000000 
0.000000 0.000000 0.000000 0.000000 0.000000 0.000000 0.000000 2.016000 2.016000 2.016000 2.016000 2.020000 2.016000 2.016000 2.008000 2.016000 2.016000 2.008000 1.994000 1.993000 1.995000 2.000000 1.993000 1.993000 1.993000 1.993000 1.993000 1.993000 1.990000 1.985000 1.997000 2.026000 0.000000 0.000000 0.000000 0.000000 0.000000 0.000000 0.000000 0.000000 
0.000000 0.000000 0.000000 0.000000 0.000000 0.000000 0.000000 2.016000 2.016000 2.016000 2.016000 2.017000 2.016000 2.016000 2.008000 2.016000 2.011000 2.008000 1.999000 1.999000 1.999000 1.995000 1.993000 1.993000 1.993000 1.993000 1.993000 1.993000 1.990000 1.985000 1.991000 2.026000 0.000000 0.000000 0.000000 0.000000 0.000000 0.000000 0.000000 0.000000 
0.000000 0.000000 0.000000 0.000000 0.000000 0.000000 0.000000 2.020000 2.016000 2.016000 2.016000 2.016000 2.016000 2.016000 2.016000 2.016000 2.013000 2.008000 2.004000 2.002000 1.998000 1.993000 1.995000 1.993000 1.993000 1.993000 1.993000 1.993000 1.988000 1.985000 1.991000 2.531000 0.000000 0.000000 0.000000 0.000000 0.000000 0.000000 0.000000 0.000000 
0.000000 0.000000 0.000000 0.000000 0.000000 0.000000 2.016000 2.016000 2.016000 2.016000 2.017000 2.016000 2.023000 2.016000 2.016000 2.016000 2.016000 2.009000 2.008000 2.000000 2.000000 2.000000 2.000000 1.994000 1.993000 1.993000 1.993000 1.992000 1.985000 1.985000 1.994000 2.025000 0.000000 0.000000 0.000000 0.000000 0.000000 0.000000 0.000000 0.000000 
0.000000 0.000000 0.000000 0.000000 0.000000 0.000000 0.000000 2.016000 2.016000 2.016000 2.023000 2.022000 2.018000 2.016000 2.016000 2.016000 2.016000 2.016000 2.008000 2.000000 2.000000 2.000000 2.000000 2.000000 1.998000 1.996000 1.993000 1.988000 1.985000 1.985000 1.991000 2.007000 2.018000 0.000000 0.000000 0.000000 0.000000 0.000000 0.000000 0.000000 
0.000000 0.000000 0.000000 0.000000 0.000000 0.000000 0.000000 2.016000 2.016000 2.016000 2.020000 2.024000 2.016000 2.016000 2.017000 2.016000 2.016000 2.016000 2.008000 2.003000 2.004000 2.001000 2.000000 1.997000 1.999000 1.995000 1.993000 1.993000 1.991000 1.988000 1.993000 2.008000 2.023000 0.000000 0.000000 0.000000 0.000000 0.000000 0.000000 0.000000 
0.000000 0.000000 0.000000 0.000000 0.000000 0.000000 0.000000 2.017000 2.016000 2.016000 2.016000 2.024000 2.016000 2.016000 2.019000 2.023000 2.016000 2.016000 2.016000 2.016000 2.008000 2.001000 2.000000 1.993000 1.998000 1.993000 1.993000 1.993000 1.993000 1.993000 1.997000 2.022000 2.048000 0.000000 0.000000 0.000000 0.000000 0.000000 0.000000 0.000000 
0.000000 0.000000 0.000000 0.000000 0.000000 0.000000 0.000000 2.024000 2.019000 2.016000 2.016000 2.024000 2.024000 2.020000 2.021000 2.016000 2.016000 2.016000 2.016000 2.016000 2.008000 2.001000 2.000000 2.000000 2.000000 1.998000 1.998000 1.993000 1.993000 1.993000 1.997000 2.023000 2.049000 0.000000 0.000000 0.000000 0.000000 0.000000 0.000000 0.000000 
0.000000 0.000000 0.000000 0.000000 0.000000 0.000000 0.000000 2.032000 2.024000 2.018000 2.016000 2.024000 2.024000 2.018000 2.016000 2.016000 2.016000 2.016000 2.016000 2.016000 2.006000 2.000000 2.004000 2.008000 2.008000 2.005000 2.000000 1.993000 1.993000 1.993000 1.997000 2.023000 2.056000 0.000000 0.000000 0.000000 0.000000 0.000000 0.000000 0.000000 
0.000000 0.000000 0.000000 0.000000 0.000000 0.000000 0.000000 2.032000 2.024000 2.022000 2.016000 2.024000 2.024000 2.024000 2.016000 2.016000 2.016000 2.016000 2.016000 2.016000 2.006000 2.000000 2.008000 2.008000 2.008000 2.000000 2.000000 1.993000 1.993000 1.993000 1.997000 2.016000 2.055000 0.000000 0.000000 0.000000 0.000000 0.000000 0.000000 0.000000 
0.000000 0.000000 0.000000 0.000000 0.000000 0.000000 0.000000 2.032000 2.024000 2.022000 2.016000 2.024000 2.024000 2.024000 2.021000 2.016000 2.016000 2.016000 2.016000 2.016000 2.006000 2.000000 2.008000 2.008000 2.002000 2.000000 2.000000 1.994000 1.993000 1.993000 1.997000 2.014000 2.050000 0.000000 0.000000 0.000000 0.000000 0.000000 0.000000 0.000000 
0.000000 0.000000 0.000000 0.000000 0.000000 0.000000 0.000000 2.054000 2.026000 2.025000 2.024000 2.024000 2.024000 2.024000 2.021000 2.016000 2.016000 2.016000 2.016000 2.016000 2.009000 2.008000 2.008000 2.008000 2.008000 2.000000 2.000000 2.000000 1.994000 1.993000 1.997000 2.010000 2.046000 0.000000 0.000000 0.000000 0.000000 0.000000 0.000000 0.000000 
0.000000 0.000000 0.000000 0.000000 0.000000 0.000000 0.000000 2.127000 2.035000 2.030000 2.024000 2.024000 2.024000 2.024000 2.021000 2.016000 2.016000 2.016000 2.016000 2.016000 2.016000 2.015000 2.015000 2.008000 2.008000 2.007000 2.007000 2.000000 1.998000 1.993000 1.997000 2.007000 2.047000 0.000000 0.000000 0.000000 0.000000 0.000000 0.000000 0.000000 
0.000000 0.000000 0.000000 0.000000 0.000000 0.000000 0.000000 2.128000 2.036000 2.024000 2.024000 2.024000 2.024000 2.024000 2.024000 2.024000 2.020000 2.020000 2.020000 2.016000 2.016000 2.016000 2.016000 2.008000 2.008000 2.008000 2.008000 2.000000 1.998000 1.993000 1.997000 2.007000 2.040000 0.000000 0.000000 0.000000 0.000000 0.000000 0.000000 0.000000 
0.000000 0.000000 0.000000 0.000000 0.000000 0.000000 0.000000 2.041000 2.035000 2.024000 2.024000 2.029000 2.030000 2.024000 2.024000 2.024000 2.016000 2.024000 2.024000 2.016000 2.016000 2.016000 2.016000 2.008000 2.008000 2.008000 2.008000 2.003000 1.993000 1.993000 1.998000 2.018000 2.031000 0.000000 0.000000 0.000000 0.000000 0.000000 0.000000 0.000000 
0.000000 0.000000 0.000000 0.000000 0.000000 0.000000 0.000000 2.105000 2.032000 2.024000 2.024000 2.032000 2.024000 2.024000 2.024000 2.024000 2.022000 2.024000 2.024000 2.016000 2.016000 2.016000 2.016000 2.013000 2.008000 2.008000 2.008000 2.001000 1.993000 1.993000 2.005000 2.018000 2.037000 0.000000 0.000000 0.000000 0.000000 0.000000 0.000000 0.000000 
0.000000 0.000000 0.000000 0.000000 0.000000 0.000000 0.000000 2.068000 2.032000 2.032000 2.032000 2.032000 2.031000 2.024000 2.024000 2.024000 2.024000 2.024000 2.024000 2.021000 2.016000 2.016000 2.008000 2.016000 2.012000 2.010000 2.000000 2.000000 1.993000 2.000000 2.000000 2.015000 2.041000 0.000000 0.000000 0.000000 0.000000 0.000000 0.000000 0.000000 
0.000000 0.000000 0.000000 0.000000 0.000000 0.000000 2.825000 1.956000 2.032000 2.032000 2.032000 2.032000 2.031000 2.024000 2.024000 2.024000 2.024000 2.024000 2.024000 2.024000 2.016000 2.016000 2.016000 2.016000 2.016000 2.013000 2.008000 2.000000 2.000000 2.000000 2.000000 2.005000 2.075000 0.000000 0.000000 0.000000 0.000000 0.000000 0.000000 0.000000 
0.000000 0.000000 0.000000 0.000000 0.000000 0.000000 0.000000 2.068000 2.029000 2.024000 2.026000 2.032000 2.032000 2.026000 2.024000 2.024000 2.024000 2.024000 2.024000 2.024000 2.020000 2.016000 2.016000 2.016000 2.016000 2.016000 2.008000 2.008000 2.000000 2.000000 2.000000 2.013000 0.000000 0.000000 0.000000 0.000000 0.000000 0.000000 0.000000 0.000000 
0.000000 0.000000 0.000000 0.000000 0.000000 0.000000 0.000000 2.123000 2.028000 2.024000 2.024000 2.027000 2.024000 2.028000 2.024000 2.024000 2.026000 2.024000 2.024000 2.024000 2.022000 2.016000 2.016000 2.016000 2.016000 2.016000 2.008000 2.008000 2.006000 2.000000 2.000000 2.008000 0.000000 0.000000 0.000000 0.000000 0.000000 0.000000 0.000000 0.000000 
0.000000 0.000000 0.000000 0.000000 0.000000 0.000000 0.000000 2.127000 2.035000 2.032000 2.025000 2.024000 2.024000 2.024000 2.024000 2.024000 2.029000 2.024000 2.024000 2.024000 2.022000 2.016000 2.016000 2.016000 2.016000 2.008000 2.008000 2.008000 2.008000 2.000000 2.000000 2.008000 0.000000 0.000000 0.000000 0.000000 0.000000 0.000000 0.000000 0.000000 
0.000000 0.000000 0.000000 0.000000 0.000000 0.000000 0.000000 0.000000 0.000000 2.030000 2.024000 2.024000 2.025000 2.031000 2.027000 2.024000 2.024000 2.024000 2.024000 2.024000 2.022000 2.016000 2.008000 2.021000 2.021000 2.008000 2.000000 1.993000 2.000000 2.000000 2.822000 0.000000 0.000000 0.000000 0.000000 0.000000 0.000000 0.000000 0.000000 0.000000 
0.000000 0.000000 0.000000 0.000000 0.000000 0.000000 0.000000 0.000000 0.000000 0.000000 0.000000 0.000000 0.000000 0.000000 0.000000 0.000000 0.000000 0.000000 0.000000 0.000000 0.000000 0.000000 0.000000 0.000000 0.000000 0.000000 0.000000 0.000000 0.000000 0.000000 0.000000 0.000000 0.000000 0.000000 0.000000 0.000000 0.000000 0.000000 0.000000 0.000000 
0.000000 0.000000 0.000000 0.000000 0.000000 0.000000 0.000000 0.000000 0.000000 0.000000 0.000000 0.000000 0.000000 0.000000 0.000000 0.000000 0.000000 0.000000 0.000000 0.000000 0.000000 0.000000 0.000000 0.000000 0.000000 0.000000 0.000000 0.000000 0.000000 0.000000 0.000000 0.000000 0.000000 0.000000 0.000000 0.000000 0.000000 0.000000 0.000000 0.000000 
