0.000000,0.000000,0.000000,0.000000,0.000000,0.000000,0.000000,0.000000,0.000000,0.000000,0.000000,0.000000,0.000000,0.000000,0.000000,0.000000,0.000000,0.000000,0.000000,0.000000,0.000000,0.000000,0.000000,0.000000,0.000000,0.000000,0.000000,0.000000,0.000000,0.000000,0.000000,0.000000,0.000000,0.000000,0.000000,0.000000,0.000000,0.000000,0.000000,0.000000,
0.000000,0.000000,0.000000,0.000000,0.000000,0.000000,0.000000,0.000000,0.000000,0.000000,0.000000,2.084000,2.085000,2.082000,2.081000,2.077000,2.077000,2.072000,2.067000,2.062000,2.058000,2.060000,2.056000,2.058000,2.055000,2.049000,2.046000,2.042000,2.039000,2.035000,2.030000,2.030000,0.000000,0.000000,0.000000,0.000000,0.000000,0.000000,0.000000,0.000000,
0.000000,0.000000,0.000000,0.000000,0.000000,0.000000,0.000000,0.000000,1.637000,1.311000,1.982000,2.082000,2.082000,2.081000,2.077000,2.074000,2.069000,2.068000,2.063000,2.062000,2.059000,2.059000,2.058000,2.054000,2.050000,2.045000,2.044000,2.044000,2.039000,2.036000,2.030000,2.030000,2.039000,2.052000,0.000000,0.000000,0.000000,0.000000,0.000000,0.000000,
0.000000,0.000000,0.000000,0.000000,0.000000,0.000000,0.000000,0.000000,0.000000,1.137000,2.079000,2.077000,2.077000,2.076000,2.072000,2.072000,2.068000,2.062000,2.062000,2.062000,2.059000,2.058000,2.053000,2.051000,2.044000,2.044000,2.039000,2.039000,2.035000,2.035000,2.026000,2.026000,2.037000,2.052000,0.000000,0.000000,0.000000,0.000000,0.000000,0.000000,
0.000000,0.000000,0.000000,0.000000,0.000000,0.000000,0.000000,0.000000,0.000000,0.000000,2.079000,2.077000,2.072000,2.067000,2.062000,2.062000,2.062000,2.058000,2.058000,2.057000,2.057000,2.052000,2.052000,2.048000,2.044000,2.043000,2.038000,2.032000,2.027000,2.026000,2.026000,2.026000,2.039000,2.094000,0.000000,0.000000,0.000000,0.000000,0.000000,0.000000,
0.000000,0.000000,0.000000,0.000000,0.000000,0.000000,0.000000,1.618000,0.000000,1.159000,2.077000,2.074000,2.070000,2.067000,2.062000,2.062000,2.058000,2.058000,2.053000,2.052000,2.052000,2.047000,2.041000,2.040000,2.040000,2.037000,2.035000,2.029000,2.026000,2.024000,2.023000,2.025000,2.045000,2.082000,0.000000,0.000000,0.000000,0.000000,0.000000,0.000000,
0.000000,0.000000,0.000000,0.000000,0.000000,0.000000,0.000000,1.375000,0.000000,1.158000,2.072000,2.068000,2.067000,2.063000,2.059000,2.058000,2.055000,2.054000,2.050000,2.047000,2.045000,2.044000,2.039000,2.039000,2.036000,2.031000,2.035000,2.027000,2.023000,2.019000,2.018000,2.019000,2.051000,2.073000,0.000000,0.000000,0.000000,0.000000,0.000000,0.000000,
0.000000,0.000000,0.000000,0.000000,0.000000,0.000000,0.000000,1.589000,0.000000,1.156000,2.067000,2.067000,2.062000,2.061000,2.058000,2.053000,2.053000,2.049000,2.048000,2.044000,2.044000,2.039000,2.039000,2.039000,2.032000,2.030000,2.030000,2.026000,2.023000,2.018000,2.017000,2.022000,2.048000,2.073000,0.000000,0.000000,0.000000,0.000000,0.000000,0.000000,
0.000000,0.000000,0.000000,0.000000,0.000000,0.000000,0.000000,1.456000,0.000000,1.316000,2.062000,2.062000,2.061000,2.058000,2.055000,2.053000,2.049000,2.048000,2.044000,2.044000,2.039000,2.039000,2.035000,2.034000,2.030000,2.026000,2.025000,2.020000,2.018000,2.016000,2.016000,2.026000,2.050000,2.088000,0.000000,0.000000,0.000000,0.000000,0.000000,0.000000,
0.000000,0.000000,0.000000,0.000000,0.000000,0.000000,0.000000,0.000000,0.000000,2.062000,2.061000,2.060000,2.058000,2.055000,2.051000,2.048000,2.044000,2.044000,2.044000,2.040000,2.035000,2.033000,2.028000,2.028000,2.026000,2.024000,2.021000,2.016000,2.012000,2.008000,2.008000,2.012000,2.049000,2.082000,0.000000,0.000000,0.000000,0.000000,0.000000,0.000000,
0.000000,0.000000,0.000000,0.000000,0.000000,0.000000,0.000000,0.000000,2.062000,2.061000,2.058000,2.058000,2.058000,2.052000,2.047000,2.044000,2.040000,2.039000,2.039000,2.038000,2.033000,2.030000,2.026000,2.026000,2.023000,2.021000,2.018000,2.016000,2.008000,2.008000,2.008000,2.010000,2.054000,2.064000,0.000000,0.000000,0.000000,0.000000,0.000000,0.000000,
0.000000,0.000000,0.000000,0.000000,0.000000,0.000000,0.000000,0.000000,2.062000,2.058000,2.054000,2.051000,2.046000,2.044000,2.044000,2.041000,2.039000,2.039000,2.034000,2.031000,2.030000,2.026000,2.022000,2.021000,2.021000,2.018000,2.017000,2.011000,2.008000,2.008000,2.005000,2.011000,2.047000,1.355000,0.000000,0.000000,0.000000,0.000000,0.000000,0.000000,
0.000000,0.000000,0.000000,0.000000,0.000000,0.000000,0.000000,0.000000,2.061000,2.053000,2.049000,2.045000,2.039000,2.040000,2.039000,2.039000,2.036000,2.030000,2.029000,2.026000,2.026000,2.021000,2.021000,2.019000,2.017000,2.013000,2.013000,2.008000,2.004000,2.004000,2.004000,2.011000,2.052000,1.233000,0.000000,0.000000,0.000000,0.000000,0.000000,0.000000,
0.000000,0.000000,0.000000,0.000000,0.000000,0.000000,0.000000,0.000000,0.000000,2.049000,2.046000,2.043000,2.039000,2.039000,2.039000,2.036000,2.029000,2.030000,2.026000,2.025000,2.021000,2.020000,2.017000,2.013000,2.013000,2.008000,2.008000,2.006000,2.001000,2.000000,2.000000,2.009000,2.056000,1.230000,0.000000,0.000000,0.000000,0.000000,0.000000,0.000000,
0.000000,0.000000,0.000000,0.000000,0.000000,0.000000,0.000000,0.000000,2.044000,2.045000,2.043000,2.040000,2.039000,2.035000,2.037000,2.032000,2.026000,2.026000,2.025000,2.022000,2.019000,2.017000,2.015000,2.012000,2.008000,2.006000,2.004000,2.003000,1.998000,1.996000,1.996000,2.013000,2.051000,1.229000,0.000000,0.000000,0.000000,0.000000,0.000000,0.000000,
0.000000,0.000000,0.000000,0.000000,0.000000,0.000000,2.673000,0.000000,2.039000,2.044000,2.041000,2.039000,2.035000,2.031000,2.031000,2.027000,2.026000,2.026000,2.021000,2.021000,2.017000,2.013000,2.009000,2.009000,2.008000,2.004000,2.001000,1.999000,1.996000,1.996000,2.000000,2.012000,2.052000,1.847000,0.000000,0.000000,0.000000,0.000000,0.000000,0.000000,
0.000000,0.000000,0.000000,0.000000,0.000000,0.000000,0.000000,0.000000,2.039000,2.039000,2.035000,2.039000,2.035000,2.026000,2.026000,2.023000,2.025000,2.026000,2.021000,2.019000,2.014000,2.008000,2.008000,2.004000,2.004000,2.004000,1.996000,1.996000,1.993000,1.991000,1.991000,2.017000,2.053000,2.062000,0.000000,0.000000,0.000000,0.000000,0.000000,0.000000,
0.000000,0.000000,0.000000,0.000000,0.000000,0.000000,0.000000,0.000000,2.038000,2.039000,2.038000,2.030000,2.026000,2.026000,2.026000,2.021000,2.021000,2.021000,2.016000,2.012000,2.008000,2.004000,2.007000,2.004000,2.001000,1.999000,1.995000,1.994000,1.990000,1.987000,1.991000,2.013000,2.048000,2.059000,0.000000,0.000000,0.000000,0.000000,0.000000,0.000000,
0.000000,0.000000,0.000000,0.000000,0.000000,0.000000,0.000000,0.000000,2.026000,2.029000,2.026000,2.026000,2.026000,2.026000,2.021000,2.017000,2.021000,2.015000,2.012000,2.008000,2.006000,2.004000,2.004000,2.002000,1.997000,1.992000,1.991000,1.990000,1.987000,1.987000,1.991000,2.008000,2.046000,2.049000,0.000000,0.000000,0.000000,0.000000,0.000000,0.000000,
0.000000,0.000000,0.000000,0.000000,0.000000,0.000000,0.000000,0.000000,2.030000,2.027000,2.023000,2.021000,2.019000,2.021000,2.018000,2.017000,2.015000,2.010000,2.007000,2.005000,2.004000,2.001000,2.004000,1.999000,1.994000,1.991000,1.987000,1.986000,1.982000,1.983000,1.991000,2.010000,2.038000,1.225000,0.000000,0.000000,0.000000,0.000000,0.000000,0.000000,
0.000000,0.000000,0.000000,0.000000,0.000000,0.000000,0.000000,1.685000,2.026000,2.021000,2.021000,2.018000,2.017000,2.020000,2.013000,2.013000,2.008000,2.008000,2.004000,2.002000,1.997000,1.992000,1.997000,1.991000,1.991000,1.988000,1.987000,1.983000,1.979000,1.978000,1.983000,2.009000,2.047000,1.226000,0.000000,0.000000,0.000000,0.000000,0.000000,0.000000,
0.000000,0.000000,0.000000,0.000000,0.000000,0.000000,0.000000,2.028000,2.026000,2.021000,2.017000,2.014000,2.016000,2.016000,2.008000,2.008000,2.004000,2.004000,2.003000,2.000000,1.996000,1.996000,1.995000,1.991000,1.987000,1.987000,1.983000,1.979000,1.977000,1.975000,1.983000,2.011000,2.039000,1.491000,0.000000,0.000000,0.000000,0.000000,0.000000,0.000000,
0.000000,0.000000,0.000000,0.000000,0.000000,0.000000,1.559000,2.030000,2.024000,2.021000,2.017000,2.013000,2.008000,2.009000,2.010000,2.007000,2.004000,2.004000,1.999000,1.996000,1.994000,1.994000,1.987000,1.986000,1.986000,1.986000,1.981000,1.975000,1.974000,1.974000,1.982000,2.006000,2.041000,0.000000,0.000000,0.000000,0.000000,0.000000,0.000000,0.000000,
0.000000,0.000000,0.000000,0.000000,0.000000,0.000000,0.000000,1.824000,2.017000,2.015000,2.013000,2.009000,2.008000,2.005000,2.005000,2.004000,2.001000,1.995000,1.995000,1.992000,1.991000,1.989000,1.987000,1.983000,1.983000,1.983000,1.977000,1.972000,1.971000,1.971000,1.977000,2.014000,2.037000,0.000000,0.000000,0.000000,0.000000,0.000000,0.000000,0.000000,
0.000000,0.000000,0.000000,0.000000,0.000000,0.000000,0.000000,1.821000,2.013000,2.012000,2.008000,2.008000,2.008000,2.004000,2.004000,2.001000,1.996000,1.991000,1.991000,1.991000,1.991000,1.987000,1.984000,1.980000,1.979000,1.976000,1.975000,1.970000,1.968000,1.970000,1.978000,2.015000,2.028000,0.000000,0.000000,0.000000,0.000000,0.000000,0.000000,0.000000,
0.000000,0.000000,0.000000,0.000000,0.000000,0.000000,0.000000,2.010000,2.013000,2.012000,2.006000,2.004000,2.004000,2.000000,2.000000,1.994000,1.991000,1.987000,1.991000,1.989000,1.987000,1.987000,1.983000,1.975000,1.975000,1.975000,1.971000,1.967000,1.967000,1.967000,1.979000,2.019000,1.495000,0.000000,0.000000,0.000000,0.000000,0.000000,0.000000,0.000000,
0.000000,0.000000,0.000000,0.000000,0.000000,0.000000,0.000000,2.000000,2.012000,2.004000,2.004000,2.004000,2.000000,1.999000,1.991000,1.991000,1.991000,1.987000,1.987000,1.986000,1.983000,1.982000,1.978000,1.975000,1.974000,1.971000,1.971000,1.964000,1.963000,1.965000,1.996000,2.019000,2.035000,0.000000,0.000000,0.000000,0.000000,0.000000,0.000000,0.000000,
0.000000,0.000000,0.000000,0.000000,0.000000,0.000000,0.000000,2.004000,2.006000,2.004000,2.001000,2.001000,2.000000,1.991000,1.987000,1.989000,1.987000,1.983000,1.981000,1.979000,1.979000,1.977000,1.973000,1.973000,1.971000,1.968000,1.969000,1.966000,1.959000,1.959000,1.996000,2.011000,2.032000,0.000000,0.000000,0.000000,0.000000,0.000000,0.000000,0.000000,
0.000000,0.000000,0.000000,0.000000,0.000000,0.000000,0.000000,2.004000,2.001000,1.998000,1.991000,1.991000,1.988000,1.990000,1.987000,1.987000,1.987000,1.983000,1.979000,1.975000,1.975000,1.975000,1.971000,1.970000,1.965000,1.964000,1.960000,1.960000,1.959000,1.959000,1.996000,2.010000,2.039000,0.000000,0.000000,0.000000,0.000000,0.000000,0.000000,0.000000,
0.000000,0.000000,0.000000,0.000000,0.000000,0.000000,1.530000,2.000000,1.996000,1.991000,1.991000,1.987000,1.987000,1.983000,1.983000,1.983000,1.979000,1.979000,1.975000,1.973000,1.971000,1.971000,1.971000,1.966000,1.959000,1.959000,1.955000,1.955000,1.955000,1.958000,1.992000,2.015000,1.958000,0.000000,0.000000,0.000000,0.000000,0.000000,0.000000,0.000000,
0.000000,0.000000,0.000000,0.000000,0.000000,0.000000,1.991000,1.991000,1.995000,1.990000,1.987000,1.987000,1.987000,1.978000,1.975000,1.976000,1.975000,1.975000,1.971000,1.971000,1.971000,1.967000,1.962000,1.959000,1.959000,1.959000,1.955000,1.954000,1.951000,1.954000,1.991000,2.015000,1.492000,0.000000,0.000000,0.000000,0.000000,0.000000,0.000000,0.000000,
0.000000,0.000000,0.000000,0.000000,0.000000,0.000000,1.991000,1.991000,1.990000,1.987000,1.986000,1.983000,1.987000,1.978000,1.975000,1.975000,1.975000,1.971000,1.971000,1.970000,1.967000,1.963000,1.962000,1.959000,1.958000,1.955000,1.953000,1.950000,1.950000,1.960000,1.990000,2.008000,1.023000,0.000000,0.000000,0.000000,0.000000,0.000000,0.000000,0.000000,
0.000000,0.000000,0.000000,0.000000,0.000000,0.000000,1.991000,1.989000,1.987000,1.985000,1.986000,1.981000,1.981000,1.975000,1.974000,1.973000,1.971000,1.971000,1.968000,1.964000,1.961000,1.961000,1.960000,1.956000,1.955000,1.951000,1.947000,1.944000,1.943000,1.956000,1.989000,2.014000,0.000000,0.000000,0.000000,0.000000,0.000000,0.000000,0.000000,0.000000,
0.000000,0.000000,0.000000,0.000000,0.000000,0.000000,1.989000,1.984000,1.979000,1.980000,1.982000,1.977000,1.975000,1.974000,1.971000,1.971000,1.968000,1.964000,1.959000,1.958000,1.959000,1.959000,1.959000,1.957000,1.953000,1.948000,1.943000,1.943000,1.941000,1.946000,1.992000,2.013000,0.000000,0.000000,0.000000,0.000000,0.000000,0.000000,0.000000,0.000000,
0.000000,0.000000,0.000000,0.000000,0.000000,0.000000,1.981000,1.975000,1.979000,1.983000,1.979000,1.973000,1.971000,1.971000,1.971000,1.968000,1.960000,1.959000,1.958000,1.957000,1.956000,1.955000,1.955000,1.955000,1.951000,1.948000,1.943000,1.939000,1.941000,1.943000,1.991000,1.745000,2.805000,0.000000,0.000000,0.000000,0.000000,0.000000,0.000000,0.000000,
0.000000,0.000000,0.000000,0.000000,0.000000,0.000000,0.000000,0.000000,0.000000,0.000000,0.000000,0.000000,0.000000,0.000000,2.853000,2.825000,2.797000,2.707000,1.958000,1.957000,1.959000,1.959000,1.955000,1.951000,1.947000,1.944000,1.939000,1.936000,1.935000,1.940000,2.004000,1.969000,0.000000,0.000000,0.000000,0.000000,0.000000,0.000000,0.000000,0.000000,
0.000000,0.000000,0.000000,0.000000,0.000000,0.000000,0.000000,0.000000,0.000000,0.000000,0.000000,0.000000,0.000000,0.000000,0.000000,0.000000,0.000000,0.000000,0.000000,1.405000,1.966000,1.963000,0.000000,2.987000,1.944000,1.943000,2.087000,0.000000,1.932000,0.000000,0.000000,0.000000,0.000000,0.000000,0.000000,0.000000,0.000000,0.000000,0.000000,0.000000,
0.000000,0.000000,0.000000,0.000000,0.000000,0.000000,0.000000,0.000000,0.000000,0.000000,0.000000,0.000000,0.000000,0.000000,0.000000,0.000000,1.527000,0.000000,0.000000,1.407000,1.970000,1.971000,0.000000,1.488000,2.407000,0.000000,0.000000,0.000000,0.000000,0.000000,0.000000,0.000000,0.000000,0.000000,0.000000,0.000000,0.000000,0.000000,0.000000,0.000000,
0.000000,0.000000,0.000000,0.000000,0.000000,0.000000,0.000000,0.000000,0.000000,0.000000,0.000000,0.000000,0.000000,0.000000,0.000000,0.000000,1.538000,0.000000,0.000000,1.409000,1.967000,0.000000,0.000000,1.005000,0.000000,0.000000,0.000000,0.000000,0.000000,0.000000,0.000000,0.000000,0.000000,0.000000,0.000000,0.000000,0.000000,0.000000,0.000000,0.000000,
0.000000,0.000000,0.000000,0.000000,0.000000,0.000000,0.000000,0.000000,0.000000,0.000000,0.000000,0.000000,0.000000,0.000000,0.000000,0.000000,0.000000,0.000000,0.000000,0.000000,0.000000,0.000000,0.000000,0.000000,0.000000,0.000000,0.000000,0.000000,0.000000,0.000000,0.000000,0.000000,0.000000,0.000000,0.000000,0.000000,0.000000,0.000000,0.000000,0.000000,
