0.000000,0.000000,0.000000,0.000000,0.000000,0.000000,0.000000,0.000000,0.000000,0.000000,0.000000,0.000000,2.980000,2.525000,2.575000,2.585000,2.584000,2.556000,2.532000,2.538000,2.559000,2.386000,2.112000,2.113000,2.113000,2.127000,2.149000,2.154000,0.000000,0.000000,0.000000,2.607000,2.614000,2.635000,2.623000,2.607000,0.000000,0.000000,0.000000,0.000000,
0.000000,0.000000,0.000000,0.000000,0.000000,0.000000,0.000000,0.000000,0.000000,0.000000,0.000000,0.000000,2.861000,2.511000,2.133000,2.054000,2.037000,2.037000,2.040000,2.060000,2.080000,2.093000,2.094000,2.103000,2.111000,2.111000,2.143000,2.152000,2.152000,0.000000,0.000000,2.613000,2.617000,2.635000,2.625000,2.609000,0.000000,0.000000,0.000000,0.000000,
0.000000,0.000000,0.000000,0.000000,0.000000,0.000000,0.000000,0.000000,0.000000,0.000000,0.000000,2.613000,1.982000,2.329000,2.099000,2.033000,2.033000,2.041000,2.044000,2.063000,2.075000,2.082000,2.094000,2.094000,2.092000,2.090000,2.121000,2.129000,2.133000,0.000000,0.000000,2.855000,2.641000,2.641000,2.638000,2.624000,0.000000,0.000000,0.000000,0.000000,
0.000000,0.000000,0.000000,0.000000,0.000000,0.000000,0.000000,0.000000,0.000000,2.796000,2.009000,1.992000,1.987000,1.997000,2.000000,2.016000,2.018000,2.056000,2.058000,2.070000,2.071000,2.080000,2.089000,2.089000,2.080000,2.075000,2.105000,2.113000,2.132000,2.170000,0.000000,0.000000,2.664000,2.664000,2.652000,2.635000,0.000000,0.000000,0.000000,0.000000,
0.000000,0.000000,0.000000,0.000000,0.000000,2.056000,2.055000,2.046000,2.035000,2.022000,2.006000,2.000000,2.000000,2.000000,2.000000,2.016000,2.025000,2.056000,2.056000,2.056000,2.060000,2.071000,2.075000,2.075000,2.075000,2.075000,2.105000,2.113000,2.132000,2.171000,0.000000,0.000000,2.664000,2.664000,2.652000,2.635000,0.000000,0.000000,0.000000,0.000000,
0.000000,0.000000,0.000000,0.000000,2.074000,2.056000,2.052000,2.037000,2.027000,2.006000,2.000000,2.000000,2.000000,2.000000,2.000000,2.009000,2.029000,2.056000,2.056000,2.056000,2.056000,2.063000,2.075000,2.075000,2.075000,2.075000,2.105000,2.113000,2.124000,2.163000,0.000000,0.000000,2.664000,2.664000,2.652000,2.635000,0.000000,0.000000,0.000000,0.000000,
0.000000,0.000000,0.000000,0.000000,2.074000,2.056000,2.052000,2.034000,2.018000,2.000000,2.000000,2.000000,2.000000,2.000000,2.000000,2.000000,2.018000,2.037000,2.048000,2.056000,2.056000,2.060000,2.065000,2.071000,2.075000,2.075000,2.105000,2.113000,2.113000,2.132000,0.000000,0.000000,2.664000,2.664000,2.652000,2.635000,0.000000,0.000000,0.000000,0.000000,
0.000000,0.000000,0.000000,0.000000,2.075000,2.066000,2.052000,2.032000,2.012000,1.995000,1.989000,1.996000,2.000000,2.000000,2.000000,2.000000,2.007000,2.009000,2.040000,2.056000,2.056000,2.056000,2.056000,2.066000,2.075000,2.075000,2.096000,2.111000,2.113000,2.113000,2.295000,0.000000,2.677000,2.664000,2.652000,2.635000,0.000000,0.000000,0.000000,0.000000,
0.000000,0.000000,0.000000,0.000000,2.087000,2.073000,2.052000,2.032000,2.012000,1.992000,1.982000,1.993000,2.000000,2.000000,2.000000,2.000000,2.000000,2.003000,2.040000,2.056000,2.056000,2.056000,2.056000,2.059000,2.070000,2.075000,2.090000,2.110000,2.113000,2.113000,2.172000,2.850000,0.000000,2.664000,2.652000,2.635000,0.000000,0.000000,0.000000,0.000000,
0.000000,0.000000,0.000000,0.000000,2.093000,2.074000,2.067000,2.046000,2.021000,1.998000,1.996000,1.998000,2.000000,2.000000,2.000000,2.000000,2.000000,2.015000,2.038000,2.045000,2.056000,2.056000,2.056000,2.056000,2.068000,2.075000,2.101000,2.112000,2.113000,2.113000,2.113000,2.193000,2.586000,2.664000,2.652000,2.635000,0.000000,0.000000,0.000000,0.000000,
0.000000,0.000000,0.000000,0.000000,2.093000,2.075000,2.071000,2.051000,2.024000,2.000000,2.000000,2.000000,2.000000,2.000000,2.000000,2.000000,2.000000,2.004000,2.024000,2.038000,2.040000,2.046000,2.056000,2.056000,2.068000,2.075000,2.105000,2.113000,2.113000,2.113000,2.113000,2.113000,2.262000,2.680000,2.652000,2.635000,0.000000,0.000000,0.000000,0.000000,
0.000000,0.000000,0.000000,0.000000,0.000000,2.075000,2.071000,2.051000,2.030000,2.009000,2.000000,2.000000,2.000000,2.000000,2.000000,2.000000,2.000000,2.001000,2.021000,2.037000,2.037000,2.044000,2.056000,2.056000,2.068000,2.075000,2.091000,2.096000,2.112000,2.113000,2.113000,2.208000,2.648000,2.666000,2.652000,2.635000,0.000000,0.000000,0.000000,0.000000,
0.000000,0.000000,0.000000,0.000000,0.000000,2.092000,2.075000,2.070000,2.049000,2.029000,2.009000,2.000000,2.000000,2.000000,2.000000,2.000000,2.000000,2.001000,2.018000,2.022000,2.037000,2.044000,2.056000,2.056000,2.068000,2.075000,2.090000,2.094000,2.094000,2.113000,2.113000,2.114000,2.260000,2.664000,2.652000,2.635000,0.000000,0.000000,0.000000,0.000000,
0.000000,0.000000,0.000000,0.000000,0.000000,2.075000,2.071000,2.056000,2.050000,2.029000,2.009000,1.999000,1.999000,1.999000,2.000000,2.000000,2.000000,2.001000,2.018000,2.022000,2.037000,2.037000,2.046000,2.056000,2.056000,2.068000,2.090000,2.094000,2.094000,2.113000,2.111000,2.094000,2.231000,2.638000,2.652000,2.635000,0.000000,0.000000,0.000000,0.000000,
0.000000,0.000000,0.000000,0.000000,0.000000,2.078000,2.072000,2.058000,2.056000,2.041000,2.010000,1.989000,1.982000,1.982000,1.995000,1.997000,2.000000,2.001000,2.016000,2.022000,2.034000,2.035000,2.046000,2.056000,2.056000,2.056000,2.086000,2.094000,2.094000,2.113000,2.111000,2.096000,2.094000,2.287000,2.652000,2.635000,0.000000,0.000000,0.000000,0.000000,
0.000000,0.000000,0.000000,0.000000,0.000000,2.460000,2.075000,2.070000,2.056000,2.048000,2.020000,1.993000,1.983000,1.982000,1.982000,1.982000,2.000000,2.000000,2.002000,2.015000,2.018000,2.024000,2.042000,2.054000,2.056000,2.056000,2.086000,2.094000,2.094000,2.113000,2.113000,2.110000,2.094000,2.285000,2.648000,2.635000,0.000000,0.000000,0.000000,0.000000,
0.000000,0.000000,0.000000,0.000000,0.000000,0.000000,2.075000,2.070000,2.056000,2.048000,2.027000,2.007000,1.988000,1.982000,1.982000,1.987000,2.000000,2.000000,2.000000,2.003000,2.014000,2.018000,2.027000,2.047000,2.056000,2.056000,2.081000,2.093000,2.094000,2.107000,2.113000,2.110000,2.094000,2.221000,2.538000,2.635000,0.000000,0.000000,0.000000,0.000000,
0.000000,0.000000,0.000000,0.000000,0.000000,0.000000,2.087000,2.072000,2.061000,2.048000,2.031000,2.010000,1.988000,1.982000,1.982000,1.992000,2.000000,2.000000,2.000000,2.000000,2.003000,2.014000,2.027000,2.043000,2.053000,2.056000,2.071000,2.085000,2.094000,2.094000,2.113000,2.110000,2.094000,2.094000,2.320000,2.635000,0.000000,0.000000,0.000000,0.000000,
0.000000,0.000000,0.000000,0.000000,0.000000,0.000000,2.805000,2.081000,2.068000,2.048000,2.037000,2.015000,1.994000,1.984000,1.982000,1.982000,1.992000,2.000000,2.000000,2.000000,2.000000,2.007000,2.023000,2.033000,2.049000,2.056000,2.071000,2.075000,2.093000,2.094000,2.113000,2.110000,2.094000,2.094000,2.320000,2.635000,0.000000,0.000000,0.000000,0.000000,
0.000000,0.000000,0.000000,0.000000,0.000000,0.000000,0.000000,2.081000,2.068000,2.052000,2.042000,2.015000,2.000000,1.986000,1.982000,1.982000,1.982000,2.000000,2.000000,2.000000,2.000000,2.007000,2.018000,2.028000,2.049000,2.056000,2.071000,2.075000,2.083000,2.084000,2.104000,2.110000,2.094000,2.094000,2.320000,2.635000,0.000000,0.000000,0.000000,0.000000,
0.000000,0.000000,0.000000,0.000000,0.000000,0.000000,0.000000,2.908000,2.068000,2.056000,2.046000,2.015000,2.000000,1.986000,1.982000,1.982000,1.982000,2.000000,2.000000,2.000000,2.000000,2.003000,2.012000,2.028000,2.049000,2.056000,2.071000,2.075000,2.075000,2.075000,2.096000,2.112000,2.106000,2.106000,2.191000,2.471000,0.000000,0.000000,0.000000,0.000000,
0.000000,0.000000,0.000000,0.000000,0.000000,0.000000,0.000000,0.000000,2.060000,2.056000,2.046000,2.015000,2.000000,1.986000,1.982000,1.982000,1.982000,2.000000,2.000000,2.000000,2.000000,2.000000,2.008000,2.028000,2.049000,2.056000,2.071000,2.075000,2.088000,2.089000,2.095000,2.102000,2.113000,2.108000,2.100000,2.366000,0.000000,0.000000,0.000000,0.000000,
0.000000,0.000000,0.000000,0.000000,0.000000,0.000000,0.000000,0.000000,0.000000,2.056000,2.046000,2.015000,2.000000,1.986000,1.982000,1.982000,1.982000,2.000000,2.000000,2.000000,2.000000,2.000000,2.002000,2.022000,2.040000,2.052000,2.071000,2.075000,2.079000,2.094000,2.094000,2.097000,2.113000,2.107000,2.094000,2.363000,0.000000,0.000000,0.000000,0.000000,
0.000000,0.000000,0.000000,0.000000,0.000000,0.000000,0.000000,0.000000,0.000000,2.963000,2.055000,2.031000,2.005000,1.986000,1.982000,1.982000,1.982000,1.984000,1.987000,2.000000,2.000000,2.000000,2.000000,2.003000,2.025000,2.039000,2.054000,2.059000,2.059000,2.078000,2.094000,2.094000,2.101000,2.112000,2.110000,2.371000,0.000000,0.000000,0.000000,0.000000,
0.000000,0.000000,0.000000,0.000000,0.000000,0.000000,0.000000,0.000000,0.000000,0.000000,2.047000,2.026000,2.006000,1.986000,1.982000,1.982000,1.982000,1.982000,1.985000,2.000000,2.000000,2.000000,2.000000,2.000000,2.012000,2.019000,2.048000,2.056000,2.056000,2.075000,2.078000,2.094000,2.094000,2.095000,2.095000,2.110000,0.000000,0.000000,0.000000,0.000000,
0.000000,0.000000,0.000000,0.000000,0.000000,0.000000,0.000000,0.000000,0.000000,0.000000,2.066000,2.026000,2.006000,2.000000,1.985000,1.982000,1.982000,1.982000,1.985000,2.000000,2.000000,2.000000,2.000000,2.000000,2.011000,2.018000,2.048000,2.056000,2.056000,2.075000,2.077000,2.094000,2.094000,2.094000,2.094000,2.094000,0.000000,0.000000,0.000000,0.000000,
0.000000,0.000000,0.000000,0.000000,0.000000,0.000000,0.000000,0.000000,0.000000,0.000000,2.950000,2.026000,2.006000,2.000000,1.985000,1.982000,1.982000,1.982000,1.982000,1.986000,1.998000,1.999000,2.000000,2.000000,2.010000,2.017000,2.048000,2.056000,2.058000,2.075000,2.092000,2.094000,2.094000,2.095000,2.103000,2.113000,0.000000,0.000000,0.000000,0.000000,
0.000000,0.000000,0.000000,0.000000,0.000000,0.000000,0.000000,0.000000,0.000000,0.000000,2.950000,2.028000,2.009000,2.001000,1.988000,1.982000,1.982000,1.982000,1.982000,1.982000,1.982000,1.988000,1.998000,2.000000,2.000000,2.013000,2.048000,2.056000,2.071000,2.075000,2.077000,2.094000,2.094000,2.099000,2.110000,2.111000,0.000000,0.000000,0.000000,0.000000,
0.000000,0.000000,0.000000,0.000000,0.000000,0.000000,0.000000,0.000000,0.000000,0.000000,2.950000,2.037000,2.024000,2.004000,2.000000,1.984000,1.982000,1.982000,1.982000,1.982000,1.982000,1.982000,1.990000,2.000000,2.000000,2.013000,2.044000,2.055000,2.056000,2.075000,2.076000,2.089000,2.090000,2.094000,2.094000,2.101000,0.000000,0.000000,0.000000,0.000000,
0.000000,0.000000,0.000000,0.000000,0.000000,0.000000,0.000000,0.000000,0.000000,0.000000,2.650000,2.040000,2.024000,2.004000,2.000000,1.984000,1.982000,1.982000,1.982000,1.982000,1.982000,1.982000,1.988000,1.997000,2.000000,2.008000,2.032000,2.048000,2.056000,2.075000,2.075000,2.075000,2.078000,2.090000,2.094000,2.094000,0.000000,0.000000,0.000000,0.000000,
0.000000,0.000000,0.000000,0.000000,0.000000,0.000000,0.000000,0.000000,0.000000,0.000000,2.065000,2.045000,2.030000,2.012000,2.001000,1.984000,1.982000,1.982000,1.982000,1.982000,1.982000,1.982000,1.982000,1.992000,2.000000,2.000000,2.023000,2.036000,2.047000,2.067000,2.068000,2.075000,2.075000,2.079000,2.089000,2.094000,0.000000,0.000000,0.000000,0.000000,
0.000000,0.000000,0.000000,0.000000,0.000000,0.000000,0.000000,0.000000,0.000000,0.000000,2.510000,2.045000,2.037000,2.023000,2.003000,1.984000,1.982000,1.982000,1.982000,1.982000,1.982000,1.982000,1.982000,1.992000,2.000000,2.000000,2.014000,2.026000,2.036000,2.056000,2.057000,2.067000,2.075000,2.075000,2.439000,2.947000,0.000000,0.000000,0.000000,0.000000,
0.000000,0.000000,0.000000,0.000000,0.000000,0.000000,0.000000,0.000000,0.000000,0.000000,0.000000,2.474000,2.041000,2.023000,2.003000,1.984000,1.982000,1.982000,1.982000,1.982000,1.982000,1.982000,1.982000,1.992000,2.000000,2.000000,2.014000,2.018000,2.036000,2.045000,2.056000,2.057000,2.067000,2.424000,0.000000,0.000000,0.000000,0.000000,0.000000,0.000000,
0.000000,0.000000,0.000000,0.000000,0.000000,0.000000,0.000000,0.000000,0.000000,0.000000,0.000000,2.789000,2.052000,2.026000,2.003000,1.994000,1.982000,1.982000,1.982000,1.982000,1.982000,1.982000,1.982000,1.985000,1.996000,2.000000,2.014000,2.018000,2.036000,2.037000,2.045000,2.056000,2.375000,0.000000,0.000000,0.000000,0.000000,0.000000,0.000000,0.000000,
0.000000,0.000000,0.000000,0.000000,0.000000,0.000000,0.000000,0.000000,0.000000,0.000000,0.000000,2.789000,2.056000,2.027000,2.003000,2.000000,1.995000,1.982000,1.982000,1.982000,1.982000,1.982000,1.982000,1.982000,1.993000,2.000000,2.014000,2.030000,2.037000,2.037000,2.039000,2.303000,0.000000,0.000000,0.000000,0.000000,0.000000,0.000000,0.000000,0.000000,
0.000000,0.000000,0.000000,0.000000,0.000000,0.000000,0.000000,0.000000,0.000000,0.000000,0.000000,2.220000,2.061000,2.027000,2.003000,2.000000,2.000000,1.982000,1.982000,1.982000,1.982000,1.982000,1.982000,1.982000,1.993000,2.000000,2.014000,2.048000,2.052000,2.037000,2.187000,0.000000,0.000000,0.000000,0.000000,0.000000,0.000000,0.000000,0.000000,0.000000,
0.000000,0.000000,0.000000,0.000000,0.000000,0.000000,0.000000,0.000000,0.000000,0.000000,2.989000,2.090000,2.062000,2.040000,2.006000,2.000000,2.000000,1.982000,1.982000,1.979000,1.967000,1.967000,1.974000,1.982000,1.993000,2.000000,2.027000,2.053000,0.000000,0.000000,0.000000,0.000000,0.000000,0.000000,0.000000,0.000000,0.000000,0.000000,0.000000,0.000000,
0.000000,0.000000,0.000000,0.000000,0.000000,0.000000,0.000000,0.000000,0.000000,0.000000,0.000000,2.803000,2.062000,2.042000,2.006000,2.000000,2.000000,1.982000,1.982000,1.978000,1.965000,1.965000,1.973000,1.982000,1.993000,2.000000,2.029000,0.000000,0.000000,0.000000,0.000000,0.000000,0.000000,0.000000,0.000000,0.000000,0.000000,0.000000,0.000000,0.000000,
0.000000,0.000000,0.000000,0.000000,0.000000,0.000000,0.000000,0.000000,0.000000,0.000000,0.000000,0.000000,0.000000,0.000000,2.312000,2.000000,2.000000,1.982000,1.982000,1.982000,1.982000,1.982000,1.990000,2.000000,2.000000,2.000000,0.000000,0.000000,0.000000,0.000000,0.000000,0.000000,0.000000,0.000000,0.000000,0.000000,0.000000,0.000000,0.000000,0.000000,
0.000000,0.000000,0.000000,0.000000,0.000000,0.000000,0.000000,0.000000,0.000000,0.000000,0.000000,0.000000,0.000000,0.000000,0.000000,0.000000,0.000000,0.000000,0.000000,0.000000,0.000000,0.000000,0.000000,0.000000,0.000000,0.000000,0.000000,0.000000,0.000000,0.000000,0.000000,0.000000,0.000000,0.000000,0.000000,0.000000,0.000000,0.000000,0.000000,0.000000,
