40 40
0.000000 0.000000 0.000000 0.000000 0.000000 0.000000 0.000000 0.000000 0.000000 0.000000 2.744000 2.740000 2.768000 0.000000 0.000000 0.000000 0.000000 0.000000 0.000000 2.775000 2.756000 2.753000 2.748000 2.748000 2.762000 2.770000 2.761000 0.000000 0.000000 2.093000 2.098000 2.102000 0.000000 0.000000 0.000000 0.000000 0.000000 0.000000 0.000000 0.000000 
0.000000 0.000000 0.000000 0.000000 0.000000 0.000000 0.000000 0.000000 0.000000 2.459000 1.992000 1.996000 2.033000 2.047000 2.047000 2.045000 2.104000 2.058000 2.064000 2.066000 2.064000 2.067000 2.065000 2.068000 2.075000 2.082000 2.085000 2.091000 2.094000 2.093000 2.094000 2.099000 2.996000 0.000000 0.000000 0.000000 0.000000 0.000000 0.000000 0.000000 
0.000000 0.000000 0.000000 0.000000 0.000000 0.000000 0.000000 2.636000 2.192000 1.988000 1.991000 1.994000 2.009000 2.011000 2.016000 2.020000 2.003000 2.003000 2.010000 2.009000 2.015000 2.019000 2.023000 2.021000 2.020000 2.024000 2.031000 2.035000 2.030000 2.036000 2.070000 2.026000 2.019000 0.000000 0.000000 0.000000 0.000000 0.000000 0.000000 0.000000 
0.000000 0.000000 0.000000 0.000000 0.000000 0.000000 0.000000 1.982000 1.982000 1.982000 1.987000 1.987000 1.989000 1.991000 1.995000 1.996000 1.991000 1.996000 1.996000 1.996000 2.000000 2.000000 2.000000 2.002000 2.014000 2.016000 2.019000 2.019000 2.023000 2.019000 2.020000 2.023000 2.023000 0.000000 0.000000 0.000000 0.000000 0.000000 0.000000 0.000000 
0.000000 0.000000 0.000000 0.000000 0.000000 0.000000 0.000000 1.982000 1.982000 1.982000 1.982000 1.984000 1.987000 1.986000 1.991000 1.991000 1.991000 1.996000 1.996000 1.996000 1.996000 2.000000 2.000000 2.001000 2.007000 2.012000 2.014000 2.014000 2.014000 2.019000 2.020000 2.023000 2.024000 0.000000 0.000000 0.000000 0.000000 0.000000 0.000000 0.000000 
0.000000 0.000000 0.000000 0.000000 0.000000 0.000000 0.000000 2.151000 1.982000 1.982000 1.982000 1.987000 1.985000 1.984000 1.991000 1.991000 1.993000 1.996000 1.997000 1.997000 1.996000 2.000000 2.005000 2.005000 2.010000 2.011000 2.013000 2.014000 2.016000 2.019000 2.019000 2.019000 2.019000 0.000000 0.000000 0.000000 0.000000 0.000000 0.000000 0.000000 
0.000000 0.000000 0.000000 0.000000 0.000000 0.000000 0.000000 1.819000 1.982000 1.982000 1.982000 1.984000 1.982000 1.987000 1.991000 1.991000 1.996000 1.997000 2.000000 2.000000 2.000000 2.000000 2.000000 2.005000 2.010000 2.010000 2.011000 2.018000 2.019000 2.015000 2.019000 2.019000 2.023000 0.000000 0.000000 0.000000 0.000000 0.000000 0.000000 0.000000 
0.000000 0.000000 0.000000 0.000000 0.000000 0.000000 0.000000 1.987000 1.982000 1.978000 1.982000 1.982000 1.985000 1.990000 1.991000 1.994000 1.996000 1.996000 1.996000 1.998000 1.997000 2.000000 2.000000 2.000000 2.016000 2.017000 2.016000 2.015000 2.019000 2.017000 2.019000 2.019000 2.023000 0.000000 0.000000 0.000000 0.000000 0.000000 0.000000 0.000000 
0.000000 0.000000 0.000000 0.000000 0.000000 0.000000 2.051000 1.987000 1.982000 1.978000 1.982000 1.984000 1.987000 1.990000 1.991000 1.992000 1.996000 1.996000 1.996000 2.000000 1.999000 2.000000 2.000000 2.001000 2.007000 2.019000 2.018000 2.018000 2.019000 2.019000 2.019000 2.017000 2.015000 0.000000 0.000000 0.000000 0.000000 0.000000 0.000000 0.000000 
0.000000 0.000000 0.000000 0.000000 0.000000 0.000000 2.063000 1.987000 1.982000 1.982000 1.982000 1.982000 1.982000 1.987000 1.991000 1.991000 1.996000 1.996000 2.000000 2.000000 2.000000 2.000000 2.000000 2.005000 2.005000 2.010000 2.013000 2.018000 2.019000 2.019000 2.019000 2.019000 2.019000 0.000000 0.000000 0.000000 0.000000 0.000000 0.000000 0.000000 
0.000000 0.000000 0.000000 0.000000 0.000000 0.000000 2.136000 1.984000 1.982000 1.982000 1.982000 1.982000 1.987000 1.987000 1.987000 1.991000 1.996000 1.997000 2.000000 1.996000 1.999000 2.000000 2.000000 2.002000 2.006000 2.010000 2.010000 2.014000 2.014000 2.019000 2.019000 2.019000 1.278000 0.000000 0.000000 0.000000 0.000000 0.000000 0.000000 0.000000 
0.000000 0.000000 0.000000 0.000000 0.000000 0.000000 2.759000 1.983000 1.982000 1.982000 1.982000 1.982000 1.988000 1.989000 1.990000 1.991000 1.996000 1.998000 1.996000 1.996000 1.996000 1.997000 2.000000 2.006000 2.011000 2.016000 2.014000 2.018000 2.019000 2.019000 2.019000 2.021000 0.000000 0.000000 0.000000 0.000000 0.000000 0.000000 0.000000 0.000000 
0.000000 0.000000 0.000000 0.000000 0.000000 0.000000 2.736000 1.981000 1.982000 1.982000 1.982000 1.982000 1.985000 1.991000 1.993000 1.993000 1.996000 1.999000 1.996000 1.996000 1.999000 2.000000 2.000000 2.006000 2.008000 2.015000 2.019000 2.019000 2.019000 2.019000 2.019000 2.022000 0.000000 0.000000 0.000000 0.000000 0.000000 0.000000 0.000000 0.000000 
0.000000 0.000000 0.000000 0.000000 0.000000 0.000000 2.749000 1.980000 1.982000 1.982000 1.982000 1.982000 1.983000 1.993000 1.991000 1.993000 1.993000 1.999000 1.996000 1.998000 2.000000 2.000000 2.000000 2.006000 2.008000 2.012000 2.014000 2.016000 2.019000 2.019000 2.019000 2.024000 1.060000 0.000000 0.000000 0.000000 0.000000 0.000000 0.000000 0.000000 
0.000000 0.000000 0.000000 0.000000 0.000000 0.000000 0.000000 1.988000 1.986000 1.986000 1.986000 1.987000 1.982000 1.987000 1.988000 1.991000 1.992000 1.996000 1.998000 1.998000 1.996000 2.000000 2.000000 2.006000 2.010000 2.014000 2.014000 2.014000 2.019000 2.019000 2.020000 2.023000 1.279000 0.000000 0.000000 0.000000 0.000000 0.000000 0.000000 0.000000 
0.000000 0.000000 0.000000 0.000000 0.000000 0.000000 0.000000 1.992000 1.983000 1.982000 1.987000 1.987000 1.987000 1.987000 1.991000 1.996000 1.996000 1.996000 2.000000 2.000000 2.000000 2.000000 2.005000 2.006000 2.010000 2.014000 2.018000 2.018000 2.019000 2.023000 2.020000 2.023000 2.023000 0.000000 0.000000 0.000000 0.000000 0.000000 0.000000 0.000000 
0.000000 0.000000 0.000000 0.000000 0.000000 0.000000 0.000000 1.991000 1.983000 1.982000 1.986000 1.984000 1.987000 1.991000 1.991000 1.996000 1.996000 1.996000 1.998000 2.000000 2.000000 2.000000 2.005000 2.010000 2.010000 2.012000 2.017000 2.019000 2.019000 2.023000 2.020000 2.019000 2.941000 0.000000 0.000000 0.000000 0.000000 0.000000 0.000000 0.000000 
0.000000 0.000000 0.000000 0.000000 0.000000 0.000000 2.505000 1.991000 1.987000 1.987000 1.987000 1.987000 1.988000 1.991000 1.994000 1.996000 1.996000 1.996000 1.998000 2.000000 2.000000 2.000000 2.005000 2.011000 2.016000 2.019000 2.019000 2.019000 2.022000 2.019000 2.022000 2.023000 2.957000 0.000000 0.000000 0.000000 0.000000 0.000000 0.000000 0.000000 
0.000000 0.000000 0.000000 0.000000 0.000000 0.000000 1.463000 1.982000 1.987000 1.987000 1.987000 1.988000 1.987000 1.987000 1.990000 1.996000 1.996000 1.997000 1.999000 2.000000 2.000000 2.000000 2.005000 2.011000 2.016000 2.014000 2.019000 2.019000 2.019000 2.021000 2.020000 2.019000 2.950000 0.000000 0.000000 0.000000 0.000000 0.000000 0.000000 0.000000 
0.000000 0.000000 0.000000 0.000000 0.000000 0.000000 0.000000 1.987000 1.987000 1.987000 1.991000 1.991000 1.993000 1.992000 1.991000 1.996000 1.998000 1.997000 2.000000 2.000000 2.000000 2.000000 2.005000 2.011000 2.016000 2.017000 2.019000 2.019000 2.019000 2.019000 2.022000 2.023000 0.000000 0.000000 0.000000 0.000000 0.000000 0.000000 0.000000 0.000000 
0.000000 0.000000 0.000000 0.000000 0.000000 0.000000 0.000000 1.991000 1.987000 1.982000 1.991000 1.992000 1.996000 1.996000 1.996000 1.996000 1.996000 1.996000 1.998000 2.003000 2.000000 2.000000 2.005000 2.006000 2.016000 2.017000 2.014000 2.018000 2.019000 2.019000 2.021000 2.020000 0.000000 0.000000 0.000000 0.000000 0.000000 0.000000 0.000000 0.000000 
0.000000 0.000000 0.000000 0.000000 0.000000 0.000000 0.000000 1.992000 1.987000 1.989000 1.996000 1.991000 1.992000 1.996000 1.996000 1.996000 1.996000 1.998000 1.998000 2.003000 2.001000 2.000000 2.009000 2.013000 2.019000 2.016000 2.017000 2.019000 2.019000 2.019000 2.020000 2.592000 0.000000 0.000000 0.000000 0.000000 0.000000 0.000000 0.000000 0.000000 
0.000000 0.000000 0.000000 0.000000 0.000000 0.000000 0.000000 1.982000 1.991000 1.991000 1.996000 1.996000 1.991000 1.996000 1.996000 1.996000 1.996000 2.000000 2.000000 2.000000 2.000000 2.000000 2.010000 2.015000 2.019000 2.014000 2.019000 2.022000 2.023000 2.019000 2.023000 2.023000 0.000000 0.000000 0.000000 0.000000 0.000000 0.000000 0.000000 0.000000 
0.000000 0.000000 0.000000 0.000000 0.000000 0.000000 1.463000 1.982000 1.982000 1.986000 1.989000 1.996000 1.996000 1.996000 1.999000 1.996000 1.996000 1.996000 2.000000 2.005000 2.001000 2.005000 2.006000 2.015000 2.019000 2.019000 2.019000 2.022000 2.019000 2.019000 2.023000 2.023000 2.931000 0.000000 0.000000 0.000000 0.000000 0.000000 0.000000 0.000000 
0.000000 0.000000 0.000000 0.000000 0.000000 0.000000 1.627000 1.982000 1.982000 1.985000 1.993000 1.996000 1.997000 1.999000 1.999000 1.997000 1.997000 2.000000 2.000000 2.004000 2.006000 2.006000 2.011000 2.015000 2.019000 2.019000 2.019000 2.021000 2.019000 2.019000 2.023000 2.024000 0.000000 0.000000 0.000000 0.000000 0.000000 0.000000 0.000000 0.000000 
0.000000 0.000000 0.000000 0.000000 0.000000 0.000000 2.051000 1.991000 1.988000 1.991000 1.994000 1.997000 1.997000 1.996000 1.996000 2.000000 2.000000 2.002000 2.000000 2.002000 2.005000 2.012000 2.010000 2.015000 2.019000 2.019000 2.021000 2.019000 2.019000 2.019000 2.020000 2.023000 0.000000 0.000000 0.000000 0.000000 0.000000 0.000000 0.000000 0.000000 
0.000000 0.000000 0.000000 0.000000 0.000000 0.000000 2.042000 1.989000 1.996000 1.991000 1.994000 1.996000 1.996000 1.996000 1.996000 2.000000 2.000000 2.005000 2.004000 2.002000 2.002000 2.013000 2.012000 2.015000 2.019000 2.019000 2.022000 2.020000 2.019000 2.022000 2.023000 2.023000 0.000000 0.000000 0.000000 0.000000 0.000000 0.000000 0.000000 0.000000 
0.000000 0.000000 0.000000 0.000000 0.000000 0.000000 1.463000 1.982000 1.991000 1.991000 1.996000 1.996000 1.996000 1.996000 1.996000 2.000000 2.000000 2.005000 2.004000 2.000000 2.003000 2.006000 2.014000 2.015000 2.019000 2.019000 2.019000 2.019000 2.019000 2.023000 2.023000 2.023000 0.000000 0.000000 0.000000 0.000000 0.000000 0.000000 0.000000 0.000000 
0.000000 0.000000 0.000000 0.000000 0.000000 0.000000 1.472000 1.986000 1.991000 1.995000 1.996000 1.996000 1.996000 2.000000 2.000000 2.000000 2.000000 2.001000 2.005000 2.005000 2.006000 2.009000 2.011000 2.015000 2.019000 2.019000 2.019000 2.019000 2.022000 2.023000 2.023000 2.023000 0.000000 0.000000 0.000000 0.000000 0.000000 0.000000 0.000000 0.000000 
0.000000 0.000000 0.000000 0.000000 0.000000 0.000000 0.000000 1.991000 1.991000 1.996000 1.996000 1.996000 1.996000 1.996000 1.999000 2.000000 2.000000 2.000000 2.007000 2.005000 2.005000 2.010000 2.010000 2.015000 2.019000 2.019000 2.019000 2.019000 2.019000 2.019000 2.023000 2.028000 1.996000 0.000000 0.000000 0.000000 0.000000 0.000000 0.000000 0.000000 
0.000000 0.000000 0.000000 0.000000 0.000000 0.000000 0.000000 1.988000 1.991000 1.991000 1.993000 1.996000 1.996000 1.996000 1.997000 2.000000 2.000000 2.002000 2.010000 2.005000 2.005000 2.005000 2.014000 2.015000 2.019000 2.019000 2.022000 2.019000 2.019000 2.020000 2.024000 2.029000 2.931000 0.000000 0.000000 0.000000 0.000000 0.000000 0.000000 0.000000 
0.000000 0.000000 0.000000 0.000000 0.000000 0.000000 1.092000 1.995000 1.996000 1.996000 1.996000 1.996000 1.996000 2.000000 2.000000 2.000000 2.001000 2.005000 2.006000 2.005000 2.007000 2.014000 2.014000 2.015000 2.019000 2.019000 2.023000 2.023000 2.023000 2.023000 2.023000 2.025000 1.759000 0.000000 0.000000 0.000000 0.000000 0.000000 0.000000 0.000000 
0.000000 0.000000 0.000000 0.000000 0.000000 0.000000 1.471000 1.992000 1.995000 1.996000 1.996000 1.996000 1.998000 2.000000 2.000000 2.000000 2.001000 2.005000 2.005000 2.010000 2.006000 2.005000 2.014000 2.014000 2.014000 2.017000 2.022000 2.023000 2.023000 2.023000 2.023000 2.021000 0.000000 0.000000 0.000000 0.000000 0.000000 0.000000 0.000000 0.000000 
0.000000 0.000000 0.000000 0.000000 0.000000 0.000000 1.471000 1.996000 1.996000 1.996000 1.996000 1.996000 1.997000 2.000000 2.000000 2.000000 2.001000 2.004000 2.002000 2.008000 2.006000 2.005000 2.014000 2.015000 2.017000 2.019000 2.022000 2.023000 2.023000 2.023000 2.023000 2.461000 0.000000 0.000000 0.000000 0.000000 0.000000 0.000000 0.000000 0.000000 
0.000000 0.000000 0.000000 0.000000 0.000000 0.000000 1.902000 1.993000 1.996000 1.996000 1.999000 1.996000 1.998000 2.000000 2.000000 2.000000 2.005000 2.005000 2.007000 2.010000 2.009000 2.009000 2.014000 2.015000 2.019000 2.022000 2.019000 2.023000 2.023000 2.024000 2.025000 2.033000 0.000000 0.000000 0.000000 0.000000 0.000000 0.000000 0.000000 0.000000 
0.000000 0.000000 0.000000 0.000000 0.000000 0.000000 1.996000 1.996000 1.996000 1.996000 1.996000 1.996000 1.998000 1.996000 1.999000 2.000000 2.004000 2.000000 2.005000 2.008000 2.010000 2.010000 2.014000 2.015000 2.019000 2.019000 2.019000 2.023000 2.023000 2.023000 2.023000 2.023000 0.000000 0.000000 0.000000 0.000000 0.000000 0.000000 0.000000 0.000000 
0.000000 0.000000 0.000000 0.000000 0.000000 0.000000 1.993000 1.994000 1.999000 1.996000 1.996000 1.997000 1.998000 1.996000 1.996000 2.000000 2.005000 2.000000 2.002000 2.008000 2.010000 2.011000 2.014000 2.012000 2.019000 2.019000 2.019000 2.023000 2.022000 2.023000 2.023000 2.114000 0.000000 0.000000 0.000000 0.000000 0.000000 0.000000 0.000000 0.000000 
0.000000 0.000000 0.000000 0.000000 0.000000 0.000000 2.178000 1.991000 1.996000 1.996000 1.997000 2.000000 1.996000 1.996000 2.000000 2.000000 2.006000 1.999000 1.995000 2.004000 2.011000 2.015000 2.015000 2.111000 2.499000 2.260000 2.333000 2.023000 2.477000 2.495000 2.817000 0.000000 0.000000 0.000000 0.000000 0.000000 0.000000 0.000000 0.000000 0.000000 
0.000000 0.000000 0.000000 0.000000 0.000000 0.000000 2.651000 1.996000 1.996000 0.000000 0.000000 1.999000 1.996000 1.996000 1.999000 2.014000 2.018000 2.006000 1.991000 0.000000 0.000000 0.000000 0.000000 1.343000 0.000000 0.000000 0.000000 0.000000 0.000000 0.000000 0.000000 0.000000 0.000000 0.000000 0.000000 0.000000 0.000000 0.000000 0.000000 0.000000 
0.000000 0.000000 0.000000 0.000000 0.000000 0.000000 0.000000 0.000000 0.000000 0.000000 0.000000 0.000000 0.000000 0.000000 0.000000 0.000000 0.000000 0.000000 0.000000 0.000000 0.000000 0.000000 0.000000 0.000000 0.000000 0.000000 0.000000 0.000000 0.000000 0.000000 0.000000 0.000000 0.000000 0.000000 0.000000 0.000000 0.000000 0.000000 0.000000 0.000000 
