0.000000,0.000000,0.000000,0.000000,0.000000,0.000000,0.000000,0.000000,0.000000,0.000000,0.000000,0.000000,0.000000,0.000000,0.000000,0.000000,0.000000,0.000000,0.000000,0.000000,0.000000,0.000000,0.000000,0.000000,0.000000,0.000000,0.000000,0.000000,0.000000,0.000000,0.000000,0.000000,0.000000,0.000000,0.000000,0.000000,0.000000,0.000000,0.000000,0.000000,
0.000000,0.000000,0.000000,0.000000,0.000000,0.000000,0.000000,0.000000,0.000000,0.000000,0.000000,2.599000,2.050000,2.045000,2.045000,2.043000,2.036000,2.036000,0.000000,0.000000,0.000000,0.000000,0.000000,0.000000,0.000000,0.000000,0.000000,0.000000,0.000000,0.000000,0.000000,0.000000,0.000000,0.000000,0.000000,0.000000,0.000000,0.000000,0.000000,0.000000,
0.000000,0.000000,0.000000,0.000000,0.000000,0.000000,0.000000,0.000000,0.000000,0.000000,1.338000,2.036000,2.041000,2.041000,2.037000,2.041000,2.043000,2.040000,2.043000,2.045000,2.045000,2.045000,2.045000,2.042000,2.045000,2.043000,2.036000,2.042000,2.749000,2.743000,2.732000,0.000000,0.000000,0.000000,0.000000,0.000000,0.000000,0.000000,0.000000,0.000000,
0.000000,0.000000,0.000000,0.000000,0.000000,0.000000,0.000000,0.000000,0.000000,0.000000,1.342000,2.045000,2.041000,2.041000,2.037000,2.041000,2.041000,2.036000,2.041000,2.041000,2.041000,2.041000,2.041000,2.041000,2.045000,2.041000,2.036000,2.041000,2.041000,2.041000,2.041000,2.037000,2.036000,2.036000,0.000000,0.000000,0.000000,0.000000,0.000000,0.000000,
0.000000,0.000000,0.000000,0.000000,0.000000,0.000000,0.000000,1.741000,0.000000,0.000000,2.036000,2.036000,2.036000,2.036000,2.036000,2.036000,2.036000,2.036000,2.036000,2.036000,2.036000,2.036000,2.036000,2.036000,2.037000,2.041000,2.040000,2.036000,2.036000,2.036000,2.036000,2.036000,2.036000,2.036000,0.000000,0.000000,0.000000,0.000000,0.000000,0.000000,
0.000000,0.000000,0.000000,0.000000,0.000000,0.000000,0.000000,1.208000,0.000000,0.000000,1.338000,2.036000,2.036000,2.036000,2.036000,2.036000,2.036000,2.036000,2.036000,2.036000,2.036000,2.036000,2.036000,2.036000,2.036000,2.036000,2.036000,2.036000,2.036000,2.036000,2.035000,2.034000,2.036000,2.038000,0.000000,0.000000,0.000000,0.000000,0.000000,0.000000,
0.000000,0.000000,0.000000,0.000000,0.000000,0.000000,0.000000,1.727000,0.000000,1.076000,2.033000,2.036000,2.036000,2.036000,2.035000,2.031000,2.031000,2.031000,2.032000,2.036000,2.036000,2.036000,2.036000,2.032000,2.033000,2.036000,2.036000,2.036000,2.033000,2.036000,2.032000,2.031000,2.031000,2.036000,0.000000,0.000000,0.000000,0.000000,0.000000,0.000000,
0.000000,0.000000,0.000000,0.000000,0.000000,0.000000,0.000000,1.739000,0.000000,1.076000,2.035000,2.036000,2.031000,2.031000,2.031000,2.031000,2.031000,2.031000,2.031000,2.031000,2.031000,2.036000,2.032000,2.031000,2.032000,2.032000,2.031000,2.031000,2.031000,2.031000,2.031000,2.031000,2.031000,2.031000,0.000000,0.000000,0.000000,0.000000,0.000000,0.000000,
0.000000,0.000000,0.000000,0.000000,0.000000,0.000000,0.000000,0.000000,0.000000,1.076000,2.034000,2.031000,2.031000,2.031000,2.031000,2.031000,2.031000,2.031000,2.031000,2.031000,2.031000,2.031000,2.031000,2.031000,2.031000,2.031000,2.031000,2.031000,2.031000,2.031000,2.031000,2.031000,2.031000,1.715000,0.000000,0.000000,0.000000,0.000000,0.000000,0.000000,
0.000000,0.000000,0.000000,0.000000,0.000000,0.000000,0.000000,1.041000,0.000000,1.340000,2.029000,2.027000,2.026000,2.030000,2.027000,2.022000,2.025000,2.030000,2.027000,2.030000,2.031000,2.031000,2.030000,2.027000,2.031000,2.031000,2.030000,2.030000,2.028000,2.030000,2.028000,2.029000,2.031000,2.031000,0.000000,0.000000,0.000000,0.000000,0.000000,0.000000,
0.000000,0.000000,0.000000,0.000000,0.000000,0.000000,0.000000,1.687000,0.000000,2.022000,2.025000,2.026000,2.022000,2.027000,2.027000,2.027000,2.025000,2.025000,2.027000,2.028000,2.031000,2.028000,2.027000,2.027000,2.029000,2.029000,2.027000,2.027000,2.027000,2.027000,2.027000,2.027000,2.025000,2.036000,0.000000,0.000000,0.000000,0.000000,0.000000,0.000000,
0.000000,0.000000,0.000000,0.000000,0.000000,0.000000,2.765000,0.000000,0.000000,2.018000,2.022000,2.022000,2.022000,2.022000,2.019000,2.019000,2.019000,2.019000,2.027000,2.023000,2.023000,2.027000,2.027000,2.024000,2.022000,2.026000,2.027000,2.019000,2.021000,2.020000,2.024000,2.027000,2.022000,2.026000,0.000000,0.000000,0.000000,0.000000,0.000000,0.000000,
0.000000,0.000000,0.000000,0.000000,0.000000,0.000000,2.782000,0.000000,0.000000,2.022000,2.018000,2.018000,2.018000,2.018000,2.018000,2.018000,2.018000,2.018000,2.018000,2.018000,2.020000,2.022000,2.022000,2.018000,2.022000,2.020000,2.022000,2.018000,2.018000,2.018000,2.018000,2.022000,2.018000,1.705000,0.000000,0.000000,0.000000,0.000000,0.000000,0.000000,
0.000000,0.000000,0.000000,0.000000,0.000000,0.000000,0.000000,0.000000,0.000000,2.017000,2.018000,2.018000,2.018000,2.018000,2.018000,2.018000,2.018000,2.018000,2.018000,2.018000,2.018000,2.018000,2.018000,2.018000,2.018000,2.018000,2.018000,2.018000,2.018000,2.018000,2.018000,2.013000,2.013000,1.702000,0.000000,0.000000,0.000000,0.000000,0.000000,0.000000,
0.000000,0.000000,0.000000,0.000000,0.000000,0.000000,0.000000,0.000000,1.203000,2.013000,2.018000,2.015000,2.013000,2.016000,2.016000,2.016000,2.016000,2.016000,2.018000,2.018000,2.018000,2.018000,2.018000,2.018000,2.018000,2.018000,2.016000,2.018000,2.018000,2.018000,2.018000,2.013000,2.013000,2.567000,0.000000,0.000000,0.000000,0.000000,0.000000,0.000000,
0.000000,0.000000,0.000000,0.000000,0.000000,0.000000,0.000000,0.000000,2.013000,2.013000,2.013000,2.014000,2.013000,2.013000,2.013000,2.013000,2.013000,2.013000,2.015000,2.014000,2.014000,2.013000,2.013000,2.013000,2.015000,2.013000,2.013000,2.018000,2.013000,2.013000,2.013000,2.013000,2.015000,1.948000,0.000000,0.000000,0.000000,0.000000,0.000000,0.000000,
0.000000,0.000000,0.000000,0.000000,0.000000,0.000000,0.000000,0.000000,2.013000,2.013000,2.013000,2.013000,2.013000,2.013000,2.013000,2.010000,2.012000,2.013000,2.013000,2.013000,2.013000,2.013000,2.013000,2.013000,2.013000,2.013000,2.013000,2.013000,2.013000,2.013000,2.013000,2.011000,2.010000,0.000000,0.000000,0.000000,0.000000,0.000000,0.000000,0.000000,
0.000000,0.000000,0.000000,0.000000,0.000000,0.000000,0.000000,0.000000,2.013000,2.012000,2.011000,2.013000,2.010000,2.013000,2.009000,2.009000,2.009000,2.009000,2.009000,2.009000,2.011000,2.010000,2.013000,2.013000,2.013000,2.013000,2.013000,2.013000,2.010000,2.011000,2.012000,2.013000,1.958000,0.000000,0.000000,0.000000,0.000000,0.000000,0.000000,0.000000,
0.000000,0.000000,0.000000,0.000000,0.000000,0.000000,0.000000,0.000000,2.008000,2.005000,2.008000,2.009000,2.008000,2.005000,2.006000,2.005000,2.005000,2.009000,2.005000,2.008000,2.008000,2.009000,2.009000,2.013000,2.012000,2.013000,2.013000,2.009000,2.009000,2.009000,2.008000,2.009000,0.000000,1.933000,0.000000,0.000000,0.000000,0.000000,0.000000,0.000000,
0.000000,0.000000,0.000000,0.000000,0.000000,0.000000,0.000000,1.771000,2.000000,2.003000,2.005000,2.004000,2.000000,2.000000,2.005000,2.005000,2.005000,2.005000,2.005000,2.004000,2.003000,2.000000,2.005000,2.005000,2.005000,2.008000,2.008000,2.008000,2.008000,2.006000,2.005000,2.005000,0.000000,1.933000,0.000000,0.000000,0.000000,0.000000,0.000000,0.000000,
0.000000,0.000000,0.000000,0.000000,0.000000,0.000000,0.000000,1.774000,1.996000,2.000000,2.002000,2.000000,2.000000,2.000000,2.005000,2.005000,2.006000,2.009000,2.005000,2.000000,2.000000,2.000000,2.000000,2.005000,2.002000,2.000000,2.002000,2.002000,2.000000,2.001000,2.005000,2.000000,0.000000,0.000000,0.000000,0.000000,0.000000,0.000000,0.000000,0.000000,
0.000000,0.000000,0.000000,0.000000,0.000000,0.000000,0.000000,1.774000,2.000000,1.997000,2.000000,2.000000,2.000000,2.000000,2.001000,2.000000,2.001000,2.005000,2.004000,2.000000,2.000000,2.000000,2.000000,2.000000,2.000000,2.000000,2.000000,2.000000,2.000000,2.000000,2.000000,2.000000,0.000000,0.000000,0.000000,0.000000,0.000000,0.000000,0.000000,0.000000,
0.000000,0.000000,0.000000,0.000000,0.000000,0.000000,0.000000,1.774000,2.000000,2.000000,1.996000,1.999000,2.000000,2.000000,2.000000,2.000000,2.000000,2.000000,2.000000,2.000000,2.000000,2.000000,1.996000,1.997000,2.000000,2.000000,2.000000,2.000000,2.000000,2.000000,2.000000,1.996000,0.000000,0.000000,0.000000,0.000000,0.000000,0.000000,0.000000,0.000000,
0.000000,0.000000,0.000000,0.000000,0.000000,0.000000,0.000000,1.819000,1.999000,1.998000,1.996000,1.996000,1.999000,1.996000,1.996000,1.996000,1.996000,2.000000,2.000000,1.996000,1.996000,1.996000,1.996000,1.997000,1.998000,1.996000,1.996000,1.996000,1.996000,1.996000,1.996000,1.996000,0.000000,0.000000,0.000000,0.000000,0.000000,0.000000,0.000000,0.000000,
0.000000,0.000000,0.000000,0.000000,0.000000,0.000000,1.520000,1.992000,1.996000,1.996000,1.995000,1.994000,1.996000,1.996000,1.996000,1.996000,1.996000,1.998000,1.996000,1.995000,1.993000,1.996000,1.996000,1.996000,1.996000,1.995000,1.994000,1.996000,1.996000,1.996000,1.996000,1.997000,0.000000,0.000000,0.000000,0.000000,0.000000,0.000000,0.000000,0.000000,
0.000000,0.000000,0.000000,0.000000,0.000000,0.000000,1.520000,1.992000,1.993000,1.992000,1.993000,1.992000,1.992000,1.994000,1.996000,1.996000,1.996000,1.996000,1.996000,1.996000,1.992000,1.992000,1.996000,1.996000,1.994000,1.995000,1.992000,1.994000,1.993000,1.993000,1.994000,0.000000,0.000000,0.000000,0.000000,0.000000,0.000000,0.000000,0.000000,0.000000,
0.000000,0.000000,0.000000,0.000000,0.000000,0.000000,0.000000,1.992000,1.988000,1.989000,1.992000,1.992000,1.989000,1.992000,1.993000,1.994000,1.992000,1.993000,1.992000,1.992000,1.992000,1.993000,1.996000,1.992000,1.992000,1.996000,1.992000,1.989000,1.989000,1.992000,1.992000,1.826000,0.000000,0.000000,0.000000,0.000000,0.000000,0.000000,0.000000,0.000000,
0.000000,0.000000,0.000000,0.000000,0.000000,0.000000,1.534000,1.991000,1.988000,1.988000,1.988000,1.988000,1.988000,1.988000,1.992000,1.990000,1.988000,1.988000,1.992000,1.991000,1.988000,1.988000,1.992000,1.991000,1.989000,1.988000,1.988000,1.988000,1.988000,1.990000,1.992000,0.000000,0.000000,0.000000,0.000000,0.000000,0.000000,0.000000,0.000000,0.000000,
0.000000,0.000000,0.000000,0.000000,0.000000,0.000000,1.983000,1.986000,1.983000,1.987000,1.987000,1.984000,1.983000,1.988000,1.991000,1.987000,1.988000,1.988000,1.988000,1.988000,1.987000,1.988000,1.992000,1.987000,1.984000,1.988000,1.988000,1.987000,1.987000,1.983000,1.987000,0.000000,0.000000,0.000000,0.000000,0.000000,0.000000,0.000000,0.000000,0.000000,
0.000000,0.000000,0.000000,0.000000,0.000000,0.000000,1.729000,1.983000,1.983000,1.984000,1.984000,1.983000,1.983000,1.986000,1.983000,1.983000,1.985000,1.983000,1.983000,1.986000,1.987000,1.986000,1.986000,1.983000,1.983000,1.983000,1.983000,1.983000,1.983000,1.983000,1.981000,1.520000,0.000000,0.000000,0.000000,0.000000,0.000000,0.000000,0.000000,0.000000,
0.000000,0.000000,0.000000,0.000000,0.000000,0.000000,1.981000,1.980000,1.983000,1.980000,1.983000,1.981000,1.979000,1.979000,1.980000,1.982000,1.983000,1.983000,1.983000,1.983000,1.983000,1.983000,1.983000,1.983000,1.983000,1.983000,1.983000,1.983000,1.983000,1.979000,1.979000,0.000000,0.000000,0.000000,0.000000,0.000000,0.000000,0.000000,0.000000,0.000000,
0.000000,0.000000,0.000000,0.000000,0.000000,0.000000,1.977000,1.975000,1.976000,1.979000,1.979000,1.979000,1.979000,1.979000,1.979000,1.981000,1.983000,1.983000,1.983000,1.979000,1.981000,1.983000,1.983000,1.983000,1.983000,1.983000,1.983000,1.979000,1.979000,1.979000,1.321000,0.000000,0.000000,0.000000,0.000000,0.000000,0.000000,0.000000,0.000000,0.000000,
0.000000,0.000000,0.000000,0.000000,0.000000,0.000000,1.977000,1.975000,1.979000,1.979000,1.979000,1.979000,1.979000,1.979000,1.979000,1.979000,1.983000,1.983000,1.983000,1.979000,1.979000,1.979000,1.979000,1.979000,1.979000,1.979000,1.979000,1.979000,1.979000,1.979000,1.300000,0.000000,0.000000,0.000000,0.000000,0.000000,0.000000,0.000000,0.000000,0.000000,
0.000000,0.000000,0.000000,0.000000,0.000000,0.000000,1.979000,1.975000,1.971000,1.976000,1.975000,1.975000,1.975000,1.975000,1.975000,1.976000,1.980000,1.979000,1.979000,1.979000,1.979000,1.979000,1.979000,1.979000,1.979000,1.979000,1.979000,1.979000,1.979000,1.975000,1.232000,0.000000,0.000000,0.000000,0.000000,0.000000,0.000000,0.000000,0.000000,0.000000,
0.000000,0.000000,0.000000,0.000000,0.000000,0.000000,1.975000,1.968000,1.967000,1.977000,1.972000,1.975000,1.975000,1.973000,1.972000,1.972000,1.979000,1.977000,1.979000,1.975000,1.975000,1.976000,1.975000,1.977000,1.977000,1.977000,1.977000,1.979000,1.979000,1.975000,1.232000,0.000000,0.000000,0.000000,0.000000,0.000000,0.000000,0.000000,0.000000,0.000000,
0.000000,0.000000,0.000000,0.000000,0.000000,0.000000,0.000000,0.000000,0.000000,0.000000,1.973000,1.972000,1.975000,1.967000,1.974000,1.974000,1.976000,1.975000,1.979000,1.978000,1.975000,1.977000,1.978000,1.975000,1.975000,1.975000,1.975000,1.972000,1.972000,1.973000,1.976000,0.000000,0.000000,0.000000,0.000000,0.000000,0.000000,0.000000,0.000000,0.000000,
0.000000,0.000000,0.000000,0.000000,0.000000,0.000000,0.000000,0.000000,0.000000,0.000000,0.000000,1.147000,0.000000,0.000000,0.000000,0.000000,0.000000,0.000000,0.000000,0.000000,1.979000,1.976000,1.971000,1.979000,1.975000,1.975000,1.975000,1.975000,1.969000,1.963000,1.963000,0.000000,0.000000,0.000000,0.000000,0.000000,0.000000,0.000000,0.000000,0.000000,
0.000000,0.000000,0.000000,0.000000,0.000000,0.000000,0.000000,0.000000,0.000000,0.000000,0.000000,2.333000,0.000000,0.000000,0.000000,0.000000,0.000000,0.000000,0.000000,2.357000,0.000000,1.980000,0.000000,0.000000,0.000000,0.000000,0.000000,0.000000,0.000000,0.000000,0.000000,0.000000,0.000000,0.000000,0.000000,0.000000,0.000000,0.000000,0.000000,0.000000,
0.000000,0.000000,0.000000,0.000000,0.000000,0.000000,0.000000,0.000000,0.000000,0.000000,0.000000,0.000000,0.000000,0.000000,0.000000,0.000000,0.000000,0.000000,0.000000,0.000000,0.000000,0.000000,0.000000,0.000000,0.000000,0.000000,0.000000,0.000000,0.000000,0.000000,0.000000,0.000000,0.000000,0.000000,0.000000,0.000000,0.000000,0.000000,0.000000,0.000000,
0.000000,0.000000,0.000000,0.000000,0.000000,0.000000,0.000000,0.000000,0.000000,0.000000,0.000000,0.000000,0.000000,0.000000,0.000000,0.000000,0.000000,0.000000,0.000000,0.000000,0.000000,0.000000,0.000000,0.000000,0.000000,0.000000,0.000000,0.000000,0.000000,0.000000,0.000000,0.000000,0.000000,0.000000,0.000000,0.000000,0.000000,0.000000,0.000000,0.000000,
