40 40
0.000000 0.000000 0.000000 0.000000 0.000000 0.000000 0.000000 0.000000 0.000000 0.000000 0.000000 0.000000 0.000000 0.000000 0.000000 0.000000 0.000000 0.000000 0.000000 0.000000 0.000000 0.000000 0.000000 0.000000 0.000000 0.000000 0.000000 0.000000 0.000000 0.000000 0.000000 0.000000 0.000000 0.000000 0.000000 0.000000 0.000000 0.000000 0.000000 0.000000 
0.000000 0.000000 0.000000 0.000000 0.000000 0.000000 0.000000 0.000000 0.000000 0.000000 0.000000 0.000000 0.000000 0.000000 0.000000 0.000000 0.000000 0.000000 0.000000 0.000000 0.000000 0.000000 0.000000 0.000000 0.000000 0.000000 0.000000 0.000000 0.000000 0.000000 0.000000 0.000000 0.000000 0.000000 0.000000 0.000000 0.000000 0.000000 0.000000 0.000000 
0.000000 0.000000 0.000000 0.000000 0.000000 0.000000 0.000000 0.000000 0.000000 0.000000 0.000000 0.000000 0.000000 0.000000 0.000000 0.000000 0.000000 0.000000 0.000000 0.000000 0.000000 0.000000 0.000000 0.000000 0.000000 0.000000 0.000000 0.000000 0.000000 0.000000 0.000000 0.000000 0.000000 0.000000 0.000000 0.000000 0.000000 0.000000 0.000000 0.000000 
0.000000 0.000000 0.000000 0.000000 0.000000 0.000000 0.000000 0.000000 0.000000 0.000000 0.000000 0.000000 0.000000 0.000000 0.000000 0.000000 0.000000 0.000000 0.000000 0.000000 0.000000 0.000000 0.000000 0.000000 0.000000 0.000000 0.000000 0.000000 0.000000 0.000000 0.000000 0.000000 0.000000 0.000000 0.000000 0.000000 0.000000 0.000000 0.000000 0.000000 
0.000000 0.000000 0.000000 0.000000 0.000000 0.000000 0.000000 0.000000 0.000000 2.301000 2.000000 2.000000 2.000000 2.000000 2.000000 1.986000 1.949000 1.934000 1.934000 1.964000 2.031000 0.000000 0.000000 0.000000 0.000000 0.000000 0.000000 0.000000 0.000000 0.000000 0.000000 0.000000 0.000000 0.000000 0.000000 0.000000 0.000000 0.000000 0.000000 0.000000 
0.000000 0.000000 0.000000 0.000000 0.000000 0.000000 0.000000 0.000000 2.880000 2.198000 2.000000 2.000000 2.000000 2.000000 2.000000 1.986000 1.949000 1.934000 1.934000 1.954000 1.998000 2.680000 0.000000 0.000000 0.000000 0.000000 0.000000 0.000000 0.000000 0.000000 0.000000 0.000000 0.000000 0.000000 0.000000 0.000000 0.000000 0.000000 0.000000 0.000000 
0.000000 0.000000 0.000000 0.000000 0.000000 2.916000 2.177000 2.177000 2.128000 2.029000 2.000000 2.000000 2.000000 2.000000 2.000000 1.986000 1.949000 1.934000 1.934000 1.937000 1.943000 2.042000 2.117000 2.117000 2.574000 0.000000 0.000000 0.000000 0.000000 0.000000 0.000000 0.000000 0.000000 0.000000 0.000000 0.000000 0.000000 0.000000 0.000000 0.000000 
0.000000 0.000000 0.000000 0.000000 0.000000 2.459000 2.000000 2.000000 2.000000 2.000000 2.000000 2.000000 2.000000 2.000000 2.000000 1.986000 1.949000 1.934000 1.934000 1.934000 1.934000 1.934000 1.930000 1.913000 2.174000 2.748000 0.000000 0.000000 0.000000 0.000000 0.000000 0.000000 0.000000 0.000000 0.000000 0.000000 0.000000 0.000000 0.000000 0.000000 
0.000000 0.000000 0.000000 0.000000 2.131000 2.057000 2.002000 2.001000 2.000000 2.000000 2.000000 2.000000 2.000000 2.000000 2.000000 1.986000 1.949000 1.934000 1.934000 1.934000 1.934000 1.934000 1.925000 1.890000 1.871000 1.871000 2.666000 0.000000 0.000000 0.000000 0.000000 0.000000 0.000000 0.000000 0.000000 0.000000 0.000000 0.000000 0.000000 0.000000 
0.000000 0.000000 0.000000 0.000000 2.095000 2.063000 2.034000 2.011000 2.000000 2.000000 2.000000 2.000000 2.000000 2.000000 2.000000 1.986000 1.949000 1.934000 1.934000 1.934000 1.934000 1.934000 1.925000 1.890000 1.871000 1.871000 2.220000 2.727000 0.000000 0.000000 0.000000 0.000000 0.000000 0.000000 0.000000 0.000000 0.000000 0.000000 0.000000 0.000000 
0.000000 0.000000 0.000000 2.874000 2.068000 2.068000 2.058000 2.019000 2.000000 2.000000 2.000000 2.000000 2.000000 2.000000 2.000000 1.988000 1.957000 1.944000 1.944000 1.944000 1.944000 1.944000 1.935000 1.899000 1.881000 1.881000 1.901000 1.931000 2.826000 0.000000 0.000000 0.000000 0.000000 0.000000 0.000000 0.000000 0.000000 0.000000 0.000000 0.000000 
0.000000 0.000000 2.699000 2.340000 2.068000 2.068000 2.058000 2.019000 2.000000 2.000000 2.000000 2.000000 2.000000 2.000000 2.000000 1.996000 1.985000 1.981000 1.981000 1.981000 1.981000 1.981000 1.972000 1.935000 1.916000 1.916000 1.923000 1.933000 2.258000 2.561000 2.513000 2.482000 2.482000 2.880000 0.000000 0.000000 0.000000 0.000000 0.000000 0.000000 
0.000000 0.000000 2.238000 2.068000 2.068000 2.068000 2.061000 2.033000 2.014000 2.003000 2.000000 2.000000 2.000000 2.000000 2.000000 2.000000 2.000000 2.000000 2.000000 2.000000 2.000000 2.000000 1.991000 1.954000 1.934000 1.934000 1.934000 1.934000 1.958000 1.978000 1.951000 1.934000 1.934000 2.349000 0.000000 0.000000 0.000000 0.000000 0.000000 0.000000 
0.000000 0.000000 2.238000 2.068000 2.068000 2.068000 2.066000 2.060000 2.041000 2.009000 2.000000 2.000000 2.000000 2.000000 2.000000 2.000000 2.000000 2.000000 2.000000 2.000000 2.000000 2.000000 1.991000 1.954000 1.934000 1.934000 1.934000 1.934000 1.939000 1.944000 1.938000 1.934000 1.934000 2.027000 2.191000 2.226000 2.234000 0.000000 0.000000 0.000000 
0.000000 2.771000 2.170000 2.081000 2.095000 2.079000 2.068000 2.068000 2.049000 2.011000 2.000000 2.000000 2.000000 2.000000 2.000000 2.000000 2.000000 2.000000 2.000000 2.000000 2.000000 1.985000 1.968000 1.946000 1.934000 1.934000 1.934000 1.934000 1.934000 1.934000 1.934000 1.934000 1.934000 1.934000 1.934000 1.923000 1.915000 2.562000 0.000000 0.000000 
2.138000 2.114000 2.075000 2.099000 2.132000 2.095000 2.068000 2.068000 2.049000 2.011000 2.000000 2.000000 2.000000 2.000000 2.000000 2.000000 2.000000 2.000000 2.000000 2.000000 1.999000 1.963000 1.936000 1.935000 1.934000 1.934000 1.934000 1.934000 1.934000 1.934000 1.934000 1.934000 1.934000 1.934000 1.934000 1.907000 1.874000 1.916000 2.194000 0.000000 
2.068000 2.068000 2.068000 2.100000 2.135000 2.096000 2.068000 2.068000 2.049000 2.011000 2.000000 2.000000 2.000000 2.003000 2.023000 2.028000 2.008000 2.000000 2.000000 2.000000 1.999000 1.962000 1.934000 1.934000 1.934000 1.934000 1.934000 1.934000 1.934000 1.934000 1.934000 1.934000 1.934000 1.934000 1.934000 1.906000 1.871000 1.871000 1.993000 2.523000 
2.074000 2.074000 2.074000 2.103000 2.135000 2.096000 2.068000 2.068000 2.049000 2.011000 2.000000 2.000000 2.000000 2.005000 2.040000 2.049000 2.014000 2.000000 2.000000 2.000000 1.999000 1.962000 1.934000 1.934000 1.934000 1.934000 1.934000 1.934000 1.934000 1.934000 1.938000 1.938000 1.935000 1.934000 1.934000 1.908000 1.876000 1.876000 1.876000 1.873000 
2.113000 2.113000 2.113000 2.124000 2.135000 2.096000 2.068000 2.068000 2.049000 2.011000 2.000000 2.000000 2.000000 2.002000 2.016000 2.019000 2.006000 2.000000 2.000000 2.000000 1.999000 1.962000 1.934000 1.934000 1.934000 1.934000 1.934000 1.934000 1.934000 1.937000 1.961000 1.968000 1.944000 1.934000 1.934000 1.924000 1.912000 1.912000 1.906000 1.884000 
2.137000 2.137000 2.137000 2.137000 2.135000 2.096000 2.068000 2.068000 2.053000 2.023000 2.008000 2.001000 2.000000 2.000000 2.000000 2.000000 2.000000 2.000000 2.000000 2.000000 1.999000 1.962000 1.934000 1.934000 1.934000 1.934000 1.934000 1.934000 1.934000 1.939000 1.976000 1.990000 1.960000 1.943000 1.936000 1.934000 1.934000 1.934000 1.926000 1.890000 
2.137000 2.137000 2.137000 2.137000 2.135000 2.096000 2.068000 2.068000 2.064000 2.055000 2.031000 2.002000 2.000000 2.000000 2.000000 2.000000 2.000000 2.000000 2.000000 2.000000 1.999000 1.962000 1.934000 1.934000 1.934000 1.934000 1.934000 1.934000 1.934000 1.939000 1.976000 1.997000 1.988000 1.969000 1.940000 1.934000 1.934000 1.934000 1.926000 1.890000 
2.137000 2.137000 2.137000 2.137000 2.135000 2.096000 2.068000 2.068000 2.068000 2.068000 2.041000 2.003000 2.000000 2.002000 2.015000 2.018000 2.005000 2.000000 2.000000 2.000000 1.999000 1.962000 1.934000 1.934000 1.934000 1.934000 1.934000 1.934000 1.945000 1.959000 1.984000 1.996000 1.983000 1.964000 1.939000 1.925000 1.913000 1.913000 1.908000 1.884000 
2.137000 2.137000 2.137000 2.137000 2.135000 2.096000 2.068000 2.068000 2.068000 2.068000 2.041000 2.003000 2.000000 2.005000 2.039000 2.048000 2.014000 2.000000 2.000000 2.000000 1.999000 1.962000 1.934000 1.934000 1.934000 1.934000 1.934000 1.934000 1.964000 1.993000 1.997000 1.988000 1.955000 1.939000 1.935000 1.909000 1.878000 1.878000 1.877000 1.873000 
2.137000 2.137000 2.137000 2.137000 2.135000 2.096000 2.068000 2.068000 2.068000 2.068000 2.053000 2.032000 2.031000 2.034000 2.055000 2.060000 2.039000 2.031000 2.031000 2.031000 2.030000 1.992000 1.964000 1.964000 1.964000 1.964000 1.964000 1.964000 1.982000 2.000000 2.000000 1.987000 1.950000 1.934000 1.934000 1.906000 1.871000 1.871000 1.871000 1.871000 
2.137000 2.137000 2.137000 2.137000 2.135000 2.097000 2.069000 2.068000 2.068000 2.068000 2.068000 2.068000 2.068000 2.068000 2.068000 2.068000 2.068000 2.068000 2.068000 2.068000 2.067000 2.029000 2.000000 2.000000 2.000000 2.000000 2.000000 2.000000 1.999000 1.999000 1.999000 1.986000 1.950000 1.934000 1.934000 1.906000 1.871000 1.871000 1.871000 1.871000 
2.137000 2.137000 2.137000 2.137000 2.136000 2.120000 2.102000 2.079000 2.068000 2.068000 2.068000 2.068000 2.068000 2.068000 2.068000 2.068000 2.068000 2.068000 2.068000 2.068000 2.067000 2.029000 2.000000 2.000000 2.000000 2.000000 2.000000 2.000000 1.980000 1.962000 1.962000 1.956000 1.941000 1.934000 1.934000 1.906000 1.871000 1.871000 1.871000 1.871000 
2.137000 2.137000 2.137000 2.137000 2.137000 2.131000 2.118000 2.085000 2.068000 2.068000 2.072000 2.077000 2.078000 2.077000 2.071000 2.068000 2.068000 2.068000 2.068000 2.068000 2.067000 2.029000 2.000000 2.000000 2.000000 2.000000 2.000000 2.000000 1.966000 1.934000 1.934000 1.934000 1.934000 1.934000 1.934000 1.910000 1.880000 1.880000 1.912000 2.053000 
2.137000 2.137000 2.137000 2.137000 2.136000 2.108000 2.085000 2.074000 2.068000 2.068000 2.087000 2.115000 2.116000 2.112000 2.085000 2.068000 2.068000 2.068000 2.068000 2.068000 2.067000 2.029000 2.000000 2.000000 2.000000 2.000000 2.000000 2.000000 1.966000 1.934000 1.934000 1.934000 1.934000 1.934000 1.934000 1.926000 1.915000 1.915000 2.077000 2.783000 
2.589000 2.589000 2.589000 2.589000 2.574000 2.282000 2.063000 2.043000 2.033000 2.033000 2.074000 2.133000 2.127000 2.115000 2.086000 2.068000 2.068000 2.068000 2.068000 2.068000 2.067000 2.039000 2.015000 2.005000 2.000000 2.000000 2.000000 2.000000 1.975000 1.953000 1.963000 1.966000 1.956000 1.951000 1.951000 1.951000 1.945000 1.237000 0.000000 1.601000 
0.000000 0.000000 0.000000 0.000000 0.000000 2.676000 2.051000 1.989000 1.957000 1.957000 2.029000 2.130000 2.107000 2.079000 2.072000 2.068000 2.068000 2.068000 2.068000 2.068000 2.068000 2.061000 2.048000 2.017000 2.000000 2.000000 2.000000 2.000000 1.994000 1.993000 2.024000 2.034000 2.002000 1.988000 1.988000 1.988000 1.967000 0.000000 0.000000 0.000000 
0.000000 0.000000 0.000000 0.000000 0.000000 0.000000 2.592000 2.156000 1.934000 1.934000 2.260000 2.719000 2.394000 2.068000 2.068000 2.068000 2.068000 2.068000 2.068000 2.068000 2.068000 2.068000 2.058000 2.020000 2.000000 2.000000 2.010000 2.025000 2.026000 2.029000 2.053000 2.055000 2.016000 2.000000 2.000000 2.000000 1.988000 0.000000 0.000000 0.000000 
0.000000 0.000000 0.000000 0.000000 0.000000 0.000000 0.000000 2.423000 1.934000 1.934000 2.615000 0.000000 2.820000 2.068000 2.068000 2.068000 2.068000 2.068000 2.068000 2.068000 2.068000 2.068000 2.058000 2.020000 2.000000 2.000000 2.025000 2.061000 2.065000 2.065000 2.067000 2.055000 2.016000 2.000000 2.000000 2.000000 2.008000 2.791000 2.598000 0.000000 
0.000000 0.000000 0.000000 0.000000 0.000000 0.000000 0.000000 0.000000 2.848000 2.848000 0.000000 0.000000 0.000000 2.901000 2.390000 2.068000 2.068000 2.068000 2.068000 2.084000 2.103000 2.083000 2.063000 2.045000 2.035000 2.035000 2.048000 2.066000 2.068000 2.068000 2.068000 2.061000 2.043000 2.326000 2.837000 2.916000 2.885000 0.000000 2.885000 0.000000 
0.000000 0.000000 0.000000 0.000000 0.000000 0.000000 0.000000 0.000000 0.000000 0.000000 0.000000 0.000000 0.000000 0.000000 2.773000 2.164000 2.096000 2.068000 2.068000 2.099000 2.136000 2.100000 2.073000 2.073000 2.073000 2.073000 2.071000 2.068000 2.068000 2.068000 2.065000 2.063000 2.063000 2.634000 0.000000 0.000000 0.000000 0.000000 2.885000 0.000000 
0.000000 0.000000 0.000000 0.000000 0.000000 0.000000 0.000000 0.000000 0.000000 0.000000 0.000000 0.000000 0.000000 0.000000 0.000000 2.900000 2.310000 2.068000 2.068000 2.099000 2.137000 2.122000 2.112000 2.112000 2.112000 2.112000 2.095000 2.070000 2.068000 2.065000 2.041000 2.025000 2.025000 2.608000 0.000000 0.000000 0.000000 0.000000 2.885000 0.000000 
0.000000 0.000000 0.000000 0.000000 0.000000 0.000000 0.000000 0.000000 0.000000 0.000000 0.000000 0.000000 0.000000 0.000000 0.000000 0.000000 2.449000 2.068000 2.068000 2.099000 2.137000 2.137000 2.137000 2.137000 2.137000 2.137000 2.110000 2.071000 2.068000 2.063000 2.025000 2.000000 2.000000 2.591000 0.000000 0.000000 0.000000 0.000000 2.885000 0.000000 
0.000000 0.000000 0.000000 0.000000 0.000000 0.000000 0.000000 0.000000 0.000000 0.000000 0.000000 0.000000 0.000000 0.000000 0.000000 0.000000 0.000000 0.000000 0.000000 0.000000 0.000000 0.000000 0.000000 0.000000 0.000000 0.000000 0.000000 0.000000 0.000000 0.000000 0.000000 0.000000 0.000000 0.000000 0.000000 0.000000 0.000000 0.000000 0.000000 0.000000 
0.000000 0.000000 0.000000 0.000000 0.000000 0.000000 0.000000 0.000000 0.000000 0.000000 0.000000 0.000000 0.000000 0.000000 0.000000 0.000000 0.000000 0.000000 0.000000 0.000000 0.000000 0.000000 0.000000 0.000000 0.000000 0.000000 0.000000 0.000000 0.000000 0.000000 0.000000 0.000000 0.000000 0.000000 0.000000 0.000000 0.000000 0.000000 0.000000 0.000000 
0.000000 0.000000 0.000000 0.000000 0.000000 0.000000 0.000000 0.000000 0.000000 0.000000 0.000000 0.000000 0.000000 0.000000 0.000000 0.000000 0.000000 0.000000 0.000000 0.000000 0.000000 0.000000 0.000000 0.000000 0.000000 0.000000 0.000000 0.000000 0.000000 0.000000 0.000000 0.000000 0.000000 0.000000 0.000000 0.000000 0.000000 0.000000 0.000000 0.000000 
0.000000 0.000000 0.000000 0.000000 0.000000 0.000000 0.000000 0.000000 0.000000 0.000000 0.000000 0.000000 0.000000 0.000000 0.000000 0.000000 0.000000 0.000000 0.000000 0.000000 0.000000 0.000000 0.000000 0.000000 0.000000 0.000000 0.000000 0.000000 0.000000 0.000000 0.000000 0.000000 0.000000 0.000000 0.000000 0.000000 0.000000 0.000000 0.000000 0.000000 
