40 40
0.000000 0.000000 0.000000 0.000000 0.000000 0.000000 0.000000 0.000000 0.000000 0.000000 0.000000 0.000000 0.000000 0.000000 0.000000 0.000000 0.000000 0.000000 0.000000 0.000000 0.000000 0.000000 0.000000 0.000000 0.000000 0.000000 0.000000 0.000000 0.000000 0.000000 0.000000 0.000000 0.000000 0.000000 0.000000 0.000000 0.000000 0.000000 0.000000 0.000000 
0.000000 0.000000 0.000000 0.000000 0.000000 0.000000 0.000000 0.000000 0.000000 0.000000 0.000000 0.000000 0.000000 0.000000 0.000000 0.000000 0.000000 0.000000 0.000000 0.000000 0.000000 0.000000 0.000000 0.000000 0.000000 0.000000 0.000000 0.000000 0.000000 0.000000 0.000000 0.000000 0.000000 0.000000 0.000000 0.000000 0.000000 0.000000 0.000000 0.000000 
0.000000 0.000000 0.000000 0.000000 0.000000 0.000000 0.000000 0.000000 0.000000 0.000000 0.000000 0.000000 0.000000 0.000000 0.000000 0.000000 0.000000 0.000000 0.000000 0.000000 0.000000 0.000000 0.000000 0.000000 0.000000 0.000000 0.000000 0.000000 0.000000 0.000000 0.000000 0.000000 0.000000 0.000000 0.000000 0.000000 0.000000 0.000000 0.000000 0.000000 
0.000000 0.000000 0.000000 0.000000 0.000000 0.000000 0.000000 0.000000 0.000000 0.000000 0.000000 0.000000 0.000000 0.000000 0.000000 0.000000 0.000000 0.000000 0.000000 0.000000 0.000000 0.000000 0.000000 0.000000 0.000000 0.000000 0.000000 0.000000 0.000000 0.000000 0.000000 0.000000 0.000000 0.000000 0.000000 0.000000 0.000000 0.000000 0.000000 0.000000 
0.000000 0.000000 0.000000 0.000000 0.000000 0.000000 0.000000 0.000000 0.000000 0.000000 0.000000 0.000000 0.000000 0.000000 0.000000 0.000000 0.000000 0.000000 0.000000 0.000000 0.000000 0.000000 0.000000 0.000000 0.000000 0.000000 0.000000 0.000000 0.000000 0.000000 0.000000 0.000000 0.000000 0.000000 0.000000 0.000000 0.000000 0.000000 0.000000 0.000000 
0.000000 0.000000 0.000000 0.000000 0.000000 0.000000 0.000000 0.000000 0.000000 0.000000 0.000000 0.000000 0.000000 0.000000 0.000000 0.000000 0.000000 0.000000 0.000000 0.000000 0.000000 0.000000 0.000000 0.000000 0.000000 0.000000 0.000000 0.000000 0.000000 0.000000 0.000000 0.000000 0.000000 0.000000 0.000000 0.000000 0.000000 0.000000 0.000000 0.000000 
0.000000 0.000000 0.000000 0.000000 0.000000 0.000000 0.000000 0.000000 0.000000 0.000000 0.000000 0.000000 0.000000 0.000000 0.000000 0.000000 0.000000 0.000000 0.000000 0.000000 0.000000 0.000000 0.000000 0.000000 0.000000 0.000000 0.000000 0.000000 0.000000 0.000000 0.000000 0.000000 0.000000 0.000000 0.000000 0.000000 0.000000 0.000000 0.000000 0.000000 
2.960000 2.960000 2.960000 2.960000 2.960000 2.960000 2.960000 2.960000 2.960000 2.960000 2.960000 2.960000 2.960000 2.960000 2.960000 2.960000 2.960000 2.924000 2.871000 2.866000 2.866000 2.866000 2.866000 2.866000 2.808000 2.707000 2.686000 2.686000 2.686000 2.686000 2.686000 2.708000 2.758000 2.483000 2.048000 2.000000 2.000000 2.000000 2.013000 2.051000 
2.960000 2.960000 2.960000 2.960000 2.960000 2.960000 2.947000 2.911000 2.896000 2.896000 2.911000 2.928000 2.946000 2.960000 2.960000 2.960000 2.960000 2.924000 2.871000 2.866000 2.866000 2.866000 2.812000 2.659000 2.547000 2.468000 2.451000 2.451000 2.451000 2.451000 2.451000 2.466000 2.498000 2.317000 2.032000 2.000000 2.000000 2.000000 2.008000 2.033000 
2.960000 2.960000 2.960000 2.960000 2.960000 2.960000 2.925000 2.831000 2.792000 2.792000 2.830000 2.876000 2.924000 2.960000 2.960000 2.960000 2.960000 2.924000 2.871000 2.866000 2.866000 2.866000 2.724000 2.319000 2.119000 2.075000 2.066000 2.066000 2.066000 2.066000 2.066000 2.068000 2.072000 2.046000 2.005000 2.000000 2.000000 2.000000 2.001000 2.005000 
2.916000 2.916000 2.916000 2.916000 2.916000 2.916000 2.887000 2.807000 2.774000 2.774000 2.816000 2.868000 2.920000 2.960000 2.960000 2.842000 2.590000 2.518000 2.525000 2.510000 2.494000 2.494000 2.404000 2.147000 2.025000 2.004000 2.000000 2.000000 2.000000 2.000000 2.000000 2.000000 2.000000 2.000000 2.000000 2.000000 2.000000 2.000000 2.000000 2.000000 
2.861000 2.861000 2.861000 2.864000 2.866000 2.866000 2.848000 2.799000 2.770000 2.755000 2.793000 2.843000 2.895000 2.933000 2.933000 2.687000 2.163000 2.053000 2.130000 2.102000 2.068000 2.068000 2.055000 2.016000 2.000000 2.000000 2.000000 2.000000 2.000000 2.000000 2.000000 2.000000 2.000000 2.000000 2.000000 2.000000 2.000000 2.000000 2.000000 2.000000 
2.768000 2.760000 2.760000 2.815000 2.866000 2.866000 2.870000 2.880000 2.696000 2.378000 2.335000 2.356000 2.377000 2.394000 2.394000 2.290000 2.069000 2.053000 2.130000 2.102000 2.068000 2.068000 2.055000 2.016000 2.000000 2.000000 2.000000 2.000000 2.000000 2.000000 2.000000 2.000000 2.000000 2.000000 2.000000 2.000000 2.000000 2.000000 2.000000 2.000000 
2.639000 2.620000 2.614000 2.693000 2.766000 2.766000 2.778000 2.811000 2.551000 2.088000 2.000000 2.000000 2.000000 2.000000 2.000000 2.000000 2.000000 2.049000 2.120000 2.097000 2.068000 2.068000 2.055000 2.016000 2.000000 2.000000 2.000000 2.000000 2.000000 2.000000 2.000000 2.000000 2.000000 2.000000 2.000000 2.000000 2.000000 2.000000 2.000000 2.000000 
2.411000 2.377000 2.348000 2.373000 2.397000 2.397000 2.382000 2.341000 2.216000 2.035000 2.000000 2.000000 2.000000 2.000000 2.000000 2.000000 2.000000 2.034000 2.083000 2.078000 2.068000 2.068000 2.055000 2.016000 2.000000 2.000000 2.000000 2.000000 2.000000 2.000000 2.000000 2.000000 2.000000 2.000000 2.000000 2.000000 2.000000 2.000000 2.000000 2.000000 
2.271000 2.233000 2.192000 2.179000 2.170000 2.170000 2.149000 2.092000 2.045000 2.007000 2.000000 2.000000 2.011000 2.019000 2.019000 2.019000 2.019000 2.038000 2.066000 2.068000 2.068000 2.068000 2.058000 2.031000 2.013000 2.002000 2.000000 2.000000 1.990000 1.982000 1.982000 1.986000 1.997000 2.000000 2.000000 2.000000 2.000000 2.000000 2.000000 2.000000 
2.223000 2.192000 2.152000 2.119000 2.091000 2.091000 2.086000 2.073000 2.045000 2.007000 2.000000 2.001000 2.033000 2.057000 2.057000 2.057000 2.057000 2.061000 2.067000 2.068000 2.068000 2.068000 2.066000 2.060000 2.039000 2.007000 2.000000 2.000000 1.969000 1.945000 1.945000 1.959000 1.990000 2.000000 2.000000 2.000000 2.000000 2.000000 2.000000 2.000000 
2.180000 2.163000 2.139000 2.101000 2.068000 2.068000 2.068000 2.068000 2.045000 2.007000 2.000000 2.001000 2.039000 2.068000 2.068000 2.068000 2.068000 2.068000 2.068000 2.068000 2.068000 2.068000 2.068000 2.068000 2.046000 2.008000 2.000000 2.000000 1.948000 1.909000 1.909000 1.932000 1.983000 2.000000 2.000000 2.014000 2.027000 2.027000 2.027000 2.027000 
2.140000 2.139000 2.137000 2.101000 2.068000 2.068000 2.068000 2.068000 2.045000 2.007000 2.000000 2.001000 2.039000 2.068000 2.068000 2.068000 2.068000 2.068000 2.068000 2.068000 2.068000 2.068000 2.068000 2.068000 2.046000 2.008000 2.000000 1.999000 1.928000 1.873000 1.873000 1.905000 1.977000 2.000000 2.000000 2.033000 2.065000 2.065000 2.065000 2.065000 
2.137000 2.137000 2.137000 2.101000 2.068000 2.068000 2.068000 2.068000 2.057000 2.039000 2.036000 2.036000 2.054000 2.068000 2.068000 2.068000 2.068000 2.068000 2.068000 2.050000 2.032000 2.032000 2.039000 2.059000 2.058000 2.039000 2.020000 1.999000 1.927000 1.871000 1.871000 1.904000 1.976000 2.000000 2.000000 2.034000 2.068000 2.068000 2.068000 2.068000 
2.131000 2.131000 2.131000 2.098000 2.068000 2.068000 2.068000 2.068000 2.068000 2.068000 2.068000 2.068000 2.068000 2.068000 2.068000 2.068000 2.068000 2.068000 2.068000 2.033000 2.000000 2.000000 2.012000 2.047000 2.062000 2.062000 2.037000 2.005000 1.939000 1.888000 1.888000 1.917000 1.984000 2.006000 2.006000 2.037000 2.068000 2.068000 2.068000 2.068000 
2.092000 2.092000 2.092000 2.080000 2.068000 2.068000 2.068000 2.068000 2.068000 2.068000 2.068000 2.068000 2.068000 2.068000 2.068000 2.068000 2.068000 2.068000 2.068000 2.033000 2.000000 2.000000 2.005000 2.018000 2.024000 2.024000 2.033000 2.044000 2.018000 1.998000 1.998000 2.010000 2.035000 2.044000 2.044000 2.056000 2.068000 2.068000 2.068000 2.068000 
2.068000 2.068000 2.068000 2.068000 2.068000 2.068000 2.068000 2.068000 2.068000 2.068000 2.062000 2.054000 2.054000 2.056000 2.064000 2.076000 2.092000 2.097000 2.097000 2.048000 2.000000 2.000000 2.000000 2.000000 2.000000 2.000000 2.030000 2.068000 2.068000 2.068000 2.068000 2.068000 2.068000 2.123000 2.206000 2.215000 2.215000 2.215000 2.211000 2.201000 
2.068000 2.068000 2.068000 2.068000 2.068000 2.068000 2.068000 2.068000 2.068000 2.068000 2.044000 2.016000 2.016000 2.023000 2.052000 2.097000 2.158000 2.177000 2.177000 2.086000 2.000000 2.000000 2.000000 2.000000 2.000000 2.000000 2.030000 2.068000 2.068000 2.068000 2.068000 2.068000 2.068000 2.272000 2.578000 2.611000 2.611000 2.611000 2.599000 2.561000 
2.027000 2.024000 2.024000 2.035000 2.047000 2.060000 2.068000 2.068000 2.068000 2.068000 2.037000 2.000000 2.000000 2.023000 2.115000 2.189000 2.242000 2.279000 2.308000 2.164000 2.023000 2.023000 2.018000 2.005000 2.000000 2.000000 2.020000 2.045000 2.045000 2.071000 2.183000 2.244000 2.244000 2.444000 2.741000 2.774000 2.774000 2.774000 2.758000 2.708000 
1.958000 1.948000 1.948000 1.979000 2.012000 2.046000 2.068000 2.068000 2.068000 2.068000 2.037000 2.000000 2.000000 2.046000 2.230000 2.331000 2.339000 2.397000 2.477000 2.268000 2.061000 2.061000 2.049000 2.015000 2.000000 2.000000 2.003000 2.007000 2.007000 2.076000 2.377000 2.543000 2.543000 2.630000 2.760000 2.774000 2.774000 2.774000 2.758000 2.708000 
1.945000 1.934000 1.934000 1.968000 2.006000 2.044000 2.068000 2.068000 2.058000 2.040000 2.020000 2.001000 2.018000 2.077000 2.261000 2.358000 2.358000 2.420000 2.509000 2.392000 2.272000 2.272000 2.272000 2.273000 2.286000 2.307000 2.312000 2.312000 2.335000 2.384000 2.523000 2.600000 2.600000 2.636000 2.689000 2.734000 2.774000 2.774000 2.758000 2.708000 
1.946000 1.935000 1.935000 1.969000 2.006000 2.044000 2.068000 2.068000 2.045000 2.007000 2.000000 2.001000 2.039000 2.110000 2.277000 2.365000 2.365000 2.426000 2.513000 2.521000 2.520000 2.520000 2.536000 2.582000 2.629000 2.676000 2.687000 2.689000 2.737000 2.752000 2.656000 2.602000 2.601000 2.600000 2.600000 2.686000 2.773000 2.773000 2.759000 2.716000 
1.977000 1.972000 1.972000 1.987000 2.006000 2.044000 2.068000 2.068000 2.045000 2.007000 2.000000 2.001000 2.039000 2.142000 2.441000 2.599000 2.599000 2.625000 2.662000 2.640000 2.615000 2.615000 2.622000 2.641000 2.661000 2.682000 2.732000 2.790000 2.781000 2.765000 2.723000 2.675000 2.619000 2.600000 2.600000 2.662000 2.723000 2.723000 2.790000 2.992000 
2.148000 2.148000 2.148000 2.148000 2.152000 2.177000 2.193000 2.193000 2.169000 2.129000 2.122000 2.123000 2.155000 2.262000 2.588000 2.762000 2.762000 2.766000 2.773000 2.729000 2.686000 2.686000 2.688000 2.695000 2.698000 2.698000 2.767000 2.853000 2.808000 2.772000 2.765000 2.721000 2.630000 2.600000 2.600000 2.643000 2.686000 2.686000 2.810000 0.000000 
2.743000 2.743000 2.743000 2.743000 2.739000 2.711000 2.694000 2.694000 2.666000 2.617000 2.608000 2.608000 2.620000 2.640000 2.687000 2.712000 2.712000 2.736000 2.771000 2.729000 2.686000 2.686000 2.698000 2.733000 2.748000 2.748000 2.772000 2.801000 2.786000 2.766000 2.731000 2.684000 2.621000 2.600000 2.600000 2.643000 2.686000 2.686000 2.799000 0.000000 
0.000000 0.000000 0.000000 0.000000 0.000000 2.995000 2.960000 2.960000 2.929000 2.876000 2.866000 2.866000 2.866000 2.841000 2.740000 2.686000 2.686000 2.720000 2.770000 2.729000 2.686000 2.686000 2.703000 2.753000 2.774000 2.774000 2.774000 2.774000 2.774000 2.763000 2.713000 2.664000 2.616000 2.600000 2.600000 2.643000 2.686000 2.686000 2.793000 0.000000 
0.000000 0.000000 0.000000 0.000000 0.000000 0.000000 0.000000 0.000000 0.000000 0.000000 0.000000 0.000000 0.000000 0.000000 0.000000 0.000000 0.000000 0.000000 0.000000 0.000000 0.000000 0.000000 0.000000 0.000000 0.000000 0.000000 0.000000 0.000000 0.000000 0.000000 0.000000 0.000000 0.000000 0.000000 0.000000 0.000000 0.000000 0.000000 0.000000 0.000000 
0.000000 0.000000 0.000000 0.000000 0.000000 0.000000 0.000000 0.000000 0.000000 0.000000 0.000000 0.000000 0.000000 0.000000 0.000000 0.000000 0.000000 0.000000 0.000000 0.000000 0.000000 0.000000 0.000000 0.000000 0.000000 0.000000 0.000000 0.000000 0.000000 0.000000 0.000000 0.000000 0.000000 0.000000 0.000000 0.000000 0.000000 0.000000 0.000000 0.000000 
0.000000 0.000000 0.000000 0.000000 0.000000 0.000000 0.000000 0.000000 0.000000 0.000000 0.000000 0.000000 0.000000 0.000000 0.000000 0.000000 0.000000 0.000000 0.000000 0.000000 0.000000 0.000000 0.000000 0.000000 0.000000 0.000000 0.000000 0.000000 0.000000 0.000000 0.000000 0.000000 0.000000 0.000000 0.000000 0.000000 0.000000 0.000000 0.000000 0.000000 
0.000000 0.000000 0.000000 0.000000 0.000000 0.000000 0.000000 0.000000 0.000000 0.000000 0.000000 0.000000 0.000000 0.000000 0.000000 0.000000 0.000000 0.000000 0.000000 0.000000 0.000000 0.000000 0.000000 0.000000 0.000000 0.000000 0.000000 0.000000 0.000000 0.000000 0.000000 0.000000 0.000000 0.000000 0.000000 0.000000 0.000000 0.000000 0.000000 0.000000 
0.000000 0.000000 0.000000 0.000000 0.000000 0.000000 0.000000 0.000000 0.000000 0.000000 0.000000 0.000000 0.000000 0.000000 0.000000 0.000000 0.000000 0.000000 0.000000 0.000000 0.000000 0.000000 0.000000 0.000000 0.000000 0.000000 0.000000 0.000000 0.000000 0.000000 0.000000 0.000000 0.000000 0.000000 0.000000 0.000000 0.000000 0.000000 0.000000 0.000000 
0.000000 0.000000 0.000000 0.000000 0.000000 0.000000 0.000000 0.000000 0.000000 0.000000 0.000000 0.000000 0.000000 0.000000 0.000000 0.000000 0.000000 0.000000 0.000000 0.000000 0.000000 0.000000 0.000000 0.000000 0.000000 0.000000 0.000000 0.000000 0.000000 0.000000 0.000000 0.000000 0.000000 0.000000 0.000000 0.000000 0.000000 0.000000 0.000000 0.000000 
0.000000 0.000000 0.000000 0.000000 0.000000 0.000000 0.000000 0.000000 0.000000 0.000000 0.000000 0.000000 0.000000 0.000000 0.000000 0.000000 0.000000 0.000000 0.000000 0.000000 0.000000 0.000000 0.000000 0.000000 0.000000 0.000000 0.000000 0.000000 0.000000 0.000000 0.000000 0.000000 0.000000 0.000000 0.000000 0.000000 0.000000 0.000000 0.000000 0.000000 
0.000000 0.000000 0.000000 0.000000 0.000000 0.000000 0.000000 0.000000 0.000000 0.000000 0.000000 0.000000 0.000000 0.000000 0.000000 0.000000 0.000000 0.000000 0.000000 0.000000 0.000000 0.000000 0.000000 0.000000 0.000000 0.000000 0.000000 0.000000 0.000000 0.000000 0.000000 0.000000 0.000000 0.000000 0.000000 0.000000 0.000000 0.000000 0.000000 0.000000 
