40 40
0.000000 0.000000 0.000000 0.000000 0.000000 0.000000 2.034000 2.034000 2.023000 2.009000 1.993000 1.990000 1.989000 1.987000 1.990000 1.997000 2.000000 2.000000 2.009000 2.016000 2.023000 2.034000 2.034000 2.034000 2.045000 2.045000 2.045000 2.051000 2.057000 2.069000 2.072000 2.072000 2.766000 0.000000 0.000000 0.000000 0.000000 0.000000 0.000000 0.000000 
0.000000 0.000000 0.000000 0.000000 0.000000 0.000000 2.051000 2.028000 2.011000 1.997000 1.990000 1.979000 1.985000 1.990000 1.990000 1.990000 2.000000 2.000000 2.000000 2.013000 2.023000 2.034000 2.034000 2.034000 2.045000 2.045000 2.045000 2.045000 2.053000 2.058000 2.068000 2.068000 2.762000 0.000000 0.000000 0.000000 0.000000 0.000000 0.000000 0.000000 
0.000000 0.000000 0.000000 0.000000 0.000000 0.000000 2.043000 2.028000 2.011000 1.997000 1.990000 1.979000 1.982000 1.989000 1.990000 1.990000 1.995000 2.000000 2.000000 2.013000 2.023000 2.034000 2.034000 2.034000 2.040000 2.045000 2.045000 2.045000 2.053000 2.057000 2.057000 2.057000 2.754000 0.000000 0.000000 0.000000 0.000000 0.000000 0.000000 0.000000 
0.000000 0.000000 0.000000 0.000000 0.000000 0.000000 2.043000 2.028000 2.002000 1.997000 1.990000 1.979000 1.979000 1.989000 1.990000 1.990000 1.990000 2.000000 2.000000 2.011000 2.019000 2.034000 2.034000 2.034000 2.035000 2.045000 2.045000 2.045000 2.053000 2.058000 2.063000 2.057000 2.770000 0.000000 0.000000 0.000000 0.000000 0.000000 0.000000 0.000000 
0.000000 0.000000 0.000000 0.000000 0.000000 0.000000 2.043000 2.028000 2.004000 1.997000 1.988000 1.979000 1.979000 1.989000 1.990000 1.990000 1.990000 2.000000 2.000000 2.009000 2.016000 2.031000 2.028000 2.023000 2.031000 2.040000 2.045000 2.045000 2.053000 2.057000 2.060000 2.054000 2.794000 0.000000 0.000000 0.000000 0.000000 0.000000 0.000000 0.000000 
0.000000 0.000000 0.000000 0.000000 0.000000 0.000000 2.051000 2.031000 2.011000 1.997000 1.982000 1.979000 1.979000 1.982000 1.990000 1.994000 1.997000 2.000000 2.000000 2.002000 2.011000 2.015000 2.023000 2.023000 2.024000 2.040000 2.045000 2.045000 2.053000 2.057000 2.052000 2.045000 2.757000 0.000000 0.000000 0.000000 0.000000 0.000000 0.000000 0.000000 
0.000000 0.000000 0.000000 0.000000 0.000000 0.000000 2.053000 2.028000 2.011000 1.997000 1.982000 1.979000 1.979000 1.979000 1.990000 1.990000 2.000000 2.000000 2.000000 2.000000 2.000000 2.011000 2.023000 2.023000 2.034000 2.039000 2.044000 2.045000 2.045000 2.057000 2.047000 2.034000 2.736000 0.000000 0.000000 0.000000 0.000000 0.000000 0.000000 0.000000 
0.000000 0.000000 0.000000 0.000000 0.000000 0.000000 2.048000 2.028000 2.011000 1.997000 1.982000 1.974000 1.974000 1.978000 1.990000 1.990000 1.996000 1.998000 1.996000 2.000000 2.000000 2.022000 2.023000 2.023000 2.034000 2.034000 2.034000 2.045000 2.045000 2.057000 2.046000 2.039000 2.732000 0.000000 0.000000 0.000000 0.000000 0.000000 0.000000 0.000000 
0.000000 0.000000 0.000000 0.000000 0.000000 0.000000 2.041000 2.024000 2.003000 1.997000 1.982000 1.968000 1.968000 1.978000 1.983000 1.990000 1.990000 1.991000 1.990000 2.000000 2.005000 2.023000 2.023000 2.030000 2.034000 2.034000 2.034000 2.045000 2.052000 2.056000 2.045000 2.045000 2.727000 0.000000 0.000000 0.000000 0.000000 0.000000 0.000000 0.000000 
0.000000 0.000000 0.000000 0.000000 0.000000 0.000000 2.023000 2.016000 2.000000 1.997000 1.982000 1.968000 1.969000 1.978000 1.982000 1.990000 1.990000 1.990000 1.990000 2.000000 2.012000 2.021000 2.023000 2.023000 2.024000 2.034000 2.034000 2.045000 2.045000 2.056000 2.047000 2.047000 2.729000 0.000000 0.000000 0.000000 0.000000 0.000000 0.000000 0.000000 
0.000000 0.000000 0.000000 0.000000 0.000000 0.000000 2.023000 2.016000 1.995000 1.993000 1.982000 1.974000 1.977000 1.979000 1.982000 1.990000 1.990000 1.990000 1.990000 2.000000 2.006000 2.011000 2.023000 2.023000 2.030000 2.034000 2.034000 2.040000 2.045000 2.057000 2.057000 2.063000 2.742000 0.000000 0.000000 0.000000 0.000000 0.000000 0.000000 0.000000 
0.000000 0.000000 0.000000 0.000000 0.000000 0.000000 2.023000 2.016000 1.991000 1.990000 1.990000 1.979000 1.979000 1.979000 1.982000 1.990000 1.990000 1.990000 1.990000 2.000000 2.006000 2.011000 2.011000 2.028000 2.034000 2.034000 2.034000 2.037000 2.045000 2.046000 2.057000 2.067000 2.746000 0.000000 0.000000 0.000000 0.000000 0.000000 0.000000 0.000000 
0.000000 0.000000 0.000000 0.000000 0.000000 0.000000 2.022000 2.012000 1.991000 1.990000 1.987000 1.979000 1.979000 1.979000 1.981000 1.989000 1.990000 1.990000 1.990000 2.000000 2.004000 2.007000 2.011000 2.020000 2.034000 2.034000 2.034000 2.037000 2.045000 2.046000 2.057000 2.057000 2.737000 0.000000 0.000000 0.000000 0.000000 0.000000 0.000000 0.000000 
0.000000 0.000000 0.000000 0.000000 0.000000 0.000000 2.021000 2.005000 1.990000 1.990000 1.982000 1.971000 1.971000 1.971000 1.979000 1.986000 1.990000 1.990000 1.990000 2.000000 2.000000 2.000000 2.011000 2.020000 2.027000 2.034000 2.034000 2.037000 2.045000 2.046000 2.057000 2.057000 2.749000 0.000000 0.000000 0.000000 0.000000 0.000000 0.000000 0.000000 
0.000000 0.000000 0.000000 0.000000 0.000000 0.000000 2.021000 2.005000 1.990000 1.990000 1.982000 1.968000 1.968000 1.968000 1.971000 1.979000 1.990000 1.990000 1.990000 2.000000 2.000000 2.009000 2.011000 2.020000 2.024000 2.034000 2.034000 2.045000 2.045000 2.046000 2.057000 2.057000 2.738000 0.000000 0.000000 0.000000 0.000000 0.000000 0.000000 0.000000 
0.000000 0.000000 0.000000 0.000000 0.000000 0.000000 2.022000 2.011000 1.996000 1.990000 1.982000 1.968000 1.968000 1.968000 1.968000 1.975000 1.990000 1.990000 1.990000 2.000000 2.000000 2.000000 2.005000 2.014000 2.029000 2.034000 2.034000 2.045000 2.045000 2.045000 2.051000 2.051000 2.392000 0.000000 0.000000 0.000000 0.000000 0.000000 0.000000 0.000000 
0.000000 0.000000 0.000000 0.000000 0.000000 0.000000 2.031000 2.016000 1.992000 1.987000 1.979000 1.968000 1.968000 1.968000 1.971000 1.979000 1.990000 1.990000 1.990000 2.000000 2.000000 2.000000 2.000000 2.008000 2.024000 2.029000 2.034000 2.038000 2.045000 2.045000 2.045000 2.045000 2.057000 0.000000 0.000000 0.000000 0.000000 0.000000 0.000000 0.000000 
0.000000 0.000000 0.000000 0.000000 0.000000 0.000000 2.032000 2.010000 1.990000 1.986000 1.971000 1.965000 1.967000 1.968000 1.971000 1.981000 1.990000 1.990000 1.990000 2.000000 2.000000 2.000000 2.000000 2.006000 2.020000 2.029000 2.034000 2.034000 2.041000 2.034000 2.034000 2.034000 2.718000 0.000000 0.000000 0.000000 0.000000 0.000000 0.000000 0.000000 
0.000000 0.000000 0.000000 0.000000 0.000000 0.000000 2.024000 2.006000 1.990000 1.986000 1.971000 1.958000 1.963000 1.968000 1.976000 1.981000 1.990000 1.990000 1.990000 2.000000 2.000000 2.000000 2.000000 2.000000 2.013000 2.029000 2.034000 2.034000 2.041000 2.041000 2.041000 2.041000 2.724000 0.000000 0.000000 0.000000 0.000000 0.000000 0.000000 0.000000 
0.000000 0.000000 0.000000 0.000000 0.000000 0.000000 2.021000 2.005000 1.990000 1.982000 1.961000 1.958000 1.963000 1.968000 1.971000 1.979000 1.990000 1.990000 1.990000 2.000000 2.000000 2.000000 2.000000 2.000000 2.013000 2.029000 2.034000 2.034000 2.034000 2.044000 2.045000 2.045000 2.743000 0.000000 0.000000 0.000000 0.000000 0.000000 0.000000 0.000000 
0.000000 0.000000 0.000000 0.000000 0.000000 0.000000 2.026000 2.007000 1.990000 1.975000 1.961000 1.958000 1.958000 1.967000 1.970000 1.977000 1.985000 1.990000 1.990000 1.996000 2.000000 2.000000 2.000000 2.000000 2.013000 2.029000 2.034000 2.034000 2.034000 2.034000 2.040000 2.040000 2.723000 0.000000 0.000000 0.000000 0.000000 0.000000 0.000000 0.000000 
0.000000 0.000000 0.000000 0.000000 0.000000 0.000000 2.032000 2.010000 1.990000 1.975000 1.961000 1.958000 1.958000 1.960000 1.968000 1.975000 1.980000 1.990000 1.990000 1.990000 1.997000 2.000000 2.000000 2.007000 2.021000 2.029000 2.034000 2.034000 2.034000 2.034000 2.034000 2.034000 2.705000 0.000000 0.000000 0.000000 0.000000 0.000000 0.000000 0.000000 
0.000000 0.000000 0.000000 0.000000 0.000000 0.000000 2.014000 2.013000 1.991000 1.977000 1.963000 1.958000 1.958000 1.958000 1.968000 1.974000 1.990000 1.990000 1.990000 1.990000 1.996000 2.000000 2.011000 2.011000 2.023000 2.023000 2.023000 2.026000 2.034000 2.034000 2.034000 2.034000 2.563000 0.000000 0.000000 0.000000 0.000000 0.000000 0.000000 0.000000 
0.000000 0.000000 0.000000 0.000000 0.000000 0.000000 1.981000 2.002000 1.991000 1.986000 1.971000 1.958000 1.958000 1.958000 1.968000 1.968000 1.984000 1.990000 1.990000 1.990000 1.996000 2.000000 2.004000 2.004000 2.016000 2.023000 2.030000 2.031000 2.034000 2.034000 2.034000 2.034000 2.045000 0.000000 0.000000 0.000000 0.000000 0.000000 0.000000 0.000000 
0.000000 0.000000 0.000000 0.000000 0.000000 0.000000 2.010000 2.011000 2.000000 1.982000 1.961000 1.958000 1.958000 1.958000 1.968000 1.968000 1.979000 1.984000 1.990000 1.990000 1.990000 2.000000 2.000000 2.000000 2.011000 2.017000 2.023000 2.034000 2.034000 2.034000 2.039000 2.045000 2.050000 0.000000 0.000000 0.000000 0.000000 0.000000 0.000000 0.000000 
0.000000 0.000000 0.000000 0.000000 0.000000 0.000000 2.022000 2.013000 1.997000 1.980000 1.961000 1.958000 1.958000 1.958000 1.968000 1.968000 1.979000 1.982000 1.989000 1.990000 1.990000 2.000000 2.000000 2.000000 2.000000 2.012000 2.023000 2.034000 2.034000 2.034000 2.039000 2.055000 2.059000 0.000000 0.000000 0.000000 0.000000 0.000000 0.000000 0.000000 
0.000000 0.000000 0.000000 0.000000 0.000000 0.000000 2.030000 2.011000 1.990000 1.975000 1.961000 1.958000 1.962000 1.966000 1.968000 1.968000 1.979000 1.979000 1.981000 1.990000 1.990000 2.000000 2.000000 2.000000 2.000000 2.007000 2.014000 2.028000 2.034000 2.034000 2.039000 2.047000 2.057000 0.000000 0.000000 0.000000 0.000000 0.000000 0.000000 0.000000 
0.000000 0.000000 0.000000 0.000000 0.000000 0.000000 2.029000 2.009000 1.990000 1.975000 1.961000 1.958000 1.958000 1.958000 1.968000 1.968000 1.978000 1.979000 1.979000 1.981000 1.990000 1.990000 2.000000 2.000000 2.000000 2.006000 2.011000 2.026000 2.033000 2.034000 2.034000 2.042000 2.047000 0.000000 0.000000 0.000000 0.000000 0.000000 0.000000 0.000000 
0.000000 0.000000 0.000000 0.000000 0.000000 0.000000 2.011000 2.005000 1.990000 1.975000 1.961000 1.958000 1.958000 1.958000 1.963000 1.966000 1.969000 1.979000 1.984000 1.986000 1.990000 1.995000 2.000000 2.000000 2.001000 2.008000 2.011000 2.023000 2.030000 2.034000 2.034000 2.034000 2.045000 0.000000 0.000000 0.000000 0.000000 0.000000 0.000000 0.000000 
0.000000 0.000000 0.000000 0.000000 0.000000 0.000000 2.028000 1.999000 1.980000 1.975000 1.961000 1.958000 1.953000 1.948000 1.958000 1.959000 1.968000 1.973000 1.988000 1.990000 1.995000 2.000000 2.000000 2.000000 2.001000 2.011000 2.021000 2.023000 2.030000 2.034000 2.034000 2.034000 2.045000 0.000000 0.000000 0.000000 0.000000 0.000000 0.000000 0.000000 
0.000000 0.000000 0.000000 0.000000 0.000000 0.000000 2.019000 1.994000 1.976000 1.972000 1.958000 1.955000 1.951000 1.947000 1.956000 1.958000 1.958000 1.966000 1.977000 1.989000 1.997000 1.997000 1.998000 2.000000 2.001000 2.008000 2.021000 2.034000 2.034000 2.034000 2.034000 2.034000 2.238000 0.000000 0.000000 0.000000 0.000000 0.000000 0.000000 0.000000 
0.000000 0.000000 0.000000 0.000000 0.000000 0.000000 2.019000 1.994000 1.969000 1.965000 1.950000 1.947000 1.947000 1.947000 1.948000 1.955000 1.958000 1.962000 1.971000 1.980000 1.983000 1.990000 1.994000 1.995000 1.994000 2.000000 2.013000 2.027000 2.032000 2.034000 2.034000 2.034000 2.641000 0.000000 0.000000 0.000000 0.000000 0.000000 0.000000 0.000000 
0.000000 0.000000 0.000000 0.000000 0.000000 0.000000 2.115000 1.994000 1.979000 1.965000 1.950000 1.947000 1.942000 1.937000 1.940000 1.947000 1.958000 1.962000 1.969000 1.979000 1.979000 1.990000 1.994000 1.993000 1.989000 1.979000 1.998000 2.015000 2.031000 2.034000 2.034000 2.177000 2.719000 0.000000 0.000000 0.000000 0.000000 0.000000 0.000000 0.000000 
0.000000 0.000000 0.000000 0.000000 0.000000 0.000000 0.000000 2.392000 1.984000 1.965000 1.954000 1.947000 1.944000 1.937000 1.940000 1.947000 1.958000 1.962000 1.977000 1.979000 1.979000 1.990000 2.002000 1.994000 1.989000 2.658000 0.000000 0.000000 0.000000 0.000000 0.000000 0.000000 0.000000 0.000000 0.000000 0.000000 0.000000 0.000000 0.000000 0.000000 
0.000000 0.000000 0.000000 0.000000 0.000000 0.000000 0.000000 0.000000 2.052000 1.970000 1.958000 1.947000 1.947000 1.938000 1.940000 1.953000 1.966000 1.971000 1.979000 1.979000 1.984000 1.998000 2.020000 2.004000 1.998000 0.000000 0.000000 0.000000 0.000000 0.000000 0.000000 0.000000 0.000000 0.000000 0.000000 0.000000 0.000000 0.000000 0.000000 0.000000 
0.000000 0.000000 0.000000 0.000000 0.000000 0.000000 0.000000 0.000000 0.000000 0.000000 2.081000 1.947000 1.948000 1.942000 2.074000 2.421000 1.541000 1.557000 1.920000 2.002000 2.015000 2.041000 2.032000 2.018000 2.014000 0.000000 0.000000 0.000000 0.000000 0.000000 0.000000 0.000000 0.000000 0.000000 0.000000 0.000000 0.000000 0.000000 0.000000 0.000000 
0.000000 0.000000 0.000000 0.000000 0.000000 0.000000 0.000000 0.000000 0.000000 0.000000 0.000000 0.000000 0.000000 0.000000 0.000000 2.459000 0.000000 0.000000 0.000000 2.074000 2.069000 2.062000 2.041000 2.034000 2.023000 2.650000 0.000000 0.000000 0.000000 0.000000 0.000000 0.000000 0.000000 0.000000 0.000000 0.000000 0.000000 0.000000 0.000000 0.000000 
0.000000 0.000000 0.000000 0.000000 0.000000 0.000000 0.000000 0.000000 0.000000 0.000000 0.000000 0.000000 0.000000 0.000000 0.000000 2.717000 1.937000 0.000000 2.017000 2.080000 2.080000 2.058000 2.041000 2.034000 2.034000 2.833000 0.000000 0.000000 0.000000 0.000000 0.000000 0.000000 0.000000 0.000000 0.000000 0.000000 0.000000 0.000000 0.000000 0.000000 
0.000000 0.000000 0.000000 0.000000 0.000000 0.000000 0.000000 0.000000 0.000000 0.000000 0.000000 0.000000 0.000000 0.000000 0.000000 2.471000 2.044000 2.032000 2.030000 2.063000 2.080000 2.080000 2.045000 2.029000 2.011000 2.521000 0.000000 0.000000 0.000000 0.000000 0.000000 0.000000 0.000000 0.000000 0.000000 0.000000 0.000000 0.000000 0.000000 0.000000 
0.000000 0.000000 0.000000 0.000000 0.000000 0.000000 1.584000 0.000000 0.000000 2.088000 2.080000 2.540000 2.524000 2.517000 2.358000 2.016000 2.036000 2.024000 2.023000 2.035000 2.080000 2.080000 2.006000 2.003000 2.003000 2.003000 2.344000 2.409000 0.000000 0.000000 0.000000 0.000000 0.000000 0.000000 0.000000 0.000000 0.000000 0.000000 0.000000 0.000000 
