0.000000,0.000000,0.000000,0.000000,0.000000,0.000000,0.000000,0.000000,0.000000,0.000000,0.000000,0.000000,0.000000,0.000000,0.000000,0.000000,0.000000,0.000000,2.030000,2.016000,2.018000,2.016000,2.016000,2.014000,0.000000,0.000000,0.000000,0.000000,0.000000,0.000000,0.000000,0.000000,0.000000,0.000000,0.000000,0.000000,0.000000,0.000000,0.000000,0.000000,
0.000000,0.000000,0.000000,0.000000,0.000000,0.000000,0.000000,0.000000,0.000000,0.000000,0.000000,0.000000,0.000000,0.000000,0.000000,0.000000,2.314000,2.125000,2.017000,2.009000,2.004000,2.007000,2.009000,1.996000,2.143000,0.000000,0.000000,0.000000,0.000000,0.000000,0.000000,0.000000,0.000000,0.000000,0.000000,0.000000,0.000000,0.000000,0.000000,0.000000,
0.000000,0.000000,0.000000,0.000000,0.000000,0.000000,0.000000,0.000000,0.000000,0.000000,0.000000,0.000000,0.000000,0.000000,2.989000,2.418000,2.010000,2.019000,2.017000,2.009000,2.000000,2.007000,2.006000,1.996000,1.991000,0.000000,0.000000,0.000000,0.000000,0.000000,0.000000,0.000000,0.000000,0.000000,0.000000,0.000000,0.000000,0.000000,0.000000,0.000000,
0.000000,0.000000,0.000000,0.000000,0.000000,0.000000,0.000000,0.000000,0.000000,0.000000,0.000000,0.000000,2.227000,2.232000,1.991000,1.996000,2.010000,2.019000,2.017000,2.009000,2.000000,2.007000,2.000000,2.000000,1.991000,1.991000,0.000000,0.000000,0.000000,0.000000,0.000000,0.000000,0.000000,0.000000,0.000000,0.000000,0.000000,0.000000,0.000000,0.000000,
0.000000,0.000000,0.000000,0.000000,0.000000,0.000000,0.000000,2.510000,2.016000,2.009000,2.009000,2.006000,2.006000,2.006000,1.997000,2.001000,2.007000,2.011000,2.009000,2.009000,2.009000,2.009000,2.000000,2.000000,1.991000,1.991000,0.000000,0.000000,0.000000,0.000000,0.000000,0.000000,0.000000,0.000000,0.000000,0.000000,0.000000,0.000000,0.000000,0.000000,
0.000000,0.000000,0.000000,0.000000,0.000000,2.904000,2.148000,2.010000,2.009000,2.009000,2.009000,2.000000,2.000000,2.009000,2.009000,2.000000,2.001000,2.004000,2.001000,2.001000,2.003000,2.009000,2.000000,2.000000,1.991000,1.991000,0.000000,0.000000,0.000000,0.000000,0.000000,0.000000,0.000000,0.000000,0.000000,0.000000,0.000000,0.000000,0.000000,0.000000,
0.000000,0.000000,0.000000,0.000000,2.732000,2.019000,2.019000,2.009000,2.009000,2.009000,2.009000,2.007000,2.004000,2.009000,2.009000,2.009000,2.010000,2.012000,2.004000,2.004000,2.003000,1.993000,1.991000,1.998000,2.000000,2.000000,0.000000,0.000000,0.000000,0.000000,0.000000,0.000000,0.000000,0.000000,0.000000,0.000000,0.000000,0.000000,0.000000,0.000000,
0.000000,0.000000,0.000000,2.056000,2.017000,2.019000,2.019000,2.009000,2.009000,2.009000,2.009000,2.009000,2.009000,2.009000,2.009000,2.009000,2.010000,2.019000,2.009000,2.009000,2.009000,2.002000,2.000000,2.000000,2.000000,1.993000,1.998000,0.000000,0.000000,0.000000,0.000000,0.000000,0.000000,0.000000,0.000000,0.000000,0.000000,0.000000,0.000000,0.000000,
0.000000,0.000000,0.000000,2.005000,2.016000,2.019000,2.019000,2.009000,2.009000,2.009000,2.009000,2.009000,2.009000,2.009000,2.009000,2.007000,2.005000,2.009000,2.009000,2.009000,2.009000,2.009000,2.000000,2.000000,1.991000,1.991000,1.991000,1.991000,0.000000,0.000000,0.000000,0.000000,0.000000,0.000000,0.000000,0.000000,0.000000,0.000000,0.000000,0.000000,
0.000000,0.000000,0.000000,2.000000,2.015000,2.016000,2.009000,2.009000,2.009000,2.009000,2.009000,2.009000,2.009000,2.009000,2.009000,2.004000,2.001000,2.009000,2.009000,2.009000,2.009000,2.009000,2.000000,2.000000,1.991000,1.991000,1.991000,1.991000,2.986000,0.000000,0.000000,0.000000,0.000000,0.000000,0.000000,0.000000,0.000000,0.000000,0.000000,0.000000,
0.000000,0.000000,0.000000,2.019000,2.011000,2.009000,2.009000,2.009000,2.009000,2.009000,2.009000,2.009000,2.009000,2.009000,2.009000,2.000000,2.001000,2.009000,2.009000,2.003000,2.000000,2.000000,2.007000,2.000000,1.994000,1.991000,1.991000,1.991000,2.456000,0.000000,0.000000,0.000000,0.000000,0.000000,0.000000,0.000000,0.000000,0.000000,0.000000,0.000000,
0.000000,0.000000,0.000000,1.473000,1.638000,2.009000,2.009000,2.009000,2.009000,2.009000,2.009000,2.009000,2.009000,2.009000,2.009000,2.000000,2.000000,2.006000,2.009000,2.009000,2.007000,2.000000,2.000000,2.000000,1.997000,1.991000,2.000000,2.000000,2.000000,0.000000,0.000000,0.000000,0.000000,0.000000,0.000000,0.000000,0.000000,0.000000,0.000000,0.000000,
0.000000,0.000000,0.000000,1.543000,1.641000,2.011000,2.010000,2.009000,2.009000,2.009000,2.009000,2.009000,2.009000,2.009000,2.009000,2.000000,2.000000,2.006000,2.009000,2.003000,2.000000,2.000000,2.000000,2.000000,1.991000,1.991000,1.997000,2.000000,2.000000,2.892000,0.000000,0.000000,0.000000,0.000000,0.000000,0.000000,0.000000,0.000000,0.000000,0.000000,
0.000000,0.000000,0.000000,2.893000,1.968000,2.012000,2.011000,2.010000,2.009000,2.009000,2.009000,2.009000,2.009000,2.008000,2.008000,2.000000,2.001000,2.009000,2.009000,2.003000,2.000000,2.000000,2.000000,2.000000,1.992000,1.991000,1.991000,1.991000,1.991000,1.991000,0.000000,0.000000,0.000000,0.000000,0.000000,0.000000,0.000000,0.000000,0.000000,0.000000,
0.000000,0.000000,0.000000,2.754000,1.865000,2.004000,2.013000,2.015000,2.009000,2.009000,2.009000,2.009000,2.009000,2.004000,2.000000,2.000000,2.001000,2.009000,2.009000,2.003000,2.000000,2.000000,2.002000,2.001000,1.993000,1.991000,1.991000,1.991000,1.985000,1.985000,0.000000,0.000000,0.000000,0.000000,0.000000,0.000000,0.000000,0.000000,0.000000,0.000000,
0.000000,0.000000,0.000000,0.000000,2.271000,2.009000,2.009000,2.009000,2.009000,2.009000,2.009000,2.009000,2.009000,2.000000,2.000000,2.000000,2.001000,2.009000,2.000000,2.000000,2.000000,2.000000,2.002000,2.002000,1.991000,1.991000,1.988000,1.982000,1.982000,1.982000,2.888000,0.000000,0.000000,0.000000,0.000000,0.000000,0.000000,0.000000,0.000000,0.000000,
0.000000,0.000000,0.000000,0.000000,2.271000,2.009000,2.009000,2.009000,2.009000,2.009000,2.009000,2.009000,2.009000,2.006000,2.000000,2.000000,2.001000,2.005000,1.999000,1.994000,2.000000,1.995000,1.994000,1.999000,1.991000,1.991000,1.988000,1.982000,1.988000,1.988000,1.991000,2.701000,0.000000,0.000000,0.000000,0.000000,0.000000,0.000000,0.000000,0.000000,
0.000000,0.000000,0.000000,0.000000,2.272000,2.009000,2.009000,2.009000,2.009000,2.009000,2.009000,2.009000,2.007000,2.003000,2.000000,2.000000,2.001000,2.003000,1.999000,1.993000,1.998000,1.991000,1.991000,1.997000,1.991000,1.991000,1.991000,1.991000,1.991000,1.982000,1.985000,1.997000,0.000000,0.000000,0.000000,0.000000,0.000000,0.000000,0.000000,0.000000,
0.000000,0.000000,0.000000,0.000000,2.999000,2.009000,2.009000,2.009000,2.009000,2.009000,2.009000,2.009000,2.000000,2.000000,2.000000,2.000000,2.007000,2.003000,2.000000,2.000000,1.993000,1.991000,1.991000,1.991000,1.991000,1.991000,1.989000,1.984000,1.984000,1.982000,1.982000,1.982000,0.000000,0.000000,0.000000,0.000000,0.000000,0.000000,0.000000,0.000000,
0.000000,0.000000,0.000000,0.000000,0.000000,2.009000,2.009000,2.009000,2.009000,2.007000,2.009000,2.009000,2.009000,2.000000,2.000000,2.000000,2.009000,2.005000,2.000000,2.000000,1.991000,1.991000,1.991000,1.991000,1.991000,1.991000,1.989000,1.984000,1.983000,1.982000,1.982000,1.974000,1.974000,0.000000,0.000000,0.000000,0.000000,0.000000,0.000000,0.000000,
0.000000,0.000000,0.000000,0.000000,0.000000,2.698000,2.009000,2.009000,2.009000,2.000000,2.002000,2.009000,2.009000,2.007000,2.007000,2.000000,2.002000,2.002000,2.000000,2.000000,1.991000,1.991000,1.991000,1.991000,1.991000,1.991000,1.991000,1.991000,1.983000,1.982000,1.982000,1.980000,1.980000,0.000000,0.000000,0.000000,0.000000,0.000000,0.000000,0.000000,
0.000000,0.000000,0.000000,0.000000,0.000000,0.000000,2.073000,2.009000,2.009000,2.000000,2.000000,2.000000,2.009000,2.009000,2.009000,2.000000,1.997000,1.999000,2.000000,2.000000,1.991000,1.991000,1.991000,1.991000,1.991000,1.991000,1.988000,1.988000,1.982000,1.982000,1.982000,1.982000,1.982000,2.106000,0.000000,0.000000,0.000000,0.000000,0.000000,0.000000,
0.000000,0.000000,0.000000,0.000000,0.000000,0.000000,2.216000,2.009000,2.009000,2.000000,2.000000,2.000000,2.001000,2.005000,2.001000,2.000000,1.991000,1.992000,1.992000,1.998000,1.991000,1.991000,1.991000,1.991000,1.991000,1.991000,1.982000,1.982000,1.982000,1.982000,1.982000,1.982000,1.982000,2.106000,0.000000,0.000000,0.000000,0.000000,0.000000,0.000000,
0.000000,0.000000,0.000000,0.000000,0.000000,0.000000,2.603000,2.011000,2.009000,2.000000,2.000000,1.998000,1.997000,1.998000,2.000000,2.000000,1.991000,1.993000,1.994000,1.998000,1.991000,1.991000,1.991000,1.991000,1.991000,1.991000,1.982000,1.982000,1.982000,1.982000,1.982000,1.982000,1.976000,1.974000,2.770000,0.000000,0.000000,0.000000,0.000000,0.000000,
0.000000,0.000000,0.000000,0.000000,0.000000,0.000000,0.000000,2.715000,2.009000,2.000000,2.000000,1.996000,1.991000,1.996000,2.000000,1.992000,1.991000,1.997000,1.992000,1.992000,1.991000,1.991000,1.991000,1.991000,1.991000,1.991000,1.982000,1.982000,1.982000,1.982000,1.982000,1.982000,1.974000,1.974000,1.974000,0.000000,0.000000,0.000000,0.000000,0.000000,
0.000000,0.000000,0.000000,0.000000,0.000000,0.000000,0.000000,2.801000,2.009000,2.000000,2.000000,2.000000,1.996000,1.996000,1.991000,1.987000,1.991000,1.991000,1.991000,1.991000,1.991000,1.991000,1.991000,1.991000,1.991000,1.991000,1.990000,1.983000,1.982000,1.982000,1.982000,1.982000,1.982000,1.974000,1.974000,0.000000,0.000000,0.000000,0.000000,0.000000,
0.000000,0.000000,0.000000,0.000000,0.000000,0.000000,0.000000,2.795000,2.001000,2.000000,2.000000,2.000000,1.991000,1.991000,1.991000,1.982000,1.991000,1.991000,1.991000,1.991000,1.991000,1.991000,1.991000,1.991000,1.991000,1.991000,1.988000,1.982000,1.982000,1.982000,1.978000,1.974000,1.978000,1.974000,1.965000,2.206000,0.000000,0.000000,0.000000,0.000000,
0.000000,0.000000,0.000000,0.000000,0.000000,0.000000,0.000000,0.000000,2.653000,2.000000,2.000000,1.996000,1.991000,1.991000,1.991000,1.982000,1.991000,1.991000,1.991000,1.991000,1.991000,1.991000,1.991000,1.988000,1.987000,1.990000,1.988000,1.982000,1.982000,1.974000,1.974000,1.974000,1.974000,1.973000,1.960000,1.956000,0.000000,0.000000,0.000000,0.000000,
0.000000,0.000000,0.000000,0.000000,0.000000,0.000000,0.000000,0.000000,0.000000,2.003000,2.000000,1.996000,1.991000,1.991000,1.991000,1.982000,1.991000,1.991000,1.991000,1.991000,1.991000,1.991000,1.991000,1.984000,1.982000,1.982000,1.982000,1.982000,1.979000,1.974000,1.974000,1.974000,1.974000,1.973000,1.956000,1.956000,0.000000,0.000000,0.000000,0.000000,
0.000000,0.000000,0.000000,0.000000,0.000000,0.000000,0.000000,0.000000,0.000000,0.000000,2.030000,1.993000,1.991000,1.991000,1.991000,1.991000,1.991000,1.991000,1.991000,1.991000,1.991000,1.991000,1.991000,1.984000,1.982000,1.982000,1.982000,1.982000,1.979000,1.974000,1.974000,1.974000,1.974000,1.965000,1.958000,1.956000,0.000000,0.000000,0.000000,0.000000,
0.000000,0.000000,0.000000,0.000000,0.000000,0.000000,0.000000,0.000000,0.000000,0.000000,2.047000,1.986000,1.991000,1.991000,1.982000,1.982000,1.991000,1.991000,1.991000,1.991000,1.991000,1.984000,1.982000,1.982000,1.982000,1.982000,1.982000,1.982000,1.978000,1.974000,1.965000,1.964000,1.965000,1.965000,1.965000,1.965000,0.000000,0.000000,0.000000,0.000000,
0.000000,0.000000,0.000000,0.000000,0.000000,0.000000,0.000000,0.000000,0.000000,2.936000,1.996000,1.982000,1.991000,1.984000,1.982000,1.982000,1.991000,1.991000,1.991000,1.991000,1.991000,1.984000,1.982000,1.982000,1.982000,1.982000,1.980000,1.977000,1.974000,1.965000,1.965000,1.956000,1.961000,1.965000,1.965000,1.960000,0.000000,0.000000,0.000000,0.000000,
0.000000,0.000000,0.000000,0.000000,0.000000,0.000000,0.000000,0.000000,0.000000,2.769000,1.975000,1.987000,1.982000,1.982000,1.982000,1.982000,2.000000,2.000000,1.991000,1.991000,1.982000,1.982000,1.982000,1.982000,1.982000,1.975000,1.974000,1.973000,1.965000,1.965000,1.965000,1.964000,1.964000,1.956000,1.961000,1.983000,0.000000,0.000000,0.000000,0.000000,
0.000000,0.000000,0.000000,0.000000,0.000000,0.000000,0.000000,0.000000,0.000000,0.000000,2.818000,1.991000,1.982000,1.982000,1.982000,1.982000,1.994000,1.994000,1.991000,1.987000,1.982000,1.982000,1.982000,1.982000,1.982000,1.975000,1.971000,1.965000,1.965000,1.965000,1.961000,1.956000,1.956000,1.956000,2.774000,0.000000,0.000000,0.000000,0.000000,0.000000,
0.000000,0.000000,0.000000,0.000000,0.000000,0.000000,0.000000,0.000000,0.000000,0.000000,0.000000,1.993000,1.982000,1.982000,1.982000,1.982000,1.991000,1.991000,1.991000,1.985000,1.982000,1.981000,1.974000,1.974000,1.974000,1.974000,1.971000,1.966000,1.970000,1.967000,1.957000,1.948000,2.153000,2.427000,0.000000,0.000000,0.000000,0.000000,0.000000,0.000000,
0.000000,0.000000,0.000000,0.000000,0.000000,0.000000,0.000000,0.000000,0.000000,0.000000,0.000000,1.991000,1.982000,1.982000,1.982000,1.982000,1.991000,1.991000,1.991000,1.985000,1.982000,1.976000,1.974000,1.974000,1.974000,1.974000,1.974000,1.974000,1.980000,1.980000,1.974000,0.000000,0.000000,0.000000,0.000000,0.000000,0.000000,0.000000,0.000000,0.000000,
0.000000,0.000000,0.000000,0.000000,0.000000,0.000000,0.000000,0.000000,0.000000,0.000000,0.000000,2.130000,1.982000,1.982000,1.982000,1.982000,1.991000,1.989000,1.991000,1.984000,1.982000,1.982000,1.980000,1.974000,1.974000,1.974000,1.977000,1.982000,1.986000,1.993000,0.000000,0.000000,0.000000,0.000000,0.000000,0.000000,0.000000,0.000000,0.000000,0.000000,
0.000000,0.000000,0.000000,0.000000,0.000000,0.000000,0.000000,0.000000,0.000000,0.000000,0.000000,0.000000,1.976000,1.979000,1.982000,1.982000,1.990000,1.982000,1.984000,1.982000,1.982000,1.982000,1.980000,1.974000,1.974000,1.974000,1.977000,1.988000,2.014000,2.014000,0.000000,0.000000,0.000000,0.000000,0.000000,0.000000,0.000000,0.000000,0.000000,0.000000,
0.000000,0.000000,0.000000,0.000000,0.000000,0.000000,0.000000,0.000000,0.000000,0.000000,0.000000,0.000000,1.974000,1.978000,1.982000,1.982000,1.990000,1.982000,1.982000,1.982000,1.982000,1.976000,1.974000,1.976000,1.978000,1.982000,1.693000,0.000000,0.000000,1.974000,2.766000,0.000000,0.000000,0.000000,0.000000,0.000000,0.000000,0.000000,0.000000,0.000000,
0.000000,0.000000,0.000000,0.000000,0.000000,0.000000,0.000000,0.000000,0.000000,0.000000,0.000000,0.000000,0.000000,2.469000,1.982000,1.982000,1.990000,1.982000,1.982000,1.982000,1.982000,1.981000,1.980000,1.982000,1.541000,0.000000,0.000000,0.000000,0.000000,1.974000,1.975000,2.464000,0.000000,0.000000,0.000000,0.000000,0.000000,0.000000,0.000000,0.000000,
