40 40
0.000000 0.000000 0.000000 0.000000 0.000000 0.000000 0.000000 0.000000 0.000000 0.000000 0.000000 0.000000 0.000000 0.000000 0.000000 0.000000 0.000000 0.000000 0.000000 0.000000 0.000000 0.000000 0.000000 0.000000 0.000000 0.000000 0.000000 0.000000 0.000000 0.000000 0.000000 0.000000 0.000000 0.000000 0.000000 0.000000 0.000000 0.000000 0.000000 0.000000 
0.000000 0.000000 0.000000 0.000000 0.000000 0.000000 0.000000 0.000000 0.000000 0.000000 0.000000 0.000000 0.000000 0.000000 0.000000 0.000000 0.000000 0.000000 0.000000 0.000000 0.000000 0.000000 0.000000 0.000000 0.000000 0.000000 0.000000 0.000000 0.000000 0.000000 0.000000 0.000000 0.000000 0.000000 0.000000 0.000000 0.000000 0.000000 0.000000 0.000000 
0.000000 0.000000 0.000000 0.000000 0.000000 0.000000 0.000000 0.000000 2.112000 2.061000 2.056000 2.053000 2.047000 2.047000 2.052000 2.043000 2.039000 2.044000 2.046000 2.039000 2.039000 2.039000 0.000000 2.015000 2.015000 0.000000 0.000000 0.000000 2.015000 2.010000 2.008000 2.005000 0.000000 0.000000 0.000000 0.000000 0.000000 0.000000 0.000000 0.000000 
0.000000 0.000000 0.000000 0.000000 0.000000 0.000000 0.000000 0.000000 2.072000 2.056000 2.047000 2.047000 2.047000 2.047000 2.047000 2.039000 2.039000 2.039000 2.039000 2.039000 2.039000 2.039000 2.031000 2.025000 2.020000 2.016000 2.023000 2.020000 2.015000 2.015000 2.013000 2.000000 2.000000 0.000000 0.000000 0.000000 0.000000 0.000000 0.000000 0.000000 
0.000000 0.000000 0.000000 0.000000 0.000000 0.000000 0.000000 2.176000 2.072000 2.056000 2.047000 2.047000 2.042000 2.046000 2.042000 2.039000 2.039000 2.039000 2.039000 2.039000 2.039000 2.033000 2.031000 2.025000 2.017000 2.015000 2.015000 2.015000 2.015000 2.015000 2.010000 2.008000 2.008000 0.000000 0.000000 0.000000 0.000000 0.000000 0.000000 0.000000 
0.000000 0.000000 0.000000 0.000000 0.000000 0.000000 0.000000 1.739000 2.043000 2.053000 2.047000 2.047000 2.039000 2.039000 2.039000 2.039000 2.039000 2.039000 2.035000 2.031000 2.037000 2.031000 2.031000 2.025000 2.015000 2.015000 2.015000 2.015000 2.015000 2.015000 2.008000 2.000000 2.000000 0.000000 0.000000 0.000000 0.000000 0.000000 0.000000 0.000000 
0.000000 0.000000 0.000000 0.000000 0.000000 0.000000 0.000000 0.000000 2.037000 2.040000 2.047000 2.047000 2.039000 2.039000 2.039000 2.039000 2.039000 2.039000 2.035000 2.031000 2.031000 2.031000 2.030000 2.023000 2.015000 2.015000 2.015000 2.015000 2.008000 2.008000 2.008000 2.007000 2.007000 0.000000 0.000000 0.000000 0.000000 0.000000 0.000000 0.000000 
0.000000 0.000000 0.000000 0.000000 0.000000 0.000000 0.000000 0.000000 2.031000 2.036000 2.047000 2.047000 2.039000 2.039000 2.039000 2.039000 2.039000 2.035000 2.033000 2.031000 2.031000 2.025000 2.023000 2.018000 2.018000 2.015000 2.015000 2.015000 2.008000 2.008000 2.008000 2.008000 2.008000 0.000000 0.000000 0.000000 0.000000 0.000000 0.000000 0.000000 
0.000000 0.000000 0.000000 0.000000 0.000000 0.000000 0.000000 0.000000 2.039000 2.039000 2.047000 2.045000 2.039000 2.039000 2.039000 2.039000 2.036000 2.024000 2.023000 2.024000 2.030000 2.021000 2.015000 2.015000 2.015000 2.015000 2.015000 2.015000 2.008000 2.008000 2.008000 2.008000 2.008000 0.000000 0.000000 0.000000 0.000000 0.000000 0.000000 0.000000 
0.000000 0.000000 0.000000 0.000000 0.000000 0.000000 0.000000 0.000000 2.032000 2.036000 2.042000 2.040000 2.039000 2.039000 2.039000 2.035000 2.029000 2.023000 2.023000 2.023000 2.023000 2.015000 2.015000 2.015000 2.015000 2.015000 2.011000 2.011000 2.008000 2.008000 2.008000 2.001000 2.001000 0.000000 0.000000 0.000000 0.000000 0.000000 0.000000 0.000000 
0.000000 0.000000 0.000000 0.000000 0.000000 0.000000 0.000000 0.000000 2.031000 2.036000 2.039000 2.039000 2.039000 2.039000 2.039000 2.029000 2.026000 2.023000 2.023000 2.022000 2.015000 2.015000 2.015000 2.015000 2.015000 2.015000 2.008000 2.008000 2.008000 2.008000 1.999000 1.996000 1.996000 0.000000 0.000000 0.000000 0.000000 0.000000 0.000000 0.000000 
0.000000 0.000000 0.000000 0.000000 0.000000 0.000000 0.000000 2.037000 2.031000 2.036000 2.039000 2.039000 2.039000 2.039000 2.032000 2.027000 2.023000 2.021000 2.023000 2.022000 2.015000 2.014000 2.014000 2.015000 2.012000 2.008000 2.008000 2.008000 2.008000 2.003000 1.998000 1.994000 1.994000 0.000000 0.000000 0.000000 0.000000 0.000000 0.000000 0.000000 
0.000000 0.000000 0.000000 0.000000 0.000000 0.000000 0.000000 2.032000 2.031000 2.039000 2.039000 2.039000 2.039000 2.037000 2.031000 2.027000 2.021000 2.015000 2.023000 2.022000 2.015000 2.008000 2.008000 2.014000 2.012000 2.008000 2.008000 2.008000 2.008000 2.007000 2.005000 2.000000 2.000000 0.000000 0.000000 0.000000 0.000000 0.000000 0.000000 0.000000 
0.000000 0.000000 0.000000 0.000000 0.000000 0.000000 0.000000 2.031000 2.031000 2.038000 2.039000 2.039000 2.033000 2.030000 2.027000 2.017000 2.015000 2.015000 2.015000 2.015000 2.015000 2.008000 2.008000 2.008000 2.010000 2.008000 2.004000 2.004000 2.004000 2.004000 2.008000 2.008000 2.000000 0.000000 0.000000 0.000000 0.000000 0.000000 0.000000 0.000000 
0.000000 0.000000 0.000000 0.000000 0.000000 0.000000 0.000000 2.031000 2.031000 2.036000 2.037000 2.031000 2.026000 2.023000 2.022000 2.015000 2.015000 2.015000 2.015000 2.015000 2.015000 2.008000 2.008000 2.008000 2.008000 2.008000 2.001000 2.000000 2.000000 1.992000 2.000000 2.000000 2.005000 0.000000 0.000000 0.000000 0.000000 0.000000 0.000000 0.000000 
0.000000 0.000000 0.000000 0.000000 0.000000 0.000000 0.000000 2.031000 2.031000 2.036000 2.037000 2.031000 2.024000 2.017000 2.015000 2.015000 2.015000 2.015000 2.015000 2.015000 2.015000 2.008000 2.008000 2.008000 2.008000 2.008000 2.008000 2.000000 2.000000 1.992000 2.000000 1.994000 2.002000 0.000000 0.000000 0.000000 0.000000 0.000000 0.000000 0.000000 
0.000000 0.000000 0.000000 0.000000 0.000000 0.000000 0.000000 1.405000 2.019000 2.032000 2.033000 2.027000 2.023000 2.019000 2.015000 2.015000 2.015000 2.015000 2.015000 2.015000 2.009000 2.008000 2.008000 2.008000 2.007000 2.004000 2.000000 1.997000 1.992000 1.992000 1.998000 1.992000 1.989000 0.000000 0.000000 0.000000 0.000000 0.000000 0.000000 0.000000 
0.000000 0.000000 0.000000 0.000000 0.000000 0.000000 0.000000 2.015000 2.016000 2.028000 2.023000 2.023000 2.022000 2.015000 2.015000 2.015000 2.008000 2.008000 2.015000 2.014000 2.008000 2.008000 2.008000 2.008000 2.005000 2.000000 2.000000 1.997000 1.992000 1.992000 1.992000 1.992000 1.985000 0.000000 0.000000 0.000000 0.000000 0.000000 0.000000 0.000000 
0.000000 0.000000 0.000000 0.000000 0.000000 0.000000 0.000000 2.009000 2.012000 2.024000 2.021000 2.017000 2.015000 2.015000 2.015000 2.011000 2.008000 2.008000 2.010000 2.010000 2.008000 2.008000 2.008000 2.008000 2.005000 2.000000 2.000000 1.997000 1.992000 1.992000 1.992000 1.992000 1.990000 0.000000 0.000000 0.000000 0.000000 0.000000 0.000000 0.000000 
0.000000 0.000000 0.000000 0.000000 0.000000 0.000000 0.000000 2.008000 2.008000 2.022000 2.022000 2.015000 2.015000 2.015000 2.015000 2.011000 2.008000 2.008000 2.008000 2.007000 2.000000 2.000000 2.000000 2.007000 2.002000 1.997000 1.993000 1.992000 1.992000 1.992000 1.992000 1.992000 1.992000 0.000000 0.000000 0.000000 0.000000 0.000000 0.000000 0.000000 
0.000000 0.000000 0.000000 0.000000 0.000000 0.000000 0.000000 2.008000 2.008000 2.015000 2.017000 2.016000 2.015000 2.015000 2.009000 2.008000 2.008000 2.008000 2.008000 2.006000 2.000000 2.000000 2.000000 2.000000 1.997000 1.992000 1.992000 1.992000 1.992000 1.992000 1.990000 1.985000 1.985000 0.000000 0.000000 0.000000 0.000000 0.000000 0.000000 0.000000 
0.000000 0.000000 0.000000 0.000000 0.000000 0.000000 0.000000 2.019000 2.015000 2.015000 2.015000 2.015000 2.012000 2.008000 2.008000 2.008000 2.008000 2.008000 2.008000 2.000000 2.000000 1.997000 1.992000 1.992000 1.992000 1.992000 1.985000 1.985000 1.985000 1.985000 1.985000 1.985000 1.985000 0.000000 0.000000 0.000000 0.000000 0.000000 0.000000 0.000000 
0.000000 0.000000 0.000000 0.000000 0.000000 0.000000 0.000000 2.027000 2.015000 2.015000 2.015000 2.013000 2.010000 2.008000 2.008000 2.008000 2.008000 2.008000 2.008000 2.007000 2.000000 1.995000 1.992000 1.990000 1.992000 1.989000 1.985000 1.985000 1.985000 1.985000 1.985000 1.982000 1.977000 0.000000 0.000000 0.000000 0.000000 0.000000 0.000000 0.000000 
0.000000 0.000000 0.000000 0.000000 0.000000 0.000000 0.000000 2.048000 2.015000 2.015000 2.013000 2.008000 2.008000 2.008000 2.008000 2.008000 2.008000 2.008000 2.000000 1.999000 1.992000 1.992000 1.991000 1.985000 1.985000 1.985000 1.985000 1.985000 1.985000 1.985000 1.985000 1.977000 1.970000 0.000000 0.000000 0.000000 0.000000 0.000000 0.000000 0.000000 
0.000000 0.000000 0.000000 0.000000 0.000000 0.000000 0.000000 2.720000 2.008000 2.012000 2.013000 2.008000 2.008000 2.008000 2.008000 2.008000 2.003000 2.003000 1.997000 1.994000 1.992000 1.986000 1.985000 1.985000 1.985000 1.985000 1.985000 1.985000 1.977000 1.977000 1.978000 1.977000 1.970000 0.000000 0.000000 0.000000 0.000000 0.000000 0.000000 0.000000 
0.000000 0.000000 0.000000 0.000000 0.000000 0.000000 0.000000 2.013000 2.008000 2.011000 2.011000 2.008000 2.008000 2.008000 2.008000 2.000000 1.998000 1.998000 1.992000 1.991000 1.985000 1.985000 1.985000 1.985000 1.985000 1.985000 1.985000 1.984000 1.977000 1.977000 1.977000 1.970000 1.970000 0.000000 0.000000 0.000000 0.000000 0.000000 0.000000 0.000000 
0.000000 0.000000 0.000000 0.000000 0.000000 0.000000 0.000000 2.008000 2.008000 2.008000 2.008000 2.008000 2.008000 2.008000 2.008000 2.000000 1.992000 1.992000 1.992000 1.991000 1.985000 1.985000 1.985000 1.985000 1.985000 1.985000 1.985000 1.982000 1.977000 1.977000 1.977000 1.970000 1.970000 0.000000 0.000000 0.000000 0.000000 0.000000 0.000000 0.000000 
0.000000 0.000000 0.000000 0.000000 0.000000 0.000000 0.000000 2.008000 2.008000 2.008000 2.008000 2.008000 2.005000 2.003000 2.000000 1.996000 1.992000 1.992000 1.992000 1.991000 1.985000 1.985000 1.985000 1.985000 1.985000 1.985000 1.982000 1.977000 1.977000 1.977000 1.977000 1.970000 1.973000 0.000000 0.000000 0.000000 0.000000 0.000000 0.000000 0.000000 
0.000000 0.000000 0.000000 0.000000 0.000000 0.000000 0.000000 2.008000 2.008000 2.008000 2.008000 2.008000 2.002000 2.000000 2.000000 1.992000 1.992000 1.990000 1.985000 1.985000 1.985000 1.985000 1.985000 1.985000 1.984000 1.983000 1.977000 1.977000 1.977000 1.977000 1.977000 1.977000 1.977000 0.000000 0.000000 0.000000 0.000000 0.000000 0.000000 0.000000 
0.000000 0.000000 0.000000 0.000000 0.000000 0.000000 0.000000 2.008000 2.008000 2.008000 2.008000 2.001000 2.000000 1.993000 1.993000 1.992000 1.991000 1.985000 1.985000 1.985000 1.985000 1.985000 1.985000 1.985000 1.977000 1.977000 1.977000 1.975000 1.971000 1.977000 1.977000 1.971000 1.971000 0.000000 0.000000 0.000000 0.000000 0.000000 0.000000 0.000000 
0.000000 0.000000 0.000000 0.000000 0.000000 0.000000 0.000000 2.010000 1.999000 2.003000 2.002000 2.000000 1.997000 1.992000 1.992000 1.990000 1.987000 1.985000 1.985000 1.985000 1.985000 1.985000 1.985000 1.978000 1.977000 1.977000 1.977000 1.972000 1.970000 1.970000 1.971000 1.970000 1.970000 0.000000 0.000000 0.000000 0.000000 0.000000 0.000000 0.000000 
0.000000 0.000000 0.000000 0.000000 0.000000 0.000000 0.000000 1.994000 1.992000 1.997000 1.998000 1.992000 1.992000 1.989000 1.985000 1.985000 1.985000 1.985000 1.985000 1.985000 1.985000 1.980000 1.977000 1.977000 1.975000 1.976000 1.977000 1.971000 1.970000 1.970000 1.970000 1.970000 1.970000 0.000000 0.000000 0.000000 0.000000 0.000000 0.000000 0.000000 
0.000000 0.000000 0.000000 0.000000 0.000000 0.000000 0.000000 1.998000 1.992000 1.997000 1.993000 1.992000 1.992000 1.985000 1.985000 1.985000 1.985000 1.985000 1.985000 1.978000 1.978000 1.977000 1.977000 1.977000 1.970000 1.970000 1.971000 1.971000 1.970000 1.970000 1.968000 1.963000 1.970000 0.000000 0.000000 0.000000 0.000000 0.000000 0.000000 0.000000 
0.000000 0.000000 0.000000 0.000000 0.000000 0.000000 0.000000 1.997000 1.992000 1.994000 1.992000 1.985000 1.987000 1.985000 1.985000 1.985000 1.985000 1.985000 1.983000 1.977000 1.977000 1.977000 1.973000 1.976000 1.974000 1.970000 1.970000 1.970000 1.970000 1.970000 1.966000 1.958000 1.958000 0.000000 0.000000 0.000000 0.000000 0.000000 0.000000 0.000000 
0.000000 0.000000 0.000000 0.000000 0.000000 0.000000 0.000000 1.989000 1.985000 1.989000 1.991000 1.985000 1.985000 1.985000 1.985000 1.984000 1.985000 1.978000 1.977000 1.977000 1.977000 1.977000 1.970000 1.970000 1.970000 1.970000 1.970000 1.967000 1.961000 1.962000 1.960000 1.955000 2.216000 0.000000 0.000000 0.000000 0.000000 0.000000 0.000000 0.000000 
0.000000 0.000000 0.000000 0.000000 0.000000 0.000000 0.000000 1.983000 1.978000 1.983000 1.985000 1.979000 1.978000 1.983000 1.978000 1.977000 1.984000 1.977000 1.977000 1.977000 1.977000 1.977000 1.970000 1.970000 1.967000 1.964000 1.970000 1.967000 1.955000 1.960000 1.960000 1.955000 0.000000 0.000000 0.000000 0.000000 0.000000 0.000000 0.000000 0.000000 
0.000000 0.000000 0.000000 0.000000 0.000000 0.000000 0.000000 2.978000 1.981000 1.983000 1.983000 1.974000 1.963000 1.971000 1.977000 1.977000 1.977000 1.977000 1.970000 1.970000 1.976000 1.972000 1.970000 1.973000 1.965000 1.962000 1.964000 1.962000 1.955000 1.960000 1.962000 0.000000 0.000000 0.000000 0.000000 0.000000 0.000000 0.000000 0.000000 0.000000 
0.000000 0.000000 0.000000 0.000000 0.000000 0.000000 0.000000 0.000000 0.000000 0.000000 2.264000 1.974000 2.115000 2.046000 2.349000 2.153000 1.977000 1.979000 2.138000 2.666000 2.814000 2.318000 1.971000 1.977000 2.096000 2.294000 2.301000 0.000000 0.000000 0.000000 0.000000 0.000000 0.000000 0.000000 0.000000 0.000000 0.000000 0.000000 0.000000 0.000000 
0.000000 0.000000 0.000000 0.000000 0.000000 0.000000 0.000000 0.000000 0.000000 0.000000 0.000000 0.000000 0.000000 0.000000 0.000000 0.000000 0.000000 0.000000 0.000000 0.000000 0.000000 0.000000 0.000000 0.000000 0.000000 0.000000 0.000000 0.000000 0.000000 0.000000 0.000000 0.000000 0.000000 0.000000 0.000000 0.000000 0.000000 0.000000 0.000000 0.000000 
0.000000 0.000000 0.000000 0.000000 0.000000 0.000000 0.000000 0.000000 0.000000 0.000000 0.000000 0.000000 0.000000 0.000000 0.000000 0.000000 0.000000 0.000000 0.000000 0.000000 0.000000 0.000000 0.000000 0.000000 0.000000 0.000000 0.000000 0.000000 0.000000 0.000000 0.000000 0.000000 0.000000 0.000000 0.000000 0.000000 0.000000 0.000000 0.000000 0.000000 
