40 40
0.000000 0.000000 0.000000 0.000000 0.000000 0.000000 0.000000 0.000000 0.000000 0.000000 0.000000 0.000000 0.000000 0.000000 0.000000 0.000000 0.000000 0.000000 0.000000 0.000000 0.000000 0.000000 0.000000 0.000000 0.000000 0.000000 0.000000 0.000000 0.000000 0.000000 0.000000 0.000000 0.000000 0.000000 0.000000 0.000000 0.000000 0.000000 0.000000 0.000000 
0.000000 0.000000 0.000000 0.000000 0.000000 0.000000 0.000000 0.000000 0.000000 0.000000 0.000000 0.000000 0.000000 0.000000 0.000000 0.000000 0.000000 1.676000 0.000000 0.000000 0.000000 2.089000 2.082000 2.071000 2.064000 2.070000 2.267000 0.000000 0.000000 0.000000 0.000000 0.000000 0.000000 0.000000 0.000000 0.000000 0.000000 0.000000 0.000000 0.000000 
0.000000 0.000000 0.000000 0.000000 0.000000 0.000000 0.000000 0.000000 0.000000 0.000000 0.000000 0.000000 0.000000 0.000000 0.000000 0.000000 0.000000 0.000000 0.000000 1.337000 2.078000 2.073000 2.059000 2.055000 2.057000 2.066000 2.070000 2.274000 0.000000 0.000000 0.000000 0.000000 0.000000 0.000000 0.000000 0.000000 0.000000 0.000000 0.000000 0.000000 
0.000000 0.000000 0.000000 0.000000 0.000000 0.000000 0.000000 0.000000 0.000000 0.000000 0.000000 0.000000 0.000000 0.000000 0.000000 1.071000 0.000000 0.000000 0.000000 1.998000 2.036000 2.035000 2.040000 2.049000 2.054000 2.059000 2.068000 2.074000 0.000000 0.000000 0.000000 0.000000 0.000000 0.000000 0.000000 0.000000 0.000000 0.000000 0.000000 0.000000 
0.000000 0.000000 0.000000 0.000000 0.000000 0.000000 0.000000 0.000000 0.000000 0.000000 0.000000 0.000000 2.820000 0.000000 0.000000 0.000000 0.000000 1.721000 2.020000 2.022000 2.026000 2.032000 2.040000 2.046000 2.051000 2.059000 2.063000 2.067000 0.000000 0.000000 0.000000 0.000000 0.000000 0.000000 0.000000 0.000000 0.000000 0.000000 0.000000 0.000000 
0.000000 0.000000 0.000000 0.000000 0.000000 0.000000 0.000000 0.000000 0.000000 0.000000 1.975000 1.969000 1.990000 1.093000 2.005000 2.005000 2.005000 2.012000 2.016000 2.019000 2.023000 2.031000 2.042000 2.042000 2.047000 2.056000 2.059000 2.065000 1.180000 0.000000 0.000000 0.000000 0.000000 0.000000 0.000000 0.000000 0.000000 0.000000 0.000000 0.000000 
0.000000 0.000000 0.000000 0.000000 0.000000 0.000000 0.000000 2.610000 2.026000 1.978000 1.977000 1.977000 1.990000 1.993000 1.994000 1.997000 2.002000 2.008000 2.013000 2.019000 2.022000 2.028000 2.034000 2.042000 2.047000 2.056000 2.059000 2.065000 2.071000 0.000000 0.000000 0.000000 0.000000 0.000000 0.000000 0.000000 0.000000 0.000000 0.000000 0.000000 
0.000000 0.000000 0.000000 0.000000 0.000000 2.937000 1.712000 1.124000 1.981000 1.978000 1.977000 1.977000 1.982000 1.986000 1.992000 1.996000 1.999000 2.006000 2.009000 2.017000 2.021000 2.028000 2.031000 2.039000 2.043000 2.052000 2.059000 2.063000 2.063000 0.000000 0.000000 0.000000 0.000000 0.000000 0.000000 0.000000 0.000000 0.000000 0.000000 0.000000 
0.000000 0.000000 0.000000 0.000000 2.043000 2.027000 2.009000 1.921000 1.975000 1.970000 1.969000 1.972000 1.977000 1.984000 1.992000 1.993000 1.999000 2.003000 2.006000 2.014000 2.019000 2.024000 2.030000 2.039000 2.042000 2.049000 2.059000 2.063000 2.060000 2.130000 0.000000 0.000000 0.000000 0.000000 0.000000 0.000000 0.000000 0.000000 0.000000 0.000000 
0.000000 0.000000 0.000000 0.000000 2.040000 2.027000 2.011000 1.992000 1.977000 1.968000 1.966000 1.969000 1.977000 1.981000 1.989000 1.992000 1.997000 2.002000 2.006000 2.011000 2.019000 2.023000 2.030000 2.039000 2.042000 2.049000 2.057000 2.059000 2.063000 2.067000 0.000000 0.000000 0.000000 0.000000 0.000000 0.000000 0.000000 0.000000 0.000000 0.000000 
0.000000 0.000000 0.000000 0.000000 2.050000 2.035000 2.016000 1.995000 1.980000 1.969000 1.966000 1.969000 1.976000 1.981000 1.984000 1.990000 1.993000 2.000000 2.003000 2.013000 2.019000 2.021000 2.029000 2.035000 2.040000 2.046000 2.051000 2.059000 2.063000 2.063000 0.000000 0.000000 0.000000 0.000000 0.000000 0.000000 0.000000 0.000000 0.000000 0.000000 
0.000000 0.000000 0.000000 0.000000 1.909000 2.040000 2.018000 2.005000 1.989000 1.974000 1.967000 1.969000 1.976000 1.978000 1.983000 1.986000 1.993000 1.997000 2.003000 2.011000 2.016000 2.021000 2.026000 2.033000 2.039000 2.046000 2.049000 2.058000 2.060000 2.061000 0.000000 0.000000 0.000000 0.000000 0.000000 0.000000 0.000000 0.000000 0.000000 0.000000 
0.000000 0.000000 0.000000 0.000000 0.000000 2.046000 2.023000 2.007000 1.994000 1.979000 1.969000 1.967000 1.973000 1.978000 1.981000 1.985000 1.992000 1.995000 2.000000 2.008000 2.013000 2.019000 2.024000 2.032000 2.033000 2.046000 2.049000 2.053000 2.059000 2.061000 1.222000 0.000000 0.000000 0.000000 0.000000 0.000000 0.000000 0.000000 0.000000 0.000000 
0.000000 0.000000 0.000000 0.000000 0.000000 2.044000 2.032000 2.012000 1.999000 1.983000 1.971000 1.966000 1.972000 1.978000 1.978000 1.988000 1.993000 1.995000 1.996000 2.003000 2.012000 2.016000 2.019000 2.028000 2.031000 2.046000 2.048000 2.051000 2.059000 2.063000 2.063000 0.000000 0.000000 0.000000 0.000000 0.000000 0.000000 0.000000 0.000000 0.000000 
0.000000 0.000000 0.000000 0.000000 0.000000 1.370000 2.037000 2.016000 2.003000 1.991000 1.976000 1.967000 1.969000 1.977000 1.978000 1.984000 1.989000 1.993000 2.000000 2.003000 2.011000 2.017000 2.019000 2.023000 2.029000 2.035000 2.042000 2.050000 2.057000 2.062000 2.061000 2.883000 0.000000 0.000000 0.000000 0.000000 0.000000 0.000000 0.000000 0.000000 
0.000000 0.000000 0.000000 0.000000 0.000000 0.000000 2.042000 2.025000 2.008000 1.994000 1.977000 1.969000 1.969000 1.975000 1.978000 1.981000 1.986000 1.991000 1.996000 2.002000 2.009000 2.016000 2.019000 2.019000 2.027000 2.032000 2.045000 2.049000 2.052000 2.061000 2.063000 1.473000 0.000000 0.000000 0.000000 0.000000 0.000000 0.000000 0.000000 0.000000 
0.000000 0.000000 0.000000 0.000000 1.358000 0.000000 2.048000 2.027000 2.015000 1.999000 1.978000 1.969000 1.969000 1.971000 1.976000 1.979000 1.986000 1.990000 1.993000 1.997000 2.008000 2.015000 2.017000 2.019000 2.027000 2.037000 2.042000 2.048000 2.051000 2.059000 2.063000 2.063000 0.000000 0.000000 0.000000 0.000000 0.000000 0.000000 0.000000 0.000000 
0.000000 0.000000 0.000000 0.000000 1.675000 0.000000 2.005000 2.034000 2.016000 2.003000 1.985000 1.970000 1.969000 1.969000 1.974000 1.979000 1.983000 1.990000 1.993000 1.997000 2.003000 2.006000 2.016000 2.019000 2.023000 2.032000 2.039000 2.046000 2.049000 2.057000 2.059000 2.059000 0.000000 0.000000 0.000000 0.000000 0.000000 0.000000 0.000000 0.000000 
0.000000 0.000000 0.000000 0.000000 0.000000 0.000000 1.258000 2.040000 2.027000 2.012000 1.994000 1.975000 1.966000 1.966000 1.972000 1.976000 1.983000 1.989000 1.993000 1.995000 2.003000 2.008000 2.016000 2.019000 2.023000 2.032000 2.036000 2.046000 2.049000 2.054000 2.059000 2.059000 1.444000 0.000000 0.000000 0.000000 0.000000 0.000000 0.000000 0.000000 
0.000000 0.000000 0.000000 0.000000 0.000000 0.000000 0.000000 2.044000 2.028000 2.015000 2.000000 1.977000 1.969000 1.966000 1.969000 1.974000 1.981000 1.985000 1.990000 1.996000 2.002000 2.008000 2.013000 2.016000 2.020000 2.032000 2.035000 2.043000 2.048000 2.053000 2.058000 2.061000 2.059000 0.000000 0.000000 0.000000 0.000000 0.000000 0.000000 0.000000 
0.000000 0.000000 0.000000 0.000000 0.000000 0.000000 0.000000 2.046000 2.037000 2.022000 2.005000 1.987000 1.972000 1.966000 1.968000 1.975000 1.981000 1.983000 1.990000 1.993000 2.000000 2.005000 2.012000 2.016000 2.019000 2.029000 2.034000 2.040000 2.046000 2.052000 2.056000 2.059000 1.907000 0.000000 0.000000 0.000000 0.000000 0.000000 0.000000 0.000000 
0.000000 0.000000 0.000000 0.000000 0.000000 0.000000 1.027000 2.054000 2.041000 2.024000 2.010000 1.994000 1.977000 1.969000 1.969000 1.974000 1.978000 1.982000 1.990000 1.995000 1.998000 2.002000 2.008000 2.016000 2.019000 2.025000 2.031000 2.037000 2.044000 2.050000 2.054000 2.059000 2.059000 1.639000 0.000000 0.000000 0.000000 0.000000 0.000000 0.000000 
0.000000 0.000000 0.000000 0.000000 0.000000 0.000000 0.000000 2.052000 2.048000 2.036000 2.017000 1.994000 1.981000 1.969000 1.969000 1.972000 1.978000 1.981000 1.987000 1.990000 1.996000 2.000000 2.007000 2.012000 2.016000 2.022000 2.031000 2.035000 2.041000 2.047000 2.052000 2.058000 2.060000 2.059000 2.441000 2.432000 0.000000 0.000000 0.000000 0.000000 
0.000000 0.000000 0.000000 0.000000 0.000000 0.000000 0.000000 2.523000 2.049000 2.041000 2.022000 2.002000 1.986000 1.971000 1.968000 1.970000 1.978000 1.981000 1.984000 1.990000 1.993000 1.999000 2.006000 2.009000 2.016000 2.022000 2.029000 2.034000 2.041000 2.046000 2.047000 2.054000 2.059000 2.237000 2.439000 2.433000 0.000000 0.000000 0.000000 0.000000 
0.000000 0.000000 0.000000 0.000000 0.000000 0.000000 0.000000 1.092000 2.047000 2.042000 2.024000 2.004000 1.988000 1.975000 1.966000 1.969000 1.977000 1.979000 1.984000 1.990000 1.993000 1.998000 2.004000 2.006000 2.014000 2.021000 2.027000 2.033000 2.041000 2.044000 2.049000 2.054000 2.059000 2.060000 2.443000 2.434000 0.000000 0.000000 0.000000 0.000000 
0.000000 0.000000 0.000000 0.000000 0.000000 0.000000 0.000000 0.000000 1.289000 2.049000 2.028000 2.007000 1.994000 1.981000 1.969000 1.969000 1.977000 1.981000 1.981000 1.989000 1.993000 1.996000 2.001000 2.009000 2.014000 2.021000 2.024000 2.031000 2.038000 2.044000 2.047000 2.051000 2.059000 2.062000 2.445000 2.439000 0.000000 0.000000 0.000000 0.000000 
0.000000 0.000000 0.000000 0.000000 0.000000 0.000000 0.000000 0.000000 1.101000 2.051000 2.038000 2.018000 2.001000 1.987000 1.971000 1.966000 1.970000 1.977000 1.981000 1.987000 1.992000 1.995000 2.001000 2.008000 2.011000 2.018000 2.022000 2.031000 2.035000 2.039000 2.046000 2.049000 2.056000 2.061000 2.180000 2.440000 0.000000 0.000000 0.000000 0.000000 
0.000000 0.000000 0.000000 0.000000 0.000000 0.000000 0.000000 2.484000 0.000000 2.052000 2.040000 2.020000 2.006000 1.993000 1.974000 1.966000 1.968000 1.975000 1.981000 1.983000 1.987000 1.992000 1.997000 2.003000 2.009000 2.016000 2.021000 2.030000 2.035000 2.039000 2.046000 2.049000 2.056000 2.059000 2.183000 2.445000 0.000000 0.000000 0.000000 0.000000 
0.000000 0.000000 0.000000 0.000000 0.000000 0.000000 0.000000 2.546000 0.000000 1.308000 2.042000 2.025000 2.011000 1.996000 1.982000 1.966000 1.966000 1.973000 1.978000 1.983000 1.987000 1.990000 1.995000 1.999000 2.007000 2.014000 2.021000 2.024000 2.032000 2.037000 2.044000 2.047000 2.051000 2.059000 2.063000 2.456000 0.000000 0.000000 0.000000 0.000000 
0.000000 0.000000 0.000000 0.000000 0.000000 0.000000 0.000000 0.000000 0.000000 0.000000 1.942000 2.039000 2.016000 2.000000 1.986000 1.968000 1.968000 1.972000 1.978000 1.980000 1.984000 1.990000 1.994000 1.996000 2.004000 2.012000 2.019000 2.022000 2.031000 2.033000 2.041000 2.046000 2.049000 2.054000 2.059000 2.062000 0.000000 0.000000 0.000000 0.000000 
0.000000 0.000000 0.000000 0.000000 0.000000 0.000000 0.000000 0.000000 0.000000 0.000000 1.282000 2.039000 2.021000 2.006000 1.990000 1.969000 1.967000 1.971000 1.976000 1.981000 1.982000 1.988000 1.994000 2.000000 2.004000 2.009000 2.015000 2.022000 2.026000 2.033000 2.039000 2.046000 2.049000 2.051000 2.059000 2.059000 0.000000 0.000000 0.000000 0.000000 
0.000000 0.000000 0.000000 0.000000 0.000000 0.000000 0.000000 0.000000 1.862000 0.000000 1.284000 2.043000 2.023000 2.010000 1.993000 1.971000 1.966000 1.969000 1.972000 1.978000 1.981000 1.987000 1.992000 1.996000 2.003000 2.009000 2.017000 2.020000 2.024000 2.033000 2.035000 2.042000 2.046000 2.055000 2.060000 2.063000 0.000000 0.000000 0.000000 0.000000 
0.000000 0.000000 0.000000 0.000000 0.000000 0.000000 0.000000 0.000000 0.000000 1.936000 1.285000 2.047000 2.030000 2.015000 1.999000 1.976000 1.967000 1.966000 1.972000 1.977000 1.978000 1.983000 1.988000 1.993000 2.002000 2.009000 2.012000 2.017000 2.021000 2.032000 2.035000 2.037000 2.046000 2.054000 2.063000 2.063000 0.000000 0.000000 0.000000 0.000000 
0.000000 0.000000 0.000000 0.000000 0.000000 0.000000 0.000000 0.000000 0.000000 0.000000 1.114000 2.052000 2.033000 2.020000 2.003000 1.982000 1.967000 1.966000 1.972000 1.977000 1.978000 1.981000 1.988000 1.993000 1.999000 2.009000 2.011000 2.018000 2.021000 2.026000 2.035000 2.038000 2.046000 2.051000 2.064000 2.454000 0.000000 0.000000 0.000000 0.000000 
0.000000 0.000000 0.000000 0.000000 0.000000 0.000000 0.000000 0.000000 0.000000 0.000000 1.282000 2.049000 2.039000 2.025000 2.012000 1.986000 1.972000 1.966000 1.969000 1.972000 1.978000 1.981000 1.985000 1.990000 1.996000 2.006000 2.009000 2.016000 2.019000 2.022000 2.032000 2.032000 2.497000 2.491000 2.485000 2.407000 0.000000 0.000000 0.000000 0.000000 
0.000000 0.000000 0.000000 0.000000 0.000000 0.000000 0.000000 0.000000 0.000000 0.000000 0.000000 2.154000 2.045000 2.029000 2.017000 1.998000 1.976000 1.967000 1.969000 1.972000 1.971000 1.980000 1.984000 1.990000 1.995000 2.001000 2.009000 2.016000 2.021000 2.022000 2.021000 2.437000 2.502000 2.496000 2.495000 1.130000 0.000000 0.000000 0.000000 0.000000 
0.000000 0.000000 0.000000 0.000000 0.000000 0.000000 0.000000 0.000000 0.000000 0.000000 0.000000 2.209000 2.049000 2.033000 2.022000 2.001000 1.982000 1.971000 1.966000 1.969000 1.972000 1.978000 1.986000 1.989000 1.994000 1.997000 2.004000 2.012000 2.021000 2.024000 2.512000 2.519000 2.518000 2.505000 2.498000 1.093000 0.000000 0.000000 0.000000 0.000000 
0.000000 0.000000 0.000000 0.000000 0.000000 0.000000 0.000000 0.000000 0.000000 0.000000 0.000000 1.425000 2.056000 2.041000 2.027000 2.004000 1.988000 1.974000 1.966000 1.967000 1.973000 1.975000 1.979000 1.987000 1.993000 1.997000 2.005000 2.006000 2.035000 2.045000 2.135000 2.519000 2.519000 2.507000 2.505000 0.000000 0.000000 0.000000 0.000000 0.000000 
0.000000 0.000000 0.000000 0.000000 0.000000 0.000000 0.000000 0.000000 0.000000 0.000000 0.000000 0.000000 0.000000 0.000000 0.000000 0.000000 0.000000 0.000000 0.000000 0.000000 0.000000 0.000000 0.000000 0.000000 0.000000 0.000000 0.000000 0.000000 0.000000 0.000000 0.000000 0.000000 0.000000 0.000000 0.000000 0.000000 0.000000 0.000000 0.000000 0.000000 
0.000000 0.000000 0.000000 0.000000 0.000000 0.000000 0.000000 0.000000 0.000000 0.000000 0.000000 0.000000 0.000000 0.000000 0.000000 0.000000 0.000000 0.000000 0.000000 0.000000 0.000000 0.000000 0.000000 0.000000 0.000000 0.000000 0.000000 0.000000 0.000000 0.000000 0.000000 0.000000 0.000000 0.000000 0.000000 0.000000 0.000000 0.000000 0.000000 0.000000 
