40 40
0.000000 0.000000 0.000000 0.000000 0.000000 0.000000 0.000000 0.000000 0.000000 0.000000 0.000000 0.000000 0.000000 0.000000 0.000000 0.000000 0.000000 0.000000 0.000000 0.000000 0.000000 0.000000 0.000000 0.000000 0.000000 0.000000 0.000000 0.000000 0.000000 0.000000 0.000000 0.000000 0.000000 0.000000 0.000000 0.000000 0.000000 0.000000 0.000000 0.000000 
0.000000 0.000000 0.000000 0.000000 0.000000 0.000000 0.000000 0.000000 0.000000 2.950000 1.998000 1.992000 1.993000 2.009000 2.009000 2.009000 2.012000 2.019000 2.020000 2.027000 2.019000 2.019000 2.037000 2.039000 2.039000 2.047000 2.047000 2.043000 2.039000 2.039000 2.039000 0.000000 0.000000 0.000000 0.000000 0.000000 0.000000 0.000000 0.000000 0.000000 
0.000000 0.000000 0.000000 0.000000 0.000000 0.000000 0.000000 0.000000 2.929000 2.000000 1.990000 1.990000 1.992000 2.007000 2.009000 2.009000 2.012000 2.012000 2.019000 2.019000 2.012000 2.012000 2.022000 2.032000 2.032000 2.032000 2.032000 2.036000 2.032000 2.032000 2.038000 2.039000 2.855000 0.000000 0.000000 0.000000 0.000000 0.000000 0.000000 0.000000 
0.000000 0.000000 0.000000 0.000000 0.000000 0.000000 2.069000 2.060000 2.009000 1.990000 1.990000 1.990000 1.992000 2.007000 2.009000 2.009000 2.009000 2.009000 2.009000 2.009000 2.009000 2.009000 2.009000 2.024000 2.029000 2.029000 2.029000 2.033000 2.029000 2.029000 2.038000 2.039000 2.039000 0.000000 0.000000 0.000000 0.000000 0.000000 0.000000 0.000000 
0.000000 0.000000 0.000000 0.000000 0.000000 0.000000 2.062000 2.047000 1.998000 1.990000 1.990000 1.990000 1.993000 2.009000 2.009000 2.009000 2.009000 2.009000 2.009000 2.009000 2.009000 2.009000 2.009000 2.021000 2.029000 2.029000 2.029000 2.029000 2.036000 2.029000 2.038000 2.039000 2.039000 0.000000 0.000000 0.000000 0.000000 0.000000 0.000000 0.000000 
0.000000 0.000000 0.000000 0.000000 0.000000 0.000000 2.047000 2.034000 1.998000 1.991000 1.990000 1.990000 2.000000 2.007000 2.000000 2.005000 2.009000 2.009000 2.009000 2.009000 2.009000 2.009000 2.009000 2.019000 2.019000 2.019000 2.029000 2.029000 2.029000 2.037000 2.037000 2.037000 2.039000 0.000000 0.000000 0.000000 0.000000 0.000000 0.000000 0.000000 
0.000000 0.000000 0.000000 0.000000 0.000000 0.000000 1.095000 2.032000 1.999000 1.991000 1.990000 1.990000 1.992000 2.000000 2.000000 2.000000 2.009000 2.009000 2.009000 2.009000 2.009000 2.009000 2.009000 2.019000 2.026000 2.019000 2.029000 2.029000 2.029000 2.029000 2.029000 2.029000 2.038000 0.000000 0.000000 0.000000 0.000000 0.000000 0.000000 0.000000 
0.000000 0.000000 0.000000 0.000000 0.000000 0.000000 0.000000 2.024000 1.998000 1.990000 1.990000 1.990000 1.992000 2.000000 2.000000 2.000000 2.000000 2.000000 2.008000 2.008000 2.009000 2.009000 2.017000 2.023000 2.029000 2.029000 2.027000 2.028000 2.029000 2.029000 2.029000 2.029000 2.037000 0.000000 0.000000 0.000000 0.000000 0.000000 0.000000 0.000000 
0.000000 0.000000 0.000000 0.000000 0.000000 0.000000 1.558000 2.026000 1.998000 1.990000 1.990000 1.990000 1.992000 2.000000 2.000000 2.000000 2.000000 2.000000 2.000000 2.005000 2.009000 2.009000 2.009000 2.014000 2.022000 2.022000 2.019000 2.021000 2.022000 2.025000 2.029000 2.029000 2.029000 0.000000 0.000000 0.000000 0.000000 0.000000 0.000000 0.000000 
0.000000 0.000000 0.000000 0.000000 0.000000 0.000000 1.830000 2.018000 1.997000 1.990000 1.990000 1.990000 1.992000 2.000000 2.000000 2.000000 2.000000 2.000000 2.000000 2.005000 2.009000 2.009000 2.009000 2.009000 2.009000 2.009000 2.009000 2.014000 2.019000 2.023000 2.029000 2.033000 2.039000 0.000000 0.000000 0.000000 0.000000 0.000000 0.000000 0.000000 
0.000000 0.000000 0.000000 0.000000 0.000000 0.000000 1.502000 2.009000 1.990000 1.990000 1.990000 1.990000 1.992000 2.000000 2.000000 2.000000 2.000000 2.000000 2.000000 2.005000 2.009000 2.009000 2.009000 2.012000 2.009000 2.009000 2.009000 2.011000 2.019000 2.021000 2.029000 2.031000 2.033000 0.000000 0.000000 0.000000 0.000000 0.000000 0.000000 0.000000 
0.000000 0.000000 0.000000 0.000000 0.000000 0.000000 2.028000 2.008000 1.990000 1.990000 1.990000 1.990000 1.992000 2.000000 2.000000 2.000000 2.000000 2.000000 2.000000 2.005000 2.008000 2.000000 2.009000 2.009000 2.009000 2.009000 2.009000 2.009000 2.009000 2.019000 2.019000 2.023000 2.363000 0.000000 0.000000 0.000000 0.000000 0.000000 0.000000 0.000000 
0.000000 0.000000 0.000000 0.000000 0.000000 0.000000 2.019000 2.005000 1.990000 1.990000 1.985000 1.985000 1.987000 2.000000 2.000000 2.000000 2.000000 2.000000 2.000000 2.000000 2.000000 2.000000 2.009000 2.009000 2.009000 2.009000 2.009000 2.009000 2.009000 2.019000 2.019000 2.019000 0.000000 0.000000 0.000000 0.000000 0.000000 0.000000 0.000000 0.000000 
0.000000 0.000000 0.000000 0.000000 0.000000 0.000000 2.019000 2.005000 1.990000 1.984000 1.981000 1.980000 1.982000 1.996000 2.000000 2.000000 1.999000 2.000000 2.000000 2.000000 2.000000 2.005000 2.009000 2.009000 2.009000 2.009000 2.009000 2.009000 2.010000 2.019000 2.019000 2.019000 0.000000 0.000000 0.000000 0.000000 0.000000 0.000000 0.000000 0.000000 
0.000000 0.000000 0.000000 0.000000 0.000000 0.000000 2.019000 2.009000 1.989000 1.982000 1.976000 1.973000 1.975000 1.990000 1.999000 1.994000 1.990000 1.996000 2.000000 2.000000 2.000000 2.007000 2.009000 2.009000 2.009000 2.009000 2.009000 2.014000 2.019000 2.019000 2.019000 2.019000 0.000000 0.000000 0.000000 0.000000 0.000000 0.000000 0.000000 0.000000 
0.000000 0.000000 0.000000 0.000000 0.000000 0.000000 2.027000 2.005000 1.988000 1.981000 1.972000 1.978000 1.982000 1.996000 1.999000 1.991000 1.991000 1.996000 2.000000 2.000000 2.001000 2.009000 2.009000 2.009000 2.009000 2.009000 2.009000 2.014000 2.019000 2.019000 2.019000 2.020000 0.000000 0.000000 0.000000 0.000000 0.000000 0.000000 0.000000 0.000000 
0.000000 0.000000 0.000000 0.000000 0.000000 0.000000 2.027000 2.005000 1.988000 1.975000 1.972000 1.972000 1.982000 1.990000 2.000000 2.000000 2.000000 2.000000 2.000000 2.000000 2.004000 2.004000 2.009000 2.009000 2.009000 2.009000 2.009000 2.014000 2.019000 2.019000 2.019000 2.029000 0.000000 0.000000 0.000000 0.000000 0.000000 0.000000 0.000000 0.000000 
0.000000 0.000000 0.000000 0.000000 0.000000 0.000000 2.017000 2.002000 1.988000 1.975000 1.972000 1.972000 1.975000 1.990000 2.000000 2.000000 1.990000 1.996000 2.000000 2.000000 2.000000 2.000000 2.009000 2.009000 2.009000 2.009000 2.009000 2.009000 2.019000 2.019000 2.019000 2.029000 0.000000 0.000000 0.000000 0.000000 0.000000 0.000000 0.000000 0.000000 
0.000000 0.000000 0.000000 0.000000 0.000000 0.000000 2.015000 1.997000 1.984000 1.978000 1.976000 1.972000 1.975000 1.990000 1.995000 1.995000 1.990000 1.996000 2.000000 2.000000 2.000000 2.000000 2.009000 2.009000 2.004000 2.007000 2.009000 2.009000 2.014000 2.019000 2.019000 2.029000 0.000000 0.000000 0.000000 0.000000 0.000000 0.000000 0.000000 0.000000 
0.000000 0.000000 0.000000 0.000000 0.000000 0.000000 2.014000 1.993000 1.979000 1.972000 1.972000 1.972000 1.973000 1.981000 1.990000 1.990000 1.990000 1.996000 2.000000 2.000000 2.000000 2.000000 2.009000 2.009000 2.000000 2.004000 2.009000 2.009000 2.009000 2.009000 2.018000 2.023000 2.029000 0.000000 0.000000 0.000000 0.000000 0.000000 0.000000 0.000000 
0.000000 0.000000 0.000000 0.000000 0.000000 0.000000 2.030000 1.995000 1.976000 1.972000 1.976000 1.972000 1.973000 1.981000 1.990000 1.990000 1.990000 1.996000 2.000000 2.000000 2.000000 2.000000 2.000000 2.000000 2.000000 2.004000 2.009000 2.009000 2.009000 2.009000 2.009000 2.013000 0.000000 0.000000 0.000000 0.000000 0.000000 0.000000 0.000000 0.000000 
0.000000 0.000000 0.000000 0.000000 0.000000 0.000000 2.044000 1.994000 1.972000 1.972000 1.972000 1.972000 1.973000 1.981000 1.990000 1.990000 1.999000 1.990000 2.000000 2.000000 2.000000 2.000000 2.000000 2.000000 2.000000 2.004000 2.009000 2.009000 2.009000 2.009000 2.009000 2.009000 0.000000 0.000000 0.000000 0.000000 0.000000 0.000000 0.000000 0.000000 
0.000000 0.000000 0.000000 0.000000 0.000000 0.000000 2.032000 1.989000 1.975000 1.972000 1.972000 1.972000 1.973000 1.981000 1.986000 1.990000 1.998000 1.986000 2.000000 2.000000 2.009000 2.004000 2.000000 2.000000 2.000000 2.004000 2.009000 2.009000 2.009000 2.009000 2.009000 2.009000 0.000000 0.000000 0.000000 0.000000 0.000000 0.000000 0.000000 0.000000 
0.000000 0.000000 0.000000 0.000000 0.000000 0.000000 2.025000 1.995000 1.988000 1.981000 1.979000 1.972000 1.973000 1.981000 1.982000 1.990000 1.989000 1.981000 2.000000 2.000000 2.009000 2.004000 2.000000 2.000000 2.009000 2.009000 2.009000 2.009000 2.009000 2.009000 2.009000 2.022000 2.172000 0.000000 0.000000 0.000000 0.000000 0.000000 0.000000 0.000000 
0.000000 0.000000 0.000000 0.000000 0.000000 0.000000 2.021000 2.002000 1.989000 1.982000 1.979000 1.965000 1.965000 1.981000 1.986000 1.990000 1.990000 1.994000 2.000000 2.000000 2.000000 2.000000 2.000000 2.005000 2.009000 2.009000 2.009000 2.009000 2.009000 2.009000 2.009000 2.019000 2.019000 0.000000 0.000000 0.000000 0.000000 0.000000 0.000000 0.000000 
0.000000 0.000000 0.000000 0.000000 0.000000 0.000000 2.010000 1.996000 1.982000 1.975000 1.973000 1.965000 1.965000 1.981000 1.982000 1.987000 1.990000 1.996000 2.000000 2.000000 2.000000 2.000000 2.000000 2.005000 2.009000 2.009000 2.009000 2.009000 2.009000 2.009000 2.009000 2.019000 2.019000 0.000000 0.000000 0.000000 0.000000 0.000000 0.000000 0.000000 
0.000000 0.000000 0.000000 0.000000 0.000000 0.000000 2.004000 1.993000 1.976000 1.969000 1.969000 1.972000 1.973000 1.981000 1.981000 1.984000 1.990000 1.996000 2.000000 2.000000 2.000000 2.000000 2.000000 2.005000 2.009000 2.007000 2.005000 2.007000 2.009000 2.009000 2.009000 2.015000 0.000000 0.000000 0.000000 0.000000 0.000000 0.000000 0.000000 0.000000 
0.000000 0.000000 0.000000 0.000000 0.000000 0.000000 0.000000 1.995000 1.972000 1.965000 1.962000 1.963000 1.972000 1.973000 1.973000 1.973000 1.982000 1.987000 1.992000 2.000000 2.000000 2.000000 2.000000 2.000000 2.001000 2.000000 2.000000 2.004000 2.009000 2.009000 2.009000 2.009000 0.000000 0.000000 0.000000 0.000000 0.000000 0.000000 0.000000 0.000000 
0.000000 0.000000 0.000000 0.000000 0.000000 0.000000 2.017000 1.989000 1.972000 1.965000 1.962000 1.962000 1.964000 1.972000 1.975000 1.975000 1.981000 1.986000 1.990000 1.990000 2.000000 2.000000 2.000000 2.000000 2.000000 2.000000 2.000000 2.009000 2.009000 2.009000 2.009000 2.009000 0.000000 0.000000 0.000000 0.000000 0.000000 0.000000 0.000000 0.000000 
0.000000 0.000000 0.000000 0.000000 0.000000 0.000000 2.017000 1.989000 1.972000 1.965000 1.962000 1.962000 1.964000 1.972000 1.973000 1.973000 1.974000 1.986000 1.990000 1.990000 2.000000 2.000000 2.000000 2.000000 2.000000 2.000000 2.000000 2.009000 2.002000 2.005000 2.009000 2.009000 0.000000 0.000000 0.000000 0.000000 0.000000 0.000000 0.000000 0.000000 
0.000000 0.000000 0.000000 0.000000 0.000000 0.000000 2.019000 1.989000 1.970000 1.962000 1.962000 1.962000 1.964000 1.972000 1.972000 1.972000 1.973000 1.981000 1.990000 1.990000 1.990000 1.995000 2.000000 2.000000 2.000000 2.000000 2.000000 2.003000 2.000000 2.000000 2.000000 2.009000 0.000000 0.000000 0.000000 0.000000 0.000000 0.000000 0.000000 0.000000 
0.000000 0.000000 0.000000 0.000000 0.000000 0.000000 2.018000 1.989000 1.970000 1.962000 1.962000 1.962000 1.964000 1.972000 1.972000 1.972000 1.973000 1.981000 1.990000 1.990000 1.990000 1.991000 2.000000 2.000000 2.000000 2.000000 2.000000 2.000000 2.000000 2.003000 2.008000 2.009000 0.000000 0.000000 0.000000 0.000000 0.000000 0.000000 0.000000 0.000000 
0.000000 0.000000 0.000000 0.000000 0.000000 0.000000 2.014000 1.980000 1.967000 1.962000 1.962000 1.962000 1.964000 1.972000 1.972000 1.972000 1.973000 1.981000 1.982000 1.990000 1.990000 1.990000 1.997000 2.000000 2.000000 2.000000 2.000000 2.000000 2.000000 2.006000 2.006000 2.007000 0.000000 0.000000 0.000000 0.000000 0.000000 0.000000 0.000000 0.000000 
0.000000 0.000000 0.000000 0.000000 0.000000 0.000000 2.016000 1.982000 1.962000 1.962000 1.962000 1.962000 1.964000 1.972000 1.972000 1.972000 1.972000 1.978000 1.982000 1.990000 1.983000 1.983000 1.983000 1.996000 1.992000 1.996000 2.000000 2.000000 2.000000 2.000000 1.992000 1.992000 1.993000 0.000000 0.000000 0.000000 0.000000 0.000000 0.000000 0.000000 
0.000000 0.000000 0.000000 0.000000 0.000000 0.000000 2.530000 1.979000 1.962000 1.960000 1.960000 1.962000 1.964000 1.972000 1.972000 1.972000 1.972000 1.972000 1.973000 1.985000 1.981000 1.981000 1.981000 1.990000 1.990000 1.995000 2.000000 2.000000 2.000000 1.996000 1.990000 1.981000 1.981000 0.000000 0.000000 0.000000 0.000000 0.000000 0.000000 0.000000 
0.000000 0.000000 0.000000 0.000000 0.000000 0.000000 0.000000 1.972000 1.962000 1.956000 1.955000 1.962000 1.964000 1.972000 1.972000 1.972000 1.972000 1.972000 1.973000 1.981000 1.981000 1.981000 1.981000 1.987000 1.990000 1.995000 1.992000 1.992000 2.000000 1.999000 1.991000 1.981000 1.981000 0.000000 0.000000 0.000000 0.000000 0.000000 0.000000 0.000000 
0.000000 0.000000 0.000000 0.000000 0.000000 0.000000 2.812000 1.976000 1.961000 1.953000 1.951000 1.951000 1.954000 1.969000 1.972000 1.972000 1.972000 1.972000 1.975000 1.982000 1.983000 1.981000 1.981000 1.984000 1.988000 1.989000 1.990000 1.990000 2.000000 2.000000 2.000000 2.000000 0.000000 0.000000 0.000000 0.000000 0.000000 0.000000 0.000000 0.000000 
0.000000 0.000000 0.000000 0.000000 0.000000 0.000000 0.000000 1.593000 1.955000 1.942000 1.936000 1.931000 1.954000 1.969000 1.972000 1.972000 1.972000 1.972000 1.974000 1.979000 1.989000 1.977000 1.974000 1.974000 1.981000 1.982000 1.983000 1.994000 2.000000 2.000000 2.000000 2.000000 0.000000 0.000000 0.000000 0.000000 0.000000 0.000000 0.000000 0.000000 
0.000000 0.000000 0.000000 0.000000 0.000000 0.000000 0.000000 1.479000 1.953000 1.940000 1.933000 1.927000 1.962000 1.969000 1.973000 1.981000 1.972000 1.972000 1.972000 1.977000 1.989000 1.976000 1.972000 1.972000 1.990000 1.986000 1.981000 0.000000 2.087000 2.000000 2.008000 0.000000 0.000000 0.000000 0.000000 0.000000 0.000000 0.000000 0.000000 0.000000 
0.000000 0.000000 0.000000 0.000000 0.000000 0.000000 0.000000 0.000000 0.000000 0.000000 0.000000 0.000000 0.000000 0.000000 0.000000 0.000000 0.000000 0.000000 0.000000 0.000000 0.000000 0.000000 0.000000 0.000000 0.000000 0.000000 0.000000 0.000000 0.000000 0.000000 0.000000 0.000000 0.000000 0.000000 0.000000 0.000000 0.000000 0.000000 0.000000 0.000000 
