0.000000,0.000000,0.000000,0.000000,0.000000,0.000000,0.000000,1.429000,1.996000,1.996000,1.995000,1.995000,1.995000,1.995000,1.996000,1.996000,1.996000,1.996000,1.997000,1.996000,1.996000,1.995000,2.000000,2.005000,2.005000,2.005000,2.003000,2.001000,2.000000,2.000000,2.004000,1.999000,2.000000,0.000000,0.000000,0.000000,0.000000,0.000000,0.000000,0.000000,
0.000000,0.000000,0.000000,0.000000,0.000000,0.000000,0.000000,1.926000,1.995000,1.995000,1.995000,1.995000,1.995000,1.995000,1.995000,1.995000,1.995000,1.995000,1.995000,1.995000,1.995000,1.995000,2.000000,2.005000,2.005000,2.005000,2.005000,2.001000,2.000000,2.000000,2.005000,2.000000,0.000000,0.000000,0.000000,0.000000,0.000000,0.000000,0.000000,0.000000,
0.000000,0.000000,0.000000,0.000000,0.000000,0.000000,0.000000,1.977000,1.995000,1.995000,1.995000,1.995000,1.995000,1.995000,1.995000,1.995000,1.995000,1.997000,1.995000,1.995000,1.995000,1.995000,2.005000,2.005000,2.005000,2.005000,2.005000,2.005000,2.005000,2.005000,2.005000,1.855000,0.000000,0.000000,0.000000,0.000000,0.000000,0.000000,0.000000,0.000000,
0.000000,0.000000,0.000000,0.000000,0.000000,0.000000,0.000000,1.991000,1.995000,2.000000,1.995000,1.995000,1.995000,1.995000,1.995000,1.995000,1.995000,1.995000,1.995000,1.999000,2.000000,2.000000,2.005000,2.005000,2.005000,2.005000,2.005000,2.005000,2.005000,2.005000,2.005000,1.855000,0.000000,0.000000,0.000000,0.000000,0.000000,0.000000,0.000000,0.000000,
0.000000,0.000000,0.000000,0.000000,0.000000,0.000000,0.000000,2.001000,2.000000,1.999000,1.996000,1.995000,1.995000,1.995000,1.995000,1.995000,1.996000,1.995000,1.995000,1.999000,2.000000,1.999000,2.005000,2.005000,2.005000,2.005000,2.005000,2.008000,2.010000,2.005000,2.005000,1.850000,0.000000,0.000000,0.000000,0.000000,0.000000,0.000000,0.000000,0.000000,
0.000000,0.000000,0.000000,0.000000,0.000000,0.000000,0.000000,2.004000,1.997000,1.995000,1.995000,1.995000,2.000000,1.995000,1.995000,1.995000,1.995000,2.000000,2.000000,2.000000,1.995000,1.997000,2.005000,2.005000,2.005000,2.005000,2.005000,2.005000,2.010000,2.005000,2.005000,1.906000,0.000000,0.000000,0.000000,0.000000,0.000000,0.000000,0.000000,0.000000,
0.000000,0.000000,0.000000,0.000000,0.000000,0.000000,0.000000,1.999000,1.995000,1.995000,1.995000,1.995000,2.000000,1.997000,1.995000,1.995000,1.998000,2.000000,1.998000,2.000000,2.000000,2.000000,2.005000,2.010000,2.008000,2.006000,2.009000,2.010000,2.010000,2.005000,2.010000,2.015000,0.000000,0.000000,0.000000,0.000000,0.000000,0.000000,0.000000,0.000000,
0.000000,0.000000,0.000000,0.000000,0.000000,0.000000,0.000000,1.429000,1.995000,1.995000,1.995000,1.995000,2.000000,2.000000,2.000000,1.995000,1.997000,1.997000,1.995000,1.995000,2.000000,2.003000,2.010000,2.010000,2.009000,2.009000,2.010000,2.005000,2.007000,2.007000,2.010000,2.012000,0.000000,0.000000,0.000000,0.000000,0.000000,0.000000,0.000000,0.000000,
0.000000,0.000000,0.000000,0.000000,0.000000,0.000000,0.000000,2.003000,1.998000,1.998000,1.995000,1.998000,2.000000,2.000000,2.000000,1.995000,1.995000,1.995000,1.995000,1.998000,2.000000,2.005000,2.007000,2.005000,2.005000,2.006000,2.010000,2.006000,2.005000,2.008000,2.010000,2.005000,0.000000,0.000000,0.000000,0.000000,0.000000,0.000000,0.000000,0.000000,
0.000000,0.000000,0.000000,0.000000,0.000000,0.000000,0.000000,1.434000,2.000000,2.000000,2.003000,2.000000,2.000000,2.000000,2.000000,1.995000,1.995000,1.995000,1.999000,2.000000,2.000000,2.002000,2.005000,2.006000,2.005000,2.005000,2.005000,2.005000,2.005000,2.005000,2.010000,2.005000,0.000000,0.000000,0.000000,0.000000,0.000000,0.000000,0.000000,0.000000,
0.000000,0.000000,0.000000,0.000000,0.000000,0.000000,0.000000,1.883000,1.996000,2.001000,2.001000,2.000000,2.000000,2.000000,1.996000,1.995000,1.998000,2.000000,2.000000,1.996000,1.996000,2.000000,2.005000,2.005000,2.005000,2.005000,2.005000,2.005000,2.005000,2.005000,2.010000,1.880000,0.000000,0.000000,0.000000,0.000000,0.000000,0.000000,0.000000,0.000000,
0.000000,0.000000,0.000000,0.000000,0.000000,0.000000,0.000000,1.463000,1.995000,2.000000,1.996000,1.995000,1.995000,1.995000,1.995000,1.995000,2.000000,2.000000,2.000000,1.996000,1.999000,2.005000,2.005000,2.006000,2.010000,2.010000,2.010000,2.010000,2.010000,2.010000,2.010000,1.859000,0.000000,0.000000,0.000000,0.000000,0.000000,0.000000,0.000000,0.000000,
0.000000,0.000000,0.000000,0.000000,0.000000,0.000000,0.000000,1.995000,1.995000,1.999000,1.996000,1.995000,1.995000,1.995000,1.995000,2.000000,2.000000,2.000000,2.000000,2.000000,2.000000,2.010000,2.010000,2.010000,2.010000,2.010000,2.010000,2.010000,2.010000,2.005000,2.010000,1.859000,0.000000,0.000000,0.000000,0.000000,0.000000,0.000000,0.000000,0.000000,
0.000000,0.000000,0.000000,0.000000,0.000000,0.000000,0.000000,1.429000,1.995000,1.995000,1.996000,1.995000,1.999000,1.999000,1.997000,2.002000,2.000000,2.000000,2.000000,1.996000,2.000000,2.005000,2.006000,2.010000,2.005000,2.010000,2.010000,2.010000,2.006000,2.005000,2.010000,2.010000,0.000000,0.000000,0.000000,0.000000,0.000000,0.000000,0.000000,0.000000,
0.000000,0.000000,0.000000,0.000000,0.000000,0.000000,0.000000,1.434000,1.996000,1.995000,1.999000,1.996000,1.997000,1.995000,1.997000,2.000000,2.000000,2.000000,2.004000,2.000000,2.000000,2.005000,2.005000,2.005000,2.007000,2.010000,2.007000,2.008000,2.010000,2.005000,2.010000,2.009000,2.000000,0.000000,0.000000,0.000000,0.000000,0.000000,0.000000,0.000000,
0.000000,0.000000,0.000000,0.000000,0.000000,0.000000,0.000000,1.432000,1.998000,1.997000,2.000000,1.998000,2.000000,1.998000,1.997000,2.000000,1.998000,1.999000,2.003000,2.005000,2.000000,2.005000,2.007000,2.010000,2.010000,2.010000,2.008000,2.009000,2.010000,2.010000,2.015000,2.006000,0.000000,0.000000,0.000000,0.000000,0.000000,0.000000,0.000000,0.000000,
0.000000,0.000000,0.000000,0.000000,0.000000,0.000000,0.000000,1.094000,1.997000,2.002000,2.000000,1.995000,1.995000,1.995000,1.996000,2.000000,1.995000,1.998000,2.000000,2.002000,2.000000,2.005000,2.006000,2.010000,2.010000,2.010000,2.011000,2.012000,2.013000,2.010000,2.010000,1.999000,1.995000,0.000000,0.000000,0.000000,0.000000,0.000000,0.000000,0.000000,
0.000000,0.000000,0.000000,0.000000,0.000000,0.000000,0.000000,0.000000,1.997000,2.002000,2.001000,1.995000,1.995000,1.995000,1.996000,2.000000,1.995000,2.000000,2.000000,2.000000,2.000000,2.005000,2.010000,2.011000,2.010000,2.007000,2.010000,2.014000,2.010000,2.010000,2.007000,2.004000,2.000000,0.000000,0.000000,0.000000,0.000000,0.000000,0.000000,0.000000,
0.000000,0.000000,0.000000,0.000000,0.000000,0.000000,0.000000,0.000000,1.998000,2.000000,1.997000,1.997000,2.000000,1.995000,1.997000,2.000000,2.000000,2.003000,2.000000,2.000000,2.000000,2.005000,2.010000,2.011000,2.013000,2.005000,2.008000,2.010000,2.010000,2.010000,2.008000,2.005000,1.984000,0.000000,0.000000,0.000000,0.000000,0.000000,0.000000,0.000000,
0.000000,0.000000,0.000000,0.000000,0.000000,0.000000,0.000000,2.007000,2.000000,1.996000,1.995000,1.995000,1.996000,2.000000,2.000000,2.000000,2.000000,2.005000,2.001000,2.000000,2.000000,2.010000,2.005000,2.010000,2.013000,2.010000,2.010000,2.010000,2.010000,2.010000,2.014000,2.000000,1.968000,0.000000,0.000000,0.000000,0.000000,0.000000,0.000000,0.000000,
0.000000,0.000000,0.000000,0.000000,0.000000,0.000000,0.000000,1.437000,2.000000,1.996000,1.995000,1.995000,2.000000,2.000000,2.000000,1.995000,2.000000,2.003000,2.000000,2.000000,2.004000,2.010000,2.010000,2.010000,2.015000,2.010000,2.010000,2.013000,2.011000,2.015000,2.015000,2.010000,0.000000,0.000000,0.000000,0.000000,0.000000,0.000000,0.000000,0.000000,
0.000000,0.000000,0.000000,0.000000,0.000000,0.000000,0.000000,0.000000,1.995000,2.000000,1.996000,2.000000,2.000000,1.996000,1.995000,1.995000,1.995000,1.998000,2.000000,2.000000,2.005000,2.010000,2.005000,2.010000,2.012000,2.010000,2.010000,2.015000,2.015000,2.015000,2.015000,2.015000,0.000000,0.000000,0.000000,0.000000,0.000000,0.000000,0.000000,0.000000,
0.000000,0.000000,0.000000,0.000000,0.000000,0.000000,0.000000,0.000000,1.996000,2.000000,2.004000,2.000000,1.996000,1.995000,1.995000,1.998000,1.995000,1.998000,2.000000,2.000000,2.005000,2.010000,2.010000,2.011000,2.015000,2.013000,2.010000,2.015000,2.015000,2.015000,2.015000,2.015000,0.000000,0.000000,0.000000,0.000000,0.000000,0.000000,0.000000,0.000000,
0.000000,0.000000,0.000000,0.000000,0.000000,0.000000,0.000000,0.000000,1.995000,1.995000,1.995000,1.995000,1.995000,1.995000,1.996000,2.000000,2.000000,2.000000,2.004000,2.004000,2.005000,2.010000,2.014000,2.014000,2.015000,2.013000,2.013000,2.015000,2.015000,2.015000,2.015000,2.010000,0.000000,0.000000,0.000000,0.000000,0.000000,0.000000,0.000000,0.000000,
0.000000,0.000000,0.000000,0.000000,0.000000,0.000000,0.000000,1.431000,1.997000,1.995000,1.995000,1.995000,1.995000,1.995000,2.000000,2.000000,2.000000,2.000000,2.005000,2.002000,2.007000,2.012000,2.012000,2.013000,2.015000,2.015000,2.015000,2.015000,2.015000,2.015000,2.015000,2.013000,1.153000,0.000000,0.000000,0.000000,0.000000,0.000000,0.000000,0.000000,
0.000000,0.000000,0.000000,0.000000,0.000000,0.000000,0.000000,1.436000,1.997000,1.995000,1.995000,1.995000,1.995000,2.000000,2.000000,2.002000,2.002000,2.000000,2.004000,2.005000,2.010000,2.015000,2.015000,2.015000,2.015000,2.015000,2.015000,2.015000,2.015000,2.019000,2.015000,2.010000,2.008000,0.000000,0.000000,0.000000,0.000000,0.000000,0.000000,0.000000,
0.000000,0.000000,0.000000,0.000000,0.000000,0.000000,0.000000,1.434000,2.003000,2.000000,2.000000,1.998000,2.003000,2.005000,2.000000,2.000000,2.000000,2.000000,2.004000,2.009000,2.010000,2.010000,2.012000,2.015000,2.015000,2.015000,2.015000,2.015000,2.019000,2.019000,2.017000,2.012000,2.008000,0.000000,0.000000,0.000000,0.000000,0.000000,0.000000,0.000000,
0.000000,0.000000,0.000000,0.000000,0.000000,0.000000,0.000000,1.437000,2.007000,2.000000,2.000000,2.003000,2.002000,2.005000,2.000000,2.000000,2.000000,2.001000,2.005000,2.010000,2.010000,2.010000,2.010000,2.015000,2.015000,2.015000,2.015000,2.019000,2.019000,2.019000,2.016000,2.015000,2.015000,0.000000,0.000000,0.000000,0.000000,0.000000,0.000000,0.000000,
0.000000,0.000000,0.000000,0.000000,0.000000,0.000000,0.000000,0.000000,2.005000,1.996000,1.997000,1.995000,2.000000,2.001000,2.001000,1.996000,1.995000,2.002000,2.008000,2.010000,2.010000,2.015000,2.014000,2.015000,2.015000,2.015000,2.015000,2.015000,2.018000,2.019000,2.015000,2.015000,2.015000,0.000000,0.000000,0.000000,0.000000,0.000000,0.000000,0.000000,
0.000000,0.000000,0.000000,0.000000,0.000000,0.000000,0.000000,1.337000,2.000000,1.996000,1.995000,1.995000,1.996000,2.000000,1.998000,1.995000,1.995000,2.003000,2.010000,2.010000,2.010000,2.015000,2.014000,2.011000,2.015000,2.015000,2.015000,2.015000,2.018000,2.019000,2.015000,2.016000,2.018000,0.000000,0.000000,0.000000,0.000000,0.000000,0.000000,0.000000,
0.000000,0.000000,0.000000,0.000000,0.000000,0.000000,0.000000,1.429000,1.995000,1.999000,2.000000,2.000000,2.000000,2.000000,2.000000,2.002000,2.005000,2.005000,2.010000,2.010000,2.010000,2.015000,2.015000,2.015000,2.015000,2.015000,2.015000,2.015000,2.018000,2.019000,2.015000,2.015000,0.000000,0.000000,0.000000,0.000000,0.000000,0.000000,0.000000,0.000000,
0.000000,0.000000,0.000000,0.000000,0.000000,0.000000,0.000000,0.000000,1.991000,1.999000,2.005000,2.005000,2.005000,2.000000,2.002000,2.005000,2.005000,2.005000,2.010000,2.010000,2.010000,2.015000,2.015000,2.015000,2.015000,2.015000,2.015000,2.019000,2.019000,2.019000,2.015000,2.010000,2.010000,0.000000,0.000000,0.000000,0.000000,0.000000,0.000000,0.000000,
0.000000,0.000000,0.000000,0.000000,0.000000,0.000000,0.000000,0.000000,1.992000,1.995000,1.999000,2.000000,2.000000,2.005000,2.005000,2.005000,2.010000,2.010000,2.010000,2.010000,2.010000,2.015000,2.015000,2.015000,2.015000,2.015000,2.015000,2.017000,2.019000,2.015000,2.015000,2.010000,2.007000,0.000000,0.000000,0.000000,0.000000,0.000000,0.000000,0.000000,
0.000000,0.000000,0.000000,0.000000,0.000000,0.000000,0.000000,0.000000,1.998000,1.995000,2.000000,2.000000,2.000000,2.001000,2.005000,2.006000,2.010000,2.009000,2.009000,2.010000,2.010000,2.015000,2.015000,2.015000,2.014000,2.014000,2.014000,2.015000,2.018000,2.019000,2.019000,2.016000,1.638000,0.000000,0.000000,0.000000,0.000000,0.000000,0.000000,0.000000,
0.000000,0.000000,0.000000,0.000000,0.000000,0.000000,0.000000,0.000000,2.002000,2.002000,2.005000,1.995000,1.995000,1.998000,2.002000,2.005000,2.009000,2.009000,2.005000,2.009000,2.010000,2.023000,2.028000,2.023000,1.829000,1.498000,1.499000,1.501000,1.502000,1.506000,0.000000,0.000000,0.000000,0.000000,0.000000,0.000000,0.000000,0.000000,0.000000,0.000000,
0.000000,0.000000,0.000000,0.000000,0.000000,0.000000,0.000000,0.000000,2.009000,1.511000,1.361000,1.358000,1.986000,1.995000,1.998000,2.013000,2.014000,2.019000,2.020000,2.065000,2.060000,2.039000,2.034000,1.860000,0.000000,0.000000,0.000000,0.000000,0.000000,0.000000,0.000000,0.000000,0.000000,0.000000,0.000000,0.000000,0.000000,0.000000,0.000000,0.000000,
0.000000,0.000000,0.000000,0.000000,0.000000,0.000000,0.000000,0.000000,0.000000,0.000000,0.000000,0.000000,0.000000,0.000000,1.937000,1.254000,2.017000,2.023000,2.062000,2.116000,2.106000,2.105000,0.000000,0.000000,1.571000,0.000000,0.000000,0.000000,0.000000,0.000000,0.000000,0.000000,0.000000,0.000000,0.000000,0.000000,0.000000,0.000000,0.000000,0.000000,
0.000000,0.000000,0.000000,0.000000,0.000000,0.000000,0.000000,0.000000,0.000000,0.000000,0.000000,0.000000,0.000000,2.102000,2.093000,2.077000,2.029000,2.030000,2.100000,2.097000,2.095000,2.099000,1.883000,2.092000,2.092000,2.091000,0.000000,0.000000,0.000000,0.000000,0.000000,0.000000,0.000000,0.000000,0.000000,0.000000,0.000000,0.000000,0.000000,0.000000,
0.000000,0.000000,0.000000,0.000000,0.000000,0.000000,0.000000,0.000000,0.000000,0.000000,0.000000,0.000000,0.000000,0.000000,2.082000,2.075000,2.039000,2.035000,2.065000,2.072000,2.072000,2.071000,1.843000,1.871000,2.076000,2.066000,1.186000,0.000000,0.000000,0.000000,0.000000,0.000000,0.000000,0.000000,0.000000,0.000000,0.000000,0.000000,0.000000,0.000000,
0.000000,0.000000,0.000000,0.000000,0.000000,0.000000,0.000000,0.000000,0.000000,0.000000,0.000000,0.000000,0.000000,0.000000,2.045000,2.045000,2.036000,2.034000,2.039000,2.050000,2.040000,2.040000,2.038000,2.035000,2.040000,2.049000,1.998000,0.000000,0.000000,0.000000,0.000000,0.000000,0.000000,0.000000,0.000000,0.000000,0.000000,0.000000,0.000000,0.000000,
