40 40
0.000000 0.000000 0.000000 0.000000 0.000000 0.000000 0.000000 0.000000 1.998000 1.998000 1.996000 1.999000 1.998000 2.000000 2.000000 2.000000 1.997000 1.999000 2.000000 2.000000 2.004000 2.000000 2.000000 2.004000 2.004000 2.006000 2.007000 2.011000 2.010000 2.010000 2.007000 2.679000 0.000000 0.000000 0.000000 0.000000 0.000000 0.000000 0.000000 0.000000 
0.000000 0.000000 0.000000 0.000000 0.000000 0.000000 0.000000 0.000000 1.993000 1.996000 1.994000 1.997000 1.997000 1.998000 1.998000 2.000000 2.000000 1.997000 2.000000 2.000000 2.000000 2.001000 2.004000 2.004000 2.004000 2.006000 2.007000 2.012000 2.007000 2.010000 2.007000 1.776000 0.000000 0.000000 0.000000 0.000000 0.000000 0.000000 0.000000 0.000000 
0.000000 0.000000 0.000000 0.000000 0.000000 0.000000 0.000000 0.000000 1.995000 1.998000 1.997000 1.997000 1.997000 1.997000 1.997000 2.000000 2.000000 2.000000 2.000000 2.000000 2.000000 2.004000 2.004000 2.004000 2.004000 2.007000 2.007000 2.015000 2.011000 2.011000 2.011000 2.600000 0.000000 0.000000 0.000000 0.000000 0.000000 0.000000 0.000000 0.000000 
0.000000 0.000000 0.000000 0.000000 0.000000 0.000000 0.000000 0.000000 1.989000 1.997000 1.997000 1.997000 1.997000 1.997000 1.997000 2.000000 1.999000 2.000000 1.997000 2.000000 2.000000 2.000000 2.004000 2.004000 2.004000 2.007000 2.007000 2.011000 2.011000 2.011000 2.015000 2.388000 0.000000 0.000000 0.000000 0.000000 0.000000 0.000000 0.000000 0.000000 
0.000000 0.000000 0.000000 0.000000 0.000000 0.000000 0.000000 0.000000 1.988000 1.997000 1.997000 1.994000 1.997000 1.997000 1.997000 2.000000 1.997000 2.000000 2.000000 2.000000 2.000000 2.000000 2.004000 2.004000 2.004000 2.004000 2.007000 2.011000 2.011000 2.013000 2.018000 1.663000 0.000000 0.000000 0.000000 0.000000 0.000000 0.000000 0.000000 0.000000 
0.000000 0.000000 0.000000 0.000000 0.000000 0.000000 0.000000 0.000000 1.993000 1.994000 1.994000 1.994000 1.997000 1.997000 1.998000 1.999000 1.998000 2.000000 2.004000 2.004000 2.003000 2.000000 2.001000 2.005000 2.004000 2.004000 2.007000 2.011000 2.011000 2.016000 2.018000 1.837000 0.000000 0.000000 0.000000 0.000000 0.000000 0.000000 0.000000 0.000000 
0.000000 0.000000 0.000000 0.000000 0.000000 0.000000 0.000000 0.000000 1.992000 1.995000 1.997000 1.997000 1.997000 1.997000 1.997000 1.997000 1.998000 2.000000 2.000000 2.000000 2.004000 2.001000 2.004000 2.004000 2.004000 2.004000 2.004000 2.011000 2.011000 2.015000 2.018000 2.022000 0.000000 0.000000 0.000000 0.000000 0.000000 0.000000 0.000000 0.000000 
0.000000 0.000000 0.000000 0.000000 0.000000 0.000000 0.000000 0.000000 1.992000 1.994000 1.997000 1.997000 1.999000 2.000000 2.000000 1.997000 1.997000 2.000000 2.000000 2.000000 2.000000 2.004000 2.004000 2.004000 2.004000 2.005000 2.004000 2.011000 2.015000 2.015000 2.018000 2.018000 0.000000 0.000000 0.000000 0.000000 0.000000 0.000000 0.000000 0.000000 
0.000000 0.000000 0.000000 0.000000 0.000000 0.000000 0.000000 0.000000 1.994000 1.994000 1.994000 1.994000 1.999000 2.000000 1.999000 1.997000 1.998000 2.000000 2.000000 2.000000 2.000000 2.004000 2.004000 2.004000 2.004000 2.006000 2.011000 2.011000 2.015000 2.015000 2.012000 1.656000 0.000000 0.000000 0.000000 0.000000 0.000000 0.000000 0.000000 0.000000 
0.000000 0.000000 0.000000 0.000000 0.000000 0.000000 0.000000 0.000000 1.993000 1.994000 1.997000 1.997000 1.997000 2.000000 2.000000 2.000000 2.000000 2.000000 2.004000 2.001000 2.004000 2.000000 2.004000 2.004000 2.005000 2.006000 2.004000 2.011000 2.011000 2.013000 2.011000 1.655000 0.000000 0.000000 0.000000 0.000000 0.000000 0.000000 0.000000 0.000000 
0.000000 0.000000 0.000000 0.000000 0.000000 0.000000 0.000000 0.000000 1.995000 1.994000 1.997000 1.997000 1.997000 1.997000 1.997000 2.000000 2.001000 2.003000 2.000000 2.000000 2.004000 2.001000 2.004000 2.004000 2.007000 2.004000 2.007000 2.011000 2.011000 2.011000 2.014000 1.658000 0.000000 0.000000 0.000000 0.000000 0.000000 0.000000 0.000000 0.000000 
0.000000 0.000000 0.000000 0.000000 0.000000 0.000000 0.000000 0.000000 1.992000 1.995000 1.997000 1.997000 1.997000 1.997000 1.997000 1.998000 2.000000 2.003000 2.000000 2.000000 2.000000 2.003000 2.004000 2.007000 2.007000 2.007000 2.011000 2.011000 2.012000 2.014000 2.015000 1.660000 0.000000 0.000000 0.000000 0.000000 0.000000 0.000000 0.000000 0.000000 
0.000000 0.000000 0.000000 0.000000 0.000000 0.000000 0.000000 0.000000 1.994000 1.996000 1.997000 1.997000 1.997000 1.999000 2.000000 1.998000 2.000000 2.000000 2.000000 2.000000 2.001000 2.004000 2.004000 2.005000 2.007000 2.009000 2.011000 2.014000 2.015000 2.013000 2.011000 1.655000 0.000000 0.000000 0.000000 0.000000 0.000000 0.000000 0.000000 0.000000 
0.000000 0.000000 0.000000 0.000000 0.000000 0.000000 0.000000 0.000000 1.994000 1.997000 1.997000 1.997000 1.997000 1.997000 2.000000 2.000000 1.999000 2.000000 2.000000 2.003000 2.004000 2.004000 2.004000 2.005000 2.004000 2.004000 2.007000 2.011000 2.014000 2.015000 2.015000 1.658000 0.000000 0.000000 0.000000 0.000000 0.000000 0.000000 0.000000 0.000000 
0.000000 0.000000 0.000000 0.000000 0.000000 0.000000 0.000000 0.000000 1.994000 1.999000 1.996000 1.997000 1.997000 1.994000 1.998000 2.000000 2.000000 2.000000 2.000000 2.003000 2.004000 2.004000 2.004000 2.004000 2.004000 2.005000 2.007000 2.012000 2.011000 2.011000 2.011000 1.659000 0.000000 0.000000 0.000000 0.000000 0.000000 0.000000 0.000000 0.000000 
0.000000 0.000000 0.000000 0.000000 0.000000 0.000000 0.000000 0.000000 1.994000 1.997000 1.995000 1.994000 2.000000 2.000000 2.000000 2.000000 2.000000 2.000000 2.000000 2.004000 2.004000 2.004000 2.004000 2.004000 2.004000 2.004000 2.007000 2.011000 2.011000 2.009000 2.015000 1.660000 0.000000 0.000000 0.000000 0.000000 0.000000 0.000000 0.000000 0.000000 
0.000000 0.000000 0.000000 0.000000 0.000000 0.000000 0.000000 0.000000 1.997000 1.995000 1.996000 1.996000 1.998000 2.000000 2.000000 2.000000 2.000000 2.000000 2.004000 2.004000 2.004000 2.004000 2.004000 2.007000 2.006000 2.006000 2.011000 2.015000 2.011000 2.013000 2.015000 1.658000 0.000000 0.000000 0.000000 0.000000 0.000000 0.000000 0.000000 0.000000 
0.000000 0.000000 0.000000 0.000000 0.000000 0.000000 0.000000 0.000000 1.997000 1.994000 1.996000 1.997000 1.997000 2.000000 2.000000 2.000000 1.997000 2.000000 2.001000 2.004000 2.004000 2.004000 2.004000 2.007000 2.007000 2.009000 2.011000 2.011000 2.011000 2.013000 2.011000 1.655000 0.000000 0.000000 0.000000 0.000000 0.000000 0.000000 0.000000 0.000000 
0.000000 0.000000 0.000000 0.000000 0.000000 0.000000 0.000000 0.000000 1.995000 1.994000 1.994000 1.994000 1.997000 1.997000 1.997000 2.000000 2.000000 2.000000 2.000000 2.004000 2.004000 2.004000 2.004000 2.004000 2.004000 2.006000 2.013000 2.015000 2.015000 2.015000 2.013000 1.657000 0.000000 0.000000 0.000000 0.000000 0.000000 0.000000 0.000000 0.000000 
0.000000 0.000000 0.000000 0.000000 0.000000 0.000000 0.000000 0.000000 1.704000 1.994000 1.994000 1.994000 1.997000 1.997000 1.997000 2.000000 1.997000 2.000000 2.001000 2.004000 2.004000 2.004000 2.004000 2.007000 2.004000 2.007000 2.011000 2.015000 2.011000 2.011000 2.015000 1.681000 0.000000 0.000000 0.000000 0.000000 0.000000 0.000000 0.000000 0.000000 
0.000000 0.000000 0.000000 0.000000 0.000000 0.000000 0.000000 0.000000 1.995000 1.994000 1.996000 1.995000 1.997000 1.999000 2.000000 2.000000 1.997000 2.000000 2.000000 2.000000 2.000000 2.004000 2.004000 2.007000 2.005000 2.006000 2.009000 2.014000 2.013000 2.011000 2.014000 1.804000 0.000000 0.000000 0.000000 0.000000 0.000000 0.000000 0.000000 0.000000 
0.000000 0.000000 0.000000 0.000000 0.000000 0.000000 0.000000 0.000000 1.995000 1.994000 1.997000 1.997000 1.997000 1.997000 1.999000 2.000000 1.999000 2.000000 2.000000 2.000000 2.000000 2.004000 2.005000 2.007000 2.007000 2.005000 2.004000 2.011000 2.015000 2.014000 2.015000 2.018000 0.000000 0.000000 0.000000 0.000000 0.000000 0.000000 0.000000 0.000000 
0.000000 0.000000 0.000000 0.000000 0.000000 0.000000 0.000000 0.000000 1.705000 1.997000 1.994000 1.994000 1.997000 1.997000 1.998000 1.999000 1.999000 2.000000 2.004000 2.001000 2.003000 2.004000 2.004000 2.006000 2.005000 2.004000 2.007000 2.012000 2.011000 2.015000 2.015000 2.010000 0.000000 0.000000 0.000000 0.000000 0.000000 0.000000 0.000000 0.000000 
0.000000 0.000000 0.000000 0.000000 0.000000 0.000000 0.000000 0.000000 1.706000 1.995000 1.994000 1.994000 1.997000 1.997000 1.998000 1.999000 1.998000 2.000000 2.001000 2.003000 2.003000 2.004000 2.004000 2.006000 2.007000 2.007000 2.007000 2.015000 2.014000 2.015000 2.018000 2.017000 0.000000 0.000000 0.000000 0.000000 0.000000 0.000000 0.000000 0.000000 
0.000000 0.000000 0.000000 0.000000 0.000000 0.000000 0.000000 0.000000 2.000000 1.994000 1.994000 1.994000 1.996000 1.994000 2.000000 2.000000 2.000000 2.000000 2.001000 2.004000 2.004000 2.004000 2.005000 2.005000 2.008000 2.008000 2.011000 2.015000 2.011000 2.015000 2.018000 2.018000 0.000000 0.000000 0.000000 0.000000 0.000000 0.000000 0.000000 0.000000 
0.000000 0.000000 0.000000 0.000000 0.000000 0.000000 0.000000 0.000000 1.704000 1.996000 1.994000 1.994000 1.997000 1.997000 1.998000 2.000000 2.000000 2.000000 2.000000 2.000000 2.001000 2.004000 2.007000 2.011000 2.011000 2.007000 2.011000 2.015000 2.015000 2.015000 2.018000 2.018000 0.000000 0.000000 0.000000 0.000000 0.000000 0.000000 0.000000 0.000000 
0.000000 0.000000 0.000000 0.000000 0.000000 0.000000 0.000000 0.000000 2.001000 1.999000 1.995000 1.994000 1.997000 1.997000 2.000000 2.000000 2.000000 2.000000 2.004000 2.000000 2.004000 2.004000 2.004000 2.007000 2.007000 2.009000 2.007000 2.011000 2.015000 2.015000 2.018000 2.018000 0.000000 0.000000 0.000000 0.000000 0.000000 0.000000 0.000000 0.000000 
0.000000 0.000000 0.000000 0.000000 0.000000 0.000000 0.000000 0.000000 1.709000 1.999000 1.997000 1.996000 1.997000 1.999000 2.000000 2.000000 2.000000 2.000000 2.004000 2.004000 2.004000 2.004000 2.004000 2.007000 2.007000 2.005000 2.007000 2.011000 2.015000 2.018000 2.018000 2.018000 0.000000 0.000000 0.000000 0.000000 0.000000 0.000000 0.000000 0.000000 
0.000000 0.000000 0.000000 0.000000 0.000000 0.000000 0.000000 0.000000 1.704000 1.997000 1.997000 1.997000 1.997000 2.000000 2.000000 2.000000 2.004000 2.000000 2.000000 2.004000 2.004000 2.004000 2.004000 2.007000 2.007000 2.004000 2.007000 2.015000 2.015000 2.015000 2.018000 2.018000 0.000000 0.000000 0.000000 0.000000 0.000000 0.000000 0.000000 0.000000 
0.000000 0.000000 0.000000 0.000000 0.000000 0.000000 0.000000 0.000000 1.699000 1.995000 1.996000 1.994000 1.996000 2.000000 2.000000 2.002000 2.003000 2.000000 2.001000 2.004000 2.004000 2.004000 2.004000 2.004000 2.007000 2.008000 2.009000 2.014000 2.015000 2.015000 2.015000 2.019000 0.000000 0.000000 0.000000 0.000000 0.000000 0.000000 0.000000 0.000000 
0.000000 0.000000 0.000000 0.000000 0.000000 0.000000 0.000000 0.000000 1.713000 1.999000 1.994000 1.997000 1.997000 2.000000 2.000000 2.000000 2.002000 2.000000 2.004000 2.004000 2.004000 2.004000 2.004000 2.006000 2.007000 2.005000 2.004000 2.014000 2.018000 2.015000 2.015000 2.016000 0.000000 0.000000 0.000000 0.000000 0.000000 0.000000 0.000000 0.000000 
0.000000 0.000000 0.000000 0.000000 0.000000 0.000000 0.000000 0.000000 1.875000 1.996000 1.995000 1.997000 1.996000 2.000000 2.000000 2.000000 2.000000 2.000000 2.000000 2.003000 2.004000 2.004000 2.004000 2.006000 2.009000 2.005000 2.004000 2.015000 2.017000 2.017000 2.016000 2.018000 0.000000 0.000000 0.000000 0.000000 0.000000 0.000000 0.000000 0.000000 
0.000000 0.000000 0.000000 0.000000 0.000000 0.000000 0.000000 0.000000 1.711000 1.999000 1.997000 1.994000 1.994000 2.000000 2.000000 2.000000 2.000000 2.000000 2.000000 2.004000 2.004000 2.004000 2.004000 2.004000 2.007000 2.007000 2.007000 2.015000 2.015000 2.018000 2.018000 2.014000 0.000000 0.000000 0.000000 0.000000 0.000000 0.000000 0.000000 0.000000 
0.000000 0.000000 0.000000 0.000000 0.000000 0.000000 0.000000 0.000000 0.000000 1.996000 1.996000 1.998000 1.994000 1.996000 1.999000 2.000000 2.000000 2.000000 2.003000 2.004000 2.004000 2.004000 2.000000 2.004000 2.007000 2.007000 2.007000 2.016000 2.016000 2.015000 2.013000 2.016000 0.000000 0.000000 0.000000 0.000000 0.000000 0.000000 0.000000 0.000000 
0.000000 0.000000 0.000000 0.000000 0.000000 0.000000 0.000000 0.000000 0.000000 1.999000 1.994000 1.994000 1.994000 1.991000 1.994000 2.000000 2.000000 2.004000 2.000000 2.000000 2.005000 2.005000 2.004000 2.007000 2.011000 2.011000 0.000000 0.000000 2.122000 0.000000 0.000000 0.000000 0.000000 0.000000 0.000000 0.000000 0.000000 0.000000 0.000000 0.000000 
0.000000 0.000000 0.000000 0.000000 0.000000 0.000000 0.000000 0.000000 0.000000 1.995000 1.984000 1.980000 1.990000 1.990000 1.622000 1.621000 1.567000 2.010000 2.003000 2.001000 1.665000 1.371000 2.015000 2.017000 2.211000 0.000000 0.000000 0.000000 0.000000 0.000000 0.000000 0.000000 0.000000 0.000000 0.000000 0.000000 0.000000 0.000000 0.000000 0.000000 
0.000000 0.000000 0.000000 0.000000 0.000000 0.000000 0.000000 0.000000 0.000000 0.000000 0.000000 0.000000 0.000000 0.000000 2.035000 1.820000 1.261000 2.007000 2.006000 2.102000 2.107000 1.832000 1.887000 1.002000 1.142000 0.000000 0.000000 0.000000 0.000000 0.000000 0.000000 0.000000 0.000000 0.000000 0.000000 0.000000 0.000000 0.000000 0.000000 0.000000 
0.000000 0.000000 0.000000 0.000000 0.000000 0.000000 0.000000 0.000000 0.000000 0.000000 0.000000 0.000000 0.000000 0.000000 2.100000 2.091000 2.099000 2.016000 2.045000 2.100000 2.096000 2.090000 2.083000 2.021000 1.935000 1.177000 0.000000 0.000000 0.000000 0.000000 0.000000 0.000000 0.000000 0.000000 0.000000 0.000000 0.000000 0.000000 0.000000 0.000000 
0.000000 0.000000 0.000000 0.000000 0.000000 0.000000 0.000000 0.000000 0.000000 0.000000 0.000000 0.000000 2.923000 2.095000 2.088000 2.073000 2.070000 2.019000 2.037000 2.078000 2.069000 2.067000 2.069000 2.031000 2.037000 2.059000 0.000000 0.000000 0.000000 0.000000 0.000000 0.000000 0.000000 0.000000 0.000000 0.000000 0.000000 0.000000 0.000000 0.000000 
0.000000 0.000000 0.000000 0.000000 0.000000 0.000000 0.000000 0.000000 0.000000 0.000000 0.000000 0.000000 0.000000 1.872000 1.978000 2.054000 2.056000 2.015000 2.022000 2.046000 2.043000 2.039000 2.032000 2.028000 2.033000 2.037000 2.032000 0.000000 0.000000 0.000000 0.000000 0.000000 0.000000 0.000000 0.000000 0.000000 0.000000 0.000000 0.000000 0.000000 
