40 40
0.000000 0.000000 0.000000 0.000000 0.000000 0.000000 0.000000 0.000000 0.000000 0.000000 0.000000 0.000000 0.000000 0.000000 0.000000 0.000000 0.000000 0.000000 0.000000 0.000000 0.000000 0.000000 0.000000 0.000000 0.000000 0.000000 0.000000 0.000000 0.000000 0.000000 0.000000 0.000000 0.000000 0.000000 0.000000 0.000000 0.000000 0.000000 0.000000 0.000000 
0.000000 0.000000 0.000000 0.000000 0.000000 0.000000 0.000000 0.000000 0.000000 0.000000 0.000000 0.000000 0.000000 0.000000 0.000000 0.000000 0.000000 0.000000 0.000000 0.000000 0.000000 0.000000 0.000000 0.000000 0.000000 0.000000 0.000000 0.000000 0.000000 0.000000 0.000000 0.000000 0.000000 0.000000 0.000000 0.000000 0.000000 0.000000 0.000000 0.000000 
0.000000 0.000000 0.000000 0.000000 0.000000 0.000000 0.000000 1.331000 1.331000 2.198000 1.970000 1.967000 1.967000 1.188000 1.989000 2.190000 2.120000 2.213000 2.099000 1.132000 2.000000 2.000000 2.000000 2.009000 2.005000 2.008000 2.251000 2.020000 1.980000 2.033000 2.030000 2.282000 0.000000 0.000000 0.000000 0.000000 0.000000 0.000000 0.000000 0.000000 
0.000000 0.000000 0.000000 0.000000 0.000000 0.000000 0.000000 1.054000 1.054000 1.865000 1.950000 1.953000 1.957000 1.960000 1.967000 1.970000 1.974000 1.977000 1.980000 1.983000 1.989000 1.996000 1.998000 2.002000 2.005000 2.008000 2.015000 2.020000 2.021000 2.025000 2.031000 2.032000 0.000000 0.000000 0.000000 0.000000 0.000000 0.000000 0.000000 0.000000 
0.000000 0.000000 0.000000 0.000000 0.000000 0.000000 0.000000 1.054000 1.194000 1.957000 1.950000 1.953000 1.957000 1.962000 1.966000 1.971000 1.974000 1.977000 1.979000 1.983000 1.989000 1.993000 1.997000 2.000000 2.005000 2.010000 2.015000 2.020000 2.023000 2.028000 2.032000 2.035000 0.000000 0.000000 0.000000 0.000000 0.000000 0.000000 0.000000 0.000000 
0.000000 0.000000 0.000000 0.000000 0.000000 0.000000 0.000000 2.025000 1.994000 1.956000 1.951000 1.953000 1.960000 1.964000 1.969000 1.969000 1.973000 1.977000 1.981000 1.987000 1.989000 1.993000 1.997000 2.001000 2.006000 2.013000 2.015000 2.021000 2.024000 2.029000 2.032000 2.035000 0.000000 0.000000 0.000000 0.000000 0.000000 0.000000 0.000000 0.000000 
0.000000 0.000000 0.000000 0.000000 0.000000 0.000000 0.000000 2.027000 1.994000 1.965000 1.951000 1.954000 1.960000 1.964000 1.967000 1.971000 1.977000 1.978000 1.982000 1.987000 1.989000 1.996000 1.999000 2.001000 2.008000 2.013000 2.018000 2.021000 2.025000 2.032000 2.032000 2.036000 0.000000 0.000000 0.000000 0.000000 0.000000 0.000000 0.000000 0.000000 
0.000000 0.000000 0.000000 0.000000 0.000000 0.000000 0.000000 1.865000 1.991000 1.967000 1.955000 1.958000 1.960000 1.967000 1.967000 1.971000 1.975000 1.979000 1.982000 1.989000 1.989000 1.997000 2.000000 2.001000 2.008000 2.013000 2.018000 2.021000 2.028000 2.032000 2.033000 2.038000 0.000000 0.000000 0.000000 0.000000 0.000000 0.000000 0.000000 0.000000 
0.000000 0.000000 0.000000 0.000000 0.000000 0.000000 0.000000 1.941000 1.993000 1.967000 1.950000 1.958000 1.960000 1.967000 1.969000 1.973000 1.977000 1.980000 1.984000 1.989000 1.993000 1.996000 2.000000 2.001000 2.008000 2.013000 2.020000 2.024000 2.030000 2.035000 2.038000 2.041000 0.000000 0.000000 0.000000 0.000000 0.000000 0.000000 0.000000 0.000000 
0.000000 0.000000 0.000000 0.000000 0.000000 0.000000 0.000000 1.054000 1.995000 1.964000 1.954000 1.958000 1.962000 1.967000 1.969000 1.973000 1.978000 1.980000 1.985000 1.989000 1.994000 1.997000 2.000000 2.001000 2.010000 2.017000 2.020000 2.024000 2.029000 2.035000 2.038000 2.043000 0.000000 0.000000 0.000000 0.000000 0.000000 0.000000 0.000000 0.000000 
0.000000 0.000000 0.000000 0.000000 0.000000 0.000000 0.000000 1.582000 1.995000 1.962000 1.957000 1.960000 1.963000 1.967000 1.971000 1.977000 1.979000 1.982000 1.987000 1.989000 1.994000 2.000000 2.001000 2.005000 2.010000 2.018000 2.021000 2.024000 2.031000 2.035000 2.038000 2.043000 0.000000 0.000000 0.000000 0.000000 0.000000 0.000000 0.000000 0.000000 
0.000000 0.000000 0.000000 0.000000 0.000000 0.000000 0.000000 1.441000 1.996000 1.969000 1.956000 1.960000 1.964000 1.967000 1.970000 1.977000 1.979000 1.983000 1.987000 1.991000 1.997000 2.000000 2.003000 2.009000 2.013000 2.018000 2.022000 2.028000 2.033000 2.036000 2.041000 2.043000 0.000000 0.000000 0.000000 0.000000 0.000000 0.000000 0.000000 0.000000 
0.000000 0.000000 0.000000 0.000000 0.000000 0.000000 0.000000 1.321000 1.999000 1.970000 1.957000 1.960000 1.967000 1.967000 1.974000 1.977000 1.980000 1.984000 1.987000 1.989000 1.997000 2.001000 2.006000 2.008000 2.013000 2.021000 2.024000 2.030000 2.034000 2.038000 2.041000 2.044000 0.000000 0.000000 0.000000 0.000000 0.000000 0.000000 0.000000 0.000000 
0.000000 0.000000 0.000000 0.000000 0.000000 0.000000 0.000000 2.042000 1.375000 1.960000 1.957000 1.960000 1.964000 1.969000 1.974000 1.977000 1.982000 1.985000 1.989000 1.994000 1.999000 2.002000 2.008000 2.009000 2.016000 2.021000 2.024000 2.031000 2.035000 2.038000 2.043000 2.043000 0.000000 0.000000 0.000000 0.000000 0.000000 0.000000 0.000000 0.000000 
0.000000 0.000000 0.000000 0.000000 0.000000 0.000000 0.000000 1.960000 1.999000 1.972000 1.960000 1.961000 1.967000 1.969000 1.976000 1.978000 1.980000 1.987000 1.989000 1.997000 1.999000 2.005000 2.008000 2.009000 2.016000 2.021000 2.024000 2.032000 2.036000 2.039000 2.043000 2.043000 0.000000 0.000000 0.000000 0.000000 0.000000 0.000000 0.000000 0.000000 
0.000000 0.000000 0.000000 0.000000 0.000000 0.000000 0.000000 1.054000 1.997000 1.972000 1.960000 1.962000 1.967000 1.969000 1.976000 1.978000 1.980000 1.987000 1.989000 1.997000 2.001000 2.005000 2.008000 2.010000 2.016000 2.021000 2.026000 2.034000 2.036000 2.041000 2.043000 2.048000 0.000000 0.000000 0.000000 0.000000 0.000000 0.000000 0.000000 0.000000 
0.000000 0.000000 0.000000 0.000000 0.000000 0.000000 0.000000 1.600000 1.995000 1.977000 1.960000 1.963000 1.964000 1.972000 1.977000 1.979000 1.983000 1.988000 1.989000 1.997000 2.002000 2.004000 2.009000 2.012000 2.018000 2.023000 2.027000 2.035000 2.037000 2.043000 2.046000 2.049000 0.000000 0.000000 0.000000 0.000000 0.000000 0.000000 0.000000 0.000000 
0.000000 0.000000 0.000000 0.000000 0.000000 0.000000 0.000000 2.035000 2.025000 1.974000 1.960000 1.963000 1.968000 1.972000 1.976000 1.980000 1.986000 1.989000 1.990000 1.998000 2.004000 2.007000 2.010000 2.013000 2.018000 2.024000 2.029000 2.034000 2.038000 2.043000 2.048000 2.047000 0.000000 0.000000 0.000000 0.000000 0.000000 0.000000 0.000000 0.000000 
0.000000 0.000000 0.000000 0.000000 0.000000 0.000000 0.000000 2.034000 2.035000 1.975000 1.962000 1.965000 1.969000 1.972000 1.977000 1.981000 1.985000 1.989000 1.993000 2.000000 2.002000 2.008000 2.010000 2.014000 2.021000 2.027000 2.029000 2.035000 2.039000 2.044000 2.046000 2.052000 0.000000 0.000000 0.000000 0.000000 0.000000 0.000000 0.000000 0.000000 
0.000000 0.000000 0.000000 0.000000 0.000000 0.000000 0.000000 2.020000 2.024000 1.976000 1.962000 1.965000 1.967000 1.974000 1.978000 1.981000 1.984000 1.989000 1.997000 2.000000 2.004000 2.007000 2.010000 2.015000 2.021000 2.027000 2.032000 2.035000 2.042000 2.046000 2.046000 2.052000 0.000000 0.000000 0.000000 0.000000 0.000000 0.000000 0.000000 0.000000 
0.000000 0.000000 0.000000 0.000000 0.000000 0.000000 0.000000 1.054000 1.054000 1.977000 1.962000 1.967000 1.969000 1.974000 1.977000 1.981000 1.988000 1.989000 1.997000 2.000000 2.005000 2.008000 2.011000 2.017000 2.021000 2.027000 2.032000 2.039000 2.043000 2.046000 2.047000 2.055000 0.000000 0.000000 0.000000 0.000000 0.000000 0.000000 0.000000 0.000000 
0.000000 0.000000 0.000000 0.000000 0.000000 0.000000 0.000000 1.054000 1.760000 1.974000 1.964000 1.967000 1.969000 1.974000 1.979000 1.983000 1.989000 1.992000 1.997000 2.002000 2.005000 2.009000 2.013000 2.017000 2.021000 2.029000 2.034000 2.040000 2.043000 2.047000 2.051000 2.055000 0.000000 0.000000 0.000000 0.000000 0.000000 0.000000 0.000000 0.000000 
0.000000 0.000000 0.000000 0.000000 0.000000 0.000000 0.000000 1.054000 1.054000 1.973000 1.966000 1.969000 1.969000 1.977000 1.979000 1.984000 1.989000 1.992000 1.997000 2.002000 2.006000 2.010000 2.013000 2.017000 2.021000 2.029000 2.036000 2.042000 2.043000 2.048000 2.052000 2.055000 0.000000 0.000000 0.000000 0.000000 0.000000 0.000000 0.000000 0.000000 
0.000000 0.000000 0.000000 0.000000 0.000000 0.000000 0.000000 1.054000 1.878000 1.971000 1.967000 1.969000 1.973000 1.977000 1.980000 1.986000 1.989000 1.993000 2.000000 2.003000 2.008000 2.010000 2.013000 2.018000 2.021000 2.032000 2.037000 2.042000 2.044000 2.047000 2.052000 2.055000 0.000000 0.000000 0.000000 0.000000 0.000000 0.000000 0.000000 0.000000 
0.000000 0.000000 0.000000 0.000000 0.000000 0.000000 0.000000 1.317000 2.009000 1.975000 1.965000 1.968000 1.974000 1.977000 1.981000 1.987000 1.989000 1.995000 2.000000 2.005000 2.008000 2.010000 2.015000 2.018000 2.023000 2.032000 2.037000 2.042000 2.045000 2.050000 2.055000 2.058000 0.000000 0.000000 0.000000 0.000000 0.000000 0.000000 0.000000 0.000000 
0.000000 0.000000 0.000000 0.000000 0.000000 0.000000 0.000000 1.957000 2.010000 1.974000 1.968000 1.970000 1.974000 1.977000 1.982000 1.987000 1.989000 1.997000 2.000000 2.005000 2.008000 2.012000 2.017000 2.019000 2.027000 2.032000 2.040000 2.043000 2.047000 2.052000 2.058000 2.061000 0.000000 0.000000 0.000000 0.000000 0.000000 0.000000 0.000000 0.000000 
0.000000 0.000000 0.000000 0.000000 0.000000 0.000000 0.000000 1.961000 2.011000 1.975000 1.969000 1.970000 1.974000 1.979000 1.984000 1.988000 1.992000 1.997000 2.000000 2.008000 2.008000 2.016000 2.019000 2.021000 2.029000 2.035000 2.043000 2.046000 2.047000 2.055000 2.058000 2.058000 0.000000 0.000000 0.000000 0.000000 0.000000 0.000000 0.000000 0.000000 
0.000000 0.000000 0.000000 0.000000 0.000000 0.000000 0.000000 1.850000 2.018000 1.974000 1.969000 1.970000 1.977000 1.979000 1.984000 1.988000 1.993000 2.000000 2.004000 2.008000 2.012000 2.016000 2.021000 2.022000 2.028000 2.038000 2.043000 2.046000 2.048000 2.056000 2.058000 2.060000 0.000000 0.000000 0.000000 0.000000 0.000000 0.000000 0.000000 0.000000 
0.000000 0.000000 0.000000 0.000000 0.000000 0.000000 0.000000 2.049000 2.015000 1.975000 1.973000 1.977000 1.977000 1.981000 1.987000 1.989000 1.993000 1.999000 2.002000 2.008000 2.011000 2.017000 2.019000 2.022000 2.028000 2.038000 2.043000 2.047000 2.050000 2.057000 2.061000 2.061000 0.000000 0.000000 0.000000 0.000000 0.000000 0.000000 0.000000 0.000000 
0.000000 0.000000 0.000000 0.000000 0.000000 0.000000 0.000000 2.046000 2.016000 1.977000 1.974000 1.977000 1.977000 1.982000 1.987000 1.989000 1.995000 2.000000 2.004000 2.008000 2.010000 2.017000 2.019000 2.022000 2.031000 2.039000 2.045000 2.048000 2.052000 2.058000 2.063000 2.064000 0.000000 0.000000 0.000000 0.000000 0.000000 0.000000 0.000000 0.000000 
0.000000 0.000000 0.000000 0.000000 0.000000 0.000000 0.000000 1.961000 2.014000 1.979000 1.974000 1.977000 1.979000 1.982000 1.987000 1.990000 1.996000 1.998000 2.009000 2.010000 2.015000 2.018000 2.021000 2.025000 2.033000 2.041000 2.045000 2.050000 2.051000 2.058000 2.061000 2.064000 0.000000 0.000000 0.000000 0.000000 0.000000 0.000000 0.000000 0.000000 
0.000000 0.000000 0.000000 0.000000 0.000000 0.000000 0.000000 1.960000 2.019000 1.978000 1.974000 1.977000 1.979000 1.979000 1.989000 1.992000 1.997000 2.000000 2.008000 2.010000 2.018000 2.018000 2.022000 2.028000 2.038000 2.043000 2.046000 2.052000 2.055000 2.058000 2.064000 2.068000 0.000000 0.000000 0.000000 0.000000 0.000000 0.000000 0.000000 0.000000 
0.000000 0.000000 0.000000 0.000000 0.000000 0.000000 0.000000 2.047000 2.022000 1.980000 1.974000 1.978000 1.979000 1.982000 1.989000 1.992000 1.997000 2.001000 2.010000 2.010000 2.013000 2.020000 2.021000 2.030000 2.035000 2.043000 2.045000 2.051000 2.055000 2.059000 2.064000 1.095000 0.000000 0.000000 0.000000 0.000000 0.000000 0.000000 0.000000 0.000000 
0.000000 0.000000 0.000000 0.000000 0.000000 0.000000 0.000000 2.049000 2.024000 1.978000 1.977000 1.979000 1.982000 1.986000 1.989000 1.993000 2.000000 2.003000 2.008000 2.012000 2.016000 2.020000 2.021000 2.030000 2.032000 2.043000 2.045000 2.052000 2.056000 2.063000 2.066000 1.890000 0.000000 0.000000 0.000000 0.000000 0.000000 0.000000 0.000000 0.000000 
0.000000 0.000000 0.000000 0.000000 0.000000 0.000000 0.000000 1.985000 2.017000 1.983000 1.977000 1.978000 1.979000 1.989000 1.990000 1.997000 2.000000 2.003000 2.009000 2.014000 2.018000 2.021000 2.024000 2.032000 2.035000 2.043000 2.046000 2.052000 2.059000 2.066000 2.069000 2.091000 0.000000 0.000000 0.000000 0.000000 0.000000 0.000000 0.000000 0.000000 
0.000000 0.000000 0.000000 0.000000 0.000000 0.000000 0.000000 1.664000 1.922000 1.985000 1.977000 1.978000 1.983000 1.987000 1.992000 1.995000 2.000000 2.008000 2.010000 2.013000 2.020000 2.024000 2.028000 2.034000 2.039000 2.043000 2.047000 1.756000 1.581000 1.585000 1.520000 1.054000 0.000000 0.000000 0.000000 0.000000 0.000000 0.000000 0.000000 0.000000 
0.000000 0.000000 0.000000 0.000000 0.000000 0.000000 0.000000 2.335000 1.536000 1.982000 1.977000 1.982000 1.984000 1.989000 1.993000 1.999000 2.003000 2.009000 2.010000 2.014000 2.014000 2.025000 1.895000 1.732000 1.732000 1.089000 1.054000 1.054000 1.054000 1.054000 1.054000 1.054000 0.000000 0.000000 0.000000 0.000000 0.000000 0.000000 0.000000 0.000000 
0.000000 0.000000 0.000000 0.000000 0.000000 0.000000 0.000000 2.327000 1.054000 1.982000 1.979000 1.982000 1.984000 1.989000 1.992000 1.999000 2.005000 2.014000 1.876000 1.997000 1.267000 1.054000 1.054000 1.054000 1.054000 1.054000 1.054000 1.054000 1.054000 1.054000 1.054000 1.054000 0.000000 0.000000 0.000000 0.000000 0.000000 0.000000 0.000000 0.000000 
0.000000 0.000000 0.000000 0.000000 0.000000 0.000000 0.000000 0.000000 0.000000 0.000000 0.000000 0.000000 0.000000 0.000000 0.000000 0.000000 0.000000 0.000000 0.000000 0.000000 0.000000 0.000000 0.000000 0.000000 0.000000 0.000000 0.000000 0.000000 0.000000 0.000000 0.000000 0.000000 0.000000 0.000000 0.000000 0.000000 0.000000 0.000000 0.000000 0.000000 
0.000000 0.000000 0.000000 0.000000 0.000000 0.000000 0.000000 0.000000 0.000000 0.000000 0.000000 0.000000 0.000000 0.000000 0.000000 0.000000 0.000000 0.000000 0.000000 0.000000 0.000000 0.000000 0.000000 0.000000 0.000000 0.000000 0.000000 0.000000 0.000000 0.000000 0.000000 0.000000 0.000000 0.000000 0.000000 0.000000 0.000000 0.000000 0.000000 0.000000 
