40 40
0.000000 0.000000 0.000000 0.000000 0.000000 0.000000 0.000000 0.000000 2.130000 2.110000 2.093000 2.087000 2.074000 2.074000 2.063000 2.055000 2.055000 2.039000 2.036000 2.037000 2.019000 2.019000 2.018000 2.012000 1.993000 1.983000 1.983000 1.983000 1.982000 1.982000 1.946000 1.097000 0.000000 0.000000 0.000000 0.000000 0.000000 0.000000 0.000000 0.000000 
0.000000 0.000000 0.000000 0.000000 0.000000 0.000000 0.000000 0.000000 2.128000 2.110000 2.091000 2.073000 2.072000 2.073000 2.065000 2.056000 2.055000 2.039000 2.036000 2.055000 2.036000 2.033000 2.017000 2.016000 2.008000 1.990000 1.983000 1.981000 1.968000 1.865000 1.126000 1.096000 0.000000 0.000000 0.000000 0.000000 0.000000 0.000000 0.000000 0.000000 
0.000000 0.000000 0.000000 0.000000 0.000000 0.000000 0.000000 0.000000 2.112000 2.111000 2.100000 2.065000 2.055000 2.062000 2.070000 2.060000 2.055000 2.039000 2.036000 2.055000 2.036000 2.032000 2.010000 2.000000 1.993000 1.983000 1.983000 1.970000 1.965000 1.200000 1.090000 1.090000 0.000000 0.000000 0.000000 0.000000 0.000000 0.000000 0.000000 0.000000 
0.000000 0.000000 0.000000 0.000000 0.000000 0.000000 0.000000 0.000000 2.112000 2.110000 2.085000 2.053000 2.049000 2.049000 2.052000 2.055000 2.055000 2.044000 2.042000 2.049000 2.036000 2.030000 2.000000 2.000000 1.993000 1.983000 1.980000 1.969000 1.965000 1.200000 1.090000 1.090000 0.000000 0.000000 0.000000 0.000000 0.000000 0.000000 0.000000 0.000000 
0.000000 0.000000 0.000000 0.000000 0.000000 0.000000 0.000000 0.000000 2.112000 2.110000 2.085000 2.049000 2.036000 2.036000 2.047000 2.055000 2.055000 2.055000 2.055000 2.036000 2.036000 2.030000 2.000000 1.998000 1.989000 1.983000 1.972000 1.965000 1.695000 1.157000 1.093000 1.090000 0.000000 0.000000 0.000000 0.000000 0.000000 0.000000 0.000000 0.000000 
0.000000 0.000000 0.000000 0.000000 0.000000 0.000000 0.000000 0.000000 2.112000 2.110000 2.087000 2.058000 2.042000 2.036000 2.042000 2.046000 2.046000 2.053000 2.055000 2.036000 2.036000 2.030000 2.000000 1.994000 1.983000 1.983000 1.977000 1.968000 1.277000 1.090000 1.097000 1.090000 0.000000 0.000000 0.000000 0.000000 0.000000 0.000000 0.000000 0.000000 
0.000000 0.000000 0.000000 0.000000 0.000000 0.000000 0.000000 0.000000 2.112000 2.099000 2.080000 2.068000 2.048000 2.036000 2.036000 2.036000 2.036000 2.043000 2.044000 2.036000 2.034000 2.013000 2.000000 1.997000 1.988000 1.983000 1.983000 1.978000 1.279000 1.090000 1.097000 1.090000 0.000000 0.000000 0.000000 0.000000 0.000000 0.000000 0.000000 0.000000 
0.000000 0.000000 0.000000 0.000000 0.000000 0.000000 0.000000 0.000000 2.099000 2.091000 2.074000 2.072000 2.060000 2.048000 2.041000 2.028000 2.024000 2.024000 2.035000 2.036000 2.011000 2.000000 2.000000 2.000000 1.997000 1.994000 1.987000 1.983000 1.740000 1.172000 1.097000 1.095000 0.000000 0.000000 0.000000 0.000000 0.000000 0.000000 0.000000 0.000000 
0.000000 0.000000 0.000000 0.000000 0.000000 0.000000 0.000000 0.000000 2.079000 2.078000 2.074000 2.074000 2.067000 2.055000 2.044000 2.024000 2.018000 2.018000 2.034000 2.023000 1.987000 1.987000 1.991000 2.000000 2.000000 2.000000 1.997000 1.987000 1.973000 1.214000 1.103000 1.097000 0.000000 0.000000 0.000000 0.000000 0.000000 0.000000 0.000000 0.000000 
0.000000 0.000000 0.000000 0.000000 0.000000 0.000000 0.000000 0.000000 2.074000 2.074000 2.074000 2.074000 2.067000 2.055000 2.044000 2.034000 2.022000 2.018000 2.034000 2.018000 1.983000 1.983000 1.987000 2.000000 1.994000 1.986000 1.986000 1.984000 1.969000 1.224000 1.105000 1.097000 0.000000 0.000000 0.000000 0.000000 0.000000 0.000000 0.000000 0.000000 
0.000000 0.000000 0.000000 0.000000 0.000000 0.000000 0.000000 0.000000 2.091000 2.074000 2.074000 2.069000 2.056000 2.055000 2.054000 2.042000 2.035000 2.034000 2.021000 2.018000 1.999000 1.999000 1.999000 2.000000 1.993000 1.983000 1.983000 1.983000 1.969000 1.232000 1.118000 1.111000 0.000000 0.000000 0.000000 0.000000 0.000000 0.000000 0.000000 0.000000 
0.000000 0.000000 0.000000 0.000000 0.000000 0.000000 0.000000 0.000000 2.092000 2.074000 2.070000 2.055000 2.055000 2.055000 2.055000 2.043000 2.036000 2.036000 2.020000 2.018000 1.998000 1.983000 1.983000 1.983000 1.983000 1.983000 1.983000 1.983000 1.969000 1.234000 1.119000 1.119000 0.000000 0.000000 0.000000 0.000000 0.000000 0.000000 0.000000 0.000000 
0.000000 0.000000 0.000000 0.000000 0.000000 0.000000 0.000000 0.000000 2.092000 2.070000 2.055000 2.055000 2.055000 2.055000 2.055000 2.043000 2.036000 2.036000 2.020000 2.018000 2.000000 1.985000 1.985000 1.984000 1.983000 1.983000 1.983000 1.983000 1.969000 1.965000 1.225000 1.119000 0.000000 0.000000 0.000000 0.000000 0.000000 0.000000 0.000000 0.000000 
0.000000 0.000000 0.000000 0.000000 0.000000 0.000000 0.000000 0.000000 2.091000 2.055000 2.055000 2.055000 2.055000 2.055000 2.055000 2.043000 2.036000 2.036000 2.020000 2.015000 2.013000 2.000000 1.999000 1.992000 1.983000 1.983000 1.983000 1.983000 1.971000 1.968000 1.965000 1.122000 0.000000 0.000000 0.000000 0.000000 0.000000 0.000000 0.000000 0.000000 
0.000000 0.000000 0.000000 0.000000 0.000000 0.000000 0.000000 0.000000 2.087000 2.055000 2.055000 2.055000 2.055000 2.055000 2.055000 2.043000 2.036000 2.036000 2.020000 2.000000 2.000000 2.000000 1.996000 1.983000 1.983000 1.983000 1.983000 1.986000 1.984000 1.983000 1.966000 1.132000 0.000000 0.000000 0.000000 0.000000 0.000000 0.000000 0.000000 0.000000 
0.000000 0.000000 0.000000 0.000000 0.000000 0.000000 0.000000 0.000000 2.073000 2.055000 2.055000 2.053000 2.048000 2.048000 2.048000 2.040000 2.036000 2.036000 2.020000 2.000000 2.000000 2.000000 1.996000 1.983000 1.983000 1.983000 1.987000 1.997000 1.987000 1.983000 1.972000 1.127000 0.000000 0.000000 0.000000 0.000000 0.000000 0.000000 0.000000 0.000000 
0.000000 0.000000 0.000000 0.000000 0.000000 0.000000 0.000000 0.000000 2.073000 2.055000 2.055000 2.049000 2.033000 2.028000 2.028000 2.028000 2.028000 2.028000 2.019000 2.000000 2.000000 2.000000 1.996000 1.983000 1.983000 1.983000 1.989000 1.998000 1.992000 1.990000 1.990000 1.130000 0.000000 0.000000 0.000000 0.000000 0.000000 0.000000 0.000000 0.000000 
0.000000 0.000000 0.000000 0.000000 0.000000 0.000000 0.000000 0.000000 2.073000 2.054000 2.045000 2.039000 2.023000 2.018000 2.018000 2.018000 2.011000 2.009000 2.009000 2.000000 2.009000 2.008000 1.998000 1.992000 1.988000 1.983000 1.983000 1.989000 1.998000 2.000000 2.000000 1.589000 0.000000 0.000000 0.000000 0.000000 0.000000 0.000000 0.000000 0.000000 
0.000000 0.000000 0.000000 0.000000 0.000000 0.000000 0.000000 0.000000 2.050000 2.042000 2.036000 2.031000 2.018000 2.018000 2.024000 2.029000 2.008000 2.000000 2.000000 2.000000 2.007000 2.006000 2.000000 2.000000 1.993000 1.983000 1.983000 1.983000 1.988000 1.999000 2.000000 2.011000 0.000000 0.000000 0.000000 0.000000 0.000000 0.000000 0.000000 0.000000 
0.000000 0.000000 0.000000 0.000000 0.000000 0.000000 0.000000 0.000000 2.036000 2.036000 2.036000 2.031000 2.018000 2.024000 2.034000 2.036000 2.019000 2.013000 2.001000 2.000000 2.000000 2.000000 2.000000 2.000000 1.993000 1.983000 1.983000 1.983000 1.983000 1.987000 2.000000 2.018000 0.000000 0.000000 0.000000 0.000000 0.000000 0.000000 0.000000 0.000000 
0.000000 0.000000 0.000000 0.000000 0.000000 0.000000 0.000000 0.000000 2.036000 2.036000 2.036000 2.031000 2.018000 2.027000 2.036000 2.036000 2.023000 2.018000 2.002000 2.000000 2.000000 2.000000 2.000000 2.000000 1.998000 1.989000 1.983000 1.983000 1.983000 1.983000 1.986000 1.990000 0.000000 0.000000 0.000000 0.000000 0.000000 0.000000 0.000000 0.000000 
0.000000 0.000000 0.000000 0.000000 0.000000 0.000000 0.000000 0.000000 2.036000 2.036000 2.036000 2.031000 2.018000 2.019000 2.020000 2.031000 2.023000 2.018000 2.002000 2.000000 2.000000 2.000000 2.000000 2.000000 2.000000 1.991000 1.983000 1.983000 1.983000 1.983000 1.983000 1.983000 0.000000 0.000000 0.000000 0.000000 0.000000 0.000000 0.000000 0.000000 
0.000000 0.000000 0.000000 0.000000 0.000000 0.000000 0.000000 0.000000 2.036000 2.036000 2.036000 2.036000 2.035000 2.027000 2.018000 2.030000 2.035000 2.021000 2.002000 2.000000 2.000000 2.000000 2.000000 1.994000 1.984000 1.983000 1.983000 1.983000 1.983000 1.968000 1.966000 1.966000 0.000000 0.000000 0.000000 0.000000 0.000000 0.000000 0.000000 0.000000 
0.000000 0.000000 0.000000 0.000000 0.000000 0.000000 0.000000 0.000000 2.054000 2.037000 2.037000 2.036000 2.036000 2.036000 2.036000 2.036000 2.036000 2.021000 2.002000 2.000000 2.002000 2.015000 2.000000 1.994000 1.983000 1.983000 1.983000 1.983000 1.983000 1.968000 1.965000 1.965000 0.000000 0.000000 0.000000 0.000000 0.000000 0.000000 0.000000 0.000000 
0.000000 0.000000 0.000000 0.000000 0.000000 0.000000 0.000000 0.000000 2.055000 2.055000 2.051000 2.036000 2.036000 2.036000 2.036000 2.036000 2.034000 2.019000 2.001000 2.000000 2.002000 2.015000 2.000000 1.995000 1.984000 1.983000 1.983000 1.983000 1.983000 1.983000 1.968000 1.967000 0.000000 0.000000 0.000000 0.000000 0.000000 0.000000 0.000000 0.000000 
0.000000 0.000000 0.000000 0.000000 0.000000 0.000000 0.000000 0.000000 2.051000 2.051000 2.048000 2.036000 2.036000 2.036000 2.034000 2.032000 2.019000 2.002000 2.000000 2.000000 2.001000 2.012000 2.000000 2.000000 1.993000 1.983000 1.983000 1.983000 1.983000 1.983000 1.983000 1.987000 0.000000 0.000000 0.000000 0.000000 0.000000 0.000000 0.000000 0.000000 
0.000000 0.000000 0.000000 0.000000 0.000000 0.000000 0.000000 0.000000 2.036000 2.036000 2.036000 2.036000 2.036000 2.036000 2.026000 2.018000 2.005000 2.000000 2.000000 2.000000 2.000000 2.000000 2.000000 2.000000 1.993000 1.983000 1.983000 1.983000 1.983000 1.983000 1.988000 2.000000 0.000000 0.000000 0.000000 0.000000 0.000000 0.000000 0.000000 0.000000 
0.000000 0.000000 0.000000 0.000000 0.000000 0.000000 0.000000 0.000000 2.036000 2.036000 2.038000 2.044000 2.041000 2.036000 2.026000 2.018000 2.010000 2.007000 2.007000 2.007000 2.007000 2.000000 2.000000 2.000000 1.996000 1.990000 1.986000 1.983000 1.983000 1.989000 2.000000 2.000000 0.000000 0.000000 0.000000 0.000000 0.000000 0.000000 0.000000 0.000000 
0.000000 0.000000 0.000000 0.000000 0.000000 0.000000 0.000000 0.000000 2.036000 2.036000 2.038000 2.046000 2.042000 2.036000 2.026000 2.018000 2.018000 2.018000 2.018000 2.018000 2.017000 2.007000 2.000000 2.000000 2.000000 2.000000 1.995000 1.991000 1.991000 1.999000 1.992000 1.992000 0.000000 0.000000 0.000000 0.000000 0.000000 0.000000 0.000000 0.000000 
0.000000 0.000000 0.000000 0.000000 0.000000 0.000000 0.000000 0.000000 2.046000 2.036000 2.036000 2.036000 2.036000 2.036000 2.032000 2.028000 2.021000 2.018000 2.018000 2.018000 2.017000 2.006000 1.997000 1.990000 1.995000 2.000000 2.000000 2.000000 2.000000 2.000000 1.984000 1.983000 0.000000 0.000000 0.000000 0.000000 0.000000 0.000000 0.000000 0.000000 
0.000000 0.000000 0.000000 0.000000 0.000000 0.000000 0.000000 0.000000 2.054000 2.036000 2.036000 2.036000 2.036000 2.036000 2.036000 2.036000 2.031000 2.030000 2.019000 2.018000 2.016000 2.000000 1.996000 1.983000 1.990000 2.000000 2.000000 2.000000 2.000000 2.000000 1.984000 1.983000 0.000000 0.000000 0.000000 0.000000 0.000000 0.000000 0.000000 0.000000 
0.000000 0.000000 0.000000 0.000000 0.000000 0.000000 0.000000 0.000000 2.054000 2.036000 2.036000 2.036000 2.031000 2.023000 2.030000 2.036000 2.036000 2.036000 2.020000 2.018000 2.004000 1.998000 1.986000 1.983000 1.985000 1.987000 1.987000 1.987000 1.997000 2.000000 1.984000 1.983000 0.000000 0.000000 0.000000 0.000000 0.000000 0.000000 0.000000 0.000000 
0.000000 0.000000 0.000000 0.000000 0.000000 0.000000 0.000000 0.000000 2.054000 2.036000 2.036000 2.036000 2.029000 2.018000 2.020000 2.031000 2.036000 2.024000 2.018000 2.018000 2.000000 1.997000 1.983000 1.983000 1.983000 1.983000 1.983000 1.983000 1.996000 2.000000 1.984000 1.983000 0.000000 0.000000 0.000000 0.000000 0.000000 0.000000 0.000000 0.000000 
0.000000 0.000000 0.000000 0.000000 0.000000 0.000000 0.000000 0.000000 2.037000 2.034000 2.019000 2.019000 2.025000 2.027000 2.018000 2.019000 2.019000 2.018000 2.018000 2.018000 2.017000 2.013000 1.995000 1.983000 1.983000 1.983000 1.983000 1.983000 1.354000 1.183000 1.188000 1.189000 0.000000 0.000000 0.000000 0.000000 0.000000 0.000000 0.000000 0.000000 
0.000000 0.000000 0.000000 0.000000 0.000000 0.000000 0.000000 0.000000 2.036000 2.034000 2.018000 2.018000 2.025000 2.036000 2.036000 2.024000 2.018000 2.018000 2.018000 2.018000 2.018000 2.015000 2.000000 2.000000 1.990000 1.523000 1.112000 1.112000 1.112000 1.112000 1.119000 1.119000 0.000000 0.000000 0.000000 0.000000 0.000000 0.000000 0.000000 0.000000 
0.000000 0.000000 0.000000 0.000000 0.000000 0.000000 0.000000 0.000000 2.036000 2.034000 2.020000 2.020000 2.019000 2.018000 2.028000 2.025000 2.018000 2.018000 2.016000 2.016000 2.000000 1.987000 1.925000 1.913000 1.559000 1.104000 1.104000 1.105000 1.104000 1.104000 1.111000 1.118000 0.000000 0.000000 0.000000 0.000000 0.000000 0.000000 0.000000 0.000000 
0.000000 0.000000 0.000000 0.000000 0.000000 0.000000 0.000000 0.000000 2.036000 2.036000 2.036000 2.036000 2.030000 2.021000 2.028000 2.033000 2.019000 2.015000 1.843000 1.827000 1.985000 1.695000 1.067000 1.074000 1.086000 1.091000 1.094000 1.100000 1.098000 1.097000 1.105000 1.112000 0.000000 0.000000 0.000000 0.000000 0.000000 0.000000 0.000000 0.000000 
0.000000 0.000000 0.000000 0.000000 0.000000 0.000000 0.000000 0.000000 2.041000 2.036000 2.036000 2.036000 2.034000 2.031000 2.018000 2.009000 1.999000 1.782000 1.096000 1.038000 1.676000 1.049000 1.054000 1.059000 1.064000 1.075000 1.080000 1.086000 1.092000 1.095000 1.103000 1.108000 0.000000 0.000000 0.000000 0.000000 0.000000 0.000000 0.000000 0.000000 
0.000000 0.000000 0.000000 0.000000 0.000000 0.000000 0.000000 0.000000 2.048000 2.036000 2.036000 2.034000 2.023000 1.842000 1.643000 1.633000 1.636000 1.126000 1.020000 1.020000 1.020000 1.028000 1.039000 1.045000 1.051000 1.062000 1.072000 1.079000 1.082000 1.087000 1.094000 1.095000 0.000000 0.000000 0.000000 0.000000 0.000000 0.000000 0.000000 0.000000 
0.000000 0.000000 0.000000 0.000000 0.000000 0.000000 0.000000 0.000000 2.036000 2.035000 2.028000 2.025000 1.837000 1.290000 0.000000 0.000000 1.004000 1.012000 1.016000 1.016000 1.016000 1.021000 1.028000 1.036000 1.045000 1.053000 1.063000 1.067000 1.075000 1.077000 1.084000 1.087000 0.000000 0.000000 0.000000 0.000000 0.000000 0.000000 0.000000 0.000000 
