0.000000,0.000000,0.000000,0.000000,0.000000,0.000000,0.000000,2.053000,2.042000,2.033000,2.032000,2.037000,2.034000,2.029000,2.023000,2.019000,2.020000,2.015000,2.010000,2.009000,2.005000,2.000000,1.998000,1.993000,1.988000,1.988000,1.984000,1.988000,2.019000,2.031000,2.037000,2.070000,1.833000,0.000000,0.000000,0.000000,0.000000,0.000000,0.000000,0.000000,
0.000000,0.000000,0.000000,0.000000,0.000000,0.000000,0.000000,2.051000,2.042000,2.032000,2.032000,2.035000,2.030000,2.024000,2.023000,2.018000,2.014000,2.012000,2.006000,2.000000,2.000000,2.000000,1.996000,1.985000,1.983000,1.983000,1.979000,1.986000,2.002000,2.025000,2.036000,2.056000,1.757000,0.000000,0.000000,0.000000,0.000000,0.000000,0.000000,0.000000,
0.000000,0.000000,0.000000,0.000000,0.000000,0.000000,0.000000,2.053000,2.045000,2.040000,2.032000,2.035000,2.032000,2.028000,2.023000,2.018000,2.014000,2.012000,2.009000,2.000000,2.000000,2.000000,1.996000,1.987000,1.984000,1.983000,1.980000,1.986000,2.004000,2.021000,2.039000,2.056000,1.753000,0.000000,0.000000,0.000000,0.000000,0.000000,0.000000,0.000000,
0.000000,0.000000,0.000000,0.000000,0.000000,0.000000,0.000000,2.047000,2.040000,2.037000,2.032000,2.035000,2.032000,2.024000,2.023000,2.020000,2.015000,2.013000,2.010000,2.005000,2.000000,2.000000,1.998000,1.992000,1.987000,1.983000,1.983000,1.986000,2.004000,2.021000,2.036000,2.056000,2.060000,0.000000,0.000000,0.000000,0.000000,0.000000,0.000000,0.000000,
0.000000,0.000000,0.000000,0.000000,0.000000,0.000000,0.000000,2.046000,2.041000,2.037000,2.032000,2.037000,2.032000,2.024000,2.023000,2.018000,2.017000,2.014000,2.011000,2.009000,2.005000,2.000000,1.994000,1.992000,1.987000,1.983000,1.983000,1.986000,2.007000,2.021000,2.040000,2.056000,2.065000,0.000000,0.000000,0.000000,0.000000,0.000000,0.000000,0.000000,
0.000000,0.000000,0.000000,0.000000,0.000000,0.000000,0.000000,2.050000,2.042000,2.032000,2.032000,2.037000,2.034000,2.029000,2.027000,2.018000,2.014000,2.012000,2.010000,2.009000,2.000000,1.999000,1.994000,1.992000,1.984000,1.983000,1.983000,1.987000,2.003000,2.017000,2.040000,2.056000,2.065000,0.000000,0.000000,0.000000,0.000000,0.000000,0.000000,0.000000,
0.000000,0.000000,0.000000,0.000000,0.000000,0.000000,0.000000,2.046000,2.046000,2.037000,2.032000,2.037000,2.032000,2.029000,2.023000,2.023000,2.014000,2.012000,2.007000,2.008000,2.005000,1.999000,1.996000,1.992000,1.988000,1.983000,1.983000,1.989000,2.001000,2.015000,2.040000,2.056000,2.069000,0.000000,0.000000,0.000000,0.000000,0.000000,0.000000,0.000000,
0.000000,0.000000,0.000000,0.000000,0.000000,0.000000,0.000000,2.005000,2.042000,2.037000,2.032000,2.037000,2.032000,2.029000,2.028000,2.023000,2.017000,2.012000,2.007000,2.008000,2.005000,1.999000,1.996000,1.994000,1.987000,1.983000,1.983000,1.986000,2.001000,2.017000,2.044000,2.056000,1.765000,0.000000,0.000000,0.000000,0.000000,0.000000,0.000000,0.000000,
0.000000,0.000000,0.000000,0.000000,0.000000,0.000000,0.000000,1.528000,2.043000,2.037000,2.032000,2.033000,2.032000,2.028000,2.028000,2.023000,2.017000,2.012000,2.006000,2.008000,2.005000,1.999000,1.996000,1.992000,1.987000,1.983000,1.983000,1.984000,2.002000,2.020000,2.039000,2.055000,2.069000,0.000000,0.000000,0.000000,0.000000,0.000000,0.000000,0.000000,
0.000000,0.000000,0.000000,0.000000,0.000000,0.000000,0.000000,1.772000,2.046000,2.037000,2.034000,2.035000,2.032000,2.028000,2.024000,2.018000,2.018000,2.012000,2.005000,2.009000,2.005000,1.999000,1.996000,1.994000,1.988000,1.983000,1.979000,1.988000,2.003000,2.021000,2.036000,2.052000,2.061000,0.000000,0.000000,0.000000,0.000000,0.000000,0.000000,0.000000,
0.000000,0.000000,0.000000,0.000000,0.000000,0.000000,0.000000,2.055000,2.047000,2.041000,2.037000,2.036000,2.032000,2.029000,2.018000,2.018000,2.017000,2.012000,2.005000,2.009000,2.005000,1.999000,1.996000,1.994000,1.991000,1.983000,1.982000,1.984000,2.003000,2.020000,2.043000,2.051000,1.871000,0.000000,0.000000,0.000000,0.000000,0.000000,0.000000,0.000000,
0.000000,0.000000,0.000000,0.000000,0.000000,0.000000,0.000000,2.051000,2.047000,2.041000,2.032000,2.035000,2.032000,2.024000,2.018000,2.018000,2.017000,2.014000,2.008000,2.005000,2.005000,1.999000,1.996000,1.992000,1.989000,1.987000,1.983000,1.984000,2.001000,2.024000,2.040000,2.051000,1.761000,0.000000,0.000000,0.000000,0.000000,0.000000,0.000000,0.000000,
0.000000,0.000000,0.000000,0.000000,0.000000,0.000000,0.000000,2.051000,2.047000,2.041000,2.037000,2.037000,2.037000,2.025000,2.023000,2.018000,2.017000,2.014000,2.009000,2.001000,2.000000,1.999000,1.996000,1.992000,1.988000,1.983000,1.983000,1.987000,2.000000,2.015000,2.036000,2.051000,1.750000,0.000000,0.000000,0.000000,0.000000,0.000000,0.000000,0.000000,
0.000000,0.000000,0.000000,0.000000,0.000000,0.000000,0.000000,2.050000,2.046000,2.037000,2.036000,2.035000,2.032000,2.029000,2.023000,2.018000,2.017000,2.012000,2.006000,2.005000,2.001000,1.999000,1.996000,1.993000,1.984000,1.983000,1.983000,1.990000,1.999000,2.014000,2.035000,2.051000,1.754000,0.000000,0.000000,0.000000,0.000000,0.000000,0.000000,0.000000,
0.000000,0.000000,0.000000,0.000000,0.000000,0.000000,0.000000,2.046000,2.046000,2.037000,2.032000,2.032000,2.032000,2.029000,2.020000,2.018000,2.017000,2.012000,2.006000,2.005000,2.000000,2.000000,1.996000,1.991000,1.984000,1.983000,1.981000,1.984000,1.995000,2.016000,2.036000,2.054000,1.381000,0.000000,0.000000,0.000000,0.000000,0.000000,0.000000,0.000000,
0.000000,0.000000,0.000000,0.000000,0.000000,0.000000,0.000000,2.041000,2.045000,2.039000,2.032000,2.037000,2.032000,2.029000,2.028000,2.021000,2.018000,2.014000,2.006000,2.005000,2.000000,1.996000,1.996000,1.991000,1.984000,1.983000,1.979000,1.983000,1.995000,2.016000,2.031000,2.054000,0.000000,0.000000,0.000000,0.000000,0.000000,0.000000,0.000000,0.000000,
0.000000,0.000000,0.000000,0.000000,0.000000,0.000000,0.000000,1.655000,2.046000,2.041000,2.033000,2.037000,2.032000,2.031000,2.028000,2.023000,2.018000,2.014000,2.013000,2.009000,2.000000,1.996000,1.996000,1.992000,1.986000,1.983000,1.979000,1.983000,1.996000,2.022000,2.031000,2.056000,0.000000,0.000000,0.000000,0.000000,0.000000,0.000000,0.000000,0.000000,
0.000000,0.000000,0.000000,0.000000,0.000000,0.000000,0.000000,1.531000,2.047000,2.046000,2.032000,2.037000,2.034000,2.032000,2.024000,2.023000,2.018000,2.014000,2.014000,2.014000,2.005000,1.996000,1.992000,1.992000,1.987000,1.983000,1.983000,1.984000,1.994000,2.022000,2.036000,2.056000,0.000000,0.000000,0.000000,0.000000,0.000000,0.000000,0.000000,0.000000,
0.000000,0.000000,0.000000,0.000000,0.000000,0.000000,0.000000,1.531000,2.048000,2.046000,2.032000,2.037000,2.032000,2.029000,2.023000,2.023000,2.018000,2.014000,2.014000,2.006000,2.000000,1.999000,1.994000,1.992000,1.984000,1.983000,1.983000,1.984000,1.997000,2.024000,2.035000,2.056000,0.000000,0.000000,0.000000,0.000000,0.000000,0.000000,0.000000,0.000000,
0.000000,0.000000,0.000000,0.000000,0.000000,0.000000,0.000000,2.053000,2.051000,2.046000,2.034000,2.037000,2.032000,2.024000,2.024000,2.018000,2.018000,2.015000,2.011000,2.003000,2.000000,1.999000,1.996000,1.989000,1.985000,1.983000,1.983000,1.984000,2.001000,2.017000,2.031000,2.056000,1.750000,0.000000,0.000000,0.000000,0.000000,0.000000,0.000000,0.000000,
0.000000,0.000000,0.000000,0.000000,0.000000,0.000000,0.000000,2.050000,2.050000,2.046000,2.037000,2.038000,2.032000,2.026000,2.023000,2.018000,2.017000,2.014000,2.011000,2.006000,2.002000,2.000000,1.995000,1.991000,1.989000,1.983000,1.979000,1.983000,2.002000,2.020000,2.039000,2.051000,1.899000,0.000000,0.000000,0.000000,0.000000,0.000000,0.000000,0.000000,
0.000000,0.000000,0.000000,0.000000,0.000000,0.000000,0.000000,2.050000,2.047000,2.041000,2.040000,2.037000,2.034000,2.029000,2.024000,2.018000,2.018000,2.014000,2.011000,2.009000,2.002000,1.999000,1.996000,1.992000,1.992000,1.987000,1.983000,1.983000,2.002000,2.019000,2.038000,2.052000,2.070000,0.000000,0.000000,0.000000,0.000000,0.000000,0.000000,0.000000,
0.000000,0.000000,0.000000,0.000000,0.000000,0.000000,0.000000,1.982000,2.050000,2.045000,2.041000,2.037000,2.034000,2.028000,2.028000,2.018000,2.018000,2.016000,2.009000,2.009000,2.000000,2.000000,1.996000,1.992000,1.992000,1.987000,1.983000,1.983000,2.002000,2.017000,2.036000,2.056000,2.068000,0.000000,0.000000,0.000000,0.000000,0.000000,0.000000,0.000000,
0.000000,0.000000,0.000000,0.000000,0.000000,0.000000,0.000000,2.051000,2.051000,2.046000,2.041000,2.040000,2.037000,2.029000,2.028000,2.028000,2.018000,2.016000,2.014000,2.010000,2.005000,2.000000,1.996000,1.994000,1.992000,1.987000,1.979000,1.988000,2.007000,2.018000,2.036000,2.051000,2.051000,0.000000,0.000000,0.000000,0.000000,0.000000,0.000000,0.000000,
0.000000,0.000000,0.000000,0.000000,0.000000,0.000000,0.000000,2.030000,2.045000,2.046000,2.042000,2.037000,2.032000,2.032000,2.028000,2.023000,2.021000,2.017000,2.014000,2.014000,2.005000,2.000000,1.996000,1.995000,1.993000,1.987000,1.983000,1.986000,2.009000,2.017000,2.036000,2.052000,2.068000,0.000000,0.000000,0.000000,0.000000,0.000000,0.000000,0.000000,
0.000000,0.000000,0.000000,0.000000,0.000000,0.000000,0.000000,2.027000,2.049000,2.046000,2.046000,2.037000,2.034000,2.033000,2.030000,2.028000,2.020000,2.016000,2.014000,2.014000,2.005000,2.000000,1.996000,1.994000,1.992000,1.987000,1.983000,1.986000,2.002000,2.017000,2.036000,2.052000,2.076000,0.000000,0.000000,0.000000,0.000000,0.000000,0.000000,0.000000,
0.000000,0.000000,0.000000,0.000000,0.000000,0.000000,0.000000,1.529000,2.044000,2.046000,2.046000,2.041000,2.037000,2.033000,2.032000,2.028000,2.018000,2.014000,2.011000,2.013000,2.009000,2.004000,2.000000,1.998000,1.993000,1.987000,1.983000,1.989000,2.000000,2.020000,2.038000,2.052000,2.077000,0.000000,0.000000,0.000000,0.000000,0.000000,0.000000,0.000000,
0.000000,0.000000,0.000000,0.000000,0.000000,0.000000,0.000000,1.530000,2.045000,2.046000,2.046000,2.037000,2.037000,2.033000,2.032000,2.031000,2.018000,2.016000,2.014000,2.010000,2.014000,2.004000,2.000000,1.997000,1.996000,1.987000,1.983000,1.985000,2.004000,2.020000,2.039000,2.052000,2.070000,0.000000,0.000000,0.000000,0.000000,0.000000,0.000000,0.000000,
0.000000,0.000000,0.000000,0.000000,0.000000,0.000000,0.000000,1.539000,2.047000,2.051000,2.041000,2.040000,2.037000,2.032000,2.028000,2.023000,2.022000,2.018000,2.011000,2.009000,2.009000,2.004000,2.000000,1.996000,1.996000,1.987000,1.987000,1.988000,2.007000,2.020000,2.040000,2.056000,2.065000,0.000000,0.000000,0.000000,0.000000,0.000000,0.000000,0.000000,
0.000000,0.000000,0.000000,0.000000,0.000000,0.000000,0.000000,1.537000,2.051000,2.041000,2.041000,2.040000,2.037000,2.033000,2.028000,2.023000,2.023000,2.021000,2.014000,2.014000,2.009000,2.004000,2.000000,1.996000,1.996000,1.992000,1.991000,1.989000,2.002000,2.018000,2.039000,2.056000,2.061000,0.000000,0.000000,0.000000,0.000000,0.000000,0.000000,0.000000,
0.000000,0.000000,0.000000,0.000000,0.000000,0.000000,0.000000,1.531000,2.046000,2.046000,2.044000,2.040000,2.037000,2.033000,2.028000,2.023000,2.023000,2.018000,2.014000,2.014000,2.009000,2.005000,2.000000,1.996000,1.996000,1.987000,1.987000,1.991000,2.000000,2.018000,2.032000,2.058000,2.059000,0.000000,0.000000,0.000000,0.000000,0.000000,0.000000,0.000000,
0.000000,0.000000,0.000000,0.000000,0.000000,0.000000,0.000000,2.052000,2.047000,2.041000,2.037000,2.037000,2.037000,2.033000,2.028000,2.023000,2.023000,2.018000,2.014000,2.014000,2.009000,2.005000,2.000000,1.998000,1.996000,1.987000,1.983000,1.989000,1.998000,2.017000,2.036000,2.056000,1.893000,0.000000,0.000000,0.000000,0.000000,0.000000,0.000000,0.000000,
0.000000,0.000000,0.000000,0.000000,0.000000,0.000000,0.000000,2.056000,2.051000,2.041000,2.037000,2.037000,2.037000,2.040000,2.036000,2.031000,2.026000,2.020000,2.014000,2.009000,2.009000,2.001000,2.000000,1.998000,1.996000,1.991000,1.986000,1.993000,1.998000,2.016000,2.036000,2.048000,1.750000,0.000000,0.000000,0.000000,0.000000,0.000000,0.000000,0.000000,
0.000000,0.000000,0.000000,0.000000,0.000000,0.000000,0.000000,0.000000,2.325000,2.046000,2.037000,2.932000,2.035000,2.036000,2.032000,2.032000,2.027000,2.018000,2.014000,2.014000,2.013000,2.005000,2.003000,2.000000,1.996000,1.992000,1.987000,1.993000,1.998000,2.013000,2.036000,2.046000,0.000000,0.000000,0.000000,0.000000,0.000000,0.000000,0.000000,0.000000,
0.000000,0.000000,0.000000,0.000000,0.000000,0.000000,0.000000,0.000000,0.000000,0.000000,0.000000,0.000000,0.000000,0.000000,1.782000,1.907000,1.909000,1.954000,2.014000,2.014000,2.014000,2.013000,2.005000,2.000000,1.996000,1.992000,1.987000,1.990000,1.994000,1.981000,1.034000,0.000000,0.000000,0.000000,0.000000,0.000000,0.000000,0.000000,0.000000,0.000000,
0.000000,0.000000,0.000000,0.000000,0.000000,0.000000,0.000000,0.000000,0.000000,0.000000,0.000000,0.000000,0.000000,0.000000,0.000000,0.000000,0.000000,0.000000,1.016000,2.127000,2.018000,2.018000,2.023000,2.031000,2.028000,1.993000,1.987000,1.988000,1.651000,1.640000,1.636000,0.000000,0.000000,0.000000,0.000000,0.000000,0.000000,0.000000,0.000000,0.000000,
0.000000,0.000000,0.000000,0.000000,0.000000,0.000000,0.000000,0.000000,0.000000,0.000000,1.984000,0.000000,0.000000,0.000000,0.000000,0.000000,0.000000,1.382000,2.120000,2.122000,2.069000,2.069000,2.116000,2.108000,2.106000,2.101000,2.101000,1.397000,0.000000,0.000000,0.000000,0.000000,0.000000,0.000000,0.000000,0.000000,0.000000,0.000000,0.000000,0.000000,
0.000000,0.000000,0.000000,0.000000,0.000000,0.000000,0.000000,2.717000,1.361000,0.000000,0.000000,0.000000,0.000000,0.000000,0.000000,0.000000,0.000000,2.108000,2.111000,2.111000,2.116000,1.694000,2.109000,2.108000,2.102000,2.095000,2.095000,2.091000,1.864000,0.000000,0.000000,0.000000,0.000000,0.000000,0.000000,0.000000,0.000000,0.000000,0.000000,0.000000,
0.000000,0.000000,0.000000,0.000000,0.000000,0.000000,0.000000,0.000000,0.000000,0.000000,0.000000,0.000000,0.000000,0.000000,1.743000,1.851000,1.123000,2.084000,2.076000,2.077000,2.082000,2.030000,2.076000,2.077000,2.077000,2.086000,2.077000,2.083000,2.092000,0.000000,0.000000,0.000000,0.000000,0.000000,0.000000,0.000000,0.000000,0.000000,0.000000,0.000000,
0.000000,0.000000,0.000000,0.000000,0.000000,0.000000,0.000000,0.000000,0.000000,0.000000,0.000000,0.000000,0.000000,2.056000,2.056000,2.055000,2.051000,2.058000,2.060000,2.061000,2.037000,2.035000,2.058000,2.056000,2.056000,2.061000,2.066000,2.078000,2.095000,0.000000,0.000000,0.000000,0.000000,0.000000,0.000000,0.000000,0.000000,0.000000,0.000000,0.000000,
