40 40
0.000000 0.000000 0.000000 0.000000 0.000000 0.000000 0.000000 0.000000 0.000000 0.000000 0.000000 0.000000 0.000000 0.000000 0.000000 0.000000 0.000000 0.000000 0.000000 0.000000 0.000000 0.000000 0.000000 0.000000 0.000000 0.000000 0.000000 0.000000 0.000000 0.000000 0.000000 0.000000 0.000000 0.000000 0.000000 0.000000 0.000000 0.000000 0.000000 0.000000 
0.000000 0.000000 0.000000 0.000000 0.000000 0.000000 0.000000 0.000000 0.000000 0.000000 0.000000 0.000000 0.000000 0.000000 0.000000 0.000000 0.000000 0.000000 0.000000 0.000000 0.000000 0.000000 0.000000 0.000000 0.000000 0.000000 0.000000 0.000000 0.000000 0.000000 0.000000 0.000000 0.000000 0.000000 0.000000 0.000000 0.000000 0.000000 0.000000 0.000000 
0.000000 0.000000 0.000000 0.000000 0.000000 0.000000 0.000000 0.000000 0.000000 0.000000 0.000000 0.000000 0.000000 0.000000 0.000000 0.000000 0.000000 0.000000 0.000000 0.000000 0.000000 0.000000 0.000000 0.000000 0.000000 0.000000 0.000000 0.000000 0.000000 0.000000 0.000000 0.000000 0.000000 0.000000 0.000000 0.000000 0.000000 0.000000 0.000000 0.000000 
0.000000 0.000000 0.000000 0.000000 0.000000 0.000000 0.000000 0.000000 0.000000 0.000000 0.000000 0.000000 0.000000 0.000000 0.000000 0.000000 0.000000 0.000000 0.000000 0.000000 0.000000 0.000000 0.000000 0.000000 0.000000 0.000000 0.000000 0.000000 0.000000 0.000000 0.000000 0.000000 0.000000 0.000000 0.000000 0.000000 0.000000 0.000000 0.000000 0.000000 
0.000000 0.000000 0.000000 0.000000 0.000000 0.000000 0.000000 0.000000 0.000000 0.000000 0.000000 0.000000 0.000000 0.000000 0.000000 0.000000 0.000000 0.000000 0.000000 0.000000 0.000000 0.000000 0.000000 0.000000 0.000000 0.000000 0.000000 0.000000 0.000000 0.000000 0.000000 0.000000 0.000000 0.000000 0.000000 0.000000 0.000000 0.000000 0.000000 0.000000 
0.000000 0.000000 0.000000 0.000000 0.000000 0.000000 0.000000 0.000000 0.000000 0.000000 0.000000 0.000000 0.000000 0.000000 0.000000 0.000000 0.000000 0.000000 0.000000 0.000000 0.000000 0.000000 0.000000 0.000000 0.000000 0.000000 0.000000 0.000000 0.000000 0.000000 0.000000 0.000000 0.000000 0.000000 0.000000 0.000000 0.000000 0.000000 0.000000 0.000000 
0.000000 0.000000 0.000000 0.000000 0.000000 0.000000 0.000000 0.000000 0.000000 0.000000 0.000000 0.000000 0.000000 0.000000 0.000000 0.000000 0.000000 0.000000 0.000000 0.000000 0.000000 0.000000 0.000000 0.000000 0.000000 0.000000 0.000000 0.000000 0.000000 0.000000 0.000000 0.000000 0.000000 0.000000 0.000000 0.000000 0.000000 0.000000 0.000000 0.000000 
0.000000 0.000000 0.000000 0.000000 0.000000 0.000000 0.000000 0.000000 0.000000 0.000000 0.000000 0.000000 0.000000 0.000000 0.000000 0.000000 0.000000 0.000000 0.000000 0.000000 0.000000 0.000000 0.000000 0.000000 0.000000 0.000000 0.000000 0.000000 0.000000 0.000000 0.000000 0.000000 0.000000 0.000000 0.000000 0.000000 0.000000 0.000000 0.000000 0.000000 
0.000000 0.000000 0.000000 0.000000 0.000000 0.000000 0.000000 0.000000 0.000000 0.000000 0.000000 0.000000 0.000000 0.000000 0.000000 0.000000 0.000000 0.000000 0.000000 0.000000 0.000000 0.000000 0.000000 0.000000 0.000000 0.000000 0.000000 0.000000 0.000000 0.000000 0.000000 0.000000 0.000000 0.000000 0.000000 0.000000 0.000000 0.000000 0.000000 0.000000 
2.116000 2.116000 2.116000 2.116000 2.291000 2.949000 2.949000 2.949000 2.949000 2.923000 2.883000 2.856000 2.884000 0.000000 0.000000 2.997000 2.997000 2.974000 2.949000 2.928000 2.856000 2.856000 2.856000 2.856000 2.856000 2.856000 2.883000 2.949000 2.949000 2.949000 2.949000 2.949000 2.880000 2.795000 2.767000 2.763000 2.725000 2.724000 2.724000 2.724000 
2.116000 2.116000 2.116000 2.116000 2.151000 2.282000 2.282000 2.243000 2.234000 2.229000 2.221000 2.439000 0.000000 0.000000 0.000000 0.000000 2.997000 2.992000 2.987000 2.812000 2.191000 2.171000 2.170000 2.125000 2.105000 2.105000 2.116000 2.145000 2.144000 2.125000 2.123000 2.596000 2.861000 2.844000 2.838000 2.824000 2.695000 2.690000 2.690000 2.690000 
2.121000 2.116000 2.116000 2.116000 2.116000 2.116000 2.116000 2.068000 2.057000 2.057000 2.057000 2.144000 2.366000 2.365000 2.349000 2.335000 2.331000 2.321000 2.325000 2.278000 2.026000 2.001000 2.000000 1.943000 1.918000 1.918000 1.926000 1.945000 1.944000 1.921000 0.000000 1.380000 2.247000 2.427000 2.740000 2.734000 2.684000 2.636000 2.627000 1.223000 
2.124000 2.116000 2.108000 2.100000 2.100000 2.099000 2.085000 2.062000 2.057000 2.057000 2.057000 2.049000 2.028000 2.028000 2.003000 2.000000 1.991000 1.979000 1.992000 2.028000 2.026000 2.001000 2.000000 1.943000 1.918000 1.918000 1.926000 1.945000 1.944000 1.921000 0.000000 1.418000 1.945000 2.070000 2.280000 2.257000 2.245000 2.213000 2.207000 1.224000 
2.133000 2.121000 2.102000 2.086000 2.086000 2.084000 2.059000 2.057000 2.057000 2.057000 2.057000 2.052000 2.038000 2.028000 2.013000 2.003000 1.983000 1.972000 1.992000 2.026000 2.015000 2.001000 1.991000 1.940000 1.918000 1.918000 1.926000 1.943000 1.934000 1.920000 1.918000 1.928000 1.940000 1.945000 1.933000 1.890000 1.877000 1.868000 1.866000 1.852000 
2.146000 2.128000 2.106000 2.094000 2.092000 2.084000 2.066000 2.058000 2.057000 2.057000 2.057000 2.057000 2.053000 2.028000 2.028000 2.007000 1.987000 1.980000 1.997000 2.022000 2.000000 2.000000 1.977000 1.940000 1.925000 1.925000 1.931000 1.941000 1.918000 1.918000 1.918000 1.918000 1.931000 1.945000 1.934000 1.898000 1.892000 1.876000 1.873000 1.859000 
2.146000 2.128000 2.116000 2.116000 2.110000 2.086000 2.086000 2.062000 2.057000 2.059000 2.059000 2.057000 2.053000 2.032000 2.028000 2.010000 2.001000 2.000000 2.009000 2.019000 2.000000 2.000000 1.977000 1.956000 1.949000 1.947000 1.945000 1.941000 1.918000 1.918000 1.918000 1.918000 1.930000 1.941000 1.936000 1.915000 1.893000 1.892000 1.892000 1.877000 
2.146000 2.128000 2.116000 2.116000 2.110000 2.086000 2.086000 2.063000 2.057000 2.073000 2.074000 2.057000 2.057000 2.057000 2.031000 2.028000 2.011000 2.000000 2.000000 2.000000 2.000000 2.000000 1.977000 1.972000 1.972000 1.961000 1.945000 1.941000 1.918000 1.918000 1.918000 1.918000 1.918000 1.918000 1.918000 1.915000 1.893000 1.892000 1.892000 1.877000 
2.127000 2.117000 2.116000 2.116000 2.115000 2.110000 2.087000 2.083000 2.100000 2.111000 2.089000 2.057000 2.057000 2.057000 2.031000 2.028000 2.011000 2.000000 2.000000 2.000000 2.000000 2.000000 1.977000 1.972000 1.972000 1.961000 1.945000 1.941000 1.918000 1.918000 1.918000 1.918000 1.918000 1.918000 1.918000 1.915000 1.893000 1.892000 1.892000 1.877000 
2.124000 2.116000 2.116000 2.116000 2.116000 2.115000 2.109000 2.108000 2.114000 2.116000 2.100000 2.072000 2.054000 2.035000 2.029000 2.028000 2.024000 2.011000 2.000000 2.000000 2.000000 2.000000 1.977000 1.972000 1.972000 1.961000 1.945000 1.944000 1.937000 1.920000 1.918000 1.918000 1.918000 1.918000 1.918000 1.915000 1.893000 1.892000 1.878000 1.869000 
2.124000 2.116000 2.116000 2.116000 2.116000 2.116000 2.116000 2.116000 2.116000 2.106000 2.086000 2.060000 2.038000 2.028000 2.028000 2.028000 2.028000 2.014000 2.000000 2.000000 2.000000 2.000000 1.977000 1.972000 1.972000 1.961000 1.945000 1.945000 1.945000 1.936000 1.922000 1.918000 1.918000 1.912000 1.902000 1.901000 1.892000 1.892000 1.874000 1.866000 
2.124000 2.116000 2.116000 2.116000 2.116000 2.116000 2.116000 2.116000 2.106000 2.093000 2.074000 2.049000 2.028000 2.028000 2.028000 2.028000 2.028000 2.014000 2.000000 2.000000 2.000000 2.000000 1.977000 1.972000 1.972000 1.961000 1.945000 1.945000 1.945000 1.945000 1.924000 1.918000 1.918000 1.909000 1.892000 1.892000 1.892000 1.892000 1.882000 1.871000 
2.124000 2.116000 2.116000 2.116000 2.116000 2.116000 2.116000 2.108000 2.092000 2.081000 2.068000 2.049000 2.028000 2.028000 2.028000 2.028000 2.028000 2.014000 2.000000 1.998000 1.990000 1.990000 1.975000 1.972000 1.967000 1.955000 1.945000 1.945000 1.945000 1.945000 1.924000 1.918000 1.918000 1.912000 1.899000 1.892000 1.892000 1.892000 1.892000 1.882000 
2.122000 2.116000 2.116000 2.116000 2.116000 2.116000 2.116000 2.092000 2.086000 2.070000 2.057000 2.049000 2.028000 2.028000 2.028000 2.028000 2.028000 2.014000 2.000000 1.994000 1.972000 1.972000 1.977000 1.974000 1.957000 1.945000 1.945000 1.945000 1.945000 1.945000 1.924000 1.918000 1.918000 1.916000 1.908000 1.892000 1.892000 1.892000 1.892000 1.892000 
2.116000 2.116000 2.116000 2.116000 2.116000 2.116000 2.116000 2.092000 2.086000 2.070000 2.057000 2.049000 2.028000 2.028000 2.028000 2.028000 2.028000 2.015000 2.001000 1.994000 1.974000 1.972000 1.993000 1.981000 1.958000 1.945000 1.945000 1.945000 1.945000 1.943000 1.924000 1.918000 1.918000 1.909000 1.892000 1.892000 1.892000 1.890000 1.890000 1.891000 
2.116000 2.116000 2.116000 2.116000 2.116000 2.116000 2.116000 2.092000 2.086000 2.070000 2.057000 2.049000 2.028000 2.028000 2.028000 2.028000 2.028000 2.027000 2.017000 2.000000 1.996000 1.973000 1.973000 1.991000 1.969000 1.945000 1.945000 1.945000 1.944000 1.922000 1.918000 1.918000 1.918000 1.909000 1.892000 1.892000 1.892000 1.872000 1.867000 1.881000 
2.116000 2.116000 2.128000 2.140000 2.140000 2.140000 2.140000 2.116000 2.110000 2.094000 2.081000 2.066000 2.025000 2.005000 2.005000 2.005000 2.005000 2.016000 2.018000 2.000000 1.998000 1.973000 1.972000 1.991000 1.982000 1.958000 1.945000 1.941000 1.923000 1.919000 1.918000 1.918000 1.918000 1.909000 1.892000 1.890000 1.872000 1.867000 1.866000 1.869000 
2.783000 2.783000 2.788000 2.781000 2.758000 2.713000 2.200000 2.142000 2.123000 2.100000 2.086000 2.070000 2.021000 1.981000 1.981000 1.981000 1.993000 2.004000 2.006000 2.000000 1.998000 1.973000 1.972000 1.978000 1.976000 1.953000 1.927000 1.925000 1.918000 1.918000 1.918000 1.918000 1.918000 1.909000 1.892000 1.889000 1.867000 1.866000 1.854000 1.849000 
0.000000 0.000000 0.000000 0.000000 0.000000 0.000000 2.675000 2.641000 2.611000 2.590000 2.584000 2.569000 2.448000 1.972000 1.972000 1.972000 1.989000 2.000000 2.000000 2.000000 1.998000 1.973000 1.972000 1.972000 1.972000 1.949000 1.918000 1.920000 1.933000 1.933000 1.922000 1.918000 1.918000 1.909000 1.892000 1.891000 1.881000 1.868000 1.848000 1.841000 
0.000000 0.000000 0.000000 0.000000 0.000000 0.000000 0.000000 0.000000 0.000000 2.997000 2.989000 2.969000 2.864000 2.376000 2.360000 2.357000 2.367000 2.374000 2.374000 2.374000 2.372000 2.358000 2.357000 2.344000 2.338000 2.325000 2.307000 2.309000 2.322000 2.306000 2.292000 2.288000 2.279000 2.132000 1.892000 1.892000 1.892000 1.879000 1.852000 1.841000 
0.000000 0.000000 0.000000 0.000000 0.000000 0.000000 0.000000 0.000000 0.000000 2.997000 2.977000 2.949000 2.949000 2.948000 2.907000 2.902000 2.902000 2.902000 2.902000 2.902000 2.902000 2.902000 2.902000 2.870000 2.856000 2.856000 2.856000 2.856000 2.855000 2.816000 2.811000 2.811000 2.789000 2.448000 1.892000 1.892000 1.892000 1.892000 1.856000 1.841000 
0.000000 0.000000 0.000000 0.000000 0.000000 0.000000 0.000000 0.000000 0.000000 0.000000 0.000000 0.000000 0.000000 0.000000 0.000000 0.000000 0.000000 0.000000 0.000000 0.000000 0.000000 0.000000 0.000000 0.000000 0.000000 0.000000 0.000000 0.000000 0.000000 0.000000 0.000000 0.000000 0.000000 0.000000 0.000000 0.000000 0.000000 0.000000 0.000000 0.000000 
0.000000 0.000000 0.000000 0.000000 0.000000 0.000000 0.000000 0.000000 0.000000 0.000000 0.000000 0.000000 0.000000 0.000000 0.000000 0.000000 0.000000 0.000000 0.000000 0.000000 0.000000 0.000000 0.000000 0.000000 0.000000 0.000000 0.000000 0.000000 0.000000 0.000000 0.000000 0.000000 0.000000 0.000000 0.000000 0.000000 0.000000 0.000000 0.000000 0.000000 
0.000000 0.000000 0.000000 0.000000 0.000000 0.000000 0.000000 0.000000 0.000000 0.000000 0.000000 0.000000 0.000000 0.000000 0.000000 0.000000 0.000000 0.000000 0.000000 0.000000 0.000000 0.000000 0.000000 0.000000 0.000000 0.000000 0.000000 0.000000 0.000000 0.000000 0.000000 0.000000 0.000000 0.000000 0.000000 0.000000 0.000000 0.000000 0.000000 0.000000 
0.000000 0.000000 0.000000 0.000000 0.000000 0.000000 0.000000 0.000000 0.000000 0.000000 0.000000 0.000000 0.000000 0.000000 0.000000 0.000000 0.000000 0.000000 0.000000 0.000000 0.000000 0.000000 0.000000 0.000000 0.000000 0.000000 0.000000 0.000000 0.000000 0.000000 0.000000 0.000000 0.000000 0.000000 0.000000 0.000000 0.000000 0.000000 0.000000 0.000000 
0.000000 0.000000 0.000000 0.000000 0.000000 0.000000 0.000000 0.000000 0.000000 0.000000 0.000000 0.000000 0.000000 0.000000 0.000000 0.000000 0.000000 0.000000 0.000000 0.000000 0.000000 0.000000 0.000000 0.000000 0.000000 0.000000 0.000000 0.000000 0.000000 0.000000 0.000000 0.000000 0.000000 0.000000 0.000000 0.000000 0.000000 0.000000 0.000000 0.000000 
0.000000 0.000000 0.000000 0.000000 0.000000 0.000000 0.000000 0.000000 0.000000 0.000000 0.000000 0.000000 0.000000 0.000000 0.000000 0.000000 0.000000 0.000000 0.000000 0.000000 0.000000 0.000000 0.000000 0.000000 0.000000 0.000000 0.000000 0.000000 0.000000 0.000000 0.000000 0.000000 0.000000 0.000000 0.000000 0.000000 0.000000 0.000000 0.000000 0.000000 
0.000000 0.000000 0.000000 0.000000 0.000000 0.000000 0.000000 0.000000 0.000000 0.000000 0.000000 0.000000 0.000000 0.000000 0.000000 0.000000 0.000000 0.000000 0.000000 0.000000 0.000000 0.000000 0.000000 0.000000 0.000000 0.000000 0.000000 0.000000 0.000000 0.000000 0.000000 0.000000 0.000000 0.000000 0.000000 0.000000 0.000000 0.000000 0.000000 0.000000 
0.000000 0.000000 0.000000 0.000000 0.000000 0.000000 0.000000 0.000000 0.000000 0.000000 0.000000 0.000000 0.000000 0.000000 0.000000 0.000000 0.000000 0.000000 0.000000 0.000000 0.000000 0.000000 0.000000 0.000000 0.000000 0.000000 0.000000 0.000000 0.000000 0.000000 0.000000 0.000000 0.000000 0.000000 0.000000 0.000000 0.000000 0.000000 0.000000 0.000000 
0.000000 0.000000 0.000000 0.000000 0.000000 0.000000 0.000000 0.000000 0.000000 0.000000 0.000000 0.000000 0.000000 0.000000 0.000000 0.000000 0.000000 0.000000 0.000000 0.000000 0.000000 0.000000 0.000000 0.000000 0.000000 0.000000 0.000000 0.000000 0.000000 0.000000 0.000000 0.000000 0.000000 0.000000 0.000000 0.000000 0.000000 0.000000 0.000000 0.000000 
0.000000 0.000000 0.000000 0.000000 0.000000 0.000000 0.000000 0.000000 0.000000 0.000000 0.000000 0.000000 0.000000 0.000000 0.000000 0.000000 0.000000 0.000000 0.000000 0.000000 0.000000 0.000000 0.000000 0.000000 0.000000 0.000000 0.000000 0.000000 0.000000 0.000000 0.000000 0.000000 0.000000 0.000000 0.000000 0.000000 0.000000 0.000000 0.000000 0.000000 
