0.000000,0.000000,0.000000,0.000000,0.000000,0.000000,0.000000,0.000000,0.000000,0.000000,0.000000,0.000000,0.000000,0.000000,0.000000,2.923000,2.018000,2.019000,2.019000,2.019000,2.019000,2.034000,2.039000,2.039000,2.057000,2.060000,2.060000,2.039000,2.075000,0.000000,0.000000,0.000000,0.000000,0.000000,0.000000,0.000000,0.000000,0.000000,0.000000,0.000000,
0.000000,0.000000,0.000000,0.000000,0.000000,0.000000,0.000000,0.000000,0.000000,0.000000,0.000000,1.980000,1.988000,1.992000,1.981000,1.990000,2.000000,2.011000,2.019000,2.019000,2.019000,2.034000,2.039000,2.039000,2.057000,2.060000,2.060000,2.039000,2.075000,0.000000,0.000000,0.000000,0.000000,0.000000,0.000000,0.000000,0.000000,0.000000,0.000000,0.000000,
0.000000,0.000000,0.000000,0.000000,0.000000,0.000000,0.000000,0.000000,1.962000,1.962000,1.962000,1.968000,1.988000,1.993000,1.984000,1.992000,2.001000,2.012000,2.019000,2.019000,2.019000,2.034000,2.039000,2.041000,2.057000,2.060000,2.060000,2.039000,2.075000,0.000000,0.000000,0.000000,0.000000,0.000000,0.000000,0.000000,0.000000,0.000000,0.000000,0.000000,
0.000000,0.000000,0.000000,0.000000,0.000000,0.000000,0.000000,0.000000,1.962000,1.962000,1.963000,1.971000,1.987000,1.998000,2.000000,2.000000,2.010000,2.019000,2.019000,2.019000,2.019000,2.034000,2.039000,2.053000,2.059000,2.057000,2.056000,2.039000,2.068000,0.000000,0.000000,0.000000,0.000000,0.000000,0.000000,0.000000,0.000000,0.000000,0.000000,0.000000,
0.000000,0.000000,0.000000,0.000000,0.000000,0.000000,2.000000,1.995000,1.969000,1.966000,1.971000,1.981000,1.981000,1.989000,2.000000,2.002000,2.012000,2.019000,2.019000,2.019000,2.019000,2.034000,2.039000,2.039000,2.057000,2.041000,2.039000,2.039000,2.039000,2.141000,0.000000,0.000000,0.000000,0.000000,0.000000,0.000000,0.000000,0.000000,0.000000,0.000000,
0.000000,0.000000,0.000000,2.039000,2.018000,1.995000,1.995000,1.996000,1.997000,1.986000,1.986000,1.984000,1.981000,1.989000,2.002000,2.012000,2.019000,2.019000,2.019000,2.019000,2.019000,2.034000,2.039000,2.039000,2.052000,2.041000,2.039000,2.039000,2.039000,2.039000,2.039000,1.945000,1.802000,0.000000,0.000000,0.000000,0.000000,0.000000,0.000000,0.000000,
0.000000,0.000000,0.000000,2.039000,2.017000,1.981000,1.981000,1.984000,2.000000,2.000000,2.000000,1.995000,1.987000,1.992000,2.009000,2.019000,2.019000,2.019000,2.019000,2.019000,2.019000,2.034000,2.039000,2.039000,2.039000,2.039000,2.039000,2.039000,2.039000,2.039000,2.039000,1.864000,1.329000,0.000000,0.000000,0.000000,0.000000,0.000000,0.000000,0.000000,
0.000000,0.000000,0.000000,2.032000,2.011000,1.987000,1.981000,1.983000,1.994000,1.994000,1.994000,1.994000,1.994000,1.996000,2.009000,2.019000,2.019000,2.019000,2.019000,2.019000,2.019000,2.034000,2.039000,2.039000,2.039000,2.039000,2.039000,2.039000,2.039000,2.039000,2.039000,2.302000,0.000000,0.000000,0.000000,0.000000,0.000000,0.000000,0.000000,0.000000,
0.000000,0.000000,0.000000,2.012000,2.000000,1.998000,1.980000,1.974000,1.974000,1.974000,1.976000,1.981000,1.981000,1.989000,2.005000,2.015000,2.019000,2.019000,2.015000,2.012000,2.012000,2.032000,2.039000,2.039000,2.039000,2.039000,2.039000,2.039000,2.039000,2.039000,2.039000,2.305000,0.000000,0.000000,0.000000,0.000000,0.000000,0.000000,0.000000,0.000000,
0.000000,0.000000,0.000000,2.000000,1.992000,1.990000,1.971000,1.962000,1.962000,1.962000,1.965000,1.973000,1.976000,1.989000,2.000000,2.009000,2.019000,2.014000,2.004000,1.995000,1.992000,2.021000,2.031000,2.037000,2.039000,2.039000,2.039000,2.039000,2.039000,2.039000,2.039000,2.307000,0.000000,0.000000,0.000000,0.000000,0.000000,0.000000,0.000000,0.000000,
0.000000,0.000000,0.000000,2.901000,1.981000,1.979000,1.962000,1.962000,1.962000,1.962000,1.962000,1.962000,1.969000,1.989000,2.000000,2.005000,2.010000,2.004000,1.995000,1.985000,1.981000,2.009000,2.019000,2.035000,2.039000,2.039000,2.039000,2.039000,2.039000,2.039000,2.039000,2.298000,0.000000,0.000000,0.000000,0.000000,0.000000,0.000000,0.000000,0.000000,
0.000000,0.000000,0.000000,0.000000,1.981000,1.980000,1.970000,1.962000,1.962000,1.962000,1.962000,1.962000,1.969000,1.985000,1.991000,1.995000,2.000000,2.000000,1.988000,1.981000,1.981000,2.009000,2.019000,2.035000,2.039000,2.039000,2.039000,2.039000,2.039000,2.039000,2.040000,2.303000,0.000000,0.000000,0.000000,0.000000,0.000000,0.000000,0.000000,0.000000,
0.000000,0.000000,0.000000,0.000000,1.991000,1.981000,1.978000,1.962000,1.962000,1.962000,1.962000,1.962000,1.965000,1.975000,1.981000,1.990000,1.994000,1.990000,1.991000,1.984000,1.981000,2.009000,2.019000,2.027000,2.028000,2.028000,2.038000,2.039000,2.039000,2.039000,2.041000,2.308000,0.000000,0.000000,0.000000,0.000000,0.000000,0.000000,0.000000,0.000000,
0.000000,0.000000,0.000000,0.000000,2.000000,1.991000,1.978000,1.962000,1.962000,1.962000,1.962000,1.962000,1.962000,1.970000,1.981000,1.985000,1.985000,1.981000,1.993000,1.987000,1.981000,2.009000,2.019000,2.019000,2.019000,2.019000,2.038000,2.039000,2.039000,2.039000,2.041000,2.164000,2.995000,0.000000,0.000000,0.000000,0.000000,0.000000,0.000000,0.000000,
0.000000,0.000000,0.000000,0.000000,2.011000,1.998000,1.978000,1.962000,1.962000,1.962000,1.962000,1.962000,1.962000,1.965000,1.969000,1.969000,1.976000,1.981000,1.985000,1.983000,1.981000,2.009000,2.019000,2.019000,2.019000,2.019000,2.026000,2.039000,2.039000,2.039000,2.040000,2.050000,2.387000,0.000000,0.000000,0.000000,0.000000,0.000000,0.000000,0.000000,
0.000000,0.000000,0.000000,0.000000,2.018000,1.999000,1.989000,1.962000,1.962000,1.962000,1.962000,1.962000,1.962000,1.962000,1.962000,1.962000,1.972000,1.981000,1.981000,1.981000,1.981000,2.009000,2.019000,2.019000,2.019000,2.019000,2.019000,2.039000,2.039000,2.039000,2.039000,2.040000,2.381000,0.000000,0.000000,0.000000,0.000000,0.000000,0.000000,0.000000,
0.000000,0.000000,0.000000,0.000000,0.000000,2.000000,1.997000,1.973000,1.962000,1.962000,1.962000,1.962000,1.962000,1.962000,1.962000,1.962000,1.972000,1.981000,1.981000,1.981000,1.981000,2.009000,2.019000,2.019000,2.019000,2.019000,2.019000,2.039000,2.039000,2.039000,2.035000,1.998000,2.352000,0.000000,0.000000,0.000000,0.000000,0.000000,0.000000,0.000000,
0.000000,0.000000,0.000000,0.000000,0.000000,2.013000,1.997000,1.980000,1.973000,1.962000,1.962000,1.962000,1.962000,1.962000,1.962000,1.962000,1.972000,1.981000,1.981000,1.981000,1.991000,2.013000,2.031000,2.034000,2.034000,2.034000,2.034000,2.039000,2.039000,2.039000,2.033000,1.981000,2.075000,2.835000,0.000000,0.000000,0.000000,0.000000,0.000000,0.000000,
0.000000,0.000000,0.000000,0.000000,0.000000,2.017000,1.997000,1.981000,1.977000,1.962000,1.962000,1.962000,1.962000,1.962000,1.962000,1.962000,1.972000,1.981000,1.981000,1.991000,1.999000,2.014000,2.022000,2.036000,2.039000,2.039000,2.039000,2.039000,2.039000,2.039000,2.035000,1.996000,1.998000,2.445000,0.000000,0.000000,0.000000,0.000000,0.000000,0.000000,
0.000000,0.000000,0.000000,0.000000,0.000000,2.017000,1.997000,1.981000,1.977000,1.962000,1.962000,1.962000,1.962000,1.962000,1.962000,1.970000,1.979000,1.981000,1.981000,1.994000,2.000000,2.014000,2.019000,2.022000,2.037000,2.039000,2.039000,2.039000,2.039000,2.039000,2.037000,2.016000,2.016000,2.097000,2.782000,0.000000,0.000000,0.000000,0.000000,0.000000,
0.000000,0.000000,0.000000,0.000000,0.000000,2.017000,1.997000,1.978000,1.964000,1.962000,1.962000,1.962000,1.962000,1.962000,1.962000,1.971000,1.981000,1.981000,1.981000,1.994000,2.000000,2.014000,2.019000,2.019000,2.021000,2.022000,2.038000,2.039000,2.039000,2.039000,2.039000,2.036000,2.036000,2.036000,2.528000,0.000000,0.000000,0.000000,0.000000,0.000000,
0.000000,0.000000,0.000000,0.000000,0.000000,0.000000,1.997000,1.978000,1.962000,1.962000,1.962000,1.962000,1.962000,1.962000,1.962000,1.963000,1.973000,1.981000,1.981000,1.982000,1.983000,1.997000,2.002000,2.016000,2.019000,2.019000,2.021000,2.021000,2.039000,2.039000,2.039000,2.039000,2.039000,2.039000,2.544000,0.000000,0.000000,0.000000,0.000000,0.000000,
0.000000,0.000000,0.000000,0.000000,0.000000,0.000000,0.000000,1.992000,1.962000,1.962000,1.962000,1.962000,1.962000,1.962000,1.962000,1.962000,1.963000,1.963000,1.963000,1.975000,1.981000,1.995000,2.000000,2.001000,2.001000,2.001000,2.018000,2.019000,2.021000,2.039000,2.039000,2.039000,2.043000,2.059000,2.560000,0.000000,0.000000,0.000000,0.000000,0.000000,
0.000000,0.000000,0.000000,0.000000,0.000000,0.000000,0.000000,0.000000,1.962000,1.962000,1.962000,1.962000,1.962000,1.962000,1.962000,1.962000,1.962000,1.962000,1.962000,1.975000,1.981000,1.995000,2.000000,2.000000,2.000000,2.000000,2.018000,2.019000,2.019000,2.019000,2.021000,2.039000,2.039000,2.039000,2.516000,0.000000,0.000000,0.000000,0.000000,0.000000,
0.000000,0.000000,0.000000,0.000000,0.000000,0.000000,0.000000,0.000000,1.962000,1.962000,1.956000,1.943000,1.943000,1.951000,1.962000,1.962000,1.962000,1.962000,1.962000,1.962000,1.975000,1.995000,2.000000,2.000000,2.000000,2.000000,2.018000,2.019000,2.019000,2.019000,2.021000,2.039000,2.039000,2.039000,2.515000,0.000000,0.000000,0.000000,0.000000,0.000000,
0.000000,0.000000,0.000000,0.000000,0.000000,0.000000,0.000000,0.000000,1.977000,1.963000,1.957000,1.944000,1.943000,1.951000,1.962000,1.962000,1.962000,1.962000,1.962000,1.962000,1.962000,1.990000,2.000000,2.000000,2.000000,2.001000,2.018000,2.019000,2.019000,2.038000,2.039000,2.039000,2.039000,2.039000,2.515000,0.000000,0.000000,0.000000,0.000000,0.000000,
0.000000,0.000000,0.000000,0.000000,0.000000,0.000000,0.000000,1.981000,1.981000,1.976000,1.962000,1.956000,1.943000,1.951000,1.962000,1.962000,1.962000,1.962000,1.962000,1.962000,1.962000,1.989000,1.998000,2.000000,2.000000,2.015000,2.019000,2.019000,2.019000,2.020000,2.039000,2.039000,2.039000,2.039000,2.468000,0.000000,0.000000,0.000000,0.000000,0.000000,
0.000000,0.000000,0.000000,0.000000,0.000000,0.000000,0.000000,1.981000,1.982000,1.979000,1.964000,1.956000,1.945000,1.950000,1.961000,1.962000,1.962000,1.962000,1.962000,1.962000,1.962000,1.976000,1.981000,1.997000,2.000000,2.000000,2.015000,2.016000,2.019000,2.023000,2.039000,2.039000,2.039000,2.038000,2.036000,2.036000,0.000000,0.000000,0.000000,0.000000,
0.000000,0.000000,0.000000,0.000000,0.000000,0.000000,0.000000,2.268000,1.987000,1.993000,1.975000,1.962000,1.955000,1.943000,1.952000,1.962000,1.962000,1.962000,1.962000,1.962000,1.962000,1.976000,1.981000,1.994000,1.997000,1.997000,2.000000,2.000000,2.019000,2.039000,2.039000,2.039000,2.038000,2.032000,2.019000,2.019000,0.000000,0.000000,0.000000,0.000000,
0.000000,0.000000,0.000000,0.000000,0.000000,0.000000,0.000000,0.000000,2.337000,1.981000,1.975000,1.961000,1.952000,1.943000,1.950000,1.958000,1.960000,1.962000,1.962000,1.962000,1.962000,1.976000,1.981000,1.981000,1.981000,1.981000,1.995000,2.000000,2.019000,2.035000,2.039000,2.039000,2.035000,2.019000,2.019000,2.019000,0.000000,0.000000,0.000000,0.000000,
0.000000,0.000000,0.000000,0.000000,0.000000,0.000000,0.000000,0.000000,0.000000,1.981000,1.975000,1.956000,1.943000,1.943000,1.943000,1.943000,1.951000,1.960000,1.962000,1.962000,1.962000,1.976000,1.981000,1.981000,1.981000,1.981000,1.981000,2.000000,2.019000,2.020000,2.034000,2.039000,2.035000,2.019000,2.020000,2.024000,0.000000,0.000000,0.000000,0.000000,
0.000000,0.000000,0.000000,0.000000,0.000000,0.000000,0.000000,0.000000,1.992000,1.989000,1.975000,1.957000,1.947000,1.943000,1.943000,1.943000,1.943000,1.954000,1.962000,1.962000,1.962000,1.976000,1.981000,1.981000,1.981000,1.981000,1.981000,2.000000,2.019000,2.019000,2.020000,2.033000,2.031000,2.019000,2.024000,2.039000,0.000000,0.000000,0.000000,0.000000,
0.000000,0.000000,0.000000,0.000000,0.000000,2.233000,2.233000,2.315000,2.539000,2.000000,1.975000,1.962000,1.955000,1.943000,1.943000,1.943000,1.943000,1.950000,1.960000,1.962000,1.962000,1.976000,1.981000,1.981000,1.981000,1.981000,1.981000,2.000000,2.013000,2.013000,2.013000,2.013000,2.015000,2.026000,2.190000,2.662000,0.000000,0.000000,0.000000,0.000000,
0.000000,0.000000,0.000000,2.202000,2.203000,2.225000,2.330000,0.000000,0.000000,2.545000,1.970000,1.962000,1.958000,1.947000,1.943000,1.943000,1.943000,1.943000,1.950000,1.960000,1.962000,1.976000,1.981000,1.981000,1.981000,1.981000,1.981000,2.000000,2.000000,2.000000,2.000000,2.000000,2.135000,2.754000,0.000000,0.000000,0.000000,0.000000,0.000000,0.000000,
0.000000,0.000000,0.000000,2.188000,2.189000,2.278000,0.000000,0.000000,0.000000,0.000000,1.962000,1.962000,1.959000,1.949000,1.943000,1.943000,1.943000,1.943000,1.943000,1.956000,1.962000,1.976000,1.981000,1.981000,1.981000,1.981000,1.988000,2.016000,2.000000,2.000000,2.082000,2.833000,0.000000,0.000000,0.000000,0.000000,0.000000,0.000000,0.000000,0.000000,
0.000000,0.000000,0.000000,2.188000,2.188000,2.369000,0.000000,0.000000,0.000000,0.000000,2.616000,1.959000,1.949000,1.943000,1.943000,1.943000,1.943000,1.943000,1.943000,1.956000,1.962000,1.976000,1.988000,1.983000,1.981000,1.989000,2.008000,2.038000,2.000000,2.049000,2.945000,0.000000,0.000000,0.000000,0.000000,0.000000,0.000000,0.000000,0.000000,0.000000,
0.000000,0.000000,0.000000,2.177000,2.242000,0.000000,0.000000,0.000000,0.000000,0.000000,0.000000,1.956000,1.943000,1.943000,1.943000,1.943000,1.943000,1.943000,1.943000,1.956000,1.969000,1.985000,2.005000,1.994000,1.990000,2.008000,2.028000,2.039000,2.035000,2.934000,0.000000,0.000000,0.000000,0.000000,0.000000,0.000000,0.000000,0.000000,0.000000,0.000000,
0.000000,0.000000,0.000000,2.185000,0.000000,0.000000,0.000000,0.000000,0.000000,0.000000,0.000000,2.638000,1.943000,1.943000,1.943000,1.943000,1.943000,1.949000,1.953000,1.959000,1.975000,1.995000,2.007000,2.002000,2.000000,2.027000,2.038000,2.950000,2.984000,0.000000,0.000000,0.000000,0.000000,0.000000,0.000000,0.000000,0.000000,0.000000,0.000000,0.000000,
0.000000,0.000000,0.000000,0.000000,0.000000,0.000000,0.000000,0.000000,0.000000,0.000000,0.000000,0.000000,1.943000,1.943000,1.943000,1.943000,1.949000,1.959000,1.962000,1.969000,1.979000,1.987000,1.998000,2.000000,0.000000,0.000000,1.946000,2.755000,2.791000,0.000000,0.000000,0.000000,0.000000,0.000000,0.000000,0.000000,0.000000,0.000000,0.000000,0.000000,
0.000000,0.000000,0.000000,0.000000,0.000000,0.000000,0.000000,0.000000,0.000000,0.000000,0.000000,0.000000,0.000000,0.000000,0.000000,0.000000,0.000000,0.000000,0.000000,0.000000,2.335000,1.981000,1.987000,1.933000,1.073000,0.000000,1.878000,2.039000,2.053000,2.790000,2.901000,0.000000,0.000000,0.000000,0.000000,0.000000,0.000000,0.000000,0.000000,0.000000,
