40 40
0.000000 2.031000 2.015000 2.015000 2.015000 2.015000 2.017000 2.019000 2.030000 2.038000 2.025000 2.019000 0.000000 0.000000 0.000000 0.000000 0.000000 0.000000 0.000000 0.000000 0.000000 0.000000 0.000000 0.000000 0.000000 0.000000 0.000000 0.000000 0.000000 0.000000 0.000000 0.000000 0.000000 0.000000 0.000000 0.000000 0.000000 0.000000 0.000000 0.000000 
2.014000 2.011000 2.000000 2.000000 2.000000 2.000000 2.009000 2.019000 2.027000 2.033000 2.027000 2.024000 0.000000 0.000000 0.000000 0.000000 0.000000 0.000000 0.000000 0.000000 0.000000 0.000000 0.000000 0.000000 0.000000 0.000000 0.000000 0.000000 0.000000 0.000000 0.000000 0.000000 0.000000 0.000000 0.000000 0.000000 0.000000 0.000000 0.000000 0.000000 
2.000000 2.000000 2.000000 2.000000 2.000000 2.000000 2.009000 2.019000 2.019000 2.019000 2.032000 2.640000 0.000000 0.000000 0.000000 0.000000 0.000000 0.000000 0.000000 0.000000 0.000000 0.000000 0.000000 0.000000 0.000000 0.000000 0.000000 0.000000 0.000000 0.000000 0.000000 0.000000 0.000000 0.000000 0.000000 0.000000 0.000000 0.000000 0.000000 0.000000 
2.007000 2.006000 2.000000 2.000000 2.000000 2.000000 2.009000 2.019000 2.019000 2.023000 2.673000 0.000000 0.000000 0.000000 0.000000 0.000000 2.083000 2.077000 2.077000 2.077000 2.441000 0.000000 0.000000 0.000000 0.000000 0.000000 0.000000 0.000000 0.000000 0.000000 0.000000 0.000000 0.000000 0.000000 0.000000 0.000000 0.000000 0.000000 0.000000 0.000000 
2.019000 2.017000 2.006000 2.000000 2.003000 2.008000 2.017000 2.031000 2.035000 2.715000 0.000000 0.000000 0.000000 0.000000 0.000000 2.091000 2.050000 2.069000 2.069000 2.069000 2.071000 2.484000 0.000000 0.000000 0.000000 0.000000 0.000000 0.000000 0.000000 0.000000 0.000000 0.000000 0.000000 0.000000 0.000000 0.000000 0.000000 0.000000 0.000000 0.000000 
2.028000 2.026000 2.014000 2.000000 2.007000 2.019000 2.028000 2.053000 2.066000 0.000000 0.000000 0.000000 2.327000 2.051000 2.039000 2.038000 2.038000 2.048000 2.049000 2.057000 2.062000 2.077000 2.513000 0.000000 0.000000 0.000000 0.000000 0.000000 0.000000 0.000000 0.000000 0.000000 0.000000 0.000000 0.000000 0.000000 0.000000 0.000000 0.000000 0.000000 
2.048000 2.046000 2.037000 2.027000 2.020000 2.019000 2.033000 2.058000 2.073000 2.836000 0.000000 2.358000 2.041000 2.029000 2.028000 2.028000 2.028000 2.028000 2.031000 2.047000 2.049000 2.063000 2.073000 2.503000 0.000000 0.000000 0.000000 0.000000 0.000000 0.000000 0.000000 0.000000 0.000000 0.000000 0.000000 0.000000 0.000000 0.000000 0.000000 0.000000 
2.069000 2.069000 2.069000 2.063000 2.042000 2.030000 2.038000 2.046000 2.051000 2.054000 2.048000 2.046000 2.024000 2.019000 2.019000 2.019000 2.019000 2.019000 2.020000 2.029000 2.038000 2.046000 2.058000 2.041000 2.475000 0.000000 0.000000 0.000000 0.000000 0.000000 0.000000 0.000000 0.000000 0.000000 0.000000 0.000000 0.000000 0.000000 0.000000 0.000000 
2.077000 2.080000 2.090000 2.084000 2.063000 2.045000 2.032000 2.026000 2.026000 2.034000 2.030000 2.026000 2.020000 2.019000 2.019000 2.019000 2.019000 2.019000 2.019000 2.023000 2.038000 2.044000 2.050000 2.030000 2.019000 2.466000 0.000000 0.000000 0.000000 0.000000 0.000000 0.000000 0.000000 0.000000 0.000000 0.000000 0.000000 0.000000 0.000000 0.000000 
0.000000 2.093000 2.098000 2.071000 2.018000 2.028000 2.016000 2.006000 2.013000 2.023000 2.021000 2.019000 2.019000 2.019000 2.019000 2.019000 2.019000 2.019000 2.019000 2.020000 2.028000 2.044000 2.055000 2.043000 2.032000 2.045000 2.457000 0.000000 0.000000 0.000000 0.000000 0.000000 0.000000 0.000000 0.000000 0.000000 0.000000 0.000000 0.000000 0.000000 
0.000000 0.000000 0.000000 2.021000 1.984000 2.002000 2.010000 2.000000 2.003000 2.005000 2.005000 2.005000 2.016000 2.019000 2.019000 2.019000 2.019000 2.005000 2.005000 2.008000 2.020000 2.030000 2.048000 2.055000 2.052000 2.055000 2.049000 2.401000 0.000000 0.000000 0.000000 0.000000 0.000000 0.000000 0.000000 0.000000 0.000000 0.000000 0.000000 0.000000 
0.000000 0.000000 0.000000 1.997000 1.981000 1.997000 2.017000 2.015000 2.006000 2.000000 2.000000 2.000000 2.003000 2.017000 2.019000 2.019000 2.018000 2.000000 2.000000 2.004000 2.019000 2.025000 2.039000 2.048000 2.057000 2.057000 2.046000 2.038000 2.366000 0.000000 0.000000 0.000000 0.000000 0.000000 0.000000 0.000000 0.000000 0.000000 0.000000 0.000000 
0.000000 0.000000 2.290000 1.983000 1.981000 1.990000 2.003000 2.003000 2.001000 2.000000 2.000000 2.000000 2.000000 2.002000 2.018000 2.019000 2.018000 2.000000 2.000000 2.004000 2.019000 2.020000 2.028000 2.039000 2.041000 2.041000 2.039000 2.038000 2.042000 2.276000 0.000000 0.000000 0.000000 0.000000 0.000000 0.000000 0.000000 0.000000 0.000000 0.000000 
0.000000 0.000000 1.981000 1.981000 1.981000 1.989000 2.000000 2.000000 2.000000 2.000000 1.988000 1.983000 1.997000 2.000000 2.001000 2.002000 2.002000 2.000000 2.000000 2.004000 2.019000 2.019000 2.020000 2.028000 2.038000 2.038000 2.038000 2.038000 2.026000 2.021000 2.169000 0.000000 0.000000 0.000000 0.000000 0.000000 0.000000 0.000000 0.000000 0.000000 
0.000000 2.064000 1.981000 1.981000 1.981000 1.989000 2.000000 2.000000 2.000000 2.000000 1.987000 1.981000 1.996000 2.000000 2.000000 2.000000 2.000000 2.000000 2.000000 2.004000 2.019000 2.019000 2.019000 2.019000 2.028000 2.028000 2.020000 2.020000 2.019000 2.019000 2.019000 2.090000 0.000000 0.000000 0.000000 0.000000 0.000000 0.000000 0.000000 0.000000 
0.000000 1.997000 1.982000 1.981000 1.981000 1.981000 1.981000 1.991000 1.999000 2.000000 2.000000 1.986000 1.981000 1.981000 1.981000 1.999000 2.000000 2.002000 2.018000 2.018000 2.018000 2.018000 2.019000 2.019000 2.019000 2.019000 2.019000 2.019000 2.019000 2.019000 2.034000 2.038000 0.000000 0.000000 0.000000 0.000000 0.000000 0.000000 0.000000 0.000000 
2.035000 2.015000 2.000000 1.995000 1.983000 1.982000 1.981000 1.981000 1.981000 1.992000 1.986000 1.981000 1.981000 1.981000 1.981000 1.999000 2.000000 2.000000 2.000000 2.000000 2.000000 2.000000 2.007000 2.019000 2.019000 2.019000 2.019000 2.019000 2.019000 2.019000 2.034000 2.038000 0.000000 0.000000 0.000000 0.000000 0.000000 0.000000 0.000000 0.000000 
2.035000 2.016000 2.003000 2.002000 2.000000 1.992000 1.981000 1.980000 1.978000 1.978000 1.980000 1.981000 1.981000 1.981000 1.981000 1.997000 1.997000 1.998000 2.000000 2.000000 2.000000 2.000000 2.006000 2.016000 2.018000 2.019000 2.019000 2.019000 2.019000 2.019000 2.032000 2.035000 2.035000 0.000000 0.000000 0.000000 0.000000 0.000000 0.000000 0.000000 
2.032000 2.019000 2.019000 2.014000 2.002000 1.992000 1.981000 1.971000 1.962000 1.962000 1.975000 1.981000 1.981000 1.981000 1.981000 1.981000 1.981000 1.983000 2.000000 2.000000 2.000000 2.000000 2.000000 2.000000 2.009000 2.019000 2.019000 2.019000 2.019000 2.019000 2.019000 2.019000 2.019000 2.034000 0.000000 0.000000 0.000000 0.000000 0.000000 0.000000 
2.019000 2.019000 2.019000 2.019000 2.012000 1.994000 1.983000 1.973000 1.967000 1.967000 1.977000 1.981000 1.981000 1.981000 1.981000 1.981000 1.981000 1.983000 2.000000 2.000000 2.000000 2.000000 2.000000 2.002000 2.011000 2.019000 2.019000 2.019000 2.019000 2.019000 2.019000 2.019000 2.019000 2.019000 2.089000 0.000000 0.000000 0.000000 0.000000 0.000000 
2.780000 2.029000 2.025000 2.023000 2.014000 2.003000 1.994000 1.984000 1.981000 1.981000 1.973000 1.970000 1.979000 1.981000 1.981000 1.981000 1.981000 1.983000 2.000000 2.000000 2.000000 2.000000 2.000000 2.005000 2.013000 2.013000 2.013000 2.013000 2.017000 2.019000 2.019000 2.019000 2.019000 2.019000 2.069000 0.000000 0.000000 0.000000 0.000000 0.000000 
0.000000 2.911000 2.049000 2.034000 2.023000 2.014000 2.004000 1.994000 1.984000 1.981000 1.955000 1.944000 1.963000 1.968000 1.974000 1.981000 1.981000 1.983000 2.000000 2.000000 2.000000 2.000000 2.000000 2.000000 2.000000 2.000000 2.000000 2.000000 2.008000 2.012000 2.018000 2.019000 2.019000 2.019000 2.019000 2.142000 0.000000 0.000000 0.000000 0.000000 
0.000000 0.000000 2.986000 2.060000 2.047000 2.031000 2.018000 2.004000 1.994000 1.984000 1.955000 1.944000 1.944000 1.944000 1.954000 1.965000 1.973000 1.975000 1.993000 2.000000 2.000000 1.998000 1.992000 1.995000 2.000000 2.000000 2.000000 2.000000 2.000000 2.000000 2.015000 2.019000 2.019000 2.019000 2.019000 2.020000 2.211000 0.000000 0.000000 0.000000 
0.000000 0.000000 0.000000 0.000000 2.928000 2.058000 2.038000 2.018000 2.004000 1.988000 1.961000 1.946000 1.944000 1.944000 1.944000 1.944000 1.962000 1.964000 1.982000 1.991000 1.991000 1.988000 1.981000 1.985000 1.995000 2.000000 2.000000 2.000000 2.000000 2.000000 2.008000 2.010000 2.010000 2.019000 2.019000 2.019000 2.019000 2.251000 0.000000 0.000000 
0.000000 0.000000 0.000000 0.000000 0.000000 2.946000 2.054000 2.028000 2.008000 1.994000 1.971000 1.949000 1.944000 1.944000 1.953000 1.953000 1.962000 1.963000 1.971000 1.971000 1.973000 1.981000 1.981000 1.981000 1.990000 2.000000 2.000000 2.000000 2.000000 2.000000 2.000000 2.000000 2.000000 2.009000 2.019000 2.019000 2.019000 2.019000 2.019000 2.669000 
0.000000 0.000000 0.000000 0.000000 0.000000 0.000000 2.937000 2.039000 2.019000 2.004000 1.981000 1.959000 1.946000 1.944000 1.960000 1.962000 1.962000 1.962000 1.962000 1.962000 1.964000 1.973000 1.981000 1.986000 1.996000 1.994000 1.989000 1.989000 1.989000 1.989000 1.989000 1.998000 2.000000 2.000000 2.008000 2.019000 2.019000 2.019000 2.019000 2.291000 
0.000000 0.000000 0.000000 0.000000 0.000000 0.000000 0.000000 2.915000 2.032000 2.015000 1.999000 1.979000 1.959000 1.955000 1.961000 1.951000 1.951000 1.962000 1.962000 1.962000 1.962000 1.964000 1.969000 1.977000 1.988000 1.984000 1.981000 1.981000 1.981000 1.981000 1.981000 1.987000 1.988000 2.000000 2.000000 2.007000 2.007000 2.007000 2.007000 2.007000 
0.000000 0.000000 0.000000 0.000000 0.000000 0.000000 0.000000 0.000000 2.024000 2.019000 2.015000 1.999000 1.979000 1.975000 1.963000 1.945000 1.944000 1.951000 1.962000 1.962000 1.962000 1.962000 1.962000 1.970000 1.981000 1.981000 1.981000 1.981000 1.981000 1.981000 1.981000 1.981000 1.981000 1.999000 2.000000 2.000000 2.000000 2.000000 2.000000 2.000000 
0.000000 0.000000 0.000000 0.000000 0.000000 0.000000 0.000000 0.000000 2.019000 2.019000 2.019000 2.005000 1.996000 1.983000 1.964000 1.945000 1.944000 1.945000 1.962000 1.962000 1.959000 1.949000 1.953000 1.964000 1.973000 1.974000 1.967000 1.967000 1.977000 1.981000 1.981000 1.981000 1.981000 1.999000 2.000000 2.000000 2.000000 2.000000 2.000000 2.000000 
0.000000 0.000000 0.000000 0.000000 0.000000 0.000000 0.000000 0.000000 2.019000 2.019000 2.008000 2.001000 2.012000 1.999000 1.965000 1.945000 1.944000 1.945000 1.962000 1.962000 1.958000 1.944000 1.950000 1.962000 1.964000 1.964000 1.962000 1.962000 1.965000 1.966000 1.978000 1.968000 1.966000 1.984000 2.000000 2.000000 2.000000 2.000000 2.000000 2.000000 
0.000000 0.000000 0.000000 0.000000 0.000000 0.000000 0.000000 0.000000 0.000000 0.000000 2.746000 2.000000 2.002000 2.000000 1.965000 1.945000 1.944000 1.945000 1.962000 1.962000 1.958000 1.944000 1.950000 1.962000 1.962000 1.954000 1.947000 1.947000 1.947000 1.947000 1.961000 1.962000 1.962000 1.965000 1.984000 2.000000 2.000000 2.000000 2.000000 2.000000 
0.000000 0.000000 0.000000 0.000000 0.000000 0.000000 0.000000 0.000000 0.000000 0.000000 0.000000 2.581000 1.983000 1.998000 1.981000 1.961000 1.944000 1.944000 1.946000 1.946000 1.949000 1.960000 1.961000 1.962000 1.962000 1.953000 1.944000 1.944000 1.944000 1.944000 1.945000 1.960000 1.962000 1.962000 1.964000 1.983000 1.983000 1.983000 1.987000 2.000000 
0.000000 0.000000 0.000000 0.000000 0.000000 0.000000 0.000000 0.000000 0.000000 0.000000 0.000000 2.636000 1.981000 1.997000 1.999000 1.981000 1.961000 1.944000 1.944000 1.944000 1.944000 1.950000 1.962000 1.962000 1.962000 1.953000 1.944000 1.944000 1.944000 1.944000 1.944000 1.944000 1.945000 1.945000 1.962000 1.963000 1.963000 1.963000 1.967000 1.982000 
0.000000 0.000000 0.000000 0.000000 0.000000 0.000000 0.000000 0.000000 0.000000 0.000000 0.000000 0.000000 0.000000 2.363000 2.000000 2.000000 1.980000 1.944000 1.944000 1.944000 1.944000 1.950000 1.962000 1.962000 1.953000 1.944000 1.944000 1.944000 1.944000 1.944000 1.944000 1.944000 1.944000 1.944000 1.962000 1.962000 1.962000 1.962000 1.982000 2.040000 
0.000000 0.000000 0.000000 0.000000 0.000000 0.000000 0.000000 0.000000 0.000000 0.000000 0.000000 0.000000 0.000000 2.391000 2.019000 2.001000 1.999000 1.961000 1.945000 1.949000 1.962000 1.957000 1.944000 1.944000 1.944000 1.944000 1.944000 1.944000 1.944000 1.944000 1.944000 1.944000 1.944000 1.944000 1.944000 1.964000 1.981000 2.017000 2.696000 0.000000 
0.000000 0.000000 0.000000 0.000000 0.000000 0.000000 0.000000 0.000000 0.000000 0.000000 0.000000 0.000000 0.000000 2.733000 2.413000 2.015000 1.999000 1.965000 1.964000 1.962000 1.962000 1.957000 1.946000 1.944000 1.943000 1.942000 1.942000 1.943000 1.944000 1.944000 1.944000 1.944000 1.944000 1.944000 1.944000 1.990000 2.307000 2.691000 0.000000 0.000000 
0.000000 0.000000 0.000000 0.000000 0.000000 0.000000 0.000000 0.000000 0.000000 0.000000 0.000000 0.000000 0.000000 0.000000 0.000000 2.660000 2.000000 1.984000 1.979000 1.965000 1.962000 1.962000 1.956000 1.944000 1.936000 1.926000 1.926000 1.937000 1.944000 1.944000 1.944000 1.944000 1.944000 1.944000 1.944000 2.154000 0.000000 0.000000 0.000000 0.000000 
0.000000 0.000000 0.000000 0.000000 0.000000 0.000000 0.000000 0.000000 0.000000 0.000000 0.000000 0.000000 0.000000 0.000000 0.000000 0.000000 2.725000 2.769000 1.985000 1.977000 1.962000 1.962000 1.956000 1.944000 1.936000 1.926000 1.926000 1.935000 1.940000 1.943000 1.944000 1.944000 1.944000 1.944000 1.960000 2.725000 0.000000 0.000000 0.000000 0.000000 
0.000000 0.000000 0.000000 0.000000 0.000000 0.000000 0.000000 0.000000 0.000000 0.000000 0.000000 0.000000 0.000000 0.000000 0.000000 0.000000 0.000000 0.000000 1.997000 1.977000 1.962000 1.960000 1.952000 1.944000 1.936000 1.926000 1.926000 1.926000 1.926000 1.935000 1.939000 1.939000 1.944000 1.944000 2.768000 0.000000 0.000000 0.000000 0.000000 0.000000 
0.000000 0.000000 0.000000 0.000000 0.000000 0.000000 0.000000 0.000000 0.000000 0.000000 0.000000 0.000000 0.000000 0.000000 0.000000 0.000000 0.000000 0.000000 2.847000 1.977000 1.962000 1.957000 1.944000 1.944000 1.936000 1.926000 1.926000 1.926000 1.926000 1.926000 1.926000 1.926000 2.785000 2.865000 0.000000 0.000000 0.000000 0.000000 0.000000 0.000000 
