40 40
0.000000 0.000000 0.000000 0.000000 0.000000 0.000000 0.000000 0.000000 0.000000 0.000000 0.000000 0.000000 0.000000 0.000000 0.000000 0.000000 1.484000 2.040000 2.020000 1.987000 1.987000 2.007000 2.007000 2.009000 2.009000 2.009000 2.011000 2.019000 2.028000 0.000000 0.000000 0.000000 0.000000 0.000000 0.000000 0.000000 0.000000 0.000000 0.000000 0.000000 
0.000000 0.000000 0.000000 0.000000 0.000000 0.000000 0.000000 0.000000 0.000000 0.000000 0.000000 0.000000 0.000000 1.608000 0.000000 1.636000 1.992000 2.013000 2.010000 2.000000 2.000000 2.000000 2.000000 2.004000 2.009000 2.012000 2.019000 2.028000 2.028000 0.000000 0.000000 0.000000 0.000000 0.000000 0.000000 0.000000 0.000000 0.000000 0.000000 0.000000 
0.000000 0.000000 0.000000 0.000000 0.000000 0.000000 0.000000 0.000000 0.000000 1.132000 0.000000 0.000000 1.352000 1.974000 1.974000 1.979000 1.981000 1.997000 1.999000 2.000000 2.000000 2.000000 2.002000 2.004000 2.009000 2.012000 2.019000 2.020000 2.022000 0.000000 0.000000 0.000000 0.000000 0.000000 0.000000 0.000000 0.000000 0.000000 0.000000 0.000000 
0.000000 0.000000 0.000000 0.000000 0.000000 2.969000 2.423000 2.432000 1.931000 1.946000 1.955000 1.708000 1.974000 1.974000 1.974000 1.974000 1.975000 1.984000 1.992000 1.992000 1.998000 2.000000 2.007000 2.009000 2.009000 2.018000 2.019000 2.015000 2.009000 0.000000 0.000000 0.000000 0.000000 0.000000 0.000000 0.000000 0.000000 0.000000 0.000000 0.000000 
0.000000 0.000000 0.000000 0.000000 0.000000 1.939000 1.940000 1.942000 1.944000 1.955000 1.965000 1.965000 1.971000 1.971000 1.972000 1.974000 1.976000 1.983000 1.991000 1.991000 1.997000 2.001000 2.008000 2.009000 2.009000 2.016000 2.019000 2.019000 2.019000 0.000000 0.000000 0.000000 0.000000 0.000000 0.000000 0.000000 0.000000 0.000000 0.000000 0.000000 
0.000000 0.000000 0.000000 0.000000 1.948000 1.947000 1.947000 1.948000 1.948000 1.949000 1.965000 1.965000 1.965000 1.965000 1.970000 1.974000 1.979000 1.990000 1.991000 1.991000 1.997000 2.000000 2.007000 2.009000 2.009000 2.012000 2.019000 2.022000 2.027000 0.000000 0.000000 0.000000 0.000000 0.000000 0.000000 0.000000 0.000000 0.000000 0.000000 0.000000 
0.000000 0.000000 0.000000 0.000000 1.959000 1.948000 1.945000 1.939000 1.951000 1.951000 1.958000 1.965000 1.965000 1.965000 1.970000 1.974000 1.979000 1.983000 1.991000 1.991000 1.991000 2.000000 2.000000 2.005000 2.005000 2.008000 2.015000 2.016000 2.019000 2.019000 0.000000 0.000000 0.000000 0.000000 0.000000 0.000000 0.000000 0.000000 0.000000 0.000000 
0.000000 0.000000 0.000000 0.000000 1.977000 1.957000 1.945000 1.939000 1.948000 1.955000 1.956000 1.965000 1.969000 1.965000 1.970000 1.974000 1.974000 1.975000 1.982000 1.991000 1.991000 1.993000 2.000000 2.000000 2.000000 2.003000 2.009000 2.013000 2.019000 2.028000 2.200000 0.000000 0.000000 0.000000 0.000000 0.000000 0.000000 0.000000 0.000000 0.000000 
0.000000 0.000000 0.000000 0.000000 1.981000 1.975000 1.947000 1.943000 1.948000 1.948000 1.956000 1.960000 1.967000 1.965000 1.970000 1.974000 1.976000 1.978000 1.982000 1.987000 1.987000 1.991000 1.998000 2.002000 2.009000 2.009000 2.009000 2.019000 2.023000 2.028000 2.028000 0.000000 0.000000 0.000000 0.000000 0.000000 0.000000 0.000000 0.000000 0.000000 
0.000000 0.000000 0.000000 0.000000 1.998000 1.978000 1.960000 1.948000 1.948000 1.955000 1.956000 1.956000 1.965000 1.965000 1.974000 1.974000 1.979000 1.982000 1.982000 1.982000 1.982000 1.984000 1.991000 2.000000 2.007000 2.009000 2.009000 2.013000 2.019000 2.019000 2.019000 0.000000 0.000000 0.000000 0.000000 0.000000 0.000000 0.000000 0.000000 0.000000 
0.000000 0.000000 0.000000 0.000000 1.999000 1.975000 1.960000 1.948000 1.950000 1.956000 1.960000 1.965000 1.965000 1.970000 1.974000 1.974000 1.974000 1.982000 1.982000 1.986000 1.982000 1.985000 1.996000 2.000000 2.007000 2.009000 2.009000 2.013000 2.019000 2.021000 2.024000 0.000000 0.000000 0.000000 0.000000 0.000000 0.000000 0.000000 0.000000 0.000000 
0.000000 0.000000 0.000000 0.000000 0.000000 1.965000 1.962000 1.956000 1.956000 1.949000 1.951000 1.965000 1.965000 1.974000 1.974000 1.974000 1.974000 1.982000 1.982000 1.990000 1.982000 1.987000 2.000000 2.000000 2.007000 2.009000 2.009000 2.013000 2.019000 2.023000 2.028000 0.000000 0.000000 0.000000 0.000000 0.000000 0.000000 0.000000 0.000000 0.000000 
0.000000 0.000000 0.000000 0.000000 0.000000 1.975000 1.971000 1.957000 1.956000 1.953000 1.956000 1.965000 1.965000 1.974000 1.974000 1.974000 1.974000 1.974000 1.979000 1.991000 1.991000 2.000000 2.004000 2.000000 2.003000 2.005000 2.009000 2.013000 2.019000 2.028000 2.028000 2.028000 0.000000 0.000000 0.000000 0.000000 0.000000 0.000000 0.000000 0.000000 
0.000000 0.000000 0.000000 0.000000 0.000000 2.049000 1.981000 1.959000 1.956000 1.956000 1.960000 1.965000 1.965000 1.974000 1.974000 1.974000 1.974000 1.974000 1.979000 1.991000 1.997000 1.997000 1.991000 2.000000 2.000000 2.003000 2.009000 2.013000 2.019000 2.024000 2.019000 2.028000 2.044000 0.000000 0.000000 0.000000 0.000000 0.000000 0.000000 0.000000 
0.000000 0.000000 0.000000 0.000000 0.000000 2.613000 2.004000 1.964000 1.956000 1.956000 1.960000 1.965000 1.965000 1.974000 1.974000 1.974000 1.974000 1.975000 1.981000 1.991000 1.991000 1.992000 1.997000 2.000000 2.000000 2.007000 2.009000 2.013000 2.019000 2.019000 2.019000 2.025000 2.043000 0.000000 0.000000 0.000000 0.000000 0.000000 0.000000 0.000000 
0.000000 0.000000 0.000000 0.000000 0.000000 2.960000 2.008000 1.974000 1.956000 1.956000 1.965000 1.965000 1.965000 1.965000 1.974000 1.965000 1.970000 1.974000 1.979000 1.990000 1.991000 1.993000 2.000000 2.008000 2.009000 2.009000 2.009000 2.009000 2.009000 2.019000 2.019000 2.025000 2.045000 0.000000 0.000000 0.000000 0.000000 0.000000 0.000000 0.000000 
0.000000 0.000000 0.000000 0.000000 0.000000 0.000000 1.982000 1.968000 1.956000 1.956000 1.965000 1.965000 1.965000 1.971000 1.974000 1.971000 1.973000 1.974000 1.979000 1.983000 1.991000 1.991000 1.993000 2.000000 2.007000 2.009000 2.009000 2.009000 2.015000 2.025000 2.025000 2.033000 2.036000 0.000000 0.000000 0.000000 0.000000 0.000000 0.000000 0.000000 
0.000000 0.000000 0.000000 0.000000 0.000000 0.000000 2.002000 1.975000 1.958000 1.958000 1.965000 1.965000 1.965000 1.974000 1.974000 1.974000 1.974000 1.976000 1.985000 1.991000 1.992000 1.998000 1.993000 2.000000 2.006000 2.008000 2.009000 2.009000 2.018000 2.026000 2.035000 2.028000 2.028000 0.000000 0.000000 0.000000 0.000000 0.000000 0.000000 0.000000 
0.000000 0.000000 0.000000 0.000000 0.000000 0.000000 2.009000 1.994000 1.969000 1.965000 1.965000 1.965000 1.968000 1.974000 1.974000 1.974000 1.974000 1.982000 1.983000 1.991000 1.997000 2.000000 2.000000 2.000000 2.000000 2.003000 2.009000 2.009000 2.011000 2.019000 2.028000 2.028000 2.035000 0.000000 0.000000 0.000000 0.000000 0.000000 0.000000 0.000000 
0.000000 0.000000 0.000000 0.000000 0.000000 0.000000 0.000000 2.106000 1.965000 1.965000 1.965000 1.971000 1.973000 1.974000 1.974000 1.974000 1.974000 1.982000 1.984000 1.992000 2.000000 1.999000 1.998000 1.998000 2.000000 2.005000 2.009000 2.009000 2.009000 2.019000 2.028000 2.028000 2.028000 0.000000 0.000000 0.000000 0.000000 0.000000 0.000000 0.000000 
0.000000 0.000000 0.000000 0.000000 0.000000 0.000000 0.000000 2.431000 1.970000 1.965000 1.965000 1.965000 1.966000 1.974000 1.974000 1.974000 1.974000 1.982000 1.988000 1.992000 2.000000 1.998000 1.991000 1.993000 2.000000 2.009000 2.009000 2.009000 2.009000 2.019000 2.021000 2.024000 2.028000 2.009000 2.925000 0.000000 0.000000 0.000000 0.000000 0.000000 
0.000000 0.000000 0.000000 0.000000 0.000000 0.000000 0.000000 2.489000 1.972000 1.965000 1.961000 1.956000 1.960000 1.965000 1.973000 1.974000 1.979000 1.982000 1.988000 1.992000 2.000000 2.000000 2.000000 2.000000 2.000000 2.010000 2.018000 2.016000 2.012000 2.019000 2.022000 2.025000 2.028000 2.028000 2.238000 0.000000 0.000000 0.000000 0.000000 0.000000 
0.000000 0.000000 0.000000 0.000000 0.000000 0.000000 0.000000 2.496000 1.983000 1.966000 1.964000 1.964000 1.964000 1.965000 1.970000 1.974000 1.979000 1.982000 1.988000 1.991000 1.998000 2.000000 2.000000 2.000000 2.000000 2.009000 2.011000 2.014000 2.019000 2.019000 2.028000 2.028000 2.028000 2.028000 2.060000 0.000000 0.000000 0.000000 0.000000 0.000000 
0.000000 0.000000 0.000000 0.000000 0.000000 0.000000 0.000000 2.459000 1.980000 1.969000 1.965000 1.965000 1.971000 1.965000 1.965000 1.974000 1.979000 1.988000 1.988000 1.992000 1.998000 2.000000 2.000000 2.000000 2.000000 2.000000 2.008000 2.009000 2.009000 2.023000 2.028000 2.028000 2.028000 2.023000 2.019000 0.000000 0.000000 0.000000 0.000000 0.000000 
0.000000 0.000000 0.000000 0.000000 0.000000 0.000000 0.000000 0.000000 1.987000 1.975000 1.965000 1.965000 1.965000 1.965000 1.965000 1.974000 1.979000 1.982000 1.982000 1.992000 2.000000 2.000000 2.000000 2.000000 2.000000 2.008000 2.009000 2.009000 2.017000 2.023000 2.028000 2.028000 2.028000 2.028000 2.216000 0.000000 0.000000 0.000000 0.000000 0.000000 
0.000000 0.000000 0.000000 0.000000 0.000000 0.000000 0.000000 0.000000 2.766000 1.983000 1.965000 1.965000 1.965000 1.965000 1.965000 1.974000 1.974000 1.982000 1.982000 1.984000 1.999000 2.000000 2.000000 2.000000 2.000000 2.009000 2.009000 2.009000 2.014000 2.023000 2.028000 2.028000 2.028000 2.028000 2.238000 0.000000 0.000000 0.000000 0.000000 0.000000 
0.000000 0.000000 0.000000 0.000000 0.000000 0.000000 0.000000 0.000000 1.027000 1.982000 1.965000 1.965000 1.965000 1.974000 1.965000 1.974000 1.974000 1.982000 1.982000 1.983000 1.997000 2.000000 2.000000 2.002000 2.009000 2.009000 2.009000 2.009000 2.009000 2.014000 2.028000 2.028000 2.028000 2.037000 2.047000 0.000000 0.000000 0.000000 0.000000 0.000000 
0.000000 0.000000 0.000000 0.000000 0.000000 0.000000 0.000000 0.000000 0.000000 1.982000 1.972000 1.969000 1.965000 1.974000 1.965000 1.974000 1.979000 1.979000 1.985000 1.987000 1.991000 1.996000 1.996000 2.000000 2.000000 2.003000 2.009000 2.014000 2.009000 2.009000 2.023000 2.028000 2.028000 2.033000 2.037000 0.000000 0.000000 0.000000 0.000000 0.000000 
0.000000 0.000000 0.000000 0.000000 0.000000 0.000000 0.000000 0.000000 0.000000 1.982000 1.970000 1.956000 1.960000 1.965000 1.974000 1.974000 1.974000 1.974000 1.979000 1.991000 1.991000 1.991000 1.991000 2.000000 2.000000 2.003000 2.009000 2.015000 2.009000 2.009000 2.019000 2.028000 2.028000 2.033000 2.037000 2.037000 0.000000 0.000000 0.000000 0.000000 
0.000000 0.000000 0.000000 0.000000 0.000000 0.000000 0.000000 0.000000 2.078000 1.890000 1.972000 1.966000 1.963000 1.965000 1.967000 1.974000 1.974000 1.974000 1.976000 1.982000 1.991000 2.000000 2.000000 2.000000 2.000000 2.003000 2.009000 2.009000 2.009000 2.011000 2.023000 2.028000 2.028000 2.028000 2.028000 2.028000 0.000000 0.000000 0.000000 0.000000 
0.000000 0.000000 0.000000 0.000000 0.000000 0.000000 0.000000 0.000000 0.000000 1.823000 1.982000 1.974000 1.970000 1.965000 1.965000 1.965000 1.965000 1.974000 1.974000 1.982000 1.995000 2.000000 2.000000 2.000000 2.000000 2.009000 2.009000 2.009000 2.009000 2.013000 2.027000 2.028000 2.037000 2.037000 2.037000 2.037000 0.000000 0.000000 0.000000 0.000000 
0.000000 0.000000 0.000000 0.000000 0.000000 0.000000 0.000000 0.000000 0.000000 2.084000 1.982000 1.974000 1.970000 1.965000 1.965000 1.965000 1.970000 1.974000 1.974000 1.983000 1.994000 2.000000 2.000000 2.000000 2.003000 2.010000 2.010000 2.009000 2.009000 2.013000 2.019000 2.031000 2.037000 2.037000 2.037000 2.037000 0.000000 0.000000 0.000000 0.000000 
0.000000 0.000000 0.000000 0.000000 0.000000 0.000000 0.000000 0.000000 0.000000 0.000000 1.984000 1.975000 1.969000 1.965000 1.966000 1.966000 1.974000 1.974000 1.974000 1.991000 1.991000 1.991000 1.998000 2.000000 2.000000 2.009000 2.009000 2.009000 2.009000 2.014000 2.028000 2.032000 2.037000 2.037000 2.037000 2.037000 0.000000 0.000000 0.000000 0.000000 
0.000000 0.000000 0.000000 0.000000 0.000000 0.000000 0.000000 0.000000 0.000000 0.000000 2.000000 1.983000 1.965000 1.965000 1.971000 1.974000 1.974000 1.974000 1.974000 1.991000 1.991000 1.991000 1.998000 2.000000 2.000000 2.009000 2.009000 2.009000 2.009000 2.020000 2.028000 2.030000 2.031000 2.037000 2.031000 2.035000 0.000000 0.000000 0.000000 0.000000 
0.000000 0.000000 0.000000 0.000000 0.000000 0.000000 0.000000 0.000000 0.000000 0.000000 2.009000 1.992000 1.970000 1.965000 1.970000 1.974000 1.974000 1.974000 1.975000 1.991000 1.991000 1.993000 2.000000 2.000000 2.000000 2.003000 2.009000 2.000000 2.008000 2.268000 2.627000 2.627000 2.640000 0.000000 2.601000 0.000000 0.000000 0.000000 0.000000 0.000000 
0.000000 0.000000 0.000000 0.000000 0.000000 0.000000 0.000000 0.000000 0.000000 0.000000 2.009000 1.992000 1.976000 1.971000 1.973000 1.974000 1.974000 1.975000 1.986000 1.991000 1.991000 1.993000 2.000000 2.000000 2.000000 2.003000 2.009000 2.006000 0.000000 0.000000 0.000000 0.000000 0.000000 0.000000 0.000000 0.000000 0.000000 0.000000 0.000000 0.000000 
0.000000 0.000000 0.000000 0.000000 0.000000 0.000000 0.000000 0.000000 0.000000 0.000000 0.000000 2.019000 1.973000 1.972000 1.972000 1.972000 1.974000 1.975000 1.987000 1.991000 1.991000 1.993000 2.005000 2.009000 2.005000 2.771000 0.000000 0.000000 0.000000 0.000000 0.000000 0.000000 0.000000 0.000000 0.000000 0.000000 0.000000 0.000000 0.000000 0.000000 
0.000000 0.000000 0.000000 0.000000 0.000000 0.000000 0.000000 0.000000 0.000000 0.000000 0.000000 0.000000 1.970000 1.965000 1.965000 1.965000 1.974000 1.974000 1.981000 1.992000 1.998000 1.998000 2.000000 0.000000 0.000000 0.000000 0.000000 0.000000 0.000000 0.000000 0.000000 0.000000 0.000000 0.000000 0.000000 0.000000 0.000000 0.000000 0.000000 0.000000 
0.000000 0.000000 0.000000 0.000000 0.000000 0.000000 0.000000 0.000000 0.000000 0.000000 0.000000 0.000000 2.393000 1.965000 1.965000 1.965000 1.965000 1.965000 2.516000 2.882000 0.000000 0.000000 0.000000 0.000000 0.000000 0.000000 0.000000 0.000000 0.000000 0.000000 0.000000 0.000000 0.000000 0.000000 0.000000 0.000000 0.000000 0.000000 0.000000 0.000000 
0.000000 0.000000 0.000000 0.000000 0.000000 0.000000 0.000000 0.000000 0.000000 0.000000 0.000000 0.000000 0.000000 0.000000 0.000000 0.000000 0.000000 0.000000 0.000000 0.000000 0.000000 0.000000 0.000000 0.000000 0.000000 0.000000 0.000000 0.000000 0.000000 0.000000 0.000000 0.000000 0.000000 0.000000 0.000000 0.000000 0.000000 0.000000 0.000000 0.000000 
