40 40
0.000000 0.000000 0.000000 0.000000 0.000000 0.000000 0.000000 0.000000 0.000000 0.000000 0.000000 0.000000 0.000000 0.000000 0.000000 0.000000 0.000000 0.000000 0.000000 0.000000 0.000000 0.000000 0.000000 0.000000 0.000000 0.000000 0.000000 0.000000 0.000000 0.000000 0.000000 0.000000 0.000000 0.000000 0.000000 0.000000 0.000000 0.000000 0.000000 0.000000 
0.000000 0.000000 0.000000 0.000000 0.000000 0.000000 0.000000 0.000000 0.000000 0.000000 0.000000 0.000000 0.000000 0.000000 0.000000 0.000000 0.000000 0.000000 0.000000 0.000000 0.000000 0.000000 0.000000 0.000000 0.000000 0.000000 0.000000 0.000000 0.000000 0.000000 0.000000 0.000000 0.000000 0.000000 0.000000 0.000000 0.000000 0.000000 0.000000 0.000000 
0.000000 0.000000 0.000000 0.000000 0.000000 0.000000 0.000000 0.000000 0.000000 0.000000 0.000000 0.000000 0.000000 0.000000 0.000000 0.000000 0.000000 0.000000 0.000000 0.000000 0.000000 0.000000 0.000000 0.000000 0.000000 0.000000 0.000000 0.000000 0.000000 0.000000 0.000000 0.000000 0.000000 0.000000 0.000000 0.000000 0.000000 0.000000 0.000000 0.000000 
0.000000 0.000000 0.000000 0.000000 0.000000 0.000000 0.000000 0.000000 0.000000 0.000000 0.000000 0.000000 0.000000 0.000000 0.000000 0.000000 0.000000 0.000000 0.000000 0.000000 0.000000 0.000000 0.000000 0.000000 0.000000 0.000000 0.000000 0.000000 0.000000 0.000000 0.000000 0.000000 0.000000 0.000000 0.000000 0.000000 0.000000 0.000000 0.000000 0.000000 
2.960000 2.960000 2.960000 2.960000 2.960000 2.946000 2.893000 2.866000 2.866000 2.866000 2.866000 2.818000 2.774000 2.774000 2.774000 2.774000 2.774000 2.774000 2.774000 2.774000 2.774000 2.774000 2.774000 2.774000 2.774000 2.774000 2.774000 2.729000 2.686000 2.686000 2.686000 2.686000 2.488000 2.141000 2.038000 2.000000 2.000000 2.000000 2.000000 2.000000 
2.960000 2.960000 2.945000 2.928000 2.928000 2.918000 2.884000 2.866000 2.866000 2.866000 2.866000 2.818000 2.774000 2.774000 2.774000 2.774000 2.774000 2.774000 2.774000 2.774000 2.774000 2.774000 2.774000 2.774000 2.774000 2.762000 2.745000 2.714000 2.684000 2.667000 2.657000 2.657000 2.453000 2.097000 2.002000 1.977000 1.977000 1.977000 1.977000 1.977000 
2.960000 2.960000 2.920000 2.875000 2.875000 2.874000 2.869000 2.866000 2.866000 2.866000 2.866000 2.818000 2.774000 2.774000 2.774000 2.774000 2.774000 2.774000 2.774000 2.774000 2.774000 2.774000 2.774000 2.774000 2.774000 2.743000 2.698000 2.690000 2.680000 2.637000 2.608000 2.608000 2.397000 2.025000 1.944000 1.940000 1.940000 1.940000 1.940000 1.940000 
2.960000 2.960000 2.916000 2.866000 2.866000 2.866000 2.866000 2.866000 2.866000 2.866000 2.866000 2.840000 2.813000 2.789000 2.774000 2.774000 2.774000 2.774000 2.774000 2.774000 2.774000 2.774000 2.774000 2.774000 2.774000 2.740000 2.690000 2.626000 2.556000 2.452000 2.384000 2.384000 2.240000 1.987000 1.934000 1.934000 1.934000 1.934000 1.934000 1.934000 
2.960000 2.960000 2.915000 2.863000 2.863000 2.863000 2.863000 2.864000 2.866000 2.866000 2.866000 2.866000 2.858000 2.808000 2.777000 2.777000 2.776000 2.774000 2.774000 2.774000 2.774000 2.774000 2.774000 2.774000 2.774000 2.734000 2.676000 2.546000 2.406000 2.243000 2.137000 2.137000 2.073000 1.960000 1.935000 1.934000 1.934000 1.934000 1.934000 1.934000 
2.960000 2.960000 2.891000 2.812000 2.812000 2.812000 2.812000 2.827000 2.857000 2.866000 2.866000 2.866000 2.863000 2.842000 2.828000 2.828000 2.810000 2.780000 2.774000 2.774000 2.774000 2.774000 2.774000 2.774000 2.774000 2.614000 2.383000 2.310000 2.251000 2.182000 2.137000 2.137000 2.084000 1.992000 1.956000 1.934000 1.934000 1.934000 1.934000 1.934000 
2.955000 2.947000 2.866000 2.774000 2.774000 2.774000 2.774000 2.799000 2.851000 2.866000 2.866000 2.866000 2.866000 2.866000 2.866000 2.866000 2.836000 2.784000 2.768000 2.759000 2.719000 2.688000 2.688000 2.685000 2.679000 2.464000 2.154000 2.127000 2.127000 2.127000 2.127000 2.127000 2.086000 2.015000 1.975000 1.944000 1.938000 1.934000 1.934000 1.932000 
2.937000 2.899000 2.837000 2.774000 2.774000 2.774000 2.774000 2.799000 2.851000 2.866000 2.866000 2.866000 2.866000 2.866000 2.866000 2.866000 2.836000 2.784000 2.745000 2.706000 2.514000 2.371000 2.371000 2.357000 2.328000 2.230000 2.100000 2.088000 2.088000 2.088000 2.088000 2.088000 2.060000 2.010000 1.992000 1.981000 1.954000 1.934000 1.934000 1.923000 
2.928000 2.875000 2.823000 2.774000 2.774000 2.778000 2.792000 2.818000 2.855000 2.876000 2.891000 2.892000 2.892000 2.892000 2.892000 2.892000 2.801000 2.648000 2.589000 2.549000 2.343000 2.189000 2.189000 2.170000 2.130000 2.099000 2.071000 2.068000 2.067000 2.056000 2.049000 2.049000 2.034000 2.006000 2.000000 2.000000 1.973000 1.950000 1.940000 1.918000 
2.928000 2.875000 2.823000 2.774000 2.774000 2.786000 2.829000 2.855000 2.864000 2.897000 2.942000 2.945000 2.945000 2.945000 2.945000 2.945000 2.731000 2.370000 2.295000 2.284000 2.207000 2.149000 2.149000 2.130000 2.091000 2.075000 2.069000 2.068000 2.064000 2.032000 2.011000 2.011000 2.008000 2.001000 2.000000 2.000000 1.994000 1.982000 1.951000 1.918000 
2.903000 2.871000 2.823000 2.774000 2.774000 2.788000 2.840000 2.876000 2.897000 2.926000 2.958000 2.960000 2.960000 2.960000 2.875000 2.645000 2.401000 2.148000 2.111000 2.125000 2.116000 2.109000 2.109000 2.099000 2.075000 2.057000 2.042000 2.041000 2.038000 2.015000 2.000000 2.000000 2.000000 2.000000 2.000000 2.000000 2.000000 1.995000 1.973000 1.944000 
2.868000 2.866000 2.823000 2.774000 2.774000 2.788000 2.840000 2.891000 2.942000 2.958000 2.960000 2.960000 2.960000 2.960000 2.755000 2.201000 1.965000 1.948000 1.974000 2.009000 2.044000 2.071000 2.071000 2.070000 2.068000 2.043000 2.006000 2.003000 2.002000 2.001000 2.000000 2.000000 2.000000 2.000000 2.000000 2.000000 2.000000 2.000000 1.998000 1.981000 
2.866000 2.866000 2.846000 2.822000 2.822000 2.829000 2.853000 2.892000 2.945000 2.960000 2.960000 2.987000 2.971000 2.700000 2.406000 2.071000 1.934000 1.934000 1.964000 2.001000 2.039000 2.068000 2.068000 2.068000 2.068000 2.042000 2.003000 2.000000 2.000000 2.000000 2.000000 2.000000 2.000000 2.000000 2.000000 2.000000 2.020000 2.036000 2.036000 2.028000 
2.871000 2.867000 2.862000 2.858000 2.858000 2.858000 2.858000 2.880000 2.924000 2.921000 2.898000 2.940000 2.909000 2.436000 2.097000 1.989000 1.943000 1.940000 1.967000 2.001000 2.039000 2.067000 2.064000 2.062000 2.062000 2.038000 2.003000 2.000000 2.000000 2.004000 2.005000 2.001000 2.000000 2.000000 2.000000 1.998000 1.807000 1.660000 1.660000 1.660000 
2.906000 2.872000 2.838000 2.807000 2.807000 2.807000 2.807000 2.800000 2.787000 2.660000 2.487000 2.469000 2.436000 2.252000 2.113000 2.047000 2.006000 1.981000 1.987000 2.001000 2.039000 2.062000 2.037000 2.024000 2.024000 2.015000 2.001000 2.000000 2.003000 2.028000 2.035000 2.011000 2.000000 2.000000 2.000000 1.983000 0.000000 0.000000 0.000000 0.000000 
2.902000 2.839000 2.778000 2.720000 2.711000 2.699000 2.681000 2.648000 2.601000 2.436000 2.224000 2.171000 2.137000 2.137000 2.123000 2.084000 2.045000 2.007000 2.000000 2.001000 2.031000 2.044000 2.006000 1.986000 1.986000 1.986000 1.986000 1.986000 1.992000 2.038000 2.055000 2.016000 2.000000 2.000000 1.560000 0.000000 0.000000 0.000000 0.000000 0.000000 
2.833000 2.743000 2.657000 2.574000 2.539000 2.496000 2.429000 2.374000 2.331000 2.275000 2.213000 2.171000 2.137000 2.137000 2.123000 2.084000 2.045000 2.007000 2.000000 2.000000 2.009000 2.006000 1.969000 1.949000 1.949000 1.949000 1.949000 1.949000 1.958000 2.025000 2.055000 2.016000 2.000000 2.000000 0.000000 0.000000 0.000000 0.000000 0.000000 0.000000 
2.767000 2.605000 2.490000 2.390000 2.359000 2.325000 2.280000 2.244000 2.217000 2.209000 2.209000 2.171000 2.137000 2.137000 2.123000 2.084000 2.053000 2.027000 2.023000 2.022000 1.997000 1.969000 1.932000 1.913000 1.913000 1.921000 1.933000 1.934000 1.944000 2.019000 1.744000 0.000000 0.000000 0.000000 0.000000 0.000000 0.000000 0.000000 0.000000 0.000000 
2.704000 2.438000 2.293000 2.177000 2.172000 2.176000 2.203000 2.215000 2.210000 2.209000 2.209000 2.171000 2.137000 2.137000 2.123000 2.084000 2.066000 2.062000 2.061000 2.059000 1.991000 1.932000 1.897000 1.878000 1.878000 1.900000 1.931000 1.934000 1.944000 2.019000 1.217000 0.000000 0.000000 0.000000 0.000000 0.000000 0.000000 0.000000 0.000000 0.000000 
2.601000 2.364000 2.222000 2.106000 2.106000 2.116000 2.156000 2.176000 2.176000 2.176000 2.176000 2.156000 2.137000 2.137000 2.129000 2.108000 2.089000 2.071000 2.068000 2.066000 1.990000 1.925000 1.890000 1.871000 1.871000 1.907000 1.959000 0.000000 0.000000 0.000000 0.000000 0.000000 0.000000 0.000000 0.000000 0.000000 0.000000 0.000000 0.000000 0.000000 
2.486000 2.310000 2.181000 2.068000 2.068000 2.078000 2.117000 2.137000 2.137000 2.137000 2.137000 2.137000 2.137000 2.137000 2.137000 2.137000 2.114000 2.075000 2.068000 2.066000 1.991000 1.926000 1.890000 1.871000 1.871000 1.921000 1.993000 0.000000 0.000000 0.000000 0.000000 0.000000 0.000000 0.000000 0.000000 0.000000 0.000000 0.000000 0.000000 0.000000 
2.314000 2.215000 2.137000 2.068000 2.068000 2.078000 2.117000 2.137000 2.137000 2.137000 2.137000 2.137000 2.137000 2.137000 2.137000 2.137000 2.114000 2.075000 2.068000 2.066000 2.013000 1.958000 1.901000 1.871000 1.871000 1.921000 1.993000 0.000000 0.000000 0.000000 0.000000 0.000000 0.000000 0.000000 0.000000 0.000000 0.000000 0.000000 0.000000 0.000000 
2.178000 2.143000 2.109000 2.077000 2.072000 2.077000 2.110000 2.130000 2.135000 2.137000 2.137000 2.132000 2.127000 2.127000 2.127000 2.127000 2.108000 2.074000 2.068000 2.067000 2.034000 1.899000 1.455000 1.219000 1.219000 1.262000 1.324000 0.000000 0.000000 0.000000 0.000000 0.000000 0.000000 0.000000 0.000000 0.000000 0.000000 0.000000 0.000000 0.000000 
2.151000 2.139000 2.127000 2.115000 2.088000 2.071000 2.083000 2.102000 2.129000 2.137000 2.137000 2.112000 2.089000 2.089000 2.089000 2.089000 2.082000 2.070000 2.068000 2.068000 2.056000 1.565000 0.000000 0.000000 0.000000 0.000000 0.000000 0.000000 0.000000 0.000000 0.000000 0.000000 0.000000 0.000000 0.000000 0.000000 0.000000 0.000000 0.000000 0.000000 
2.137000 2.137000 2.137000 2.135000 2.096000 2.068000 2.068000 2.087000 2.126000 2.137000 2.137000 2.101000 2.066000 2.056000 2.050000 2.050000 2.056000 2.066000 1.487000 0.000000 0.000000 0.000000 0.000000 0.000000 0.000000 0.000000 0.000000 0.000000 0.000000 0.000000 0.000000 0.000000 0.000000 0.000000 0.000000 0.000000 0.000000 0.000000 0.000000 0.000000 
2.137000 2.137000 2.137000 2.135000 2.096000 2.068000 2.068000 2.087000 2.126000 2.137000 2.137000 2.101000 2.063000 2.032000 2.012000 2.012000 2.030000 2.062000 0.000000 0.000000 0.000000 0.000000 0.000000 0.000000 0.000000 0.000000 0.000000 0.000000 0.000000 0.000000 0.000000 0.000000 0.000000 0.000000 0.000000 0.000000 0.000000 0.000000 0.000000 0.000000 
2.165000 2.165000 2.165000 2.163000 2.124000 2.095000 2.095000 2.106000 2.130000 2.137000 2.137000 2.101000 2.062000 2.024000 2.000000 2.000000 2.014000 2.037000 0.000000 0.000000 0.000000 0.000000 0.000000 0.000000 0.000000 0.000000 0.000000 0.000000 0.000000 0.000000 0.000000 0.000000 0.000000 0.000000 0.000000 0.000000 0.000000 0.000000 0.000000 0.000000 
2.205000 2.205000 2.205000 2.203000 2.163000 2.134000 2.134000 2.134000 2.136000 2.137000 2.137000 2.101000 2.062000 2.024000 2.000000 2.000000 2.001000 2.003000 1.892000 1.682000 0.000000 0.000000 0.000000 0.000000 0.000000 0.000000 0.000000 0.000000 0.000000 0.000000 0.000000 0.000000 0.000000 0.000000 0.000000 0.000000 0.000000 0.000000 0.000000 0.000000 
2.149000 2.169000 2.172000 2.171000 2.151000 2.137000 2.137000 2.147000 2.168000 2.159000 2.138000 2.101000 2.065000 2.047000 2.035000 2.035000 2.154000 2.357000 2.396000 2.309000 0.000000 0.000000 0.000000 0.000000 0.000000 0.000000 0.000000 0.000000 0.000000 0.000000 0.000000 0.000000 0.000000 0.000000 0.000000 0.000000 0.000000 0.000000 0.000000 0.000000 
2.092000 2.130000 2.137000 2.137000 2.137000 2.137000 2.137000 2.157000 2.197000 2.182000 2.145000 2.109000 2.086000 2.138000 2.171000 2.171000 2.371000 2.710000 2.774000 2.688000 0.000000 0.000000 0.000000 0.000000 0.000000 0.000000 0.000000 0.000000 0.000000 0.000000 0.000000 0.000000 0.000000 0.000000 0.000000 0.000000 0.000000 0.000000 0.000000 0.000000 
2.092000 2.130000 2.137000 2.137000 2.137000 2.137000 2.137000 2.157000 2.197000 2.199000 2.184000 2.170000 2.226000 2.681000 2.967000 2.967000 2.903000 2.795000 2.774000 2.740000 1.601000 0.000000 0.000000 0.000000 0.000000 0.000000 0.000000 0.000000 0.000000 0.000000 0.000000 0.000000 0.000000 0.000000 0.000000 0.000000 0.000000 0.000000 0.000000 0.000000 
2.092000 2.130000 2.137000 2.137000 2.137000 2.137000 2.137000 2.157000 2.197000 2.209000 2.209000 2.209000 2.316000 0.000000 0.000000 0.000000 0.000000 2.850000 2.774000 2.774000 2.774000 2.774000 2.774000 1.310000 0.000000 0.000000 0.000000 0.000000 0.000000 0.000000 0.000000 0.000000 0.000000 0.000000 0.000000 0.000000 0.000000 0.000000 0.000000 0.000000 
0.000000 0.000000 0.000000 0.000000 0.000000 0.000000 0.000000 0.000000 0.000000 0.000000 0.000000 0.000000 0.000000 0.000000 0.000000 0.000000 0.000000 0.000000 0.000000 0.000000 0.000000 0.000000 0.000000 0.000000 0.000000 0.000000 0.000000 0.000000 0.000000 0.000000 0.000000 0.000000 0.000000 0.000000 0.000000 0.000000 0.000000 0.000000 0.000000 0.000000 
0.000000 0.000000 0.000000 0.000000 0.000000 0.000000 0.000000 0.000000 0.000000 0.000000 0.000000 0.000000 0.000000 0.000000 0.000000 0.000000 0.000000 0.000000 0.000000 0.000000 0.000000 0.000000 0.000000 0.000000 0.000000 0.000000 0.000000 0.000000 0.000000 0.000000 0.000000 0.000000 0.000000 0.000000 0.000000 0.000000 0.000000 0.000000 0.000000 0.000000 
0.000000 0.000000 0.000000 0.000000 0.000000 0.000000 0.000000 0.000000 0.000000 0.000000 0.000000 0.000000 0.000000 0.000000 0.000000 0.000000 0.000000 0.000000 0.000000 0.000000 0.000000 0.000000 0.000000 0.000000 0.000000 0.000000 0.000000 0.000000 0.000000 0.000000 0.000000 0.000000 0.000000 0.000000 0.000000 0.000000 0.000000 0.000000 0.000000 0.000000 
0.000000 0.000000 0.000000 0.000000 0.000000 0.000000 0.000000 0.000000 0.000000 0.000000 0.000000 0.000000 0.000000 0.000000 0.000000 0.000000 0.000000 0.000000 0.000000 0.000000 0.000000 0.000000 0.000000 0.000000 0.000000 0.000000 0.000000 0.000000 0.000000 0.000000 0.000000 0.000000 0.000000 0.000000 0.000000 0.000000 0.000000 0.000000 0.000000 0.000000 
