40 40
0.000000 0.000000 0.000000 0.000000 0.000000 0.000000 0.000000 0.000000 0.000000 0.000000 0.000000 0.000000 0.000000 0.000000 0.000000 0.000000 0.000000 0.000000 0.000000 0.000000 0.000000 0.000000 0.000000 0.000000 2.045000 2.041000 2.042000 2.043000 2.043000 0.000000 0.000000 0.000000 0.000000 0.000000 0.000000 0.000000 0.000000 0.000000 0.000000 0.000000 
0.000000 0.000000 0.000000 0.000000 0.000000 0.000000 0.000000 0.000000 0.000000 0.000000 0.000000 0.000000 0.000000 0.000000 1.996000 1.993000 1.993000 2.007000 2.009000 2.007000 2.015000 2.021000 2.021000 2.024000 2.030000 2.036000 2.036000 2.038000 2.051000 2.051000 0.000000 0.000000 0.000000 0.000000 0.000000 0.000000 0.000000 0.000000 0.000000 0.000000 
0.000000 0.000000 0.000000 0.000000 0.000000 0.000000 0.000000 0.000000 2.616000 2.646000 2.116000 2.322000 2.443000 1.987000 1.997000 1.999000 1.999000 2.001000 2.007000 2.007000 2.007000 2.015000 2.021000 2.024000 2.029000 2.030000 2.036000 2.038000 2.045000 2.051000 0.000000 0.000000 0.000000 0.000000 0.000000 0.000000 0.000000 0.000000 0.000000 0.000000 
0.000000 0.000000 0.000000 0.000000 0.000000 0.000000 2.003000 1.976000 1.969000 1.969000 1.972000 1.978000 1.981000 1.986000 1.993000 1.996000 2.000000 2.000000 2.005000 2.007000 2.007000 2.017000 2.026000 2.029000 2.029000 2.029000 2.033000 2.037000 2.043000 2.043000 0.000000 0.000000 0.000000 0.000000 0.000000 0.000000 0.000000 0.000000 0.000000 0.000000 
0.000000 0.000000 0.000000 0.000000 1.352000 2.013000 1.987000 1.968000 1.966000 1.966000 1.966000 1.970000 1.975000 1.980000 1.988000 1.992000 1.995000 2.000000 2.000000 2.007000 2.007000 2.020000 2.025000 2.029000 2.029000 2.029000 2.034000 2.036000 2.036000 2.034000 0.000000 0.000000 0.000000 0.000000 0.000000 0.000000 0.000000 0.000000 0.000000 0.000000 
0.000000 0.000000 0.000000 0.000000 2.029000 2.012000 1.982000 1.966000 1.966000 1.966000 1.966000 1.970000 1.973000 1.973000 1.984000 1.989000 1.993000 2.000000 2.000000 2.007000 2.008000 2.014000 2.021000 2.024000 2.029000 2.029000 2.036000 2.036000 2.035000 2.029000 0.000000 0.000000 0.000000 0.000000 0.000000 0.000000 0.000000 0.000000 0.000000 0.000000 
0.000000 0.000000 0.000000 0.000000 1.237000 2.018000 1.987000 1.966000 1.961000 1.961000 1.966000 1.970000 1.973000 1.973000 1.983000 1.989000 1.994000 2.000000 2.000000 2.007000 2.007000 2.008000 2.014000 2.021000 2.029000 2.034000 2.036000 2.036000 2.036000 2.036000 0.000000 0.000000 0.000000 0.000000 0.000000 0.000000 0.000000 0.000000 0.000000 0.000000 
0.000000 0.000000 0.000000 0.000000 2.047000 2.019000 1.994000 1.965000 1.960000 1.960000 1.966000 1.966000 1.968000 1.973000 1.980000 1.988000 1.995000 2.000000 2.000000 2.005000 2.007000 2.007000 2.014000 2.024000 2.032000 2.029000 2.036000 2.036000 2.036000 2.054000 0.000000 0.000000 0.000000 0.000000 0.000000 0.000000 0.000000 0.000000 0.000000 0.000000 
0.000000 0.000000 0.000000 0.000000 2.051000 2.029000 1.995000 1.969000 1.960000 1.960000 1.965000 1.966000 1.968000 1.973000 1.978000 1.986000 1.989000 2.000000 2.000000 2.002000 2.007000 2.007000 2.017000 2.021000 2.027000 2.029000 2.032000 2.036000 2.036000 2.045000 0.000000 0.000000 0.000000 0.000000 0.000000 0.000000 0.000000 0.000000 0.000000 0.000000 
0.000000 0.000000 0.000000 0.000000 2.048000 2.034000 1.996000 1.972000 1.964000 1.960000 1.965000 1.966000 1.968000 1.973000 1.978000 1.983000 1.995000 2.000000 2.000000 2.000000 2.007000 2.007000 2.014000 2.021000 2.021000 2.028000 2.029000 2.031000 2.036000 2.036000 2.036000 0.000000 0.000000 0.000000 0.000000 0.000000 0.000000 0.000000 0.000000 0.000000 
0.000000 0.000000 0.000000 0.000000 2.044000 2.034000 2.002000 1.972000 1.964000 1.960000 1.965000 1.966000 1.968000 1.973000 1.978000 1.983000 1.995000 2.000000 2.000000 2.007000 2.007000 2.007000 2.014000 2.023000 2.027000 2.029000 2.029000 2.031000 2.036000 2.036000 2.036000 0.000000 0.000000 0.000000 0.000000 0.000000 0.000000 0.000000 0.000000 0.000000 
0.000000 0.000000 0.000000 0.000000 2.043000 2.034000 2.006000 1.974000 1.964000 1.960000 1.965000 1.966000 1.966000 1.973000 1.978000 1.983000 1.993000 2.000000 2.000000 2.000000 2.007000 2.007000 2.013000 2.024000 2.029000 2.029000 2.029000 2.031000 2.037000 2.043000 2.055000 0.000000 0.000000 0.000000 0.000000 0.000000 0.000000 0.000000 0.000000 0.000000 
0.000000 0.000000 0.000000 0.000000 1.816000 2.036000 2.010000 1.981000 1.966000 1.966000 1.966000 1.966000 1.966000 1.973000 1.978000 1.983000 1.993000 2.000000 2.000000 2.000000 2.007000 2.007000 2.012000 2.023000 2.027000 2.029000 2.029000 2.031000 2.036000 2.041000 2.042000 0.000000 0.000000 0.000000 0.000000 0.000000 0.000000 0.000000 0.000000 0.000000 
0.000000 0.000000 0.000000 0.000000 2.031000 2.049000 2.017000 1.985000 1.971000 1.966000 1.960000 1.966000 1.966000 1.966000 1.978000 1.983000 1.993000 2.000000 2.000000 2.000000 2.007000 2.007000 2.007000 2.017000 2.022000 2.029000 2.029000 2.031000 2.036000 2.036000 2.040000 0.000000 0.000000 0.000000 0.000000 0.000000 0.000000 0.000000 0.000000 0.000000 
0.000000 0.000000 0.000000 0.000000 1.049000 2.057000 2.026000 1.998000 1.974000 1.960000 1.960000 1.966000 1.966000 1.966000 1.978000 1.983000 1.988000 1.993000 1.993000 2.000000 2.000000 2.007000 2.007000 2.015000 2.021000 2.028000 2.029000 2.033000 2.036000 2.036000 2.042000 2.043000 0.000000 0.000000 0.000000 0.000000 0.000000 0.000000 0.000000 0.000000 
0.000000 0.000000 0.000000 0.000000 0.000000 2.057000 2.034000 1.999000 1.976000 1.966000 1.966000 1.966000 1.966000 1.966000 1.978000 1.983000 1.986000 1.986000 1.995000 2.000000 2.000000 2.006000 2.007000 2.014000 2.021000 2.028000 2.029000 2.030000 2.033000 2.036000 2.042000 2.493000 0.000000 0.000000 0.000000 0.000000 0.000000 0.000000 0.000000 0.000000 
0.000000 0.000000 0.000000 0.000000 0.000000 0.000000 1.998000 1.996000 1.978000 1.966000 1.965000 1.960000 1.966000 1.966000 1.978000 1.980000 1.986000 1.986000 2.000000 2.000000 2.000000 2.006000 2.007000 2.014000 2.020000 2.021000 2.029000 2.029000 2.030000 2.036000 2.040000 0.000000 0.000000 0.000000 0.000000 0.000000 0.000000 0.000000 0.000000 0.000000 
0.000000 0.000000 0.000000 0.000000 0.000000 0.000000 1.786000 1.999000 1.982000 1.966000 1.960000 1.960000 1.966000 1.966000 1.977000 1.980000 1.986000 1.986000 1.991000 2.000000 2.000000 2.006000 2.007000 2.014000 2.014000 2.020000 2.029000 2.029000 2.035000 2.036000 2.040000 2.118000 0.000000 0.000000 0.000000 0.000000 0.000000 0.000000 0.000000 0.000000 
0.000000 0.000000 0.000000 0.000000 0.000000 0.000000 1.786000 2.008000 1.985000 1.966000 1.960000 1.960000 1.961000 1.966000 1.971000 1.980000 1.981000 1.986000 1.988000 2.000000 2.000000 2.002000 2.007000 2.007000 2.015000 2.021000 2.029000 2.030000 2.032000 2.036000 2.042000 2.041000 2.169000 0.000000 0.000000 0.000000 0.000000 0.000000 0.000000 0.000000 
0.000000 0.000000 0.000000 0.000000 1.860000 1.082000 1.883000 2.016000 1.989000 1.966000 1.954000 1.953000 1.960000 1.966000 1.973000 1.980000 1.980000 1.980000 1.984000 1.996000 2.000000 2.000000 2.007000 2.007000 2.015000 2.021000 2.029000 2.029000 2.029000 2.035000 2.040000 2.045000 2.179000 0.000000 0.000000 0.000000 0.000000 0.000000 0.000000 0.000000 
0.000000 0.000000 0.000000 0.000000 0.000000 2.043000 2.031000 2.021000 1.995000 1.966000 1.954000 1.953000 1.962000 1.966000 1.971000 1.980000 1.980000 1.980000 1.984000 1.992000 2.000000 2.000000 2.007000 2.007000 2.015000 2.027000 2.029000 2.029000 2.036000 2.036000 2.036000 2.045000 2.179000 0.000000 0.000000 0.000000 0.000000 0.000000 0.000000 0.000000 
0.000000 0.000000 0.000000 0.000000 0.000000 0.000000 2.031000 2.024000 1.995000 1.966000 1.954000 1.953000 1.962000 1.966000 1.971000 1.977000 1.980000 1.980000 1.984000 1.989000 2.000000 2.000000 2.007000 2.007000 2.015000 2.021000 2.026000 2.029000 2.030000 2.036000 2.036000 2.045000 2.074000 0.000000 0.000000 0.000000 0.000000 0.000000 0.000000 0.000000 
0.000000 0.000000 0.000000 0.000000 0.000000 0.000000 1.881000 2.022000 2.002000 1.973000 1.956000 1.953000 1.960000 1.966000 1.971000 1.976000 1.980000 1.980000 1.985000 1.991000 2.000000 2.000000 2.002000 2.007000 2.014000 2.020000 2.026000 2.029000 2.029000 2.029000 2.033000 2.038000 2.054000 0.000000 0.000000 0.000000 0.000000 0.000000 0.000000 0.000000 
0.000000 0.000000 0.000000 0.000000 0.000000 0.000000 1.786000 2.022000 2.005000 1.979000 1.956000 1.953000 1.960000 1.964000 1.973000 1.978000 1.980000 1.982000 1.986000 1.993000 2.000000 2.000000 2.000000 2.006000 2.008000 2.020000 2.024000 2.029000 2.029000 2.029000 2.034000 2.037000 2.048000 2.050000 0.000000 0.000000 0.000000 0.000000 0.000000 0.000000 
0.000000 0.000000 0.000000 0.000000 0.000000 0.000000 1.791000 1.976000 2.009000 1.985000 1.956000 1.953000 1.953000 1.953000 1.971000 1.973000 1.980000 1.980000 1.985000 1.992000 2.000000 2.000000 2.000000 2.003000 2.008000 2.014000 2.021000 2.029000 2.030000 2.036000 2.036000 2.036000 2.036000 2.041000 0.000000 0.000000 0.000000 0.000000 0.000000 0.000000 
0.000000 0.000000 0.000000 0.000000 0.000000 0.000000 0.000000 1.374000 2.009000 1.991000 1.967000 1.953000 1.953000 1.953000 1.966000 1.973000 1.980000 1.980000 1.980000 1.981000 1.994000 2.000000 2.000000 2.003000 2.008000 2.014000 2.018000 2.024000 2.029000 2.035000 2.036000 2.036000 2.036000 2.036000 0.000000 0.000000 0.000000 0.000000 0.000000 0.000000 
0.000000 0.000000 0.000000 0.000000 0.000000 0.000000 0.000000 1.747000 2.016000 1.992000 1.969000 1.953000 1.953000 1.953000 1.965000 1.973000 1.977000 1.980000 1.980000 1.980000 1.993000 1.999000 2.000000 2.001000 2.008000 2.014000 2.018000 2.022000 2.029000 2.029000 2.034000 2.036000 2.036000 2.036000 0.000000 0.000000 0.000000 0.000000 0.000000 0.000000 
0.000000 0.000000 0.000000 0.000000 0.000000 0.000000 0.000000 2.042000 2.024000 2.001000 1.971000 1.957000 1.953000 1.953000 1.966000 1.973000 1.974000 1.980000 1.980000 1.980000 1.993000 1.999000 2.000000 2.000000 2.007000 2.013000 2.019000 2.020000 2.029000 2.029000 2.033000 2.036000 2.036000 2.036000 0.000000 0.000000 0.000000 0.000000 0.000000 0.000000 
0.000000 0.000000 0.000000 0.000000 0.000000 0.000000 0.000000 2.045000 2.024000 1.999000 1.976000 1.963000 1.953000 1.953000 1.971000 1.973000 1.973000 1.980000 1.980000 1.983000 1.993000 1.999000 2.000000 2.000000 2.001000 2.007000 2.011000 2.016000 2.029000 2.029000 2.033000 2.036000 2.036000 2.036000 0.000000 0.000000 0.000000 0.000000 0.000000 0.000000 
0.000000 0.000000 0.000000 0.000000 0.000000 0.000000 0.000000 2.046000 2.024000 1.999000 1.977000 1.959000 1.954000 1.960000 1.973000 1.973000 1.973000 1.973000 1.980000 1.980000 1.987000 1.993000 2.000000 2.000000 2.001000 2.007000 2.011000 2.015000 2.021000 2.028000 2.034000 2.036000 2.036000 2.031000 2.036000 0.000000 0.000000 0.000000 0.000000 0.000000 
0.000000 0.000000 0.000000 0.000000 0.000000 0.000000 0.000000 1.564000 2.025000 2.003000 1.983000 1.963000 1.958000 1.963000 1.973000 1.973000 1.973000 1.973000 1.973000 1.980000 1.986000 1.989000 1.998000 2.000000 2.001000 2.007000 2.011000 2.014000 2.015000 2.028000 2.031000 2.036000 2.036000 2.030000 2.029000 0.000000 0.000000 0.000000 0.000000 0.000000 
0.000000 0.000000 0.000000 0.000000 0.000000 0.000000 0.000000 0.000000 2.026000 2.013000 1.989000 1.965000 1.957000 1.953000 1.966000 1.969000 1.973000 1.973000 1.978000 1.980000 1.981000 1.986000 1.998000 2.000000 2.007000 2.007000 2.007000 2.014000 2.021000 2.028000 2.029000 2.036000 2.036000 2.036000 2.036000 0.000000 0.000000 0.000000 0.000000 0.000000 
0.000000 0.000000 0.000000 0.000000 0.000000 0.000000 0.000000 2.027000 2.026000 2.013000 1.994000 1.963000 1.953000 1.953000 1.960000 1.966000 1.973000 1.973000 1.978000 1.980000 1.981000 1.986000 1.998000 2.000000 2.007000 2.007000 2.007000 2.016000 2.021000 2.028000 2.029000 2.036000 2.036000 2.036000 2.036000 0.000000 0.000000 0.000000 0.000000 0.000000 
0.000000 0.000000 0.000000 0.000000 0.000000 0.000000 0.000000 0.000000 2.032000 2.013000 1.995000 1.965000 1.953000 1.953000 1.960000 1.966000 1.969000 1.973000 1.979000 1.980000 1.980000 1.986000 1.998000 2.000000 2.003000 2.007000 2.007000 2.011000 2.016000 2.020000 2.029000 2.031000 2.029000 2.021000 0.000000 0.000000 0.000000 0.000000 0.000000 0.000000 
0.000000 0.000000 0.000000 0.000000 0.000000 0.000000 0.000000 1.234000 2.042000 2.020000 1.993000 1.969000 1.953000 1.953000 1.960000 1.966000 1.968000 1.973000 1.979000 1.980000 1.980000 1.986000 1.993000 1.998000 2.000000 2.006000 2.007000 2.008000 2.011000 2.011000 2.023000 2.029000 0.000000 0.000000 0.000000 0.000000 0.000000 0.000000 0.000000 0.000000 
0.000000 0.000000 0.000000 0.000000 0.000000 0.000000 0.000000 0.000000 1.825000 2.028000 1.993000 1.973000 1.958000 1.953000 1.960000 1.960000 1.965000 1.973000 1.973000 1.980000 1.980000 1.986000 1.990000 1.992000 2.000000 2.006000 2.007000 1.689000 1.689000 1.689000 1.700000 0.000000 0.000000 0.000000 0.000000 0.000000 0.000000 0.000000 0.000000 0.000000 
0.000000 0.000000 0.000000 0.000000 0.000000 0.000000 0.000000 2.120000 0.000000 2.028000 1.997000 1.975000 1.958000 1.953000 1.960000 1.960000 1.961000 1.973000 1.973000 1.980000 1.980000 1.986000 1.986000 1.989000 2.001000 2.007000 2.007000 0.000000 0.000000 0.000000 0.000000 0.000000 0.000000 0.000000 0.000000 0.000000 0.000000 0.000000 0.000000 0.000000 
0.000000 0.000000 0.000000 0.000000 0.000000 0.000000 0.000000 2.101000 0.000000 1.022000 2.000000 1.979000 1.961000 1.953000 1.955000 1.954000 1.960000 1.973000 1.973000 1.978000 1.991000 1.995000 0.000000 0.000000 0.000000 0.000000 0.000000 0.000000 0.000000 0.000000 0.000000 2.505000 0.000000 0.000000 2.510000 0.000000 0.000000 0.000000 0.000000 0.000000 
0.000000 0.000000 0.000000 0.000000 0.000000 0.000000 0.000000 0.000000 0.000000 0.000000 1.168000 1.983000 1.969000 1.960000 1.955000 1.953000 1.819000 1.337000 0.000000 0.000000 1.357000 1.357000 0.000000 0.000000 0.000000 0.000000 0.000000 0.000000 0.000000 0.000000 0.000000 0.000000 0.000000 1.968000 2.483000 0.000000 0.000000 0.000000 0.000000 0.000000 
0.000000 0.000000 0.000000 0.000000 0.000000 0.000000 0.000000 0.000000 0.000000 0.000000 0.000000 0.000000 0.000000 0.000000 0.000000 0.000000 0.000000 0.000000 0.000000 0.000000 0.000000 0.000000 0.000000 0.000000 0.000000 0.000000 0.000000 0.000000 0.000000 0.000000 0.000000 0.000000 0.000000 0.000000 0.000000 0.000000 0.000000 0.000000 0.000000 0.000000 
