40 40
0.000000 0.000000 0.000000 0.000000 0.000000 0.000000 0.000000 0.000000 0.000000 0.000000 1.966000 2.247000 0.000000 0.000000 0.000000 0.000000 0.000000 0.000000 0.000000 0.000000 0.000000 0.000000 2.378000 0.000000 2.071000 0.000000 2.398000 2.086000 2.086000 2.093000 1.033000 0.000000 0.000000 0.000000 0.000000 0.000000 0.000000 0.000000 0.000000 0.000000 
0.000000 0.000000 0.000000 0.000000 0.000000 0.000000 0.000000 0.000000 2.693000 2.227000 1.966000 1.966000 1.976000 1.731000 2.867000 2.879000 2.853000 2.834000 2.893000 2.546000 1.991000 2.055000 2.049000 2.017000 2.004000 0.000000 2.039000 2.026000 2.016000 1.683000 1.982000 2.720000 0.000000 0.000000 0.000000 0.000000 0.000000 0.000000 0.000000 0.000000 
0.000000 0.000000 0.000000 0.000000 0.000000 0.000000 0.000000 0.000000 1.891000 1.949000 1.953000 1.955000 1.958000 1.961000 1.965000 1.969000 1.971000 1.975000 1.972000 1.979000 1.981000 1.984000 1.988000 1.994000 1.995000 1.997000 1.997000 2.003000 2.005000 2.011000 2.011000 2.014000 0.000000 0.000000 0.000000 0.000000 0.000000 0.000000 0.000000 0.000000 
0.000000 0.000000 0.000000 0.000000 0.000000 0.000000 0.000000 0.000000 1.950000 1.952000 1.953000 1.954000 1.958000 1.961000 1.966000 1.968000 1.969000 1.974000 1.975000 1.979000 1.980000 1.985000 1.987000 1.990000 1.995000 1.997000 2.000000 2.005000 2.009000 2.011000 2.012000 2.014000 0.000000 0.000000 0.000000 0.000000 0.000000 0.000000 0.000000 0.000000 
0.000000 0.000000 0.000000 0.000000 0.000000 0.000000 0.000000 0.000000 1.948000 1.951000 1.951000 1.954000 1.958000 1.965000 1.966000 1.969000 1.973000 1.976000 1.978000 1.980000 1.984000 1.987000 1.989000 1.989000 1.995000 1.997000 2.000000 2.005000 2.011000 2.011000 2.014000 2.018000 0.000000 0.000000 0.000000 0.000000 0.000000 0.000000 0.000000 0.000000 
0.000000 0.000000 0.000000 0.000000 0.000000 0.000000 0.000000 0.000000 1.874000 1.951000 1.952000 1.956000 1.961000 1.965000 1.967000 1.969000 1.973000 1.976000 1.979000 1.981000 1.984000 1.987000 1.989000 1.992000 1.997000 1.997000 2.000000 2.007000 2.011000 2.012000 2.014000 2.019000 0.000000 0.000000 0.000000 0.000000 0.000000 0.000000 0.000000 0.000000 
0.000000 0.000000 0.000000 0.000000 0.000000 0.000000 0.000000 0.000000 1.033000 1.952000 1.953000 1.956000 1.962000 1.966000 1.967000 1.971000 1.975000 1.976000 1.979000 1.984000 1.984000 1.987000 1.989000 1.992000 1.997000 1.999000 2.000000 2.007000 2.011000 2.014000 2.015000 2.020000 0.000000 0.000000 0.000000 0.000000 0.000000 0.000000 0.000000 0.000000 
0.000000 0.000000 0.000000 0.000000 0.000000 0.000000 0.000000 0.000000 1.955000 1.953000 1.953000 1.957000 1.966000 1.966000 1.968000 1.971000 1.973000 1.976000 1.979000 1.984000 1.987000 1.988000 1.989000 1.995000 1.998000 2.000000 2.000000 2.010000 2.014000 2.014000 2.017000 2.022000 0.000000 0.000000 0.000000 0.000000 0.000000 0.000000 0.000000 0.000000 
0.000000 0.000000 0.000000 0.000000 0.000000 0.000000 0.000000 0.000000 1.033000 1.953000 1.953000 1.956000 1.961000 1.966000 1.968000 1.971000 1.973000 1.979000 1.981000 1.985000 1.989000 1.989000 1.992000 1.996000 2.000000 2.000000 2.005000 2.011000 2.014000 2.014000 2.020000 2.024000 0.000000 0.000000 0.000000 0.000000 0.000000 0.000000 0.000000 0.000000 
0.000000 0.000000 0.000000 0.000000 0.000000 0.000000 0.000000 0.000000 1.033000 1.954000 1.954000 1.957000 1.965000 1.966000 1.968000 1.971000 1.976000 1.979000 1.979000 1.985000 1.989000 1.989000 1.992000 1.996000 2.000000 2.003000 2.006000 2.011000 2.014000 2.017000 2.022000 2.024000 0.000000 0.000000 0.000000 0.000000 0.000000 0.000000 0.000000 0.000000 
0.000000 0.000000 0.000000 0.000000 0.000000 0.000000 0.000000 0.000000 1.857000 1.955000 1.956000 1.957000 1.966000 1.968000 1.970000 1.973000 1.979000 1.979000 1.982000 1.987000 1.989000 1.991000 1.996000 1.998000 2.000000 2.003000 2.006000 2.014000 2.014000 2.019000 2.022000 2.025000 0.000000 0.000000 0.000000 0.000000 0.000000 0.000000 0.000000 0.000000 
0.000000 0.000000 0.000000 0.000000 0.000000 0.000000 0.000000 0.000000 1.851000 1.956000 1.958000 1.961000 1.966000 1.968000 1.971000 1.976000 1.979000 1.980000 1.984000 1.987000 1.989000 1.996000 1.996000 1.998000 2.004000 2.006000 2.008000 2.014000 2.016000 2.021000 2.022000 2.025000 0.000000 0.000000 0.000000 0.000000 0.000000 0.000000 0.000000 0.000000 
0.000000 0.000000 0.000000 0.000000 0.000000 0.000000 0.000000 0.000000 1.853000 1.956000 1.957000 1.962000 1.968000 1.968000 1.972000 1.976000 1.979000 1.981000 1.987000 1.989000 1.989000 1.995000 1.997000 2.000000 2.006000 2.006000 2.008000 2.014000 2.018000 2.022000 2.022000 2.027000 0.000000 0.000000 0.000000 0.000000 0.000000 0.000000 0.000000 0.000000 
0.000000 0.000000 0.000000 0.000000 0.000000 0.000000 0.000000 0.000000 1.860000 1.959000 1.958000 1.964000 1.966000 1.970000 1.972000 1.976000 1.981000 1.984000 1.988000 1.989000 1.992000 1.997000 1.997000 2.001000 2.006000 2.008000 2.008000 2.014000 2.018000 2.022000 2.025000 2.030000 0.000000 0.000000 0.000000 0.000000 0.000000 0.000000 0.000000 0.000000 
0.000000 0.000000 0.000000 0.000000 0.000000 0.000000 0.000000 0.000000 1.267000 1.957000 1.959000 1.964000 1.966000 1.970000 1.972000 1.978000 1.984000 1.984000 1.987000 1.989000 1.995000 1.997000 1.999000 2.003000 2.006000 2.008000 2.008000 2.014000 2.019000 2.024000 2.025000 2.028000 0.000000 0.000000 0.000000 0.000000 0.000000 0.000000 0.000000 0.000000 
0.000000 0.000000 0.000000 0.000000 0.000000 0.000000 0.000000 0.000000 1.860000 1.958000 1.959000 1.964000 1.968000 1.971000 1.976000 1.979000 1.980000 1.984000 1.987000 1.990000 1.995000 1.997000 1.998000 2.004000 2.008000 2.010000 2.011000 2.015000 2.020000 2.023000 2.025000 2.031000 0.000000 0.000000 0.000000 0.000000 0.000000 0.000000 0.000000 0.000000 
0.000000 0.000000 0.000000 0.000000 0.000000 0.000000 0.000000 0.000000 1.862000 1.961000 1.963000 1.964000 1.968000 1.972000 1.976000 1.979000 1.984000 1.987000 1.989000 1.993000 1.995000 1.997000 1.998000 2.003000 2.008000 2.011000 2.011000 2.017000 2.022000 2.025000 2.028000 2.031000 0.000000 0.000000 0.000000 0.000000 0.000000 0.000000 0.000000 0.000000 
0.000000 0.000000 0.000000 0.000000 0.000000 0.000000 0.000000 0.000000 1.033000 1.959000 1.961000 1.966000 1.968000 1.970000 1.976000 1.980000 1.984000 1.987000 1.991000 1.992000 1.997000 1.997000 2.002000 2.004000 2.008000 2.011000 2.014000 2.019000 2.022000 2.025000 2.031000 2.034000 0.000000 0.000000 0.000000 0.000000 0.000000 0.000000 0.000000 0.000000 
0.000000 0.000000 0.000000 0.000000 0.000000 0.000000 0.000000 0.000000 1.033000 1.962000 1.963000 1.966000 1.970000 1.973000 1.978000 1.980000 1.984000 1.987000 1.989000 1.995000 1.997000 1.997000 2.002000 2.004000 2.011000 2.011000 2.014000 2.021000 2.023000 2.025000 2.031000 2.034000 0.000000 0.000000 0.000000 0.000000 0.000000 0.000000 0.000000 0.000000 
0.000000 0.000000 0.000000 0.000000 0.000000 0.000000 0.000000 0.000000 1.876000 1.963000 1.963000 1.966000 1.971000 1.973000 1.978000 1.980000 1.984000 1.987000 1.989000 1.996000 2.000000 2.000000 2.001000 2.005000 2.011000 2.011000 2.014000 2.021000 2.025000 2.025000 2.031000 2.034000 0.000000 0.000000 0.000000 0.000000 0.000000 0.000000 0.000000 0.000000 
0.000000 0.000000 0.000000 0.000000 0.000000 0.000000 0.000000 0.000000 1.033000 1.963000 1.964000 1.966000 1.972000 1.976000 1.980000 1.982000 1.987000 1.987000 1.992000 1.997000 1.998000 2.001000 2.002000 2.006000 2.011000 2.012000 2.017000 2.022000 2.025000 2.028000 2.034000 2.036000 0.000000 0.000000 0.000000 0.000000 0.000000 0.000000 0.000000 0.000000 
0.000000 0.000000 0.000000 0.000000 0.000000 0.000000 0.000000 0.000000 1.033000 1.964000 1.966000 1.966000 1.971000 1.976000 1.979000 1.982000 1.987000 1.989000 1.995000 1.997000 1.998000 2.000000 2.006000 2.009000 2.013000 2.014000 2.017000 2.024000 2.028000 2.031000 2.034000 2.037000 0.000000 0.000000 0.000000 0.000000 0.000000 0.000000 0.000000 0.000000 
0.000000 0.000000 0.000000 0.000000 0.000000 0.000000 0.000000 0.000000 1.787000 1.964000 1.966000 1.969000 1.973000 1.976000 1.982000 1.984000 1.987000 1.989000 1.994000 1.997000 1.998000 2.003000 2.006000 2.009000 2.011000 2.014000 2.020000 2.024000 2.028000 2.031000 2.034000 2.037000 0.000000 0.000000 0.000000 0.000000 0.000000 0.000000 0.000000 0.000000 
0.000000 0.000000 0.000000 0.000000 0.000000 0.000000 0.000000 0.000000 1.867000 1.966000 1.966000 1.969000 1.973000 1.978000 1.980000 1.986000 1.987000 1.989000 1.995000 1.997000 2.000000 2.006000 2.008000 2.009000 2.012000 2.014000 2.019000 2.026000 2.031000 2.031000 2.034000 2.039000 0.000000 0.000000 0.000000 0.000000 0.000000 0.000000 0.000000 0.000000 
0.000000 0.000000 0.000000 0.000000 0.000000 0.000000 0.000000 0.000000 1.866000 1.966000 1.967000 1.971000 1.976000 1.979000 1.980000 1.986000 1.989000 1.991000 1.996000 1.998000 2.002000 2.006000 2.008000 2.009000 2.015000 2.017000 2.021000 2.027000 2.029000 2.032000 2.037000 2.039000 0.000000 0.000000 0.000000 0.000000 0.000000 0.000000 0.000000 0.000000 
0.000000 0.000000 0.000000 0.000000 0.000000 0.000000 0.000000 0.000000 1.858000 1.966000 1.970000 1.973000 1.977000 1.979000 1.981000 1.987000 1.989000 1.992000 1.996000 1.998000 2.001000 2.006000 2.008000 2.012000 2.017000 2.020000 2.022000 2.027000 2.033000 2.035000 2.040000 1.889000 0.000000 0.000000 0.000000 0.000000 0.000000 0.000000 0.000000 0.000000 
0.000000 0.000000 0.000000 0.000000 0.000000 0.000000 0.000000 0.000000 1.862000 1.968000 1.972000 1.974000 1.979000 1.981000 1.987000 1.988000 1.992000 1.995000 1.997000 2.000000 2.003000 2.008000 2.008000 2.012000 2.017000 2.020000 2.022000 2.031000 2.034000 2.037000 2.040000 2.043000 0.000000 0.000000 0.000000 0.000000 0.000000 0.000000 0.000000 0.000000 
0.000000 0.000000 0.000000 0.000000 0.000000 0.000000 0.000000 0.000000 1.223000 1.972000 1.972000 1.974000 1.978000 1.981000 1.987000 1.988000 1.992000 1.995000 1.996000 2.003000 2.006000 2.011000 2.011000 2.012000 2.018000 2.020000 2.026000 2.032000 2.035000 2.037000 2.043000 2.043000 0.000000 0.000000 0.000000 0.000000 0.000000 0.000000 0.000000 0.000000 
0.000000 0.000000 0.000000 0.000000 0.000000 0.000000 0.000000 0.000000 1.869000 1.972000 1.972000 1.974000 1.981000 1.987000 1.987000 1.989000 1.995000 1.997000 1.998000 2.004000 2.006000 2.008000 2.012000 2.016000 2.019000 2.021000 2.027000 2.033000 2.035000 2.039000 2.044000 2.048000 0.000000 0.000000 0.000000 0.000000 0.000000 0.000000 0.000000 0.000000 
0.000000 0.000000 0.000000 0.000000 0.000000 0.000000 0.000000 0.000000 1.977000 1.972000 1.972000 1.977000 1.981000 1.986000 1.987000 1.990000 1.995000 1.996000 1.999000 2.004000 2.007000 2.008000 2.011000 2.015000 2.020000 2.021000 2.028000 2.034000 2.037000 2.040000 2.043000 2.046000 0.000000 0.000000 0.000000 0.000000 0.000000 0.000000 0.000000 0.000000 
0.000000 0.000000 0.000000 0.000000 0.000000 0.000000 0.000000 0.000000 1.892000 1.973000 1.973000 1.977000 1.984000 1.987000 1.987000 1.992000 1.995000 1.995000 1.999000 2.003000 2.009000 2.011000 2.011000 2.019000 2.022000 2.022000 2.030000 2.034000 2.038000 2.040000 2.043000 2.043000 0.000000 0.000000 0.000000 0.000000 0.000000 0.000000 0.000000 0.000000 
0.000000 0.000000 0.000000 0.000000 0.000000 0.000000 0.000000 0.000000 1.761000 1.976000 1.975000 1.981000 1.987000 1.987000 1.987000 1.991000 1.997000 1.997000 2.000000 2.005000 2.011000 2.011000 2.016000 2.020000 2.022000 2.025000 2.031000 2.036000 2.040000 2.043000 2.043000 2.046000 0.000000 0.000000 0.000000 0.000000 0.000000 0.000000 0.000000 0.000000 
0.000000 0.000000 0.000000 0.000000 0.000000 0.000000 0.000000 0.000000 1.949000 1.974000 1.974000 1.981000 1.984000 1.987000 1.989000 1.993000 1.997000 1.997000 2.000000 2.008000 2.009000 2.011000 2.014000 2.021000 2.023000 2.028000 2.031000 2.036000 2.042000 2.043000 2.046000 2.044000 0.000000 0.000000 0.000000 0.000000 0.000000 0.000000 0.000000 0.000000 
0.000000 0.000000 0.000000 0.000000 0.000000 0.000000 0.000000 0.000000 1.988000 1.974000 1.976000 1.984000 1.985000 1.988000 1.991000 1.996000 1.997000 2.000000 2.002000 2.008000 2.009000 2.011000 2.017000 2.021000 2.022000 2.031000 2.031000 2.039000 2.043000 2.044000 2.046000 2.046000 0.000000 0.000000 0.000000 0.000000 0.000000 0.000000 0.000000 0.000000 
0.000000 0.000000 0.000000 0.000000 0.000000 0.000000 0.000000 0.000000 1.985000 1.976000 1.976000 1.982000 1.987000 1.989000 1.990000 1.994000 1.997000 2.000000 2.003000 2.008000 2.012000 2.017000 2.020000 2.022000 2.022000 2.028000 2.031000 2.037000 2.039000 2.046000 2.049000 1.921000 0.000000 0.000000 0.000000 0.000000 0.000000 0.000000 0.000000 0.000000 
0.000000 0.000000 0.000000 0.000000 0.000000 0.000000 0.000000 0.000000 1.979000 1.979000 1.979000 1.985000 1.987000 1.989000 1.994000 1.998000 2.000000 2.000000 2.005000 2.011000 2.012000 2.014000 2.021000 2.022000 2.020000 2.028000 1.255000 2.034000 2.040000 1.916000 1.074000 1.033000 0.000000 0.000000 0.000000 0.000000 0.000000 0.000000 0.000000 0.000000 
0.000000 0.000000 0.000000 0.000000 0.000000 0.000000 0.000000 0.000000 1.900000 1.976000 1.979000 1.985000 1.987000 1.989000 1.995000 2.001000 2.002000 2.008000 2.058000 2.008000 2.011000 2.012000 2.042000 2.033000 1.227000 1.033000 1.033000 1.033000 1.033000 1.033000 1.033000 1.033000 0.000000 0.000000 0.000000 0.000000 0.000000 0.000000 0.000000 0.000000 
0.000000 0.000000 0.000000 0.000000 0.000000 0.000000 0.000000 0.000000 1.033000 1.976000 1.712000 1.992000 1.504000 1.033000 1.033000 1.033000 2.028000 2.020000 2.115000 2.115000 2.109000 2.108000 2.043000 2.043000 1.033000 1.033000 1.033000 1.033000 1.033000 1.033000 1.033000 1.033000 0.000000 0.000000 0.000000 0.000000 0.000000 0.000000 0.000000 0.000000 
0.000000 0.000000 0.000000 0.000000 0.000000 0.000000 0.000000 0.000000 1.033000 1.033000 1.033000 1.033000 1.033000 1.033000 1.033000 1.033000 2.022000 2.022000 2.093000 2.094000 2.096000 2.106000 2.063000 1.552000 1.033000 1.033000 1.033000 1.033000 1.033000 1.033000 1.033000 1.033000 0.000000 0.000000 0.000000 0.000000 0.000000 0.000000 0.000000 0.000000 
0.000000 0.000000 0.000000 0.000000 0.000000 0.000000 0.000000 0.000000 0.000000 0.000000 0.000000 0.000000 0.000000 0.000000 0.000000 0.000000 0.000000 0.000000 0.000000 0.000000 0.000000 0.000000 0.000000 0.000000 0.000000 0.000000 0.000000 0.000000 0.000000 0.000000 0.000000 0.000000 0.000000 0.000000 0.000000 0.000000 0.000000 0.000000 0.000000 0.000000 
