0.000000,0.000000,0.000000,0.000000,0.000000,0.000000,0.000000,0.000000,0.000000,0.000000,0.000000,0.000000,0.000000,0.000000,0.000000,0.000000,0.000000,0.000000,0.000000,0.000000,0.000000,0.000000,0.000000,0.000000,0.000000,0.000000,0.000000,0.000000,0.000000,0.000000,0.000000,0.000000,0.000000,0.000000,0.000000,0.000000,0.000000,0.000000,0.000000,0.000000,
0.000000,0.000000,0.000000,0.000000,0.000000,0.000000,0.000000,0.000000,0.000000,0.000000,0.000000,0.000000,0.000000,1.121000,1.097000,1.104000,2.003000,2.000000,1.972000,1.598000,1.097000,1.097000,1.097000,2.257000,0.000000,0.000000,0.000000,0.000000,0.000000,0.000000,0.000000,0.000000,0.000000,0.000000,0.000000,0.000000,0.000000,0.000000,0.000000,0.000000,
0.000000,0.000000,0.000000,0.000000,0.000000,0.000000,0.000000,0.000000,0.000000,0.000000,0.000000,1.270000,1.097000,1.097000,1.943000,1.979000,1.978000,1.975000,1.974000,1.970000,1.609000,1.097000,1.097000,1.097000,0.000000,0.000000,0.000000,0.000000,0.000000,0.000000,0.000000,0.000000,0.000000,0.000000,0.000000,0.000000,0.000000,0.000000,0.000000,0.000000,
0.000000,0.000000,0.000000,0.000000,0.000000,0.000000,0.000000,0.000000,0.000000,0.000000,1.097000,1.097000,1.966000,1.986000,1.986000,1.980000,1.979000,1.977000,1.974000,1.971000,1.970000,1.097000,1.097000,1.097000,1.174000,0.000000,0.000000,0.000000,0.000000,0.000000,0.000000,0.000000,0.000000,0.000000,0.000000,0.000000,0.000000,0.000000,0.000000,0.000000,
0.000000,0.000000,0.000000,0.000000,0.000000,0.000000,0.000000,0.000000,1.501000,1.097000,1.652000,1.996000,1.989000,1.987000,1.986000,1.984000,1.980000,1.979000,1.977000,1.976000,1.974000,1.972000,1.097000,1.877000,1.097000,0.000000,0.000000,0.000000,0.000000,0.000000,0.000000,0.000000,0.000000,0.000000,0.000000,0.000000,0.000000,0.000000,0.000000,0.000000,
0.000000,0.000000,0.000000,0.000000,0.000000,0.000000,0.000000,1.213000,1.097000,1.879000,1.998000,1.995000,1.989000,1.988000,1.987000,1.985000,1.982000,1.979000,1.978000,1.977000,1.975000,1.972000,1.972000,1.970000,1.097000,1.097000,0.000000,0.000000,0.000000,0.000000,0.000000,0.000000,0.000000,0.000000,0.000000,0.000000,0.000000,0.000000,0.000000,0.000000,
0.000000,0.000000,0.000000,0.000000,0.000000,0.000000,0.000000,1.097000,1.963000,1.998000,1.998000,1.995000,1.993000,1.989000,1.987000,1.986000,1.985000,1.984000,1.979000,1.978000,1.977000,1.976000,1.972000,1.969000,1.928000,1.097000,1.226000,0.000000,0.000000,0.000000,0.000000,0.000000,0.000000,0.000000,0.000000,0.000000,0.000000,0.000000,0.000000,0.000000,
0.000000,0.000000,0.000000,0.000000,0.000000,1.864000,1.973000,2.006000,2.003000,2.000000,2.000000,1.998000,1.994000,1.992000,1.988000,1.988000,1.986000,1.986000,1.982000,1.979000,1.978000,1.977000,1.972000,1.970000,1.968000,1.760000,1.097000,1.775000,0.000000,0.000000,0.000000,0.000000,0.000000,0.000000,0.000000,0.000000,0.000000,0.000000,0.000000,0.000000,
0.000000,0.000000,0.000000,2.876000,1.838000,2.012000,2.006000,2.007000,2.005000,2.005000,2.001000,1.998000,1.995000,1.993000,1.992000,1.989000,1.986000,1.986000,1.984000,1.979000,1.979000,1.978000,1.972000,1.972000,1.970000,1.966000,1.634000,1.097000,0.000000,0.000000,0.000000,0.000000,0.000000,0.000000,0.000000,0.000000,0.000000,0.000000,0.000000,0.000000,
0.000000,0.000000,2.065000,2.017000,2.015000,2.012000,2.008000,2.009000,2.008000,2.005000,2.003000,1.999000,1.998000,1.995000,1.992000,1.992000,1.989000,1.987000,1.984000,1.982000,1.980000,1.979000,1.977000,1.972000,1.970000,1.969000,1.916000,1.097000,1.661000,0.000000,0.000000,0.000000,0.000000,0.000000,0.000000,0.000000,0.000000,0.000000,0.000000,0.000000,
2.043000,2.028000,2.023000,2.019000,2.015000,2.015000,2.010000,2.012000,2.007000,2.006000,2.005000,2.001000,1.998000,1.996000,1.994000,1.993000,1.991000,1.987000,1.986000,1.986000,1.984000,1.982000,1.979000,1.974000,1.971000,1.971000,1.967000,1.097000,1.255000,0.000000,0.000000,0.000000,0.000000,0.000000,0.000000,0.000000,0.000000,0.000000,0.000000,0.000000,
2.034000,2.025000,2.022000,2.020000,2.017000,2.015000,2.013000,2.012000,2.008000,2.007000,2.005000,2.002000,2.000000,1.998000,1.998000,1.995000,1.993000,1.988000,1.986000,1.986000,1.986000,1.982000,1.982000,1.978000,1.976000,1.972000,1.970000,1.968000,1.097000,2.587000,0.000000,0.000000,0.000000,0.000000,0.000000,0.000000,0.000000,0.000000,0.000000,0.000000,
2.030000,2.025000,2.024000,2.022000,2.020000,2.015000,2.013000,2.014000,2.011000,2.007000,2.006000,2.003000,2.003000,2.000000,1.998000,1.994000,1.993000,1.993000,1.988000,1.986000,1.987000,1.983000,1.982000,1.978000,1.976000,1.972000,1.972000,1.970000,1.585000,1.097000,0.000000,0.000000,0.000000,0.000000,0.000000,0.000000,0.000000,0.000000,0.000000,0.000000,
1.097000,2.027000,2.027000,2.025000,2.022000,2.019000,2.015000,2.016000,2.015000,2.010000,2.007000,2.006000,2.005000,2.003000,1.998000,1.997000,1.995000,1.994000,1.990000,1.988000,1.987000,1.986000,1.982000,1.979000,1.979000,1.976000,1.972000,1.970000,1.970000,1.097000,1.097000,0.000000,0.000000,0.000000,0.000000,0.000000,0.000000,0.000000,0.000000,0.000000,
1.097000,2.006000,2.030000,2.025000,2.024000,2.022000,2.019000,2.017000,2.015000,2.015000,2.011000,2.007000,2.006000,2.005000,1.999000,1.998000,1.997000,1.995000,1.992000,1.989000,1.988000,1.987000,1.983000,1.982000,1.979000,1.979000,1.973000,1.972000,1.970000,1.970000,1.097000,1.186000,0.000000,0.000000,0.000000,0.000000,0.000000,0.000000,0.000000,0.000000,
2.392000,1.097000,2.030000,2.029000,2.025000,2.022000,2.021000,2.019000,2.017000,2.016000,2.013000,2.010000,2.007000,2.005000,2.002000,2.000000,2.000000,1.997000,1.994000,1.992000,1.988000,1.988000,1.986000,1.984000,1.979000,1.979000,1.976000,1.973000,1.971000,1.970000,1.546000,1.097000,0.000000,0.000000,0.000000,0.000000,0.000000,0.000000,0.000000,0.000000,
0.000000,1.097000,2.025000,2.030000,2.026000,2.024000,2.022000,2.023000,2.018000,2.016000,2.015000,2.012000,2.008000,2.006000,2.005000,2.005000,2.001000,1.998000,1.995000,1.995000,1.994000,1.991000,1.988000,1.986000,1.983000,1.981000,1.977000,1.974000,1.971000,1.970000,1.967000,1.097000,1.097000,2.827000,0.000000,0.000000,0.000000,0.000000,0.000000,0.000000,
0.000000,1.097000,1.097000,2.032000,2.030000,2.025000,2.022000,2.025000,2.021000,2.019000,2.015000,2.015000,2.011000,2.008000,2.006000,2.005000,2.001000,2.000000,1.999000,1.995000,1.996000,1.994000,1.990000,1.988000,1.986000,1.982000,1.979000,1.978000,1.972000,1.972000,1.970000,1.968000,1.097000,1.097000,0.000000,0.000000,0.000000,0.000000,0.000000,0.000000,
0.000000,2.470000,1.097000,1.097000,2.029000,2.030000,2.025000,2.025000,2.022000,2.020000,2.016000,2.015000,2.014000,2.011000,2.007000,2.007000,2.005000,2.003000,2.001000,1.997000,1.996000,1.997000,1.991000,1.988000,1.986000,1.983000,1.983000,1.980000,1.975000,1.975000,1.972000,1.970000,1.955000,1.097000,0.000000,0.000000,0.000000,0.000000,0.000000,0.000000,
0.000000,0.000000,2.427000,1.097000,1.545000,2.032000,2.030000,2.027000,2.025000,2.023000,2.019000,2.017000,2.015000,2.013000,2.009000,2.007000,2.006000,2.005000,2.001000,1.999000,1.997000,1.995000,1.996000,1.991000,1.988000,1.986000,1.984000,1.982000,1.979000,1.975000,1.972000,1.970000,1.970000,1.966000,1.097000,0.000000,0.000000,0.000000,0.000000,0.000000,
0.000000,0.000000,0.000000,1.217000,1.097000,1.969000,2.030000,2.028000,2.027000,2.025000,2.022000,2.018000,2.017000,2.016000,2.013000,2.009000,2.007000,2.005000,2.004000,2.000000,1.999000,1.996000,1.998000,1.992000,1.989000,1.988000,1.984000,1.982000,1.979000,1.977000,1.975000,1.972000,1.972000,1.968000,1.097000,1.097000,0.000000,0.000000,0.000000,0.000000,
0.000000,0.000000,0.000000,0.000000,1.463000,1.575000,2.030000,2.030000,2.030000,2.027000,2.025000,2.021000,2.020000,2.017000,2.015000,2.013000,2.011000,2.009000,2.005000,2.004000,2.003000,1.999000,1.998000,1.994000,1.991000,1.989000,1.987000,1.984000,1.979000,1.979000,1.977000,1.972000,1.972000,1.970000,1.970000,1.097000,0.000000,0.000000,0.000000,0.000000,
0.000000,0.000000,0.000000,0.000000,1.466000,1.097000,1.850000,2.032000,2.030000,2.027000,2.026000,2.023000,2.020000,2.018000,2.017000,2.015000,2.015000,2.010000,2.007000,2.005000,2.005000,2.000000,1.998000,1.995000,1.993000,1.991000,1.988000,1.986000,1.982000,1.982000,1.978000,1.975000,1.972000,1.972000,1.972000,1.151000,1.097000,0.000000,0.000000,0.000000,
0.000000,0.000000,0.000000,0.000000,0.000000,1.097000,1.097000,2.035000,2.031000,2.031000,2.028000,2.025000,2.024000,2.021000,2.019000,2.016000,2.015000,2.011000,2.008000,2.007000,2.005000,2.004000,1.998000,1.997000,1.996000,1.993000,1.991000,1.988000,1.984000,1.982000,1.979000,1.977000,1.975000,1.974000,1.972000,1.972000,1.097000,2.733000,0.000000,0.000000,
0.000000,0.000000,0.000000,0.000000,0.000000,0.000000,1.097000,1.608000,2.035000,2.033000,2.031000,2.027000,2.025000,2.022000,2.020000,2.017000,2.016000,2.014000,2.010000,2.007000,2.007000,2.005000,2.001000,1.998000,1.995000,1.993000,1.991000,1.988000,1.986000,1.983000,1.982000,1.979000,1.978000,1.973000,1.973000,1.972000,1.966000,1.097000,0.000000,0.000000,
0.000000,0.000000,0.000000,0.000000,0.000000,0.000000,1.626000,1.097000,1.797000,2.035000,2.032000,2.027000,2.026000,2.024000,2.022000,2.018000,2.017000,2.015000,2.011000,2.009000,2.007000,2.006000,2.001000,2.000000,1.998000,1.995000,1.991000,1.988000,1.988000,1.985000,1.982000,1.980000,1.979000,1.975000,1.975000,1.972000,1.972000,1.203000,1.097000,0.000000,
0.000000,0.000000,0.000000,0.000000,0.000000,0.000000,0.000000,1.248000,1.097000,1.972000,2.035000,2.035000,2.028000,2.027000,2.025000,2.022000,2.017000,2.015000,2.015000,2.010000,2.009000,2.008000,2.004000,2.002000,2.000000,1.998000,1.995000,1.991000,1.988000,1.986000,1.984000,1.982000,1.979000,1.977000,1.977000,1.975000,1.972000,1.972000,1.129000,0.000000,
0.000000,0.000000,0.000000,0.000000,0.000000,0.000000,0.000000,0.000000,1.097000,1.097000,2.036000,2.033000,2.030000,2.028000,2.025000,2.025000,2.021000,2.017000,2.015000,2.012000,2.011000,2.010000,2.006000,2.004000,2.000000,1.997000,1.995000,1.993000,1.991000,1.988000,1.984000,1.982000,1.979000,1.979000,1.977000,1.975000,1.975000,1.972000,1.972000,0.000000,
0.000000,0.000000,0.000000,0.000000,0.000000,0.000000,0.000000,0.000000,2.176000,1.097000,1.627000,2.036000,2.035000,2.031000,2.026000,2.025000,2.022000,2.018000,2.017000,2.015000,2.014000,2.010000,2.009000,2.007000,2.002000,2.000000,1.996000,1.993000,1.991000,1.988000,1.986000,1.984000,1.982000,1.979000,1.980000,1.980000,1.975000,1.975000,1.970000,0.000000,
0.000000,0.000000,0.000000,0.000000,0.000000,0.000000,0.000000,0.000000,0.000000,1.097000,1.097000,2.036000,2.035000,2.032000,2.027000,2.026000,2.024000,2.022000,2.020000,2.016000,2.015000,2.012000,2.010000,2.007000,2.003000,2.000000,1.998000,1.995000,1.993000,1.991000,1.988000,1.986000,1.984000,1.982000,1.982000,1.979000,1.977000,1.975000,1.970000,0.000000,
0.000000,0.000000,0.000000,0.000000,0.000000,0.000000,0.000000,0.000000,0.000000,0.000000,1.097000,1.999000,2.035000,2.035000,2.031000,2.026000,2.025000,2.022000,2.020000,2.017000,2.017000,2.015000,2.011000,2.007000,2.007000,2.005000,2.000000,1.998000,1.995000,1.991000,1.988000,1.988000,1.986000,1.984000,1.982000,1.979000,1.979000,1.873000,1.097000,0.000000,
0.000000,0.000000,0.000000,0.000000,0.000000,0.000000,0.000000,0.000000,0.000000,0.000000,1.995000,1.097000,1.954000,2.035000,2.032000,2.029000,2.027000,2.025000,2.021000,2.019000,2.017000,2.016000,2.014000,2.010000,2.007000,2.005000,2.000000,1.998000,1.998000,1.995000,1.993000,1.988000,1.986000,1.983000,1.984000,1.975000,1.898000,1.097000,1.097000,0.000000,
0.000000,0.000000,0.000000,0.000000,0.000000,0.000000,0.000000,0.000000,0.000000,0.000000,0.000000,1.097000,1.097000,2.015000,2.035000,2.031000,2.029000,2.026000,2.024000,2.020000,2.018000,2.017000,2.014000,2.012000,2.009000,2.005000,2.000000,2.000000,1.998000,1.998000,1.993000,1.988000,1.985000,1.939000,1.097000,1.097000,1.097000,1.097000,1.097000,0.000000,
0.000000,0.000000,0.000000,0.000000,0.000000,0.000000,0.000000,0.000000,0.000000,0.000000,0.000000,1.097000,1.097000,1.642000,2.037000,2.036000,2.032000,2.029000,2.026000,2.022000,2.021000,2.019000,2.015000,2.012000,2.010000,2.007000,2.005000,2.000000,2.000000,1.998000,1.991000,1.097000,1.123000,1.097000,1.097000,1.125000,1.125000,1.097000,1.097000,0.000000,
0.000000,0.000000,0.000000,0.000000,0.000000,0.000000,0.000000,0.000000,0.000000,0.000000,0.000000,2.072000,1.097000,1.097000,1.098000,2.037000,2.033000,2.029000,2.026000,2.025000,2.021000,2.020000,2.017000,2.017000,2.015000,2.010000,2.007000,2.002000,1.998000,1.994000,1.097000,1.150000,2.007000,1.099000,1.097000,2.067000,2.067000,1.217000,1.097000,0.000000,
0.000000,0.000000,0.000000,0.000000,0.000000,0.000000,0.000000,0.000000,0.000000,0.000000,0.000000,0.000000,1.097000,1.097000,1.097000,2.037000,2.035000,2.030000,2.027000,2.027000,2.026000,2.021000,2.020000,2.017000,2.016000,2.011000,2.007000,1.850000,1.125000,1.122000,2.078000,2.066000,2.010000,2.007000,2.050000,2.048000,2.040000,2.460000,2.508000,0.000000,
0.000000,0.000000,0.000000,0.000000,0.000000,0.000000,0.000000,0.000000,0.000000,0.000000,0.000000,0.000000,2.108000,1.097000,1.097000,1.128000,2.037000,2.033000,2.029000,2.026000,2.025000,2.025000,2.022000,2.019000,2.012000,1.807000,1.097000,1.097000,1.237000,2.104000,2.089000,2.073000,2.072000,2.007000,2.012000,2.022000,2.013000,2.031000,2.507000,0.000000,
0.000000,0.000000,0.000000,0.000000,0.000000,0.000000,0.000000,0.000000,0.000000,0.000000,0.000000,0.000000,0.000000,0.000000,1.097000,1.097000,2.035000,2.035000,2.032000,2.029000,2.027000,2.024000,2.020000,2.017000,1.159000,1.097000,1.097000,1.097000,2.098000,2.088000,2.070000,2.059000,2.045000,2.020000,2.003000,2.001000,1.994000,1.987000,2.024000,0.000000,
0.000000,0.000000,0.000000,0.000000,0.000000,0.000000,0.000000,0.000000,0.000000,0.000000,0.000000,0.000000,0.000000,0.000000,0.000000,0.000000,0.000000,2.035000,2.035000,2.031000,2.030000,2.018000,2.007000,1.097000,1.097000,1.310000,2.106000,2.107000,2.091000,2.070000,2.052000,2.040000,2.027000,2.013000,1.996000,1.991000,1.984000,1.984000,1.979000,0.000000,
0.000000,0.000000,0.000000,0.000000,0.000000,0.000000,0.000000,0.000000,0.000000,0.000000,0.000000,0.000000,0.000000,0.000000,0.000000,0.000000,0.000000,0.000000,0.000000,0.000000,0.000000,0.000000,0.000000,0.000000,0.000000,0.000000,0.000000,0.000000,0.000000,0.000000,0.000000,0.000000,0.000000,0.000000,0.000000,0.000000,0.000000,0.000000,0.000000,0.000000,
