0.000000,0.000000,0.000000,0.000000,0.000000,0.000000,0.000000,0.000000,0.000000,0.000000,0.000000,0.000000,0.000000,0.000000,0.000000,0.000000,0.000000,0.000000,0.000000,0.000000,0.000000,0.000000,0.000000,0.000000,0.000000,0.000000,0.000000,0.000000,0.000000,0.000000,0.000000,0.000000,0.000000,0.000000,0.000000,0.000000,0.000000,0.000000,0.000000,0.000000,
0.000000,0.000000,0.000000,0.000000,0.000000,0.000000,0.000000,0.000000,0.000000,0.000000,0.000000,0.000000,0.000000,0.000000,0.000000,0.000000,0.000000,0.000000,0.000000,2.703000,0.000000,2.711000,2.247000,2.067000,2.278000,2.666000,1.996000,1.990000,1.990000,1.987000,2.401000,0.000000,0.000000,0.000000,0.000000,0.000000,0.000000,0.000000,0.000000,0.000000,
0.000000,0.000000,0.000000,0.000000,0.000000,0.000000,0.000000,2.039000,2.036000,2.039000,0.000000,0.000000,2.037000,2.023000,0.000000,2.868000,2.015000,2.014000,2.010000,2.012000,2.011000,2.006000,2.003000,2.000000,1.999000,1.993000,1.990000,1.990000,1.989000,1.987000,1.985000,1.690000,0.000000,0.000000,0.000000,0.000000,0.000000,0.000000,0.000000,0.000000,
0.000000,0.000000,0.000000,0.000000,0.000000,0.000000,2.032000,2.028000,2.028000,2.026000,2.023000,2.020000,2.016000,2.017000,2.013000,2.013000,2.013000,2.010000,2.006000,2.010000,2.005000,2.003000,2.001000,2.000000,1.999000,1.993000,1.990000,1.990000,1.988000,1.984000,1.981000,1.059000,0.000000,0.000000,0.000000,0.000000,0.000000,0.000000,0.000000,0.000000,
0.000000,0.000000,0.000000,0.000000,0.000000,0.000000,2.030000,2.027000,2.024000,2.023000,2.023000,2.023000,2.016000,2.013000,2.013000,2.013000,2.013000,2.010000,2.006000,2.007000,2.004000,2.003000,2.000000,2.000000,1.999000,1.995000,1.990000,1.987000,1.987000,1.984000,1.554000,1.687000,0.000000,0.000000,0.000000,0.000000,0.000000,0.000000,0.000000,0.000000,
0.000000,0.000000,0.000000,0.000000,0.000000,0.000000,2.031000,2.027000,2.027000,2.023000,2.023000,2.023000,2.023000,2.018000,2.013000,2.013000,2.013000,2.010000,2.010000,2.006000,2.006000,2.003000,2.000000,2.000000,1.997000,1.993000,1.990000,1.987000,1.987000,1.986000,1.921000,1.700000,0.000000,0.000000,0.000000,0.000000,0.000000,0.000000,0.000000,0.000000,
0.000000,0.000000,0.000000,0.000000,0.000000,0.000000,2.030000,2.027000,2.027000,2.023000,2.023000,2.023000,2.020000,2.015000,2.013000,2.013000,2.013000,2.009000,2.006000,2.004000,2.003000,2.003000,2.000000,1.997000,1.994000,1.992000,1.990000,1.990000,1.987000,1.986000,1.979000,1.320000,0.000000,0.000000,0.000000,0.000000,0.000000,0.000000,0.000000,0.000000,
0.000000,0.000000,0.000000,0.000000,0.000000,0.000000,2.031000,2.027000,2.027000,2.023000,2.023000,2.022000,2.016000,2.013000,2.013000,2.013000,2.010000,2.006000,2.006000,2.004000,2.003000,2.003000,2.000000,2.000000,1.993000,1.990000,1.990000,1.987000,1.987000,1.987000,1.987000,0.000000,0.000000,0.000000,0.000000,0.000000,0.000000,0.000000,0.000000,0.000000,
0.000000,0.000000,0.000000,0.000000,0.000000,0.000000,2.030000,2.027000,2.023000,2.023000,2.023000,2.022000,2.018000,2.013000,2.013000,2.011000,2.010000,2.007000,2.006000,2.007000,2.003000,2.003000,2.000000,1.997000,1.993000,1.990000,1.990000,1.987000,1.984000,1.986000,1.981000,1.773000,0.000000,0.000000,0.000000,0.000000,0.000000,0.000000,0.000000,0.000000,
0.000000,0.000000,0.000000,0.000000,0.000000,0.000000,2.014000,2.029000,2.024000,2.023000,2.020000,2.020000,2.020000,2.014000,2.013000,2.010000,2.010000,2.010000,2.006000,2.006000,2.003000,2.003000,2.000000,1.997000,1.993000,1.990000,1.990000,1.987000,1.984000,1.987000,1.977000,1.962000,0.000000,0.000000,0.000000,0.000000,0.000000,0.000000,0.000000,0.000000,
0.000000,0.000000,0.000000,0.000000,0.000000,0.000000,2.029000,2.027000,2.027000,2.023000,2.020000,2.016000,2.016000,2.013000,2.013000,2.013000,2.010000,2.007000,2.006000,2.004000,2.003000,2.003000,1.999000,1.997000,1.993000,1.990000,1.990000,1.990000,1.987000,1.987000,1.972000,1.959000,1.344000,0.000000,0.000000,0.000000,0.000000,0.000000,0.000000,0.000000,
0.000000,0.000000,0.000000,0.000000,0.000000,0.000000,2.031000,2.027000,2.026000,2.023000,2.020000,2.020000,2.016000,2.013000,2.013000,2.010000,2.010000,2.007000,2.006000,2.004000,2.000000,2.000000,1.999000,1.997000,1.992000,1.990000,1.988000,1.987000,1.985000,1.984000,1.975000,1.852000,0.000000,0.000000,0.000000,0.000000,0.000000,0.000000,0.000000,0.000000,
0.000000,0.000000,0.000000,0.000000,0.000000,0.000000,2.033000,2.027000,2.023000,2.023000,2.020000,2.020000,2.013000,2.013000,2.011000,2.010000,2.010000,2.005000,2.003000,2.004000,2.000000,2.002000,2.000000,1.995000,1.992000,1.990000,1.989000,1.988000,1.987000,1.984000,1.977000,1.766000,0.000000,0.000000,0.000000,0.000000,0.000000,0.000000,0.000000,0.000000,
0.000000,0.000000,0.000000,0.000000,0.000000,0.000000,1.782000,2.027000,2.027000,2.023000,2.023000,2.020000,2.016000,2.014000,2.013000,2.010000,2.010000,2.006000,2.003000,2.003000,2.000000,2.000000,1.999000,1.994000,1.991000,1.990000,1.987000,1.984000,1.984000,1.981000,1.977000,1.122000,0.000000,0.000000,0.000000,0.000000,0.000000,0.000000,0.000000,0.000000,
0.000000,0.000000,0.000000,0.000000,0.000000,0.000000,1.786000,2.027000,2.024000,2.022000,2.020000,2.017000,2.016000,2.015000,2.013000,2.010000,2.009000,2.004000,2.000000,2.001000,2.000000,2.000000,1.997000,1.997000,1.994000,1.990000,1.987000,1.987000,1.985000,1.980000,1.977000,1.773000,0.000000,0.000000,0.000000,0.000000,0.000000,0.000000,0.000000,0.000000,
0.000000,0.000000,0.000000,0.000000,0.000000,0.000000,1.776000,2.029000,2.024000,2.023000,2.019000,2.016000,2.016000,2.013000,2.013000,2.010000,2.009000,2.004000,2.000000,2.003000,2.000000,2.000000,1.999000,1.993000,1.993000,1.990000,1.990000,1.989000,1.987000,1.977000,1.977000,1.769000,0.000000,0.000000,0.000000,0.000000,0.000000,0.000000,0.000000,0.000000,
0.000000,0.000000,0.000000,0.000000,0.000000,0.000000,1.781000,2.030000,2.026000,2.022000,2.019000,2.018000,2.013000,2.013000,2.010000,2.010000,2.006000,2.001000,2.000000,2.003000,2.000000,2.000000,1.999000,1.993000,1.993000,1.990000,1.987000,1.987000,1.986000,1.980000,1.977000,1.801000,1.405000,0.000000,0.000000,0.000000,0.000000,0.000000,0.000000,0.000000,
0.000000,0.000000,0.000000,0.000000,0.000000,0.000000,0.000000,2.021000,2.027000,2.022000,2.016000,2.020000,2.015000,2.013000,2.010000,2.010000,2.007000,2.004000,2.000000,2.003000,2.001000,2.000000,2.000000,1.997000,1.990000,1.990000,1.987000,1.987000,1.984000,1.984000,1.978000,1.843000,1.041000,0.000000,0.000000,0.000000,0.000000,0.000000,0.000000,0.000000,
0.000000,0.000000,0.000000,0.000000,0.000000,0.000000,0.000000,2.023000,2.023000,2.020000,2.020000,2.016000,2.013000,2.010000,2.010000,2.010000,2.006000,2.003000,2.003000,2.003000,2.002000,1.998000,2.000000,1.997000,1.990000,1.990000,1.987000,1.987000,1.985000,1.981000,1.977000,1.974000,0.000000,1.956000,0.000000,0.000000,0.000000,0.000000,0.000000,0.000000,
0.000000,0.000000,0.000000,0.000000,0.000000,0.000000,0.000000,2.031000,2.023000,2.020000,2.020000,2.018000,2.011000,2.010000,2.010000,2.010000,2.006000,2.006000,2.003000,2.003000,2.000000,1.997000,1.997000,1.993000,1.990000,1.990000,1.989000,1.987000,1.984000,1.977000,1.977000,1.974000,1.637000,0.000000,0.000000,0.000000,0.000000,0.000000,0.000000,0.000000,
0.000000,0.000000,0.000000,0.000000,0.000000,0.000000,0.000000,2.031000,2.024000,2.020000,2.020000,2.013000,2.013000,2.012000,2.010000,2.010000,2.006000,2.005000,2.003000,2.003000,2.000000,1.997000,1.994000,1.990000,1.990000,1.990000,1.987000,1.984000,1.981000,1.981000,1.977000,1.977000,1.212000,1.925000,0.000000,0.000000,0.000000,0.000000,0.000000,0.000000,
0.000000,0.000000,0.000000,0.000000,0.000000,0.000000,0.000000,2.035000,2.024000,2.020000,2.020000,2.014000,2.013000,2.011000,2.013000,2.007000,2.003000,2.003000,2.003000,2.003000,2.000000,1.997000,1.997000,1.990000,1.990000,1.990000,1.987000,1.987000,1.981000,1.979000,1.977000,1.974000,1.073000,1.947000,0.000000,0.000000,0.000000,0.000000,0.000000,0.000000,
0.000000,0.000000,0.000000,0.000000,0.000000,0.000000,0.000000,1.275000,2.023000,2.020000,2.020000,2.013000,2.013000,2.010000,2.010000,2.006000,2.003000,2.004000,2.000000,2.003000,2.000000,1.994000,1.996000,1.993000,1.990000,1.987000,1.987000,1.984000,1.982000,1.977000,1.977000,1.974000,1.682000,0.000000,0.000000,0.000000,0.000000,0.000000,0.000000,0.000000,
0.000000,0.000000,0.000000,0.000000,0.000000,0.000000,0.000000,1.275000,2.023000,2.020000,2.020000,2.016000,2.013000,2.013000,2.010000,2.006000,2.003000,2.003000,2.000000,2.003000,1.999000,1.994000,1.996000,1.993000,1.992000,1.987000,1.987000,1.984000,1.981000,1.977000,1.977000,1.974000,1.211000,0.000000,0.000000,0.000000,0.000000,0.000000,0.000000,0.000000,
0.000000,0.000000,0.000000,0.000000,0.000000,0.000000,0.000000,0.000000,2.023000,2.023000,2.020000,2.014000,2.013000,2.011000,2.010000,2.008000,2.003000,2.003000,2.000000,2.003000,1.999000,1.997000,1.996000,1.993000,1.991000,1.990000,1.987000,1.986000,1.982000,1.977000,1.977000,1.977000,1.977000,1.809000,0.000000,0.000000,0.000000,0.000000,0.000000,0.000000,
0.000000,0.000000,0.000000,0.000000,0.000000,0.000000,0.000000,0.000000,2.023000,2.020000,2.020000,2.014000,2.014000,2.011000,2.010000,2.010000,2.006000,2.003000,2.002000,2.003000,2.001000,1.998000,1.996000,1.993000,1.990000,1.987000,1.986000,1.984000,1.981000,1.980000,1.977000,1.977000,1.975000,0.000000,0.000000,0.000000,0.000000,0.000000,0.000000,0.000000,
0.000000,0.000000,0.000000,0.000000,0.000000,0.000000,0.000000,1.275000,2.026000,2.023000,2.019000,2.013000,2.013000,2.013000,2.010000,2.010000,2.005000,2.003000,2.001000,2.003000,1.996000,1.993000,1.995000,1.993000,1.990000,1.988000,1.987000,1.984000,1.981000,1.981000,1.978000,1.977000,1.974000,1.095000,0.000000,0.000000,0.000000,0.000000,0.000000,0.000000,
0.000000,0.000000,0.000000,0.000000,0.000000,0.000000,0.000000,1.029000,2.023000,2.022000,2.016000,2.013000,2.013000,2.011000,2.010000,2.008000,2.001000,2.000000,1.997000,2.003000,1.996000,1.993000,1.993000,1.993000,1.990000,1.990000,1.989000,1.984000,1.982000,1.978000,1.979000,1.975000,1.974000,1.690000,0.000000,0.000000,0.000000,0.000000,0.000000,0.000000,
0.000000,0.000000,0.000000,0.000000,0.000000,0.000000,1.724000,0.000000,2.022000,2.020000,2.016000,2.014000,2.013000,2.010000,2.010000,2.007000,2.003000,2.001000,2.000000,2.000000,1.996000,1.993000,1.992000,1.992000,1.990000,1.987000,1.987000,1.981000,1.977000,1.977000,1.977000,1.974000,1.972000,1.971000,0.000000,0.000000,0.000000,0.000000,0.000000,0.000000,
0.000000,0.000000,0.000000,0.000000,0.000000,0.000000,1.721000,0.000000,2.023000,2.018000,2.016000,2.013000,2.013000,2.010000,2.010000,2.006000,2.003000,2.003000,2.000000,2.000000,1.996000,1.993000,1.990000,1.990000,1.990000,1.987000,1.987000,1.981000,1.977000,1.977000,1.975000,1.974000,1.971000,1.976000,0.000000,0.000000,0.000000,0.000000,0.000000,0.000000,
0.000000,0.000000,0.000000,0.000000,0.000000,0.000000,0.000000,1.277000,2.024000,2.020000,2.016000,2.014000,2.013000,2.012000,2.010000,2.004000,2.003000,2.000000,2.000000,2.000000,1.996000,1.993000,1.992000,1.990000,1.989000,1.987000,1.987000,1.982000,1.977000,1.977000,1.976000,1.974000,1.975000,1.980000,0.000000,0.000000,0.000000,0.000000,0.000000,0.000000,
0.000000,0.000000,0.000000,0.000000,0.000000,0.000000,0.000000,1.277000,2.021000,2.020000,2.016000,2.013000,2.013000,2.010000,2.006000,2.003000,2.003000,2.000000,1.998000,1.998000,1.997000,1.997000,1.990000,1.990000,1.989000,1.987000,1.987000,1.984000,1.982000,1.981000,1.977000,1.976000,1.974000,1.942000,0.000000,0.000000,0.000000,0.000000,0.000000,0.000000,
0.000000,0.000000,0.000000,0.000000,0.000000,0.000000,0.000000,0.000000,1.951000,2.020000,2.015000,2.012000,2.012000,2.010000,2.010000,2.003000,2.000000,1.998000,2.000000,2.000000,1.997000,1.994000,1.990000,1.990000,1.990000,1.987000,1.987000,1.984000,1.977000,1.977000,1.977000,1.974000,1.971000,1.974000,0.000000,0.000000,0.000000,0.000000,0.000000,0.000000,
0.000000,0.000000,0.000000,0.000000,0.000000,0.000000,0.000000,0.000000,1.854000,2.016000,2.013000,2.010000,2.010000,2.010000,2.006000,2.001000,2.000000,2.001000,1.997000,1.998000,1.997000,1.993000,1.990000,1.990000,1.987000,1.987000,1.985000,1.984000,1.981000,1.977000,1.977000,1.974000,1.971000,1.974000,0.000000,0.000000,0.000000,0.000000,0.000000,0.000000,
0.000000,0.000000,0.000000,0.000000,0.000000,0.000000,0.000000,0.000000,0.000000,2.019000,2.013000,2.013000,2.010000,2.008000,2.003000,2.001000,2.000000,1.998000,1.997000,1.998000,1.996000,1.991000,1.990000,1.987000,1.987000,1.984000,1.985000,1.982000,1.977000,1.977000,1.977000,1.974000,1.971000,1.826000,0.000000,0.000000,0.000000,0.000000,0.000000,0.000000,
0.000000,0.000000,0.000000,0.000000,0.000000,0.000000,0.000000,0.000000,0.000000,2.018000,2.013000,2.010000,2.010000,2.006000,2.006000,2.000000,2.000000,1.998000,1.997000,2.000000,1.993000,1.990000,1.990000,1.990000,1.987000,1.987000,1.987000,1.977000,1.977000,1.981000,1.978000,1.974000,1.974000,1.974000,0.000000,0.000000,0.000000,0.000000,0.000000,0.000000,
0.000000,0.000000,0.000000,0.000000,0.000000,0.000000,0.000000,0.000000,0.000000,2.017000,2.013000,2.011000,2.010000,2.010000,2.003000,2.000000,2.000000,2.000000,1.997000,2.000000,1.995000,1.989000,1.990000,1.987000,1.987000,1.987000,1.986000,1.983000,1.981000,1.981000,1.980000,1.974000,1.974000,1.974000,0.000000,0.000000,0.000000,0.000000,0.000000,0.000000,
0.000000,0.000000,0.000000,0.000000,0.000000,0.000000,0.000000,0.000000,0.000000,2.020000,2.013000,2.008000,1.889000,2.004000,2.000000,2.000000,2.003000,2.002000,1.998000,1.997000,1.998000,1.970000,1.946000,1.985000,1.996000,1.987000,1.984000,1.984000,1.979000,1.977000,1.859000,1.974000,1.886000,1.970000,0.000000,0.000000,0.000000,0.000000,0.000000,0.000000,
0.000000,0.000000,0.000000,0.000000,0.000000,0.000000,0.000000,0.000000,0.000000,0.000000,0.000000,0.000000,0.000000,0.000000,0.000000,0.000000,0.000000,0.000000,0.000000,0.000000,0.000000,0.000000,0.000000,0.000000,0.000000,0.000000,0.000000,0.000000,0.000000,0.000000,0.000000,0.000000,0.000000,0.000000,0.000000,0.000000,0.000000,0.000000,0.000000,0.000000,
0.000000,0.000000,0.000000,0.000000,0.000000,0.000000,0.000000,0.000000,0.000000,0.000000,0.000000,0.000000,0.000000,0.000000,0.000000,0.000000,0.000000,0.000000,0.000000,0.000000,0.000000,0.000000,0.000000,0.000000,0.000000,0.000000,0.000000,0.000000,0.000000,0.000000,0.000000,0.000000,0.000000,0.000000,0.000000,0.000000,0.000000,0.000000,0.000000,0.000000,
