40 40
0.000000 0.000000 0.000000 0.000000 0.000000 0.000000 0.000000 0.000000 0.000000 0.000000 0.000000 0.000000 0.000000 0.000000 0.000000 0.000000 0.000000 0.000000 0.000000 0.000000 0.000000 0.000000 0.000000 0.000000 0.000000 0.000000 0.000000 0.000000 0.000000 0.000000 0.000000 0.000000 0.000000 0.000000 0.000000 0.000000 0.000000 0.000000 0.000000 0.000000 
0.000000 0.000000 0.000000 0.000000 0.000000 0.000000 0.000000 0.000000 0.000000 0.000000 0.000000 0.000000 0.000000 0.000000 0.000000 0.000000 0.000000 1.746000 0.000000 0.000000 2.039000 2.035000 1.213000 0.000000 0.000000 0.000000 0.000000 0.000000 2.603000 0.000000 0.000000 0.000000 0.000000 0.000000 0.000000 0.000000 0.000000 0.000000 0.000000 0.000000 
0.000000 0.000000 0.000000 0.000000 0.000000 0.000000 0.000000 0.000000 0.000000 0.000000 0.000000 0.000000 0.000000 0.000000 2.010000 2.010000 2.007000 2.011000 0.000000 0.000000 2.024000 2.029000 2.025000 0.000000 2.032000 0.000000 0.000000 2.042000 2.046000 2.049000 0.000000 0.000000 0.000000 0.000000 0.000000 0.000000 0.000000 0.000000 0.000000 0.000000 
0.000000 0.000000 0.000000 0.000000 0.000000 0.000000 1.980000 1.977000 1.985000 1.990000 1.990000 2.429000 1.997000 2.000000 2.005000 2.005000 2.007000 2.007000 2.011000 2.017000 2.021000 2.022000 2.024000 2.032000 2.034000 2.035000 2.040000 2.042000 2.045000 2.046000 1.427000 0.000000 0.000000 0.000000 0.000000 0.000000 0.000000 0.000000 0.000000 0.000000 
0.000000 0.000000 0.000000 0.000000 0.000000 0.000000 1.977000 1.981000 1.984000 1.988000 1.993000 1.996000 1.997000 2.000000 2.002000 2.005000 2.007000 2.011000 2.014000 2.017000 2.020000 2.021000 2.024000 2.029000 2.035000 2.036000 2.041000 2.042000 2.046000 2.049000 1.221000 0.000000 0.000000 0.000000 0.000000 0.000000 0.000000 0.000000 0.000000 0.000000 
0.000000 0.000000 0.000000 0.000000 0.000000 0.000000 1.980000 1.981000 1.986000 1.987000 1.989000 1.994000 1.996000 1.997000 1.999000 2.004000 2.007000 2.011000 2.012000 2.014000 2.017000 2.022000 2.024000 2.028000 2.032000 2.035000 2.039000 2.042000 2.045000 2.046000 1.835000 0.000000 0.000000 0.000000 0.000000 0.000000 0.000000 0.000000 0.000000 0.000000 
0.000000 0.000000 0.000000 0.000000 0.000000 0.000000 1.977000 1.978000 1.986000 1.987000 1.989000 1.994000 1.994000 1.997000 1.999000 2.004000 2.007000 2.009000 2.011000 2.012000 2.016000 2.021000 2.023000 2.028000 2.031000 2.033000 2.039000 2.040000 2.042000 2.044000 2.042000 0.000000 0.000000 0.000000 0.000000 0.000000 0.000000 0.000000 0.000000 0.000000 
0.000000 0.000000 0.000000 0.000000 0.000000 0.000000 1.974000 1.981000 1.984000 1.987000 1.990000 1.994000 1.994000 1.997000 1.997000 2.000000 2.007000 2.009000 2.011000 2.012000 2.015000 2.017000 2.021000 2.028000 2.031000 2.035000 2.036000 2.039000 2.039000 2.042000 2.042000 0.000000 0.000000 0.000000 0.000000 0.000000 0.000000 0.000000 0.000000 0.000000 
0.000000 0.000000 0.000000 0.000000 0.000000 0.000000 1.978000 1.978000 1.984000 1.985000 1.987000 1.993000 1.994000 1.995000 1.997000 1.998000 2.006000 2.007000 2.010000 2.012000 2.013000 2.017000 2.021000 2.025000 2.028000 2.033000 2.038000 2.039000 2.039000 2.042000 2.042000 0.000000 0.000000 0.000000 0.000000 0.000000 0.000000 0.000000 0.000000 0.000000 
0.000000 0.000000 0.000000 0.000000 0.000000 0.000000 1.977000 1.977000 1.984000 1.985000 1.989000 1.990000 1.994000 1.995000 1.997000 1.998000 2.006000 2.007000 2.010000 2.011000 2.013000 2.015000 2.021000 2.025000 2.028000 2.032000 2.034000 2.039000 2.039000 2.042000 2.048000 0.000000 0.000000 0.000000 0.000000 0.000000 0.000000 0.000000 0.000000 0.000000 
0.000000 0.000000 0.000000 0.000000 0.000000 0.000000 1.977000 1.977000 1.984000 1.986000 1.985000 1.985000 1.990000 1.994000 1.997000 2.000000 2.003000 2.005000 2.007000 2.011000 2.011000 2.015000 2.017000 2.025000 2.025000 2.032000 2.036000 2.039000 2.039000 2.041000 2.040000 1.736000 0.000000 0.000000 0.000000 0.000000 0.000000 0.000000 0.000000 0.000000 
0.000000 0.000000 0.000000 0.000000 0.000000 0.000000 1.978000 1.977000 1.981000 1.984000 1.986000 1.988000 1.990000 1.994000 1.996000 1.997000 2.002000 2.005000 2.007000 2.009000 2.011000 2.011000 2.017000 2.024000 2.028000 2.032000 2.035000 2.039000 2.039000 2.040000 2.044000 2.597000 0.000000 0.000000 0.000000 0.000000 0.000000 0.000000 0.000000 0.000000 
0.000000 0.000000 0.000000 0.000000 0.000000 0.000000 1.978000 1.977000 1.981000 1.982000 1.984000 1.986000 1.987000 1.991000 1.994000 1.997000 2.002000 2.006000 2.007000 2.008000 2.011000 2.013000 2.017000 2.024000 2.026000 2.028000 2.032000 2.039000 2.039000 2.042000 2.040000 1.774000 0.000000 0.000000 0.000000 0.000000 0.000000 0.000000 0.000000 0.000000 
0.000000 0.000000 0.000000 0.000000 0.000000 0.000000 1.974000 1.977000 1.981000 1.981000 1.983000 1.984000 1.987000 1.993000 1.994000 1.995000 1.998000 2.001000 2.006000 2.007000 2.010000 2.011000 2.021000 2.024000 2.024000 2.028000 2.032000 2.036000 2.039000 2.040000 2.041000 1.144000 0.000000 0.000000 0.000000 0.000000 0.000000 0.000000 0.000000 0.000000 
0.000000 0.000000 0.000000 0.000000 0.000000 0.000000 1.908000 1.975000 1.981000 1.981000 1.984000 1.984000 1.986000 1.991000 1.994000 1.995000 1.997000 2.000000 2.006000 2.007000 2.008000 2.011000 2.019000 2.024000 2.024000 2.025000 2.030000 2.035000 2.038000 2.040000 2.042000 0.000000 0.000000 0.000000 0.000000 0.000000 0.000000 0.000000 0.000000 0.000000 
0.000000 0.000000 0.000000 0.000000 0.000000 0.000000 1.971000 1.972000 1.978000 1.981000 1.984000 1.984000 1.986000 1.990000 1.994000 1.994000 1.997000 1.998000 2.003000 2.007000 2.010000 2.011000 2.019000 2.021000 2.024000 2.028000 2.028000 2.029000 2.034000 2.039000 2.040000 0.000000 0.000000 0.000000 0.000000 0.000000 0.000000 0.000000 0.000000 0.000000 
0.000000 0.000000 0.000000 0.000000 0.000000 0.000000 1.972000 1.971000 1.976000 1.981000 1.983000 1.984000 1.985000 1.990000 1.994000 1.994000 1.996000 2.000000 2.004000 2.007000 2.007000 2.007000 2.015000 2.021000 2.024000 2.027000 2.028000 2.033000 2.036000 2.039000 2.040000 0.000000 0.000000 0.000000 0.000000 0.000000 0.000000 0.000000 0.000000 0.000000 
0.000000 0.000000 0.000000 0.000000 0.000000 0.000000 1.712000 1.969000 1.976000 1.981000 1.981000 1.982000 1.984000 1.988000 1.993000 1.994000 1.994000 1.997000 2.000000 2.004000 2.007000 2.010000 2.013000 2.018000 2.023000 2.025000 2.030000 2.032000 2.035000 2.039000 2.041000 1.626000 1.561000 0.000000 0.000000 0.000000 0.000000 0.000000 0.000000 0.000000 
0.000000 0.000000 0.000000 0.000000 0.000000 0.000000 1.710000 1.969000 1.974000 1.977000 1.977000 1.982000 1.984000 1.988000 1.992000 1.992000 1.994000 1.997000 1.999000 2.003000 2.007000 2.010000 2.013000 2.021000 2.023000 2.025000 2.028000 2.029000 2.034000 2.036000 2.041000 1.774000 0.000000 0.000000 0.000000 0.000000 0.000000 0.000000 0.000000 0.000000 
0.000000 0.000000 0.000000 0.000000 0.000000 0.000000 1.710000 1.971000 1.974000 1.977000 1.977000 1.981000 1.984000 1.985000 1.989000 1.991000 1.994000 1.997000 1.997000 2.001000 2.006000 2.008000 2.013000 2.021000 2.023000 2.024000 2.027000 2.029000 2.034000 2.035000 2.041000 1.774000 0.000000 0.000000 0.000000 0.000000 0.000000 0.000000 0.000000 0.000000 
0.000000 0.000000 0.000000 0.000000 0.000000 0.000000 1.708000 1.968000 1.971000 1.975000 1.977000 1.981000 1.984000 1.985000 1.989000 1.991000 1.994000 1.995000 1.997000 2.000000 2.004000 2.007000 2.013000 2.021000 2.021000 2.022000 2.025000 2.029000 2.035000 2.035000 2.039000 1.774000 0.000000 0.000000 0.000000 0.000000 0.000000 0.000000 0.000000 0.000000 
0.000000 0.000000 0.000000 0.000000 0.000000 0.000000 1.130000 1.968000 1.971000 1.975000 1.977000 1.981000 1.982000 1.984000 1.987000 1.990000 1.994000 1.996000 1.997000 1.998000 2.001000 2.007000 2.012000 2.018000 2.018000 2.022000 2.024000 2.026000 2.031000 2.035000 2.038000 1.967000 1.218000 0.000000 0.000000 0.000000 0.000000 0.000000 0.000000 0.000000 
0.000000 0.000000 0.000000 0.000000 0.000000 0.000000 0.000000 1.968000 1.971000 1.974000 1.976000 1.977000 1.981000 1.984000 1.987000 1.988000 1.994000 1.995000 1.997000 1.997000 2.000000 2.007000 2.012000 2.014000 2.017000 2.021000 2.023000 2.025000 2.031000 2.036000 2.039000 2.034000 1.217000 0.000000 0.000000 0.000000 0.000000 0.000000 0.000000 0.000000 
0.000000 0.000000 0.000000 0.000000 0.000000 0.000000 0.000000 1.966000 1.969000 1.972000 1.972000 1.975000 1.981000 1.984000 1.984000 1.984000 1.989000 1.995000 1.997000 1.997000 2.003000 2.005000 2.010000 2.014000 2.016000 2.018000 2.022000 2.025000 2.029000 2.033000 2.034000 2.037000 1.428000 0.000000 0.000000 0.000000 0.000000 0.000000 0.000000 0.000000 
0.000000 0.000000 0.000000 0.000000 0.000000 0.000000 0.000000 1.968000 1.968000 1.971000 1.971000 1.975000 1.979000 1.981000 1.983000 1.984000 1.984000 1.991000 1.995000 1.997000 1.999000 2.004000 2.009000 2.012000 2.014000 2.015000 2.020000 2.027000 2.028000 2.028000 2.031000 2.035000 1.218000 0.000000 0.000000 0.000000 0.000000 0.000000 0.000000 0.000000 
0.000000 0.000000 0.000000 0.000000 0.000000 0.000000 0.000000 1.968000 1.970000 1.971000 1.971000 1.973000 1.977000 1.981000 1.981000 1.984000 1.987000 1.991000 1.994000 1.997000 2.000000 2.004000 2.006000 2.012000 2.014000 2.014000 2.020000 2.024000 2.028000 2.028000 2.033000 2.034000 1.217000 0.000000 0.000000 0.000000 0.000000 0.000000 0.000000 0.000000 
0.000000 0.000000 0.000000 0.000000 0.000000 0.000000 0.000000 1.968000 1.969000 1.971000 1.971000 1.972000 1.977000 1.981000 1.981000 1.984000 1.987000 1.989000 1.994000 1.994000 1.997000 2.003000 2.009000 2.012000 2.014000 2.014000 2.020000 2.024000 2.025000 2.028000 2.031000 2.034000 2.032000 0.000000 0.000000 0.000000 0.000000 0.000000 0.000000 0.000000 
0.000000 0.000000 0.000000 0.000000 0.000000 0.000000 0.000000 1.392000 1.968000 1.969000 1.971000 1.972000 1.977000 1.981000 1.981000 1.984000 1.985000 1.988000 1.994000 1.994000 1.997000 2.000000 2.009000 2.011000 2.014000 2.012000 2.020000 2.024000 2.027000 2.028000 2.029000 2.034000 2.032000 0.000000 0.000000 0.000000 0.000000 0.000000 0.000000 0.000000 
0.000000 0.000000 0.000000 0.000000 0.000000 0.000000 0.000000 1.187000 1.968000 1.968000 1.971000 1.971000 1.974000 1.981000 1.981000 1.983000 1.984000 1.988000 1.994000 1.994000 1.997000 2.001000 2.006000 2.011000 2.014000 2.014000 2.016000 2.021000 2.024000 2.025000 2.028000 2.034000 2.035000 0.000000 0.000000 0.000000 0.000000 0.000000 0.000000 0.000000 
0.000000 0.000000 0.000000 0.000000 0.000000 0.000000 0.000000 0.000000 1.968000 1.968000 1.971000 1.973000 1.976000 1.981000 1.981000 1.982000 1.984000 1.988000 1.994000 1.994000 1.996000 1.998000 2.004000 2.008000 2.013000 2.014000 2.014000 2.022000 2.024000 2.025000 2.028000 2.032000 2.033000 0.000000 0.000000 0.000000 0.000000 0.000000 0.000000 0.000000 
0.000000 0.000000 0.000000 0.000000 0.000000 0.000000 0.000000 0.000000 1.968000 1.968000 1.971000 1.972000 1.977000 1.977000 1.981000 1.981000 1.983000 1.989000 1.993000 1.994000 1.996000 1.998000 2.003000 2.008000 2.011000 2.014000 2.014000 2.020000 2.024000 2.024000 2.028000 2.032000 2.027000 0.000000 0.000000 0.000000 0.000000 0.000000 0.000000 0.000000 
0.000000 0.000000 0.000000 0.000000 0.000000 0.000000 0.000000 1.187000 1.968000 1.968000 1.968000 1.971000 1.973000 1.977000 1.980000 1.981000 1.983000 1.988000 1.992000 1.994000 1.995000 1.997000 2.002000 2.007000 2.011000 2.014000 2.014000 2.018000 2.023000 2.024000 2.028000 2.032000 2.030000 0.000000 0.000000 0.000000 0.000000 0.000000 0.000000 0.000000 
0.000000 0.000000 0.000000 0.000000 0.000000 0.000000 0.000000 1.187000 1.968000 1.968000 1.968000 1.969000 1.971000 1.975000 1.980000 1.981000 1.984000 1.988000 1.989000 1.991000 1.994000 1.994000 1.998000 2.004000 2.009000 2.013000 2.014000 2.016000 2.023000 2.024000 2.026000 2.031000 2.028000 0.000000 0.000000 0.000000 0.000000 0.000000 0.000000 0.000000 
0.000000 0.000000 0.000000 0.000000 0.000000 0.000000 0.000000 1.187000 1.968000 1.968000 1.968000 1.969000 1.971000 1.974000 1.976000 1.979000 1.983000 1.984000 1.986000 1.989000 1.993000 1.996000 1.999000 2.001000 2.007000 2.009000 2.014000 2.014000 2.020000 2.024000 2.024000 2.029000 2.028000 0.000000 0.000000 0.000000 0.000000 0.000000 0.000000 0.000000 
0.000000 0.000000 0.000000 0.000000 0.000000 0.000000 0.000000 0.000000 1.966000 1.965000 1.965000 1.968000 1.971000 1.974000 1.976000 1.978000 1.982000 1.984000 1.987000 1.985000 1.991000 1.995000 1.999000 2.001000 2.007000 2.011000 2.013000 2.015000 2.020000 2.021000 2.024000 2.029000 2.033000 0.000000 0.000000 0.000000 0.000000 0.000000 0.000000 0.000000 
0.000000 0.000000 0.000000 0.000000 0.000000 0.000000 0.000000 0.000000 1.965000 1.966000 1.966000 1.969000 1.971000 1.974000 1.974000 1.978000 1.983000 1.985000 1.989000 1.986000 1.989000 1.995000 1.999000 2.000000 2.005000 2.011000 2.012000 2.014000 2.017000 2.022000 2.024000 2.029000 2.032000 0.000000 0.000000 0.000000 0.000000 0.000000 0.000000 0.000000 
0.000000 0.000000 0.000000 0.000000 0.000000 0.000000 0.000000 0.000000 1.965000 1.967000 1.968000 1.971000 1.971000 1.974000 1.976000 1.978000 1.983000 1.984000 1.986000 1.990000 1.990000 1.994000 1.999000 2.000000 2.005000 2.008000 2.011000 2.014000 2.018000 2.025000 2.032000 2.033000 2.034000 0.000000 0.000000 0.000000 0.000000 0.000000 0.000000 0.000000 
0.000000 0.000000 0.000000 0.000000 0.000000 0.000000 2.776000 0.000000 1.965000 1.965000 1.967000 1.968000 1.970000 1.975000 1.977000 1.978000 1.983000 1.984000 1.986000 1.991000 1.994000 1.994000 1.998000 0.000000 0.000000 0.000000 0.000000 0.000000 0.000000 0.000000 0.000000 2.426000 0.000000 0.000000 0.000000 0.000000 0.000000 0.000000 0.000000 0.000000 
0.000000 0.000000 0.000000 0.000000 0.000000 0.000000 0.000000 0.000000 1.966000 1.964000 1.968000 1.968000 1.971000 1.975000 2.472000 2.502000 2.526000 2.513000 2.515000 0.000000 0.000000 0.000000 0.000000 0.000000 0.000000 0.000000 0.000000 0.000000 0.000000 0.000000 0.000000 0.000000 0.000000 0.000000 0.000000 0.000000 0.000000 0.000000 0.000000 0.000000 
0.000000 0.000000 0.000000 0.000000 0.000000 0.000000 0.000000 0.000000 0.000000 0.000000 0.000000 0.000000 0.000000 0.000000 0.000000 0.000000 0.000000 0.000000 0.000000 0.000000 0.000000 0.000000 0.000000 0.000000 0.000000 0.000000 0.000000 0.000000 0.000000 0.000000 0.000000 0.000000 0.000000 0.000000 0.000000 0.000000 0.000000 0.000000 0.000000 0.000000 
