40 40
0.000000 0.000000 0.000000 0.000000 0.000000 0.000000 0.000000 0.000000 0.000000 0.000000 0.000000 0.000000 0.000000 0.000000 0.000000 0.000000 0.000000 0.000000 0.000000 0.000000 0.000000 0.000000 0.000000 1.986000 1.979000 1.972000 0.000000 0.000000 0.000000 0.000000 0.000000 0.000000 0.000000 0.000000 0.000000 0.000000 0.000000 0.000000 0.000000 0.000000 
0.000000 0.000000 0.000000 0.000000 0.000000 0.000000 0.000000 0.000000 0.000000 0.000000 0.000000 0.000000 0.000000 0.000000 0.000000 0.000000 0.000000 0.000000 0.000000 1.995000 1.989000 1.989000 1.992000 1.987000 1.984000 1.979000 1.984000 2.021000 0.000000 0.000000 0.000000 0.000000 0.000000 0.000000 0.000000 0.000000 0.000000 0.000000 0.000000 0.000000 
0.000000 0.000000 0.000000 0.000000 0.000000 0.000000 0.000000 0.000000 0.000000 0.000000 0.000000 0.000000 0.000000 0.000000 0.000000 2.955000 1.995000 1.991000 1.991000 1.992000 1.986000 1.986000 1.987000 1.986000 1.986000 1.986000 1.983000 1.991000 0.000000 0.000000 0.000000 0.000000 0.000000 0.000000 0.000000 0.000000 0.000000 0.000000 0.000000 0.000000 
0.000000 0.000000 0.000000 0.000000 0.000000 0.000000 0.000000 0.000000 0.000000 0.000000 0.000000 0.000000 2.555000 2.559000 2.005000 2.001000 1.999000 1.995000 1.991000 1.994000 1.986000 1.986000 1.986000 1.986000 1.986000 1.986000 1.982000 1.982000 0.000000 0.000000 0.000000 0.000000 0.000000 0.000000 0.000000 0.000000 0.000000 0.000000 0.000000 0.000000 
0.000000 0.000000 0.000000 0.000000 0.000000 0.000000 0.000000 0.000000 0.000000 2.104000 2.087000 2.010000 2.010000 2.007000 2.005000 2.005000 2.001000 2.000000 1.991000 1.992000 1.990000 1.986000 1.989000 1.986000 1.986000 1.986000 1.982000 1.986000 1.301000 0.000000 0.000000 0.000000 0.000000 0.000000 0.000000 0.000000 0.000000 0.000000 0.000000 0.000000 
0.000000 0.000000 0.000000 0.000000 0.000000 0.000000 2.024000 2.024000 2.019000 2.019000 2.018000 2.010000 2.010000 2.010000 2.005000 2.001000 2.000000 2.000000 1.991000 1.991000 1.990000 1.986000 1.991000 1.986000 1.986000 1.986000 1.986000 1.986000 1.838000 0.000000 0.000000 0.000000 0.000000 0.000000 0.000000 0.000000 0.000000 0.000000 0.000000 0.000000 
0.000000 0.000000 0.000000 0.000000 2.026000 2.024000 2.024000 2.019000 2.019000 2.019000 2.019000 2.015000 2.015000 2.010000 2.005000 2.000000 2.000000 2.000000 1.996000 1.991000 1.990000 1.986000 1.991000 1.989000 1.986000 1.986000 1.986000 1.982000 1.619000 0.000000 0.000000 0.000000 0.000000 0.000000 0.000000 0.000000 0.000000 0.000000 0.000000 0.000000 
0.000000 0.000000 0.000000 0.000000 2.024000 2.024000 2.024000 2.019000 2.019000 2.019000 2.018000 2.015000 2.013000 2.007000 2.005000 2.000000 2.000000 2.000000 2.000000 1.992000 1.992000 1.986000 1.991000 1.991000 1.986000 1.986000 1.986000 1.977000 0.000000 1.755000 0.000000 0.000000 0.000000 0.000000 0.000000 0.000000 0.000000 0.000000 0.000000 0.000000 
0.000000 0.000000 0.000000 0.000000 2.029000 2.024000 2.024000 2.024000 2.019000 2.019000 2.019000 2.015000 2.013000 2.007000 2.005000 2.003000 2.000000 2.000000 2.000000 1.995000 1.994000 1.991000 1.991000 1.991000 1.988000 1.986000 1.986000 1.979000 1.826000 0.000000 0.000000 0.000000 0.000000 0.000000 0.000000 0.000000 0.000000 0.000000 0.000000 0.000000 
0.000000 0.000000 0.000000 0.000000 1.077000 2.024000 2.024000 2.024000 2.021000 2.019000 2.019000 2.018000 2.013000 2.010000 2.008000 2.006000 2.001000 2.000000 2.000000 1.995000 1.995000 1.994000 1.991000 1.991000 1.988000 1.986000 1.986000 1.984000 1.832000 1.228000 0.000000 0.000000 0.000000 0.000000 0.000000 0.000000 0.000000 0.000000 0.000000 0.000000 
0.000000 0.000000 0.000000 0.000000 0.000000 2.019000 2.024000 2.024000 2.019000 2.019000 2.019000 2.018000 2.015000 2.015000 2.011000 2.006000 2.005000 2.000000 2.000000 2.000000 1.997000 1.995000 1.993000 1.991000 1.988000 1.986000 1.986000 1.986000 1.982000 1.701000 1.871000 0.000000 0.000000 0.000000 0.000000 0.000000 0.000000 0.000000 0.000000 0.000000 
0.000000 0.000000 0.000000 0.000000 0.000000 2.019000 2.023000 2.024000 2.019000 2.019000 2.018000 2.015000 2.011000 2.011000 2.014000 2.010000 2.005000 2.005000 2.000000 2.000000 2.000000 1.995000 1.993000 1.991000 1.991000 1.990000 1.986000 1.986000 1.977000 1.977000 2.205000 0.000000 0.000000 0.000000 0.000000 0.000000 0.000000 0.000000 0.000000 0.000000 
0.000000 0.000000 0.000000 0.000000 0.000000 1.580000 2.023000 2.020000 2.019000 2.019000 2.019000 2.015000 2.012000 2.010000 2.013000 2.011000 2.005000 2.005000 2.000000 2.000000 2.000000 1.995000 1.995000 1.995000 1.991000 1.988000 1.986000 1.986000 1.981000 1.981000 2.244000 0.000000 0.000000 0.000000 0.000000 0.000000 0.000000 0.000000 0.000000 0.000000 
0.000000 0.000000 0.000000 0.000000 0.000000 1.583000 2.024000 2.019000 2.019000 2.019000 2.019000 2.018000 2.015000 2.015000 2.015000 2.012000 2.005000 2.005000 2.000000 2.000000 2.000000 1.995000 1.995000 1.995000 1.991000 1.987000 1.986000 1.986000 1.982000 1.982000 1.590000 0.000000 0.000000 0.000000 0.000000 0.000000 0.000000 0.000000 0.000000 0.000000 
0.000000 0.000000 0.000000 0.000000 0.000000 0.000000 2.024000 2.024000 2.024000 2.019000 2.019000 2.015000 2.015000 2.015000 2.015000 2.010000 2.006000 2.005000 2.000000 2.000000 1.995000 1.995000 1.998000 1.993000 1.991000 1.987000 1.986000 1.986000 1.982000 1.982000 1.980000 0.000000 0.000000 0.000000 0.000000 0.000000 0.000000 0.000000 0.000000 0.000000 
0.000000 0.000000 0.000000 0.000000 1.163000 0.000000 2.024000 2.024000 2.024000 2.019000 2.019000 2.015000 2.017000 2.019000 2.015000 2.009000 2.006000 2.005000 2.000000 1.999000 1.996000 1.999000 1.998000 1.993000 1.991000 1.991000 1.991000 1.986000 1.982000 1.981000 1.977000 0.000000 0.000000 0.000000 0.000000 0.000000 0.000000 0.000000 0.000000 0.000000 
0.000000 0.000000 0.000000 0.000000 0.000000 1.590000 2.026000 2.024000 2.024000 2.020000 2.020000 2.019000 2.019000 2.019000 2.012000 2.006000 2.005000 2.005000 2.005000 2.000000 2.000000 1.996000 2.000000 1.996000 1.991000 1.991000 1.991000 1.986000 1.983000 1.982000 1.978000 1.977000 0.000000 0.000000 0.000000 0.000000 0.000000 0.000000 0.000000 0.000000 
0.000000 0.000000 0.000000 0.000000 2.556000 1.271000 1.913000 2.024000 2.024000 2.024000 2.024000 2.019000 2.019000 2.019000 2.012000 2.005000 2.005000 2.005000 2.005000 2.004000 2.000000 1.995000 2.000000 1.997000 1.994000 1.991000 1.991000 1.986000 1.985000 1.982000 1.980000 1.977000 0.000000 0.000000 0.000000 0.000000 0.000000 0.000000 0.000000 0.000000 
0.000000 0.000000 0.000000 0.000000 0.000000 0.000000 1.250000 2.027000 2.024000 2.024000 2.024000 2.021000 2.019000 2.019000 2.016000 2.011000 2.007000 2.007000 2.005000 2.004000 2.000000 1.995000 2.000000 1.997000 1.992000 1.991000 1.991000 1.986000 1.982000 1.982000 1.980000 1.972000 1.972000 0.000000 0.000000 0.000000 0.000000 0.000000 0.000000 0.000000 
0.000000 0.000000 0.000000 0.000000 0.000000 0.000000 1.737000 2.030000 2.024000 2.024000 2.024000 2.024000 2.019000 2.019000 2.018000 2.016000 2.013000 2.010000 2.005000 2.004000 2.000000 1.998000 2.003000 1.999000 1.995000 1.991000 1.991000 1.986000 1.984000 1.982000 1.982000 1.976000 1.972000 0.000000 0.000000 0.000000 0.000000 0.000000 0.000000 0.000000 
0.000000 0.000000 0.000000 0.000000 0.000000 0.000000 1.040000 2.029000 2.024000 2.024000 2.024000 2.024000 2.019000 2.019000 2.019000 2.019000 2.015000 2.010000 2.005000 2.000000 2.000000 2.000000 2.005000 2.000000 1.997000 1.994000 1.991000 1.989000 1.986000 1.984000 1.982000 1.977000 1.972000 2.225000 0.000000 0.000000 0.000000 0.000000 0.000000 0.000000 
0.000000 0.000000 0.000000 0.000000 0.000000 0.000000 0.000000 1.902000 2.028000 2.024000 2.024000 2.024000 2.019000 2.019000 2.019000 2.019000 2.015000 2.010000 2.005000 2.003000 2.000000 2.000000 2.000000 2.000000 2.000000 1.995000 1.991000 1.991000 1.990000 1.985000 1.982000 1.982000 1.980000 1.164000 0.000000 0.000000 0.000000 0.000000 0.000000 0.000000 
0.000000 0.000000 0.000000 0.000000 0.000000 0.000000 0.000000 1.873000 2.029000 2.028000 2.024000 2.024000 2.019000 2.019000 2.019000 2.019000 2.015000 2.010000 2.005000 2.005000 2.000000 2.000000 2.005000 2.005000 2.000000 1.995000 1.991000 1.991000 1.990000 1.985000 1.982000 1.982000 1.982000 1.897000 0.000000 0.000000 0.000000 0.000000 0.000000 0.000000 
0.000000 0.000000 0.000000 0.000000 0.000000 0.000000 0.000000 0.000000 2.024000 2.029000 2.024000 2.024000 2.022000 2.019000 2.019000 2.016000 2.010000 2.010000 2.015000 2.005000 2.005000 2.000000 2.005000 2.005000 2.002000 1.996000 1.991000 1.995000 1.991000 1.986000 1.982000 1.977000 1.974000 1.972000 0.000000 0.000000 0.000000 0.000000 0.000000 0.000000 
0.000000 0.000000 0.000000 0.000000 0.000000 2.977000 0.000000 0.000000 2.005000 2.034000 2.029000 2.024000 2.024000 2.021000 2.019000 2.019000 2.010000 2.015000 2.015000 2.009000 2.005000 2.005000 2.005000 2.005000 2.005000 1.996000 1.991000 1.991000 1.991000 1.991000 1.986000 1.982000 1.982000 1.985000 1.605000 0.000000 0.000000 0.000000 0.000000 0.000000 
0.000000 0.000000 0.000000 0.000000 0.000000 2.977000 0.000000 0.000000 2.009000 2.034000 2.029000 2.024000 2.024000 2.023000 2.021000 2.020000 2.016000 2.015000 2.014000 2.005000 2.005000 2.005000 2.005000 2.005000 2.005000 1.996000 1.991000 1.991000 1.991000 1.989000 1.986000 1.986000 1.986000 1.977000 1.006000 0.000000 0.000000 0.000000 0.000000 0.000000 
0.000000 0.000000 0.000000 0.000000 0.000000 0.000000 0.000000 0.000000 0.000000 2.032000 2.029000 2.024000 2.024000 2.022000 2.019000 2.020000 2.016000 2.010000 2.010000 2.007000 2.009000 2.005000 2.005000 2.005000 2.002000 1.996000 1.991000 1.991000 1.991000 1.987000 1.986000 1.986000 1.984000 1.972000 1.971000 0.000000 0.000000 0.000000 0.000000 0.000000 
0.000000 0.000000 0.000000 0.000000 0.000000 0.000000 2.269000 0.000000 0.000000 2.029000 2.024000 2.028000 2.024000 2.024000 2.021000 2.024000 2.019000 2.012000 2.012000 2.009000 2.005000 2.005000 2.005000 2.005000 2.003000 1.998000 1.993000 1.991000 1.991000 1.990000 1.986000 1.986000 1.981000 1.965000 1.552000 0.000000 0.000000 0.000000 0.000000 0.000000 
0.000000 0.000000 0.000000 0.000000 0.000000 0.000000 2.238000 0.000000 0.000000 2.032000 2.027000 2.029000 2.026000 2.024000 2.024000 2.021000 2.019000 2.015000 2.017000 2.012000 2.007000 2.005000 2.005000 2.005000 2.005000 2.001000 1.995000 1.991000 1.991000 1.990000 1.986000 1.986000 1.984000 1.972000 1.546000 0.000000 0.000000 0.000000 0.000000 0.000000 
0.000000 0.000000 0.000000 0.000000 0.000000 0.000000 2.230000 0.000000 0.000000 2.034000 2.034000 2.033000 2.031000 2.024000 2.024000 2.019000 2.019000 2.015000 2.016000 2.011000 2.009000 2.005000 2.005000 2.005000 2.005000 2.004000 1.996000 1.991000 1.991000 1.991000 1.986000 1.986000 1.985000 1.978000 1.978000 1.918000 0.000000 0.000000 0.000000 0.000000 
0.000000 0.000000 0.000000 0.000000 0.000000 0.000000 0.000000 1.360000 0.000000 1.131000 2.038000 2.034000 2.030000 2.024000 2.024000 2.019000 2.019000 2.015000 2.010000 2.014000 2.009000 2.005000 2.009000 2.005000 2.005000 2.005000 2.000000 1.991000 1.991000 1.991000 1.991000 1.990000 1.986000 1.981000 1.981000 1.982000 0.000000 0.000000 0.000000 0.000000 
0.000000 0.000000 0.000000 0.000000 0.000000 0.000000 0.000000 1.562000 0.000000 0.000000 2.035000 2.034000 2.029000 2.024000 2.024000 2.023000 2.020000 2.018000 2.014000 2.015000 2.010000 2.005000 2.010000 2.005000 2.005000 2.005000 2.000000 1.994000 1.991000 1.991000 1.991000 1.991000 1.986000 1.982000 1.982000 1.982000 0.000000 0.000000 0.000000 0.000000 
0.000000 0.000000 0.000000 0.000000 0.000000 0.000000 0.000000 1.320000 0.000000 0.000000 2.039000 2.034000 2.029000 2.029000 2.024000 2.024000 2.024000 2.019000 2.015000 2.010000 2.015000 2.010000 2.010000 2.005000 2.000000 2.005000 2.005000 2.000000 1.994000 1.991000 1.991000 1.991000 1.986000 1.982000 1.978000 1.977000 0.000000 0.000000 0.000000 0.000000 
0.000000 0.000000 0.000000 0.000000 0.000000 0.000000 0.000000 0.000000 0.000000 0.000000 0.000000 2.034000 2.032000 2.026000 2.024000 2.019000 2.019000 2.019000 2.019000 2.015000 2.015000 2.013000 2.010000 2.005000 2.005000 2.005000 2.005000 2.004000 1.994000 1.991000 1.989000 1.986000 1.986000 1.983000 1.974000 1.968000 0.000000 0.000000 0.000000 0.000000 
0.000000 0.000000 0.000000 0.000000 0.000000 0.000000 0.000000 0.000000 0.000000 0.000000 0.000000 1.860000 2.029000 2.027000 2.024000 2.024000 2.019000 2.019000 2.019000 2.014000 2.010000 2.010000 2.010000 2.010000 2.007000 2.005000 2.004000 1.995000 1.992000 1.992000 1.991000 1.989000 1.987000 1.838000 0.000000 0.000000 0.000000 0.000000 0.000000 0.000000 
0.000000 0.000000 0.000000 0.000000 0.000000 0.000000 0.000000 0.000000 0.000000 0.000000 0.000000 1.119000 2.029000 2.029000 2.026000 2.023000 2.019000 2.019000 2.019000 2.016000 2.010000 2.010000 2.010000 2.009000 2.009000 2.004000 2.000000 1.996000 1.995000 1.993000 1.991000 1.829000 1.134000 0.000000 0.000000 0.000000 0.000000 0.000000 0.000000 0.000000 
0.000000 0.000000 0.000000 0.000000 2.124000 0.000000 0.000000 0.000000 0.000000 0.000000 0.000000 1.121000 2.031000 2.029000 2.026000 2.022000 2.021000 2.019000 2.019000 2.019000 2.015000 2.015000 2.012000 2.006000 2.005000 1.596000 0.000000 0.000000 1.491000 1.486000 0.000000 0.000000 0.000000 0.000000 0.000000 0.000000 0.000000 0.000000 0.000000 0.000000 
0.000000 0.000000 0.000000 0.000000 0.000000 0.000000 0.000000 0.000000 0.000000 0.000000 0.000000 0.000000 2.034000 2.031000 2.029000 2.027000 2.024000 2.022000 2.019000 2.019000 2.022000 2.022000 1.704000 1.358000 0.000000 0.000000 0.000000 0.000000 0.000000 0.000000 0.000000 0.000000 0.000000 0.000000 0.000000 0.000000 0.000000 0.000000 0.000000 0.000000 
0.000000 0.000000 0.000000 0.000000 0.000000 0.000000 0.000000 0.000000 0.000000 0.000000 0.000000 0.000000 2.029000 2.032000 2.026000 2.024000 2.024000 2.030000 1.227000 1.151000 1.229000 1.230000 0.000000 0.000000 0.000000 0.000000 0.000000 0.000000 0.000000 0.000000 0.000000 0.000000 0.000000 0.000000 0.000000 0.000000 0.000000 0.000000 0.000000 0.000000 
0.000000 0.000000 0.000000 0.000000 0.000000 0.000000 0.000000 0.000000 0.000000 0.000000 0.000000 0.000000 0.000000 0.000000 0.000000 0.000000 0.000000 0.000000 0.000000 0.000000 0.000000 0.000000 0.000000 0.000000 0.000000 0.000000 0.000000 0.000000 0.000000 0.000000 0.000000 0.000000 0.000000 0.000000 0.000000 0.000000 0.000000 0.000000 0.000000 0.000000 
