40 40
0.000000 0.000000 0.000000 0.000000 0.000000 0.000000 0.000000 0.000000 0.000000 0.000000 0.000000 0.000000 0.000000 0.000000 0.000000 0.000000 0.000000 0.000000 0.000000 0.000000 0.000000 0.000000 0.000000 0.000000 0.000000 0.000000 0.000000 0.000000 0.000000 0.000000 0.000000 0.000000 0.000000 0.000000 0.000000 0.000000 0.000000 0.000000 0.000000 0.000000 
0.000000 0.000000 0.000000 0.000000 0.000000 0.000000 0.000000 0.000000 0.000000 0.000000 0.000000 0.000000 0.000000 0.000000 0.000000 0.000000 0.000000 0.000000 0.000000 0.000000 0.000000 0.000000 0.000000 0.000000 0.000000 0.000000 0.000000 0.000000 0.000000 0.000000 0.000000 0.000000 0.000000 0.000000 0.000000 0.000000 0.000000 0.000000 0.000000 0.000000 
0.000000 0.000000 0.000000 0.000000 0.000000 0.000000 0.000000 0.000000 0.000000 0.000000 2.027000 2.027000 2.022000 2.024000 0.000000 0.000000 0.000000 0.000000 0.000000 0.000000 0.000000 0.000000 0.000000 0.000000 0.000000 0.000000 0.000000 0.000000 0.000000 0.000000 0.000000 0.000000 0.000000 0.000000 1.109000 1.109000 1.109000 1.109000 0.000000 0.000000 
0.000000 0.000000 0.000000 0.000000 0.000000 0.000000 0.000000 0.000000 0.000000 2.029000 2.029000 2.029000 2.022000 2.022000 2.019000 2.012000 2.015000 2.012000 0.000000 0.000000 0.000000 0.000000 0.000000 0.000000 0.000000 0.000000 0.000000 0.000000 0.000000 0.000000 0.000000 0.000000 0.000000 0.000000 1.109000 1.109000 1.109000 1.109000 0.000000 0.000000 
0.000000 0.000000 0.000000 0.000000 0.000000 0.000000 1.109000 1.109000 1.192000 2.029000 2.027000 2.027000 2.027000 2.024000 2.019000 2.017000 2.017000 2.012000 2.007000 2.005000 2.006000 0.000000 0.000000 0.000000 0.000000 0.000000 0.000000 0.000000 0.000000 0.000000 0.000000 0.000000 0.000000 0.000000 1.109000 1.109000 1.109000 1.109000 0.000000 0.000000 
0.000000 0.000000 0.000000 0.000000 0.000000 0.000000 1.109000 1.109000 2.034000 2.029000 2.027000 2.024000 2.024000 2.022000 2.019000 2.017000 2.017000 2.017000 2.012000 2.010000 2.005000 2.000000 2.000000 2.000000 0.000000 0.000000 0.000000 0.000000 0.000000 0.000000 0.000000 0.000000 0.000000 0.000000 1.109000 1.109000 1.109000 1.109000 0.000000 0.000000 
0.000000 0.000000 0.000000 0.000000 0.000000 0.000000 1.109000 1.109000 2.034000 2.029000 2.027000 2.024000 2.024000 2.019000 2.019000 2.017000 2.017000 2.012000 2.010000 2.012000 2.009000 2.005000 2.003000 2.000000 1.994000 1.994000 1.994000 2.901000 0.000000 0.000000 0.000000 0.000000 0.000000 1.109000 1.109000 1.109000 1.109000 1.109000 0.000000 0.000000 
0.000000 0.000000 0.000000 0.000000 0.000000 0.000000 1.109000 1.160000 2.029000 2.027000 2.027000 2.027000 2.022000 2.019000 2.017000 2.017000 2.017000 2.010000 2.010000 2.007000 2.007000 2.005000 2.003000 2.002000 2.000000 1.998000 1.994000 1.993000 1.989000 1.983000 1.981000 0.000000 1.109000 1.109000 1.109000 1.109000 1.109000 1.109000 0.000000 0.000000 
0.000000 0.000000 0.000000 0.000000 0.000000 0.000000 1.109000 2.034000 2.029000 2.029000 2.024000 2.024000 2.022000 2.019000 2.017000 2.017000 2.015000 2.010000 2.010000 2.010000 2.006000 2.003000 2.002000 2.000000 2.000000 1.996000 1.994000 1.994000 1.991000 1.988000 1.984000 1.983000 1.982000 1.979000 1.978000 1.973000 1.109000 1.109000 0.000000 0.000000 
0.000000 0.000000 0.000000 0.000000 0.000000 1.109000 1.109000 2.037000 2.032000 2.027000 2.027000 2.024000 2.022000 2.019000 2.017000 2.017000 2.012000 2.010000 2.007000 2.009000 2.005000 2.003000 2.002000 2.000000 1.998000 1.996000 1.994000 1.993000 1.988000 1.988000 1.987000 1.984000 1.982000 1.981000 1.980000 1.976000 1.974000 1.971000 0.000000 0.000000 
0.000000 0.000000 0.000000 0.000000 0.000000 1.109000 1.151000 2.029000 2.027000 2.027000 2.027000 2.022000 2.019000 2.019000 2.017000 2.015000 2.010000 2.007000 2.007000 2.010000 2.005000 2.003000 2.000000 2.000000 1.996000 1.996000 1.994000 1.991000 1.990000 1.987000 1.984000 1.982000 1.982000 1.982000 1.981000 1.978000 1.977000 1.975000 0.000000 0.000000 
0.000000 0.000000 0.000000 0.000000 0.000000 1.109000 2.036000 2.029000 2.027000 2.027000 2.024000 2.022000 2.019000 2.019000 2.017000 2.012000 2.010000 2.007000 2.007000 2.007000 2.005000 2.003000 2.000000 2.000000 1.996000 1.994000 1.994000 1.991000 1.989000 1.988000 1.984000 1.983000 1.982000 1.980000 1.980000 1.978000 1.978000 1.976000 0.000000 0.000000 
0.000000 0.000000 0.000000 0.000000 1.109000 1.109000 2.029000 2.029000 2.027000 2.027000 2.022000 2.021000 2.019000 2.017000 2.015000 2.014000 2.010000 2.009000 2.007000 2.005000 2.005000 2.002000 2.000000 2.000000 1.996000 1.994000 1.991000 1.989000 1.988000 1.984000 1.984000 1.984000 1.982000 1.983000 1.980000 1.979000 1.977000 1.976000 0.000000 0.000000 
0.000000 0.000000 0.000000 0.000000 1.109000 1.142000 2.029000 2.027000 2.027000 2.024000 2.019000 2.019000 2.017000 2.017000 2.015000 2.012000 2.007000 2.007000 2.007000 2.006000 2.003000 2.002000 2.000000 2.000000 1.994000 1.994000 1.991000 1.991000 1.987000 1.984000 1.984000 1.982000 1.982000 1.982000 1.983000 1.978000 1.976000 1.976000 0.000000 0.000000 
0.000000 0.000000 0.000000 0.000000 1.109000 2.037000 2.029000 2.027000 2.026000 2.024000 2.019000 2.019000 2.017000 2.017000 2.015000 2.010000 2.010000 2.007000 2.003000 2.005000 2.003000 2.002000 1.998000 1.998000 1.994000 1.994000 1.991000 1.991000 1.986000 1.984000 1.984000 1.982000 1.980000 1.980000 1.981000 1.978000 1.977000 1.976000 0.000000 0.000000 
0.000000 0.000000 0.000000 1.109000 1.109000 2.032000 2.029000 2.024000 2.024000 2.022000 2.019000 2.017000 2.017000 2.015000 2.012000 2.010000 2.007000 2.005000 2.003000 2.003000 2.002000 2.000000 1.998000 1.996000 1.995000 1.994000 1.991000 1.989000 1.984000 1.984000 1.982000 1.982000 1.980000 1.979000 1.980000 1.978000 1.976000 1.975000 0.000000 0.000000 
0.000000 0.000000 0.000000 1.109000 1.112000 2.032000 2.027000 2.024000 2.024000 2.019000 2.019000 2.019000 2.017000 2.015000 2.012000 2.009000 2.007000 2.007000 2.003000 2.005000 2.002000 1.998000 1.996000 1.994000 1.994000 1.991000 1.990000 1.987000 1.984000 1.984000 1.982000 1.982000 1.980000 1.979000 1.978000 1.978000 1.976000 1.975000 0.000000 0.000000 
0.000000 0.000000 0.000000 1.109000 1.274000 2.032000 2.027000 2.022000 2.024000 2.019000 2.019000 2.017000 2.015000 2.015000 2.010000 2.009000 2.007000 2.003000 2.000000 2.003000 2.000000 1.998000 1.996000 1.994000 1.991000 1.991000 1.987000 1.984000 1.983000 1.982000 1.982000 1.982000 1.981000 1.980000 1.978000 1.978000 1.976000 1.972000 0.000000 0.000000 
0.000000 0.000000 0.000000 1.109000 2.039000 2.029000 2.027000 2.026000 2.022000 2.019000 2.019000 2.017000 2.015000 2.012000 2.010000 2.007000 2.005000 2.003000 2.003000 2.003000 2.000000 1.996000 1.994000 1.994000 1.991000 1.991000 1.989000 1.984000 1.982000 1.982000 1.982000 1.982000 1.980000 1.982000 1.978000 1.978000 1.977000 1.971000 0.000000 0.000000 
0.000000 0.000000 1.109000 1.274000 2.037000 2.029000 2.027000 2.024000 2.021000 2.019000 2.017000 2.017000 2.015000 2.010000 2.007000 2.007000 2.005000 2.003000 2.000000 2.003000 2.000000 1.997000 1.994000 1.993000 1.991000 1.989000 1.989000 1.985000 1.983000 1.982000 1.982000 1.981000 1.978000 1.977000 1.976000 1.976000 1.976000 1.975000 0.000000 0.000000 
0.000000 0.000000 1.109000 1.868000 2.034000 2.029000 2.027000 2.024000 2.022000 2.019000 2.017000 2.016000 2.012000 2.010000 2.007000 2.007000 2.005000 2.000000 2.000000 2.000000 2.000000 1.996000 1.994000 1.994000 1.991000 1.986000 1.984000 1.985000 1.984000 1.982000 1.982000 1.982000 1.977000 1.977000 1.976000 1.976000 1.972000 1.970000 0.000000 0.000000 
0.000000 0.000000 2.046000 2.042000 2.031000 2.027000 2.027000 2.023000 2.022000 2.019000 2.017000 2.015000 2.012000 2.010000 2.007000 2.005000 2.004000 2.000000 2.000000 2.000000 2.000000 1.996000 1.994000 1.992000 1.990000 1.988000 1.984000 1.982000 1.982000 1.982000 1.982000 1.981000 1.978000 1.976000 1.976000 1.976000 1.973000 1.968000 0.000000 0.000000 
0.000000 0.000000 2.044000 2.031000 2.027000 2.027000 2.024000 2.019000 2.019000 2.017000 2.014000 2.014000 2.012000 2.010000 2.007000 2.006000 2.003000 2.000000 2.000000 2.000000 1.998000 1.994000 1.994000 1.991000 1.987000 1.987000 1.987000 1.984000 1.982000 1.982000 1.982000 1.981000 1.978000 1.976000 1.975000 1.973000 1.971000 1.969000 0.000000 0.000000 
0.000000 0.000000 2.037000 2.029000 2.027000 2.027000 2.024000 2.019000 2.019000 2.019000 2.013000 2.015000 2.010000 2.010000 2.007000 2.005000 2.000000 1.999000 2.000000 2.000000 1.997000 1.994000 1.994000 1.991000 1.989000 1.987000 1.984000 1.983000 1.980000 1.982000 1.980000 1.979000 1.976000 1.976000 1.976000 1.973000 1.970000 1.969000 0.000000 0.000000 
0.000000 0.000000 0.000000 2.027000 2.029000 2.027000 2.024000 2.019000 2.019000 2.017000 2.016000 2.012000 2.010000 2.009000 2.005000 2.003000 2.000000 1.998000 1.998000 1.998000 1.995000 1.994000 1.994000 1.991000 1.990000 1.984000 1.984000 1.983000 1.982000 1.982000 1.979000 1.976000 1.975000 1.976000 1.975000 1.975000 1.969000 1.969000 0.000000 0.000000 
0.000000 0.000000 0.000000 0.000000 2.856000 2.029000 2.024000 2.021000 2.017000 2.017000 2.015000 2.012000 2.010000 2.010000 2.005000 2.003000 2.000000 1.998000 1.998000 1.998000 1.994000 1.994000 1.991000 1.991000 1.989000 1.987000 1.984000 1.984000 1.982000 1.981000 1.980000 1.976000 1.975000 1.974000 1.975000 1.969000 1.969000 1.968000 0.000000 0.000000 
0.000000 0.000000 2.932000 0.000000 0.000000 0.000000 0.000000 0.000000 2.869000 2.017000 2.015000 2.010000 2.010000 2.007000 2.003000 2.003000 2.000000 1.998000 1.998000 1.998000 1.994000 1.994000 1.991000 1.989000 1.987000 1.984000 1.982000 1.982000 1.981000 1.979000 1.978000 1.976000 1.973000 1.975000 1.973000 1.969000 1.969000 1.967000 0.000000 0.000000 
0.000000 0.000000 2.929000 0.000000 0.000000 0.000000 0.000000 0.000000 0.000000 0.000000 2.800000 2.012000 2.010000 2.007000 2.005000 2.004000 2.000000 1.998000 1.998000 1.997000 1.994000 1.991000 1.991000 1.989000 1.987000 1.984000 1.983000 1.982000 1.982000 1.979000 1.977000 1.973000 1.972000 1.972000 1.972000 1.971000 1.969000 1.966000 0.000000 0.000000 
0.000000 0.000000 2.922000 2.931000 0.000000 0.000000 0.000000 0.000000 0.000000 0.000000 0.000000 0.000000 0.000000 2.000000 2.003000 2.002000 1.999000 1.998000 1.996000 1.996000 1.994000 1.992000 1.990000 1.990000 1.984000 1.984000 1.982000 1.980000 1.980000 1.980000 1.976000 1.974000 1.972000 1.973000 1.970000 1.969000 1.969000 1.965000 0.000000 0.000000 
0.000000 0.000000 2.922000 0.000000 0.000000 0.000000 0.000000 0.000000 0.000000 0.000000 0.000000 0.000000 0.000000 0.000000 0.000000 2.899000 1.998000 1.997000 1.997000 1.996000 1.993000 1.991000 1.991000 1.990000 1.986000 1.984000 1.982000 1.982000 1.980000 1.978000 1.976000 1.975000 1.973000 1.972000 1.971000 1.967000 1.965000 1.963000 0.000000 0.000000 
0.000000 0.000000 2.934000 0.000000 0.000000 0.000000 0.000000 0.000000 0.000000 0.000000 0.000000 0.000000 0.000000 0.000000 0.000000 0.000000 0.000000 0.000000 2.904000 1.993000 1.993000 1.991000 1.989000 1.987000 1.984000 1.982000 1.982000 1.982000 1.979000 1.978000 1.975000 1.973000 1.972000 1.971000 1.969000 1.967000 1.964000 1.960000 0.000000 0.000000 
0.000000 0.000000 0.000000 0.000000 0.000000 0.000000 0.000000 0.000000 0.000000 0.000000 0.000000 0.000000 0.000000 0.000000 0.000000 0.000000 0.000000 0.000000 0.000000 0.000000 0.000000 0.000000 2.737000 1.989000 1.984000 1.982000 1.982000 1.982000 1.980000 1.979000 1.976000 1.973000 1.971000 1.971000 1.969000 1.967000 1.960000 1.959000 0.000000 0.000000 
0.000000 0.000000 0.000000 0.000000 0.000000 0.000000 0.000000 0.000000 0.000000 0.000000 0.000000 0.000000 0.000000 0.000000 0.000000 0.000000 0.000000 0.000000 0.000000 0.000000 0.000000 0.000000 0.000000 0.000000 2.917000 1.984000 1.982000 1.982000 1.980000 1.977000 1.973000 1.972000 1.969000 1.971000 1.968000 1.966000 1.960000 1.958000 0.000000 0.000000 
0.000000 0.000000 0.000000 0.000000 0.000000 0.000000 0.000000 0.000000 0.000000 0.000000 0.000000 0.000000 0.000000 0.000000 0.000000 0.000000 0.000000 0.000000 0.000000 0.000000 0.000000 0.000000 0.000000 0.000000 0.000000 0.000000 0.000000 0.000000 2.628000 1.979000 1.974000 1.973000 1.969000 1.967000 1.967000 1.964000 1.960000 1.958000 0.000000 0.000000 
0.000000 0.000000 2.979000 2.962000 2.969000 0.000000 0.000000 0.000000 0.000000 0.000000 0.000000 0.000000 0.000000 0.000000 0.000000 0.000000 0.000000 0.000000 0.000000 0.000000 0.000000 0.000000 0.000000 0.000000 0.000000 0.000000 0.000000 0.000000 0.000000 0.000000 2.558000 1.973000 1.968000 1.967000 1.966000 1.961000 1.959000 1.958000 0.000000 0.000000 
0.000000 0.000000 2.945000 2.939000 2.939000 2.959000 2.989000 2.988000 2.972000 0.000000 0.000000 0.000000 0.000000 0.000000 0.000000 0.000000 0.000000 0.000000 0.000000 0.000000 0.000000 0.000000 0.000000 0.000000 0.000000 0.000000 0.000000 0.000000 0.000000 0.000000 0.000000 0.000000 0.000000 2.478000 2.198000 1.963000 1.958000 1.953000 0.000000 0.000000 
0.000000 0.000000 2.913000 2.922000 2.922000 2.932000 2.942000 2.961000 2.952000 2.953000 2.974000 0.000000 0.000000 0.000000 0.000000 0.000000 0.000000 0.000000 0.000000 0.000000 0.000000 0.000000 0.000000 0.000000 0.000000 0.000000 0.000000 0.000000 0.000000 0.000000 0.000000 0.000000 0.000000 0.000000 0.000000 2.826000 1.952000 1.952000 0.000000 0.000000 
0.000000 0.000000 0.000000 0.000000 0.000000 0.000000 0.000000 0.000000 0.000000 0.000000 0.000000 0.000000 0.000000 0.000000 0.000000 0.000000 0.000000 0.000000 0.000000 0.000000 0.000000 0.000000 0.000000 0.000000 0.000000 0.000000 0.000000 0.000000 0.000000 0.000000 0.000000 0.000000 0.000000 0.000000 0.000000 0.000000 0.000000 0.000000 0.000000 0.000000 
0.000000 0.000000 0.000000 0.000000 0.000000 0.000000 0.000000 0.000000 0.000000 0.000000 0.000000 0.000000 0.000000 0.000000 0.000000 0.000000 0.000000 0.000000 0.000000 0.000000 0.000000 0.000000 0.000000 0.000000 0.000000 0.000000 0.000000 0.000000 0.000000 0.000000 0.000000 0.000000 0.000000 0.000000 0.000000 0.000000 0.000000 0.000000 0.000000 0.000000 
0.000000 0.000000 0.000000 0.000000 0.000000 0.000000 0.000000 0.000000 0.000000 0.000000 0.000000 0.000000 0.000000 0.000000 0.000000 0.000000 0.000000 0.000000 0.000000 0.000000 0.000000 0.000000 0.000000 0.000000 0.000000 0.000000 0.000000 0.000000 0.000000 0.000000 0.000000 0.000000 0.000000 0.000000 0.000000 0.000000 0.000000 0.000000 0.000000 0.000000 
