40 40
0.000000 0.000000 0.000000 0.000000 0.000000 0.000000 0.000000 0.000000 0.000000 2.011000 2.023000 2.018000 0.000000 0.000000 0.000000 0.000000 0.000000 0.000000 0.000000 0.000000 0.000000 0.000000 0.000000 2.645000 2.657000 1.980000 2.694000 2.664000 2.654000 2.651000 0.000000 1.941000 1.941000 0.000000 0.000000 0.000000 0.000000 0.000000 0.000000 0.000000 
0.000000 0.000000 0.000000 0.000000 0.000000 0.000000 0.000000 0.000000 2.731000 2.009000 2.013000 2.000000 2.000000 1.998000 1.998000 1.999000 1.996000 1.996000 1.994000 1.991000 1.991000 1.987000 1.983000 1.984000 1.982000 1.982000 1.980000 1.979000 1.980000 1.977000 1.378000 0.000000 0.000000 0.000000 0.000000 0.000000 0.000000 0.000000 0.000000 0.000000 
0.000000 0.000000 0.000000 0.000000 0.000000 0.000000 0.000000 0.000000 2.785000 2.009000 2.009000 2.004000 2.000000 2.000000 2.000000 2.000000 1.996000 1.996000 1.996000 1.996000 1.992000 1.987000 1.987000 1.987000 1.985000 1.983000 1.979000 1.978000 1.978000 1.978000 1.978000 0.000000 0.000000 0.000000 0.000000 0.000000 0.000000 0.000000 0.000000 0.000000 
0.000000 0.000000 0.000000 0.000000 0.000000 0.000000 0.000000 1.544000 2.011000 2.009000 2.009000 2.005000 2.000000 2.000000 2.004000 2.000000 1.996000 1.996000 1.996000 1.991000 1.991000 1.988000 1.987000 1.987000 1.987000 1.983000 1.983000 1.978000 1.978000 1.978000 1.978000 0.000000 0.000000 0.000000 0.000000 0.000000 0.000000 0.000000 0.000000 0.000000 
0.000000 0.000000 0.000000 0.000000 0.000000 0.000000 0.000000 2.019000 2.014000 2.009000 2.009000 2.005000 2.000000 2.000000 2.000000 2.000000 1.997000 1.996000 1.996000 1.991000 1.991000 1.991000 1.987000 1.987000 1.986000 1.983000 1.983000 1.978000 1.978000 1.978000 1.977000 0.000000 0.000000 0.000000 0.000000 0.000000 0.000000 0.000000 0.000000 0.000000 
0.000000 0.000000 0.000000 0.000000 0.000000 0.000000 0.000000 2.516000 2.014000 2.009000 2.009000 2.008000 2.005000 2.000000 2.000000 2.000000 2.000000 2.000000 1.996000 1.993000 1.995000 1.996000 1.991000 1.986000 1.983000 1.983000 1.983000 1.980000 1.978000 1.978000 1.976000 0.000000 0.000000 0.000000 0.000000 0.000000 0.000000 0.000000 0.000000 0.000000 
0.000000 0.000000 0.000000 0.000000 0.000000 0.000000 0.000000 1.811000 2.014000 2.009000 2.009000 2.008000 2.002000 2.000000 2.004000 2.000000 2.000000 2.000000 1.996000 1.996000 1.996000 1.991000 1.987000 1.986000 1.983000 1.983000 1.983000 1.980000 1.978000 1.978000 1.978000 0.000000 0.000000 0.000000 0.000000 0.000000 0.000000 0.000000 0.000000 0.000000 
0.000000 0.000000 0.000000 0.000000 0.000000 0.000000 0.000000 2.020000 2.014000 2.009000 2.006000 2.005000 2.002000 1.998000 2.000000 2.000000 2.000000 1.996000 1.996000 1.996000 1.996000 1.991000 1.987000 1.987000 1.987000 1.983000 1.983000 1.978000 1.978000 1.978000 1.981000 1.175000 0.000000 0.000000 0.000000 0.000000 0.000000 0.000000 0.000000 0.000000 
0.000000 0.000000 0.000000 0.000000 0.000000 0.000000 0.000000 2.025000 2.016000 2.009000 2.009000 2.009000 2.003000 2.000000 2.004000 2.000000 2.000000 2.000000 1.996000 1.996000 1.996000 1.991000 1.987000 1.987000 1.985000 1.983000 1.983000 1.978000 1.978000 1.978000 1.980000 1.938000 0.000000 0.000000 0.000000 0.000000 0.000000 0.000000 0.000000 0.000000 
0.000000 0.000000 0.000000 0.000000 0.000000 0.000000 0.000000 2.010000 2.013000 2.010000 2.009000 2.008000 2.005000 2.005000 2.008000 2.000000 2.000000 2.000000 2.000000 1.996000 1.996000 1.992000 1.991000 1.987000 1.983000 1.983000 1.983000 1.983000 1.979000 1.983000 1.983000 1.979000 0.000000 0.000000 0.000000 0.000000 0.000000 0.000000 0.000000 0.000000 
0.000000 0.000000 0.000000 0.000000 0.000000 0.000000 0.000000 1.495000 2.010000 2.014000 2.010000 2.009000 2.005000 2.001000 2.004000 2.005000 2.004000 2.000000 2.000000 1.998000 1.996000 1.995000 1.992000 1.991000 1.986000 1.983000 1.983000 1.983000 1.983000 1.982000 1.983000 1.978000 0.000000 0.000000 0.000000 0.000000 0.000000 0.000000 0.000000 0.000000 
0.000000 0.000000 0.000000 0.000000 0.000000 0.000000 0.000000 0.000000 1.706000 2.014000 2.014000 2.009000 2.005000 2.001000 2.006000 2.005000 2.002000 2.000000 2.000000 1.996000 1.996000 1.991000 1.996000 1.995000 1.988000 1.987000 1.987000 1.983000 1.982000 1.978000 1.978000 1.967000 0.000000 0.000000 0.000000 0.000000 0.000000 0.000000 0.000000 0.000000 
0.000000 0.000000 0.000000 0.000000 0.000000 0.000000 0.000000 0.000000 1.708000 2.014000 2.014000 2.009000 2.009000 2.004000 2.005000 2.005000 2.000000 2.000000 2.000000 1.996000 1.996000 1.996000 1.996000 1.994000 1.989000 1.985000 1.985000 1.983000 1.983000 1.983000 1.983000 1.978000 0.000000 0.000000 0.000000 0.000000 0.000000 0.000000 0.000000 0.000000 
0.000000 0.000000 0.000000 0.000000 0.000000 0.000000 0.000000 0.000000 1.708000 2.014000 2.014000 2.009000 2.009000 2.006000 2.007000 2.005000 2.000000 2.000000 2.000000 1.998000 1.996000 1.996000 1.992000 1.996000 1.991000 1.986000 1.983000 1.983000 1.983000 1.983000 1.983000 1.982000 0.000000 0.000000 0.000000 0.000000 0.000000 0.000000 0.000000 0.000000 
0.000000 0.000000 0.000000 0.000000 0.000000 0.000000 0.000000 0.000000 1.704000 2.014000 2.014000 2.009000 2.009000 2.007000 2.008000 2.005000 2.000000 2.000000 2.000000 2.000000 2.000000 1.996000 1.991000 1.996000 1.991000 1.987000 1.983000 1.987000 1.987000 1.986000 1.983000 1.980000 0.000000 0.000000 0.000000 0.000000 0.000000 0.000000 0.000000 0.000000 
0.000000 0.000000 0.000000 0.000000 0.000000 0.000000 0.000000 0.000000 1.707000 2.009000 2.009000 2.009000 2.009000 2.009000 2.009000 2.005000 2.000000 2.000000 2.000000 2.000000 1.996000 1.996000 1.991000 1.994000 1.989000 1.987000 1.987000 1.987000 1.983000 1.983000 1.983000 1.983000 0.000000 0.000000 0.000000 0.000000 0.000000 0.000000 0.000000 0.000000 
0.000000 0.000000 0.000000 0.000000 0.000000 0.000000 0.000000 0.000000 1.799000 2.011000 2.011000 2.009000 2.009000 2.007000 2.009000 2.005000 2.000000 2.000000 2.000000 2.000000 1.996000 1.996000 1.996000 1.994000 1.989000 1.987000 1.987000 1.987000 1.983000 1.983000 1.983000 1.981000 1.978000 0.000000 0.000000 0.000000 0.000000 0.000000 0.000000 0.000000 
0.000000 0.000000 0.000000 0.000000 0.000000 0.000000 0.000000 0.000000 1.871000 2.014000 2.014000 2.011000 2.009000 2.008000 2.009000 2.005000 2.000000 2.000000 2.000000 2.000000 1.998000 1.996000 1.996000 1.996000 1.994000 1.989000 1.987000 1.983000 1.983000 1.983000 1.983000 1.980000 1.978000 0.000000 0.000000 0.000000 0.000000 0.000000 0.000000 0.000000 
0.000000 0.000000 0.000000 0.000000 0.000000 0.000000 0.000000 0.000000 1.905000 2.014000 2.009000 2.009000 2.009000 2.006000 2.007000 2.005000 2.000000 2.000000 2.000000 2.000000 1.997000 1.996000 1.993000 1.996000 1.996000 1.992000 1.991000 1.987000 1.985000 1.983000 1.983000 1.980000 1.978000 0.000000 0.000000 0.000000 0.000000 0.000000 0.000000 0.000000 
0.000000 0.000000 0.000000 0.000000 0.000000 0.000000 0.000000 0.000000 2.014000 2.009000 2.009000 2.009000 2.009000 2.008000 2.009000 2.005000 2.004000 2.000000 2.000000 2.000000 1.997000 1.991000 1.995000 1.996000 1.994000 1.991000 1.991000 1.987000 1.987000 1.987000 1.983000 1.983000 1.983000 0.000000 0.000000 0.000000 0.000000 0.000000 0.000000 0.000000 
0.000000 0.000000 0.000000 0.000000 0.000000 0.000000 0.000000 0.000000 2.015000 2.014000 2.009000 2.013000 2.009000 2.009000 2.009000 2.009000 2.005000 2.009000 2.003000 2.000000 2.000000 1.996000 1.996000 1.996000 1.994000 1.988000 1.987000 1.987000 1.987000 1.983000 1.983000 1.980000 1.978000 0.000000 0.000000 0.000000 0.000000 0.000000 0.000000 0.000000 
0.000000 0.000000 0.000000 0.000000 0.000000 0.000000 0.000000 0.000000 2.017000 2.014000 2.009000 2.009000 2.009000 2.005000 2.009000 2.009000 2.005000 2.005000 2.003000 2.000000 2.000000 1.996000 1.996000 1.996000 1.994000 1.991000 1.991000 1.988000 1.987000 1.987000 1.985000 1.980000 1.978000 0.000000 0.000000 0.000000 0.000000 0.000000 0.000000 0.000000 
0.000000 0.000000 0.000000 0.000000 0.000000 0.000000 0.000000 0.000000 2.018000 2.014000 2.009000 2.009000 2.009000 2.009000 2.009000 2.009000 2.006000 2.005000 2.003000 2.000000 2.000000 1.996000 1.996000 1.996000 1.996000 1.996000 1.995000 1.991000 1.987000 1.983000 1.983000 1.983000 1.987000 0.000000 0.000000 0.000000 0.000000 0.000000 0.000000 0.000000 
0.000000 0.000000 0.000000 0.000000 0.000000 0.000000 0.000000 0.000000 1.864000 2.014000 2.014000 2.009000 2.009000 2.009000 2.009000 2.009000 2.009000 2.005000 2.004000 2.000000 2.000000 1.996000 1.996000 1.996000 1.996000 1.996000 1.992000 1.991000 1.987000 1.983000 1.983000 1.986000 1.983000 0.000000 0.000000 0.000000 0.000000 0.000000 0.000000 0.000000 
0.000000 0.000000 0.000000 0.000000 0.000000 0.000000 0.000000 0.000000 1.704000 2.014000 2.014000 2.013000 2.009000 2.009000 2.013000 2.009000 2.005000 2.005000 2.005000 2.000000 2.000000 1.996000 1.999000 1.999000 1.996000 1.996000 1.992000 1.991000 1.987000 1.987000 1.987000 1.987000 1.984000 0.000000 0.000000 0.000000 0.000000 0.000000 0.000000 0.000000 
0.000000 0.000000 0.000000 0.000000 0.000000 0.000000 0.000000 0.000000 1.963000 2.014000 2.014000 2.009000 2.009000 2.009000 2.009000 2.009000 2.009000 2.005000 2.007000 2.004000 2.000000 1.999000 2.000000 2.000000 1.996000 1.996000 1.996000 1.995000 1.990000 1.987000 1.987000 1.987000 1.987000 0.000000 0.000000 0.000000 0.000000 0.000000 0.000000 0.000000 
0.000000 0.000000 0.000000 0.000000 0.000000 0.000000 0.000000 0.000000 2.014000 2.014000 2.014000 2.009000 2.009000 2.009000 2.009000 2.009000 2.009000 2.009000 2.007000 2.005000 2.000000 1.996000 1.996000 1.996000 1.996000 1.996000 1.991000 1.996000 1.990000 1.987000 1.987000 1.984000 1.983000 0.000000 0.000000 0.000000 0.000000 0.000000 0.000000 0.000000 
0.000000 0.000000 0.000000 0.000000 0.000000 0.000000 0.000000 0.000000 2.015000 2.014000 2.014000 2.009000 2.009000 2.009000 2.013000 2.009000 2.009000 2.008000 2.005000 2.004000 2.000000 1.996000 1.996000 1.996000 1.996000 1.996000 1.996000 1.996000 1.991000 1.987000 1.987000 1.985000 1.980000 0.000000 0.000000 0.000000 0.000000 0.000000 0.000000 0.000000 
0.000000 0.000000 0.000000 0.000000 0.000000 0.000000 0.000000 0.000000 1.914000 2.014000 2.014000 2.009000 2.009000 2.009000 2.013000 2.009000 2.005000 2.008000 2.004000 2.000000 2.000000 1.997000 1.996000 1.996000 1.997000 1.996000 1.996000 1.996000 1.991000 1.990000 1.987000 1.987000 1.987000 0.000000 0.000000 0.000000 0.000000 0.000000 0.000000 0.000000 
0.000000 0.000000 0.000000 0.000000 0.000000 0.000000 0.000000 0.000000 1.711000 2.014000 2.014000 2.009000 2.009000 2.009000 2.013000 2.009000 2.005000 2.009000 2.007000 2.002000 2.000000 1.996000 1.996000 1.999000 1.997000 1.996000 1.996000 1.996000 1.993000 1.990000 1.987000 1.984000 1.463000 0.000000 0.000000 0.000000 0.000000 0.000000 0.000000 0.000000 
0.000000 0.000000 0.000000 0.000000 0.000000 0.000000 0.000000 0.000000 1.711000 2.019000 2.014000 2.013000 2.009000 2.009000 2.013000 2.009000 2.009000 2.009000 2.009000 2.003000 2.000000 2.000000 1.997000 2.000000 1.996000 1.996000 1.996000 1.996000 1.992000 1.988000 1.987000 1.987000 0.000000 0.000000 0.000000 0.000000 0.000000 0.000000 0.000000 0.000000 
0.000000 0.000000 0.000000 0.000000 0.000000 0.000000 0.000000 0.000000 1.976000 2.014000 2.014000 2.013000 2.009000 2.009000 2.013000 2.009000 2.009000 2.009000 2.009000 2.004000 2.000000 2.000000 1.999000 2.000000 1.996000 1.996000 1.996000 1.991000 1.991000 1.987000 1.989000 1.991000 0.000000 0.000000 0.000000 0.000000 0.000000 0.000000 0.000000 0.000000 
0.000000 0.000000 0.000000 0.000000 0.000000 0.000000 0.000000 0.000000 1.718000 2.014000 2.014000 2.013000 2.009000 2.009000 2.009000 2.009000 2.009000 2.009000 2.009000 2.003000 2.000000 2.000000 2.000000 2.000000 1.996000 1.996000 1.996000 1.996000 1.991000 1.987000 1.989000 1.991000 0.000000 0.000000 0.000000 0.000000 0.000000 0.000000 0.000000 0.000000 
0.000000 0.000000 0.000000 0.000000 0.000000 0.000000 0.000000 1.503000 2.021000 2.014000 2.014000 2.009000 2.009000 2.009000 2.010000 2.005000 2.009000 2.007000 2.007000 2.000000 2.000000 2.000000 2.000000 2.000000 2.000000 2.000000 1.997000 1.996000 1.996000 1.992000 1.991000 1.991000 1.167000 0.000000 0.000000 0.000000 0.000000 0.000000 0.000000 0.000000 
0.000000 0.000000 0.000000 0.000000 0.000000 0.000000 0.000000 2.197000 2.015000 2.014000 2.014000 2.009000 2.009000 2.009000 2.010000 2.007000 2.009000 2.009000 2.005000 2.000000 2.000000 2.000000 2.000000 1.999000 1.996000 1.996000 1.996000 1.996000 1.996000 1.991000 1.991000 1.991000 1.991000 0.000000 0.000000 0.000000 0.000000 0.000000 0.000000 0.000000 
0.000000 0.000000 0.000000 0.000000 0.000000 0.000000 0.000000 2.300000 2.084000 2.014000 2.014000 2.009000 2.009000 2.009000 2.014000 2.014000 2.012000 2.013000 1.997000 1.994000 2.002000 2.000000 2.000000 1.999000 1.996000 1.996000 1.996000 1.996000 1.996000 1.994000 1.994000 1.988000 1.987000 0.000000 0.000000 0.000000 0.000000 0.000000 0.000000 0.000000 
0.000000 0.000000 0.000000 0.000000 0.000000 0.000000 0.000000 2.307000 2.307000 2.231000 2.219000 2.218000 2.213000 2.294000 2.298000 2.205000 2.184000 1.765000 1.517000 1.978000 1.986000 0.000000 2.010000 2.005000 1.999000 1.999000 0.000000 0.000000 0.000000 0.000000 0.000000 0.000000 0.000000 0.000000 0.000000 0.000000 0.000000 0.000000 0.000000 0.000000 
0.000000 0.000000 0.000000 0.000000 0.000000 0.000000 0.000000 2.320000 2.315000 2.314000 2.307000 2.300000 2.300000 2.293000 2.288000 2.281000 2.280000 0.000000 0.000000 0.000000 0.000000 0.000000 0.000000 2.021000 0.000000 2.180000 0.000000 0.000000 0.000000 0.000000 0.000000 0.000000 0.000000 0.000000 0.000000 0.000000 0.000000 0.000000 0.000000 0.000000 
0.000000 0.000000 0.000000 0.000000 0.000000 0.000000 0.000000 2.324000 2.315000 2.308000 2.306000 2.300000 2.293000 2.293000 2.287000 2.280000 0.000000 0.000000 0.000000 1.306000 0.000000 0.000000 0.000000 2.019000 0.000000 0.000000 0.000000 0.000000 0.000000 0.000000 0.000000 0.000000 0.000000 0.000000 0.000000 0.000000 0.000000 0.000000 0.000000 0.000000 
0.000000 0.000000 0.000000 0.000000 0.000000 0.000000 0.000000 0.000000 0.000000 0.000000 0.000000 0.000000 0.000000 0.000000 0.000000 0.000000 0.000000 0.000000 0.000000 0.000000 0.000000 0.000000 0.000000 0.000000 0.000000 0.000000 0.000000 0.000000 0.000000 0.000000 0.000000 0.000000 0.000000 0.000000 0.000000 0.000000 0.000000 0.000000 0.000000 0.000000 
