40 40
0.000000 0.000000 0.000000 0.000000 0.000000 0.000000 0.000000 0.000000 0.000000 0.000000 0.000000 0.000000 0.000000 0.000000 0.000000 0.000000 0.000000 0.000000 0.000000 0.000000 0.000000 0.000000 0.000000 0.000000 0.000000 0.000000 0.000000 0.000000 0.000000 0.000000 0.000000 0.000000 0.000000 0.000000 0.000000 0.000000 0.000000 0.000000 0.000000 0.000000 
0.000000 0.000000 0.000000 0.000000 0.000000 0.000000 0.000000 0.000000 0.000000 0.000000 0.000000 0.000000 0.000000 0.000000 0.000000 0.000000 0.000000 0.000000 0.000000 0.000000 0.000000 0.000000 0.000000 0.000000 0.000000 0.000000 0.000000 0.000000 0.000000 0.000000 0.000000 0.000000 0.000000 0.000000 0.000000 0.000000 0.000000 0.000000 0.000000 0.000000 
0.000000 0.000000 0.000000 0.000000 0.000000 0.000000 0.000000 2.891000 2.909000 2.879000 2.044000 2.039000 2.038000 2.038000 2.035000 2.038000 2.608000 2.869000 2.869000 2.869000 2.853000 0.000000 0.000000 0.000000 0.000000 0.000000 0.000000 0.000000 0.000000 0.000000 0.000000 0.000000 0.000000 0.000000 0.000000 0.000000 0.000000 0.000000 0.000000 0.000000 
0.000000 0.000000 0.000000 0.000000 0.000000 0.000000 2.766000 2.055000 2.072000 2.062000 2.038000 2.038000 2.038000 2.038000 2.042000 2.042000 2.039000 2.038000 2.038000 2.038000 2.037000 2.036000 2.034000 2.038000 2.034000 2.035000 2.038000 2.115000 0.000000 0.000000 2.037000 0.000000 0.000000 0.000000 0.000000 0.000000 0.000000 0.000000 0.000000 0.000000 
0.000000 0.000000 0.000000 0.000000 0.000000 0.000000 0.000000 0.000000 1.773000 2.052000 2.038000 2.038000 2.038000 2.035000 2.040000 2.038000 2.038000 2.038000 2.035000 2.034000 2.036000 2.034000 2.034000 2.032000 2.034000 2.032000 2.034000 2.036000 2.035000 2.034000 2.030000 2.030000 2.059000 0.000000 0.000000 0.000000 0.000000 0.000000 0.000000 0.000000 
0.000000 0.000000 0.000000 0.000000 0.000000 0.000000 0.000000 0.000000 2.019000 2.053000 2.037000 2.034000 2.038000 2.034000 2.038000 2.035000 2.038000 2.038000 2.030000 2.033000 2.034000 2.030000 2.034000 2.026000 2.030000 2.030000 2.030000 2.026000 2.028000 2.033000 2.030000 2.030000 2.030000 0.000000 0.000000 0.000000 0.000000 0.000000 0.000000 0.000000 
0.000000 0.000000 0.000000 0.000000 0.000000 0.000000 0.000000 0.000000 2.073000 2.049000 2.034000 2.033000 2.033000 2.034000 2.031000 2.030000 2.033000 2.033000 2.026000 2.028000 2.030000 2.026000 2.026000 2.026000 2.030000 2.026000 2.026000 2.026000 2.027000 2.029000 2.026000 2.030000 2.034000 0.000000 0.000000 0.000000 0.000000 0.000000 0.000000 0.000000 
0.000000 0.000000 0.000000 0.000000 0.000000 0.000000 1.404000 2.107000 2.095000 2.039000 2.033000 2.030000 2.026000 2.030000 2.031000 2.030000 2.028000 2.026000 2.026000 2.026000 2.026000 2.026000 2.026000 2.029000 2.027000 2.026000 2.026000 2.026000 2.026000 2.026000 2.026000 2.028000 2.034000 0.000000 0.000000 0.000000 0.000000 0.000000 0.000000 0.000000 
0.000000 0.000000 0.000000 0.000000 0.000000 0.000000 1.299000 2.107000 2.091000 2.036000 2.030000 2.030000 2.026000 2.026000 2.030000 2.026000 2.026000 2.026000 2.026000 2.026000 2.026000 2.026000 2.022000 2.026000 2.026000 2.026000 2.023000 2.026000 2.022000 2.022000 2.022000 2.028000 2.013000 0.000000 0.000000 0.000000 0.000000 0.000000 0.000000 0.000000 
0.000000 0.000000 0.000000 0.000000 0.000000 0.000000 1.519000 2.106000 2.076000 2.033000 2.028000 2.028000 2.022000 2.022000 2.028000 2.026000 2.026000 2.024000 2.026000 2.023000 2.022000 2.022000 2.022000 2.021000 2.022000 2.021000 2.022000 2.021000 2.021000 2.021000 2.019000 2.024000 2.013000 0.000000 0.000000 0.000000 0.000000 0.000000 0.000000 0.000000 
0.000000 0.000000 0.000000 0.000000 0.000000 0.000000 0.000000 2.096000 2.062000 2.028000 2.022000 2.022000 2.022000 2.022000 2.023000 2.022000 2.022000 2.022000 2.024000 2.026000 2.022000 2.022000 2.019000 2.017000 2.022000 2.019000 2.019000 2.019000 2.018000 2.018000 2.019000 2.021000 2.006000 0.000000 0.000000 0.000000 0.000000 0.000000 0.000000 0.000000 
0.000000 0.000000 0.000000 0.000000 0.000000 0.000000 0.000000 2.096000 2.057000 2.027000 2.022000 2.020000 2.019000 2.019000 2.021000 2.022000 2.021000 2.021000 2.023000 2.021000 2.019000 2.019000 2.015000 2.015000 2.019000 2.019000 2.018000 2.014000 2.014000 2.015000 2.011000 2.017000 1.702000 0.000000 0.000000 0.000000 0.000000 0.000000 0.000000 0.000000 
0.000000 0.000000 0.000000 0.000000 0.000000 0.000000 0.000000 2.099000 2.045000 2.023000 2.019000 2.019000 2.019000 2.019000 2.019000 2.019000 2.019000 2.015000 2.018000 2.019000 2.015000 2.015000 2.015000 2.015000 2.016000 2.016000 2.015000 2.011000 2.011000 2.015000 2.011000 2.013000 0.000000 0.000000 0.000000 0.000000 0.000000 0.000000 0.000000 0.000000 
0.000000 0.000000 0.000000 0.000000 0.000000 0.000000 0.000000 2.090000 2.050000 2.019000 2.015000 2.017000 2.018000 2.015000 2.019000 2.019000 2.016000 2.011000 2.019000 2.016000 2.015000 2.015000 2.015000 2.011000 2.014000 2.011000 2.011000 2.011000 2.011000 2.011000 2.011000 2.011000 0.000000 0.000000 0.000000 0.000000 0.000000 0.000000 0.000000 0.000000 
0.000000 0.000000 0.000000 0.000000 0.000000 0.000000 0.000000 2.083000 2.036000 2.019000 2.013000 2.011000 2.013000 2.013000 2.011000 2.011000 2.011000 2.011000 2.013000 2.013000 2.013000 2.011000 2.011000 2.011000 2.011000 2.009000 2.010000 2.011000 2.008000 2.009000 2.009000 2.013000 0.000000 0.000000 0.000000 0.000000 0.000000 0.000000 0.000000 0.000000 
0.000000 0.000000 0.000000 0.000000 0.000000 0.000000 0.000000 2.074000 2.034000 2.015000 2.010000 2.007000 2.008000 2.008000 2.011000 2.011000 2.011000 2.011000 2.011000 2.011000 2.011000 2.007000 2.007000 2.008000 2.011000 2.007000 2.007000 2.008000 2.007000 2.007000 2.007000 2.009000 0.000000 0.000000 0.000000 0.000000 0.000000 0.000000 0.000000 0.000000 
0.000000 0.000000 0.000000 0.000000 0.000000 0.000000 0.000000 2.075000 2.032000 2.011000 2.010000 2.006000 2.007000 2.007000 2.011000 2.011000 2.007000 2.010000 2.011000 2.007000 2.007000 2.007000 2.007000 2.007000 2.007000 2.006000 2.007000 2.007000 2.005000 2.003000 2.006000 2.009000 0.000000 0.000000 0.000000 0.000000 0.000000 0.000000 0.000000 0.000000 
0.000000 0.000000 0.000000 0.000000 0.000000 0.000000 0.000000 1.368000 2.028000 2.009000 2.007000 2.005000 2.007000 2.004000 2.008000 2.008000 2.007000 2.007000 2.007000 2.007000 2.007000 2.006000 2.007000 2.005000 2.004000 2.004000 2.006000 2.005000 2.001000 2.000000 2.001000 2.002000 1.985000 0.000000 0.000000 0.000000 0.000000 0.000000 0.000000 0.000000 
0.000000 0.000000 0.000000 0.000000 0.000000 0.000000 0.000000 2.064000 2.018000 2.004000 2.004000 2.004000 2.004000 2.004000 2.007000 2.007000 2.007000 2.007000 2.004000 2.004000 2.004000 1.999000 2.004000 2.000000 2.000000 2.004000 2.004000 2.004000 2.000000 2.000000 1.996000 2.000000 1.980000 0.000000 0.000000 0.000000 0.000000 0.000000 0.000000 0.000000 
0.000000 0.000000 0.000000 0.000000 0.000000 0.000000 0.000000 2.056000 2.015000 2.004000 2.000000 2.002000 2.004000 2.004000 2.007000 2.004000 2.004000 2.000000 2.000000 2.000000 2.002000 1.997000 2.000000 1.997000 1.998000 2.000000 2.000000 2.000000 1.996000 1.996000 1.996000 1.998000 1.984000 0.000000 0.000000 0.000000 0.000000 0.000000 0.000000 0.000000 
0.000000 0.000000 0.000000 0.000000 0.000000 0.000000 0.000000 2.044000 2.015000 2.004000 2.000000 1.996000 1.997000 2.000000 2.004000 2.003000 2.000000 1.997000 1.998000 1.996000 2.000000 2.000000 2.000000 1.996000 1.996000 1.996000 1.996000 1.996000 1.996000 1.996000 1.996000 1.996000 1.804000 0.000000 0.000000 0.000000 0.000000 0.000000 0.000000 0.000000 
0.000000 0.000000 0.000000 0.000000 0.000000 0.000000 1.722000 2.043000 2.009000 2.003000 1.999000 1.996000 1.993000 1.998000 1.999000 1.996000 1.996000 1.996000 1.996000 1.996000 1.996000 1.996000 1.996000 1.993000 1.993000 1.993000 1.993000 1.993000 1.993000 1.993000 1.993000 1.995000 1.980000 0.000000 0.000000 0.000000 0.000000 0.000000 0.000000 0.000000 
0.000000 0.000000 0.000000 0.000000 0.000000 0.000000 1.948000 2.037000 2.008000 2.000000 1.996000 1.993000 1.993000 1.995000 1.996000 1.996000 1.995000 1.993000 1.996000 1.993000 1.994000 1.993000 1.993000 1.990000 1.993000 1.993000 1.993000 1.993000 1.993000 1.993000 1.990000 1.994000 1.978000 0.000000 0.000000 0.000000 0.000000 0.000000 0.000000 0.000000 
0.000000 0.000000 0.000000 0.000000 0.000000 0.000000 2.061000 2.037000 2.004000 1.993000 1.993000 1.993000 1.993000 1.994000 1.993000 1.993000 1.994000 1.993000 1.993000 1.993000 1.993000 1.990000 1.989000 1.991000 1.993000 1.993000 1.990000 1.989000 1.991000 1.989000 1.989000 1.991000 1.995000 0.000000 0.000000 0.000000 0.000000 0.000000 0.000000 0.000000 
0.000000 0.000000 0.000000 0.000000 0.000000 0.000000 1.859000 2.032000 1.997000 1.991000 1.989000 1.991000 1.989000 1.992000 1.993000 1.994000 1.992000 1.988000 1.991000 1.992000 1.989000 1.989000 1.986000 1.988000 1.989000 1.988000 1.985000 1.986000 1.989000 1.986000 1.987000 1.991000 1.980000 0.000000 0.000000 0.000000 0.000000 0.000000 0.000000 0.000000 
0.000000 0.000000 0.000000 0.000000 0.000000 0.000000 2.061000 2.031000 1.998000 1.989000 1.989000 1.989000 1.989000 1.991000 1.993000 1.993000 1.987000 1.986000 1.989000 1.986000 1.987000 1.989000 1.986000 1.986000 1.986000 1.983000 1.982000 1.983000 1.986000 1.983000 1.983000 1.988000 1.987000 0.000000 0.000000 0.000000 0.000000 0.000000 0.000000 0.000000 
0.000000 0.000000 0.000000 0.000000 0.000000 0.000000 2.055000 2.027000 1.995000 1.989000 1.986000 1.986000 1.988000 1.989000 1.988000 1.988000 1.987000 1.986000 1.988000 1.986000 1.986000 1.983000 1.982000 1.983000 1.982000 1.982000 1.982000 1.982000 1.982000 1.982000 1.978000 1.982000 1.986000 0.000000 0.000000 0.000000 0.000000 0.000000 0.000000 0.000000 
0.000000 0.000000 0.000000 0.000000 0.000000 0.000000 2.055000 2.018000 1.991000 1.986000 1.982000 1.983000 1.986000 1.985000 1.982000 1.983000 1.984000 1.984000 1.987000 1.984000 1.984000 1.982000 1.978000 1.980000 1.982000 1.982000 1.982000 1.982000 1.982000 1.980000 1.978000 1.980000 1.967000 0.000000 0.000000 0.000000 0.000000 0.000000 0.000000 0.000000 
0.000000 0.000000 0.000000 0.000000 0.000000 0.000000 2.044000 2.021000 1.991000 1.982000 1.982000 1.982000 1.982000 1.982000 1.982000 1.982000 1.982000 1.982000 1.980000 1.982000 1.979000 1.979000 1.978000 1.978000 1.981000 1.978000 1.978000 1.978000 1.978000 1.978000 1.978000 1.980000 1.966000 0.000000 0.000000 0.000000 0.000000 0.000000 0.000000 0.000000 
0.000000 0.000000 0.000000 0.000000 0.000000 0.000000 1.693000 2.024000 1.990000 1.982000 1.980000 1.980000 1.978000 1.980000 1.982000 1.980000 1.978000 1.978000 1.978000 1.978000 1.978000 1.978000 1.977000 1.978000 1.978000 1.978000 1.978000 1.978000 1.978000 1.978000 1.978000 1.978000 1.326000 0.000000 0.000000 0.000000 0.000000 0.000000 0.000000 0.000000 
0.000000 0.000000 0.000000 0.000000 0.000000 0.000000 0.000000 2.003000 1.984000 1.978000 1.978000 1.978000 1.975000 1.978000 1.982000 1.978000 1.978000 1.978000 1.978000 1.978000 1.978000 1.976000 1.975000 1.978000 1.976000 1.975000 1.975000 1.976000 1.978000 1.978000 1.975000 1.977000 1.963000 0.000000 0.000000 0.000000 0.000000 0.000000 0.000000 0.000000 
0.000000 0.000000 0.000000 0.000000 0.000000 0.000000 1.689000 2.006000 1.982000 1.978000 1.978000 1.976000 1.975000 1.976000 1.978000 1.978000 1.978000 1.977000 1.978000 1.978000 1.977000 1.976000 1.975000 1.975000 1.971000 1.972000 1.971000 1.974000 1.975000 1.974000 1.971000 1.973000 1.959000 0.000000 0.000000 0.000000 0.000000 0.000000 0.000000 0.000000 
0.000000 0.000000 0.000000 0.000000 0.000000 0.000000 2.045000 2.006000 1.978000 1.975000 1.976000 1.977000 1.975000 1.976000 1.978000 1.974000 1.975000 1.971000 1.975000 1.978000 1.976000 1.975000 1.975000 1.971000 1.971000 1.971000 1.971000 1.968000 1.971000 1.971000 1.969000 1.973000 1.962000 0.000000 0.000000 0.000000 0.000000 0.000000 0.000000 0.000000 
0.000000 0.000000 0.000000 0.000000 0.000000 0.000000 2.038000 1.992000 1.977000 1.975000 1.975000 1.975000 1.975000 1.976000 1.975000 1.975000 1.971000 1.975000 1.971000 1.971000 1.971000 1.971000 1.968000 1.968000 1.968000 1.969000 1.971000 1.968000 1.969000 1.969000 1.971000 1.971000 1.955000 0.000000 0.000000 0.000000 0.000000 0.000000 0.000000 0.000000 
0.000000 0.000000 0.000000 0.000000 0.000000 0.000000 0.000000 1.695000 1.545000 1.928000 1.973000 1.975000 1.971000 1.973000 1.975000 1.974000 1.974000 1.970000 1.970000 1.968000 1.968000 1.968000 1.968000 1.968000 1.965000 1.968000 1.969000 1.968000 1.968000 1.968000 1.967000 1.968000 1.528000 0.000000 0.000000 0.000000 0.000000 0.000000 0.000000 0.000000 
0.000000 0.000000 0.000000 0.000000 0.000000 0.000000 0.000000 1.162000 0.000000 0.000000 1.107000 0.000000 1.975000 1.979000 1.978000 1.977000 1.976000 1.970000 1.968000 1.968000 1.968000 1.968000 1.968000 1.965000 1.965000 1.968000 1.966000 1.965000 1.967000 1.965000 1.965000 1.967000 1.729000 0.000000 0.000000 0.000000 0.000000 0.000000 0.000000 0.000000 
0.000000 0.000000 0.000000 0.000000 0.000000 0.000000 0.000000 0.000000 0.000000 0.000000 0.000000 0.000000 0.000000 0.000000 0.000000 1.987000 1.842000 0.000000 0.000000 1.760000 1.971000 1.977000 1.969000 1.965000 1.966000 1.968000 1.965000 1.965000 1.967000 1.968000 1.965000 1.963000 1.955000 0.000000 0.000000 0.000000 0.000000 0.000000 0.000000 0.000000 
0.000000 0.000000 0.000000 0.000000 0.000000 0.000000 0.000000 0.000000 0.000000 0.000000 0.000000 0.000000 0.000000 0.000000 0.000000 0.000000 0.000000 0.000000 0.000000 0.000000 0.000000 0.000000 0.000000 0.000000 0.000000 0.000000 0.000000 0.000000 0.000000 0.000000 0.000000 0.000000 0.000000 0.000000 0.000000 0.000000 0.000000 0.000000 0.000000 0.000000 
0.000000 0.000000 0.000000 0.000000 0.000000 0.000000 0.000000 0.000000 0.000000 0.000000 0.000000 0.000000 0.000000 0.000000 0.000000 0.000000 0.000000 0.000000 0.000000 0.000000 0.000000 0.000000 0.000000 0.000000 0.000000 0.000000 0.000000 0.000000 0.000000 0.000000 0.000000 0.000000 0.000000 0.000000 0.000000 0.000000 0.000000 0.000000 0.000000 0.000000 
0.000000 0.000000 0.000000 0.000000 0.000000 0.000000 0.000000 0.000000 0.000000 0.000000 0.000000 0.000000 0.000000 0.000000 0.000000 0.000000 0.000000 0.000000 0.000000 0.000000 0.000000 0.000000 0.000000 0.000000 0.000000 0.000000 0.000000 0.000000 0.000000 0.000000 0.000000 0.000000 0.000000 0.000000 0.000000 0.000000 0.000000 0.000000 0.000000 0.000000 
