0.000000,0.000000,0.000000,0.000000,0.000000,0.000000,0.000000,0.000000,0.000000,0.000000,0.000000,0.000000,0.000000,0.000000,0.000000,0.000000,0.000000,0.000000,0.000000,0.000000,0.000000,0.000000,0.000000,0.000000,0.000000,0.000000,0.000000,0.000000,0.000000,0.000000,0.000000,0.000000,0.000000,0.000000,0.000000,0.000000,0.000000,0.000000,0.000000,0.000000,
0.000000,0.000000,0.000000,0.000000,0.000000,0.000000,0.000000,0.000000,0.000000,0.000000,0.000000,2.102000,2.096000,2.096000,0.000000,0.000000,0.000000,0.000000,0.000000,0.000000,0.000000,0.000000,0.000000,0.000000,0.000000,0.000000,0.000000,0.000000,0.000000,0.000000,0.000000,0.000000,0.000000,0.000000,0.000000,0.000000,0.000000,0.000000,0.000000,0.000000,
0.000000,0.000000,0.000000,0.000000,0.000000,0.000000,0.000000,0.000000,0.000000,2.169000,2.663000,2.099000,2.093000,2.093000,2.093000,2.093000,2.091000,0.000000,0.000000,0.000000,0.000000,0.000000,0.000000,0.000000,0.000000,0.000000,0.000000,0.000000,0.000000,0.000000,0.000000,0.000000,0.000000,0.000000,0.000000,0.000000,0.000000,0.000000,0.000000,0.000000,
0.000000,0.000000,0.000000,0.000000,0.000000,0.000000,0.000000,0.000000,2.176000,2.170000,2.143000,2.099000,2.093000,2.093000,2.093000,2.091000,2.080000,2.079000,2.998000,0.000000,0.000000,0.000000,0.000000,0.000000,0.000000,0.000000,0.000000,0.000000,0.000000,0.000000,0.000000,0.000000,0.000000,0.000000,0.000000,0.000000,0.000000,0.000000,0.000000,0.000000,
0.000000,0.000000,0.000000,0.000000,0.000000,0.000000,0.000000,2.782000,2.176000,2.173000,2.098000,2.093000,2.091000,2.086000,2.085000,2.086000,2.078000,2.073000,2.075000,2.072000,2.734000,0.000000,0.000000,0.000000,0.000000,0.000000,0.000000,0.000000,0.000000,0.000000,0.000000,0.000000,0.000000,0.000000,0.000000,0.000000,0.000000,0.000000,0.000000,0.000000,
0.000000,0.000000,0.000000,0.000000,0.000000,0.000000,0.000000,2.176000,2.173000,2.134000,2.086000,2.086000,2.084000,2.079000,2.079000,2.074000,2.073000,2.073000,2.073000,2.067000,2.060000,2.624000,0.000000,0.000000,0.000000,0.000000,0.000000,0.000000,0.000000,0.000000,0.000000,0.000000,0.000000,0.000000,0.000000,0.000000,0.000000,0.000000,0.000000,0.000000,
0.000000,0.000000,0.000000,0.000000,0.000000,0.000000,0.000000,2.176000,2.089000,2.079000,2.079000,2.079000,2.073000,2.073000,2.073000,2.073000,2.073000,2.069000,2.067000,2.064000,2.054000,2.054000,2.070000,2.332000,0.000000,0.000000,0.000000,0.000000,0.000000,0.000000,0.000000,0.000000,0.000000,0.000000,0.000000,0.000000,0.000000,0.000000,0.000000,0.000000,
0.000000,0.000000,0.000000,0.000000,0.000000,0.000000,2.850000,2.091000,2.080000,2.079000,2.079000,2.073000,2.073000,2.073000,2.068000,2.068000,2.067000,2.063000,2.065000,2.060000,2.054000,2.054000,2.054000,2.082000,0.000000,0.000000,0.000000,0.000000,0.000000,0.000000,0.000000,0.000000,0.000000,0.000000,0.000000,0.000000,0.000000,0.000000,0.000000,0.000000,
0.000000,0.000000,0.000000,0.000000,0.000000,0.000000,2.612000,2.076000,2.074000,2.073000,2.073000,2.072000,2.067000,2.067000,2.067000,2.062000,2.056000,2.051000,2.049000,2.055000,2.054000,2.054000,2.054000,2.054000,2.054000,2.055000,2.430000,0.000000,0.000000,0.000000,0.000000,0.000000,0.000000,0.000000,0.000000,0.000000,0.000000,0.000000,0.000000,0.000000,
0.000000,0.000000,0.000000,0.000000,0.000000,2.397000,2.076000,2.074000,2.071000,2.069000,2.067000,2.066000,2.062000,2.060000,2.060000,2.054000,2.051000,2.049000,2.048000,2.049000,2.048000,2.050000,2.050000,2.048000,2.048000,2.048000,2.043000,2.042000,2.048000,0.000000,0.000000,0.000000,0.000000,0.000000,0.000000,0.000000,0.000000,0.000000,0.000000,0.000000,
0.000000,0.000000,0.000000,0.000000,0.000000,2.381000,2.071000,2.072000,2.067000,2.060000,2.057000,2.056000,2.053000,2.051000,2.051000,2.054000,2.048000,2.048000,2.048000,2.042000,2.042000,2.048000,2.048000,2.048000,2.048000,2.042000,2.035000,2.042000,2.038000,2.480000,0.000000,0.000000,0.000000,0.000000,0.000000,0.000000,0.000000,0.000000,0.000000,0.000000,
0.000000,0.000000,0.000000,0.000000,2.173000,2.071000,2.067000,2.065000,2.058000,2.051000,2.048000,2.049000,2.048000,2.048000,2.045000,2.048000,2.045000,2.045000,2.043000,2.042000,2.042000,2.048000,2.047000,2.045000,2.042000,2.042000,2.035000,2.035000,2.032000,2.031000,2.029000,2.353000,0.000000,0.000000,0.000000,0.000000,0.000000,0.000000,0.000000,0.000000,
0.000000,0.000000,0.000000,0.000000,2.068000,2.058000,2.058000,2.058000,2.054000,2.050000,2.048000,2.048000,2.048000,2.042000,2.042000,2.042000,2.040000,2.036000,2.038000,2.039000,2.042000,2.046000,2.039000,2.039000,2.035000,2.035000,2.033000,2.030000,2.029000,2.029000,2.028000,2.027000,2.023000,2.023000,2.060000,0.000000,0.000000,0.000000,0.000000,0.000000,
0.000000,0.000000,0.000000,2.054000,2.054000,2.049000,2.048000,2.052000,2.048000,2.048000,2.046000,2.042000,2.042000,2.042000,2.042000,2.040000,2.036000,2.030000,2.032000,2.033000,2.033000,2.038000,2.032000,2.029000,2.029000,2.029000,2.029000,2.023000,2.029000,2.029000,2.026000,2.023000,2.023000,2.021000,2.021000,2.021000,0.000000,0.000000,0.000000,0.000000,
0.000000,0.000000,0.000000,2.048000,2.048000,2.048000,2.048000,2.047000,2.047000,2.042000,2.042000,2.041000,2.041000,2.041000,2.035000,2.035000,2.030000,2.028000,2.028000,2.028000,2.023000,2.029000,2.029000,2.027000,2.023000,2.028000,2.028000,2.023000,2.028000,2.023000,2.023000,2.023000,2.021000,2.015000,2.011000,2.011000,2.011000,0.000000,0.000000,0.000000,
0.000000,0.000000,2.052000,2.048000,2.048000,2.048000,2.043000,2.041000,2.041000,2.041000,2.039000,2.035000,2.035000,2.035000,2.035000,2.030000,2.029000,2.023000,2.023000,2.023000,2.023000,2.029000,2.023000,2.023000,2.023000,2.023000,2.023000,2.023000,2.023000,2.020000,2.017000,2.017000,2.017000,2.011000,2.011000,2.005000,2.011000,2.011000,2.002000,2.948000,
0.000000,2.046000,2.042000,2.042000,2.042000,2.042000,2.035000,2.031000,2.029000,2.026000,2.023000,2.025000,2.029000,2.023000,2.023000,2.023000,2.023000,2.017000,2.017000,2.017000,2.017000,2.023000,2.023000,2.023000,2.023000,2.023000,2.018000,2.017000,2.017000,2.017000,2.014000,2.011000,2.011000,2.011000,2.005000,2.005000,2.005000,2.005000,2.000000,2.000000,
2.203000,2.042000,2.042000,2.036000,2.042000,2.037000,2.035000,2.026000,2.024000,2.023000,2.023000,2.023000,2.023000,2.023000,2.023000,2.018000,2.017000,2.017000,2.017000,2.017000,2.012000,2.017000,2.018000,2.018000,2.018000,2.012000,2.013000,2.011000,2.011000,2.011000,2.009000,2.005000,2.006000,2.005000,2.005000,2.005000,2.005000,2.002000,2.000000,2.000000,
2.042000,2.041000,2.036000,2.035000,2.036000,2.035000,2.026000,2.023000,2.023000,2.020000,2.017000,2.017000,2.018000,2.017000,2.017000,2.012000,2.012000,2.011000,2.006000,2.007000,2.006000,2.011000,2.011000,2.006000,2.006000,2.006000,2.006000,2.006000,2.006000,2.006000,2.005000,2.005000,2.004000,2.001000,2.000000,2.000000,2.000000,2.001000,2.000000,2.000000,
2.036000,2.031000,2.032000,2.035000,2.029000,2.025000,2.023000,2.023000,2.023000,2.017000,2.017000,2.017000,2.017000,2.012000,2.007000,2.007000,2.005000,2.002000,2.002000,2.000000,2.000000,2.005000,2.005000,2.002000,2.002000,2.005000,2.005000,2.005000,2.005000,2.005000,2.005000,2.005000,2.000000,2.000000,2.000000,2.000000,2.000000,2.000000,2.000000,2.000000,
2.035000,2.029000,2.029000,2.029000,2.029000,2.023000,2.020000,2.019000,2.017000,2.017000,2.016000,2.013000,2.011000,2.007000,2.000000,2.000000,2.002000,2.000000,2.000000,2.000000,2.000000,2.004000,2.002000,2.000000,2.000000,2.000000,2.000000,2.000000,2.000000,2.000000,2.002000,2.002000,2.000000,2.000000,2.000000,2.000000,2.000000,1.992000,1.990000,1.992000,
2.038000,2.032000,2.032000,2.035000,2.029000,2.023000,2.018000,2.017000,2.017000,2.016000,2.010000,2.007000,2.003000,2.002000,2.000000,2.000000,2.000000,1.998000,1.997000,1.997000,1.997000,2.000000,1.997000,1.997000,1.997000,1.997000,1.997000,1.994000,1.991000,1.993000,1.994000,1.997000,1.997000,1.997000,1.997000,1.997000,1.995000,1.989000,1.986000,1.987000,
2.075000,2.053000,2.046000,2.038000,2.035000,2.023000,2.017000,2.015000,2.011000,2.007000,2.005000,2.002000,2.000000,1.998000,2.000000,1.998000,1.994000,1.994000,1.994000,1.993000,1.992000,1.994000,1.994000,1.994000,1.992000,1.986000,1.988000,1.988000,1.984000,1.985000,1.986000,1.987000,1.986000,1.986000,1.989000,1.992000,1.988000,1.983000,1.982000,1.982000,
2.490000,2.065000,2.059000,2.045000,2.037000,2.025000,2.018000,2.011000,2.008000,2.005000,2.002000,2.000000,2.000000,1.994000,1.994000,1.994000,1.992000,1.992000,1.992000,1.987000,1.987000,1.988000,1.994000,1.992000,1.988000,1.982000,1.982000,1.982000,1.982000,1.982000,1.982000,1.982000,1.982000,1.982000,1.982000,1.982000,1.982000,1.981000,1.978000,1.979000,
0.000000,2.378000,2.060000,2.055000,2.043000,2.033000,2.018000,2.011000,2.008000,2.005000,2.000000,2.000000,1.994000,1.994000,1.993000,1.989000,1.987000,1.982000,1.987000,1.984000,1.984000,1.988000,1.988000,1.987000,1.982000,1.982000,1.982000,1.982000,1.982000,1.982000,1.982000,1.982000,1.980000,1.977000,1.977000,1.977000,1.977000,1.977000,1.977000,1.971000,
0.000000,0.000000,0.000000,0.000000,2.063000,2.043000,2.020000,2.017000,2.014000,2.003000,2.000000,1.998000,1.994000,1.988000,1.987000,1.983000,1.982000,1.982000,1.977000,1.981000,1.981000,1.986000,1.982000,1.981000,1.981000,1.982000,1.982000,1.982000,1.982000,1.982000,1.977000,1.977000,1.977000,1.976000,1.976000,1.976000,1.972000,1.975000,1.976000,1.970000,
0.000000,0.000000,0.000000,0.000000,0.000000,2.067000,2.049000,2.029000,2.020000,2.005000,2.000000,1.998000,1.993000,1.988000,1.982000,1.978000,1.977000,1.977000,1.977000,1.977000,1.977000,1.982000,1.981000,1.977000,1.977000,1.977000,1.977000,1.977000,1.977000,1.977000,1.977000,1.977000,1.971000,1.971000,1.971000,1.966000,1.966000,1.970000,1.971000,1.966000,
0.000000,0.000000,0.000000,0.000000,0.000000,2.336000,2.061000,2.045000,2.034000,2.019000,2.010000,1.998000,1.993000,1.988000,1.982000,1.977000,1.977000,1.973000,1.971000,1.971000,1.972000,1.977000,1.977000,1.972000,1.977000,1.972000,1.972000,1.977000,1.974000,1.974000,1.972000,1.972000,1.966000,1.966000,1.966000,1.961000,1.965000,1.966000,1.966000,1.966000,
0.000000,0.000000,0.000000,0.000000,0.000000,0.000000,0.000000,2.612000,2.045000,2.034000,2.023000,2.013000,1.994000,1.992000,1.982000,1.977000,1.971000,1.971000,1.971000,1.971000,1.971000,1.977000,1.971000,1.971000,1.972000,1.971000,1.971000,1.968000,1.967000,1.969000,1.971000,1.970000,1.965000,1.961000,1.961000,1.960000,1.960000,1.960000,1.961000,1.966000,
0.000000,0.000000,0.000000,0.000000,0.000000,0.000000,0.000000,0.000000,0.000000,2.043000,2.036000,2.025000,2.011000,2.000000,1.982000,1.978000,1.977000,1.971000,1.971000,1.967000,1.969000,1.971000,1.967000,1.971000,1.971000,1.966000,1.966000,1.966000,1.961000,1.961000,1.962000,1.965000,1.961000,1.960000,1.960000,1.960000,1.960000,1.956000,1.948000,1.963000,
0.000000,0.000000,0.000000,0.000000,0.000000,0.000000,0.000000,0.000000,0.000000,0.000000,0.000000,2.946000,2.026000,2.020000,1.998000,1.986000,1.983000,1.977000,1.969000,1.966000,1.966000,1.971000,1.966000,1.962000,1.966000,1.960000,1.962000,1.962000,1.960000,1.960000,1.960000,1.960000,1.960000,1.960000,1.957000,1.957000,1.957000,1.951000,1.943000,1.939000,
0.000000,0.000000,0.000000,0.000000,0.000000,0.000000,0.000000,0.000000,0.000000,0.000000,0.000000,0.000000,2.894000,2.026000,2.005000,1.998000,1.986000,1.981000,1.971000,1.966000,1.966000,1.970000,1.965000,1.960000,1.960000,1.960000,1.960000,1.957000,1.957000,1.955000,1.955000,1.956000,1.957000,1.955000,1.952000,1.955000,1.950000,1.945000,1.942000,1.942000,
0.000000,0.000000,0.000000,0.000000,0.000000,0.000000,0.000000,0.000000,0.000000,0.000000,0.000000,0.000000,0.000000,2.807000,2.017000,2.008000,1.998000,1.986000,1.973000,1.970000,1.968000,1.970000,1.965000,1.960000,1.960000,1.955000,1.955000,1.955000,1.955000,1.955000,1.955000,1.955000,1.954000,1.949000,1.949000,1.952000,1.945000,1.944000,1.947000,1.955000,
0.000000,0.000000,0.000000,0.000000,0.000000,0.000000,0.000000,0.000000,0.000000,0.000000,0.000000,0.000000,0.000000,0.000000,0.000000,2.089000,2.013000,1.998000,1.982000,1.973000,1.971000,1.971000,1.966000,1.960000,1.955000,1.955000,1.955000,1.955000,1.955000,1.949000,1.949000,1.949000,1.948000,1.942000,1.942000,1.947000,1.944000,1.939000,1.947000,1.956000,
0.000000,0.000000,0.000000,0.000000,0.000000,0.000000,0.000000,0.000000,0.000000,0.000000,0.000000,0.000000,0.000000,0.000000,0.000000,0.000000,2.474000,2.154000,1.998000,1.988000,1.979000,1.976000,1.970000,1.960000,1.956000,1.955000,1.955000,1.954000,1.951000,1.946000,1.944000,1.948000,1.943000,1.938000,1.933000,1.938000,1.942000,1.944000,1.948000,1.959000,
0.000000,0.000000,0.000000,0.000000,0.000000,0.000000,0.000000,0.000000,0.000000,0.000000,0.000000,0.000000,0.000000,0.000000,0.000000,0.000000,0.000000,2.832000,2.115000,2.006000,1.995000,1.985000,1.976000,1.967000,1.960000,1.955000,1.955000,1.949000,1.949000,1.944000,1.944000,1.943000,1.939000,1.938000,1.933000,1.933000,1.932000,1.936000,1.958000,1.971000,
0.000000,0.000000,0.000000,0.000000,0.000000,0.000000,0.000000,0.000000,0.000000,0.000000,0.000000,0.000000,0.000000,0.000000,0.000000,0.000000,0.000000,0.000000,2.868000,2.065000,2.011000,1.998000,1.987000,1.982000,1.960000,1.960000,1.955000,1.949000,1.949000,1.944000,1.942000,1.939000,1.939000,1.933000,1.933000,1.933000,1.924000,1.928000,1.983000,1.960000,
0.000000,0.000000,0.000000,0.000000,0.000000,0.000000,0.000000,0.000000,0.000000,0.000000,0.000000,0.000000,0.000000,0.000000,0.000000,0.000000,0.000000,0.000000,0.000000,0.000000,0.000000,2.003000,1.993000,1.987000,1.971000,1.966000,1.960000,1.955000,1.951000,1.939000,1.937000,1.933000,1.933000,1.932000,1.924000,1.923000,1.913000,1.980000,1.997000,1.970000,
0.000000,0.000000,0.000000,0.000000,0.000000,0.000000,0.000000,0.000000,0.000000,0.000000,0.000000,0.000000,0.000000,0.000000,0.000000,0.000000,0.000000,0.000000,0.000000,0.000000,0.000000,0.000000,0.000000,1.992000,1.981000,1.976000,1.966000,1.959000,1.954000,1.941000,1.936000,1.933000,1.933000,1.932000,1.923000,1.919000,1.003000,1.682000,1.989000,1.989000,
0.000000,0.000000,0.000000,0.000000,0.000000,0.000000,0.000000,0.000000,0.000000,0.000000,0.000000,0.000000,0.000000,0.000000,0.000000,0.000000,0.000000,0.000000,0.000000,0.000000,0.000000,0.000000,0.000000,0.000000,0.000000,0.000000,0.000000,0.000000,0.000000,0.000000,0.000000,0.000000,0.000000,0.000000,0.000000,0.000000,0.000000,0.000000,0.000000,0.000000,
