0.000000,0.000000,0.000000,0.000000,0.000000,0.000000,0.000000,0.000000,0.000000,0.000000,0.000000,0.000000,0.000000,0.000000,0.000000,0.000000,0.000000,0.000000,0.000000,0.000000,0.000000,0.000000,0.000000,0.000000,0.000000,0.000000,0.000000,0.000000,0.000000,0.000000,0.000000,0.000000,0.000000,0.000000,0.000000,0.000000,0.000000,0.000000,0.000000,0.000000,
0.000000,0.000000,0.000000,0.000000,0.000000,0.000000,0.000000,0.000000,0.000000,0.000000,0.000000,0.000000,0.000000,0.000000,0.000000,0.000000,0.000000,0.000000,0.000000,0.000000,0.000000,0.000000,0.000000,0.000000,0.000000,0.000000,0.000000,0.000000,0.000000,0.000000,0.000000,0.000000,0.000000,0.000000,0.000000,0.000000,0.000000,0.000000,0.000000,0.000000,
0.000000,0.000000,0.000000,0.000000,0.000000,0.000000,0.000000,0.000000,0.000000,0.000000,0.000000,0.000000,0.000000,0.000000,0.000000,0.000000,0.000000,0.000000,0.000000,0.000000,0.000000,0.000000,0.000000,0.000000,0.000000,0.000000,0.000000,0.000000,0.000000,0.000000,0.000000,0.000000,0.000000,0.000000,0.000000,0.000000,0.000000,0.000000,0.000000,0.000000,
0.000000,0.000000,0.000000,0.000000,0.000000,0.000000,0.000000,0.000000,0.000000,0.000000,0.000000,0.000000,0.000000,0.000000,0.000000,0.000000,0.000000,0.000000,0.000000,0.000000,0.000000,0.000000,0.000000,0.000000,0.000000,0.000000,0.000000,0.000000,0.000000,0.000000,0.000000,0.000000,0.000000,0.000000,0.000000,0.000000,0.000000,0.000000,0.000000,0.000000,
0.000000,0.000000,0.000000,0.000000,0.000000,0.000000,0.000000,0.000000,0.000000,0.000000,0.000000,0.000000,0.000000,0.000000,0.000000,0.000000,0.000000,0.000000,0.000000,0.000000,0.000000,0.000000,0.000000,0.000000,0.000000,0.000000,0.000000,0.000000,0.000000,0.000000,0.000000,0.000000,0.000000,0.000000,0.000000,0.000000,0.000000,0.000000,0.000000,0.000000,
0.000000,0.000000,0.000000,0.000000,0.000000,1.672000,1.684000,1.684000,1.685000,1.690000,1.690000,1.685000,1.694000,1.698000,1.724000,1.725000,1.724000,1.724000,1.725000,1.732000,1.739000,1.739000,1.739000,1.739000,1.739000,1.752000,1.753000,1.753000,1.753000,1.753000,1.753000,1.743000,1.739000,1.739000,1.725000,0.000000,0.000000,0.000000,0.000000,0.000000,
0.000000,0.000000,0.000000,0.000000,0.000000,1.676000,1.686000,1.689000,1.697000,1.697000,1.706000,1.707000,1.703000,1.723000,1.738000,1.739000,1.728000,1.732000,1.740000,1.747000,1.754000,1.753000,1.752000,1.752000,1.754000,1.755000,1.766000,1.768000,1.768000,1.768000,1.768000,1.768000,1.768000,1.766000,1.754000,0.000000,0.000000,0.000000,0.000000,0.000000,
0.000000,0.000000,0.000000,0.000000,0.000000,1.708000,1.708000,1.708000,1.708000,1.708000,1.719000,1.735000,1.741000,1.742000,1.742000,1.752000,1.756000,1.756000,1.756000,1.761000,1.766000,1.759000,1.753000,1.752000,1.766000,1.770000,1.776000,1.787000,1.789000,1.789000,1.787000,1.785000,1.781000,1.770000,1.770000,0.000000,0.000000,0.000000,0.000000,0.000000,
0.000000,0.000000,0.000000,0.000000,0.000000,1.743000,1.743000,1.743000,1.743000,1.743000,1.743000,1.746000,1.755000,1.757000,1.757000,1.763000,1.772000,1.775000,1.771000,1.774000,1.776000,1.776000,1.765000,1.762000,1.776000,1.792000,1.808000,1.820000,1.826000,1.827000,1.816000,1.804000,1.788000,1.785000,1.785000,0.000000,0.000000,0.000000,0.000000,0.000000,
0.000000,0.000000,0.000000,0.000000,0.000000,1.758000,1.758000,1.758000,1.758000,1.758000,1.758000,1.768000,1.772000,1.772000,1.772000,1.786000,1.788000,1.794000,1.793000,1.797000,1.801000,1.801000,1.806000,1.807000,1.822000,1.831000,1.840000,1.846000,1.849000,1.850000,1.837000,1.825000,1.810000,1.801000,1.801000,0.000000,0.000000,0.000000,0.000000,0.000000,
0.000000,0.000000,0.000000,0.000000,0.000000,1.446000,1.774000,1.774000,1.774000,1.774000,1.778000,1.786000,1.788000,1.788000,1.788000,1.795000,1.802000,1.807000,1.821000,1.826000,1.831000,1.834000,1.845000,1.855000,1.862000,1.862000,1.861000,1.854000,1.858000,1.862000,1.858000,1.850000,1.835000,1.819000,1.817000,0.000000,0.000000,0.000000,0.000000,0.000000,
0.000000,0.000000,0.000000,0.000000,0.000000,1.201000,1.789000,1.789000,1.789000,1.789000,1.792000,1.794000,1.794000,1.803000,1.804000,1.806000,1.831000,1.840000,1.846000,1.849000,1.852000,1.854000,1.862000,1.878000,1.880000,1.880000,1.879000,1.875000,1.881000,1.879000,1.869000,1.865000,1.860000,1.854000,1.844000,0.000000,0.000000,0.000000,0.000000,0.000000,
0.000000,0.000000,0.000000,0.000000,0.000000,1.658000,1.794000,1.797000,1.806000,1.806000,1.806000,1.806000,1.806000,1.829000,1.832000,1.834000,1.851000,1.854000,1.858000,1.866000,1.866000,1.866000,1.868000,1.883000,1.897000,1.899000,1.910000,1.910000,1.911000,1.910000,1.898000,1.885000,1.881000,1.881000,1.866000,0.000000,0.000000,0.000000,0.000000,0.000000,
0.000000,0.000000,0.000000,0.000000,0.000000,1.807000,1.807000,1.808000,1.809000,1.815000,1.822000,1.822000,1.832000,1.850000,1.852000,1.865000,1.870000,1.877000,1.868000,1.869000,1.877000,1.902000,1.911000,1.925000,1.929000,1.929000,1.931000,1.931000,1.931000,1.931000,1.921000,1.914000,1.901000,1.886000,1.869000,0.000000,0.000000,0.000000,0.000000,0.000000,
0.000000,0.000000,0.000000,0.000000,0.000000,1.254000,1.853000,1.853000,1.853000,1.853000,1.853000,1.853000,1.865000,1.869000,1.884000,1.885000,1.885000,1.885000,1.885000,1.892000,1.910000,1.928000,1.933000,1.947000,1.933000,1.935000,1.949000,1.949000,1.942000,1.933000,1.923000,1.917000,1.904000,1.886000,1.869000,0.000000,0.000000,0.000000,0.000000,0.000000,
0.000000,0.000000,0.000000,0.000000,0.000000,1.211000,1.344000,1.869000,1.871000,1.878000,1.878000,1.872000,1.883000,1.886000,1.902000,1.902000,1.905000,1.918000,1.919000,1.920000,1.928000,1.945000,1.950000,1.964000,1.966000,1.969000,1.980000,1.967000,1.959000,1.941000,1.923000,1.905000,1.888000,1.870000,1.854000,0.000000,0.000000,0.000000,0.000000,0.000000,
0.000000,0.000000,0.000000,0.000000,0.000000,1.238000,1.349000,1.881000,1.896000,1.904000,1.904000,1.904000,1.906000,1.907000,1.920000,1.920000,1.923000,1.939000,1.944000,1.952000,1.954000,1.965000,1.969000,1.969000,1.966000,1.980000,1.979000,1.972000,1.956000,1.939000,1.923000,1.908000,1.888000,1.870000,1.854000,0.000000,0.000000,0.000000,0.000000,0.000000,
0.000000,0.000000,0.000000,0.000000,0.000000,1.272000,1.381000,1.930000,1.926000,1.926000,1.929000,1.931000,1.940000,1.942000,1.938000,1.938000,1.948000,1.971000,1.971000,1.973000,1.983000,1.984000,1.983000,1.979000,1.966000,1.961000,1.958000,1.944000,1.940000,1.933000,1.923000,1.914000,1.890000,1.870000,1.854000,0.000000,0.000000,0.000000,0.000000,0.000000,
0.000000,0.000000,0.000000,0.000000,0.000000,1.290000,1.403000,1.968000,1.956000,1.959000,1.968000,1.973000,1.973000,1.973000,1.962000,1.971000,1.995000,2.001000,1.994000,1.995000,2.000000,1.988000,1.983000,1.968000,1.959000,1.949000,1.946000,1.933000,1.933000,1.930000,1.921000,1.905000,1.888000,1.870000,1.854000,0.000000,0.000000,0.000000,0.000000,0.000000,
0.000000,0.000000,0.000000,0.000000,0.000000,1.295000,1.406000,1.987000,1.974000,1.982000,1.991000,1.991000,1.991000,1.991000,1.991000,2.019000,2.033000,2.024000,2.011000,2.000000,1.995000,1.986000,1.976000,1.967000,1.949000,1.949000,1.947000,1.938000,1.933000,1.925000,1.917000,1.905000,1.894000,1.871000,1.854000,0.000000,0.000000,0.000000,0.000000,0.000000,
0.000000,0.000000,0.000000,0.000000,0.000000,1.304000,1.413000,2.006000,1.993000,2.001000,2.016000,2.014000,2.011000,2.011000,2.011000,2.034000,2.022000,2.007000,2.004000,2.000000,1.990000,1.983000,1.969000,1.957000,1.949000,1.949000,1.949000,1.944000,1.933000,1.925000,1.917000,1.905000,1.901000,1.871000,1.863000,0.000000,0.000000,0.000000,0.000000,0.000000,
0.000000,0.000000,0.000000,0.000000,0.000000,1.313000,1.420000,2.007000,2.017000,2.027000,2.040000,2.044000,2.024000,2.018000,2.006000,2.010000,2.004000,2.000000,1.995000,1.988000,1.985000,1.975000,1.967000,1.951000,1.949000,1.949000,1.949000,1.944000,1.933000,1.925000,1.917000,1.913000,1.903000,1.892000,1.891000,0.000000,0.000000,0.000000,0.000000,0.000000,
0.000000,0.000000,0.000000,0.000000,0.000000,1.379000,1.884000,2.005000,2.029000,2.049000,2.051000,2.053000,2.048000,2.033000,2.001000,2.000000,2.000000,1.996000,1.985000,1.983000,1.983000,1.971000,1.966000,1.963000,1.963000,1.961000,1.949000,1.944000,1.933000,1.931000,1.930000,1.930000,1.927000,1.915000,1.914000,0.000000,0.000000,0.000000,0.000000,0.000000,
0.000000,0.000000,0.000000,0.000000,0.000000,1.375000,1.528000,2.009000,2.040000,2.053000,2.053000,2.042000,2.025000,2.020000,2.000000,1.999000,1.985000,1.984000,1.983000,1.983000,1.983000,1.971000,1.966000,1.966000,1.966000,1.966000,1.961000,1.949000,1.947000,1.947000,1.947000,1.959000,1.963000,1.934000,1.931000,0.000000,0.000000,0.000000,0.000000,0.000000,
0.000000,0.000000,0.000000,0.000000,0.000000,1.381000,1.485000,2.053000,2.053000,2.045000,2.035000,2.024000,2.018000,2.018000,2.000000,1.999000,1.983000,1.983000,1.983000,1.983000,1.983000,1.971000,1.966000,1.966000,1.966000,1.968000,1.979000,1.966000,1.959000,1.949000,1.949000,1.962000,1.966000,1.935000,1.933000,0.000000,0.000000,0.000000,0.000000,0.000000,
0.000000,0.000000,0.000000,0.000000,0.000000,1.394000,1.496000,2.053000,2.046000,2.025000,2.016000,2.005000,2.000000,2.000000,2.016000,1.999000,1.983000,1.988000,1.994000,1.985000,1.984000,1.983000,1.971000,1.968000,1.983000,1.983000,1.985000,1.987000,1.987000,1.987000,1.987000,2.191000,2.070000,1.984000,1.979000,0.000000,0.000000,0.000000,0.000000,0.000000,
0.000000,0.000000,0.000000,0.000000,0.000000,1.421000,1.526000,2.053000,2.040000,2.010000,2.000000,2.000000,2.000000,2.000000,2.000000,1.999000,1.987000,1.990000,2.000000,2.000000,1.992000,1.989000,1.987000,1.987000,1.987000,1.992000,2.010000,2.022000,2.020000,2.018000,2.054000,2.219000,2.270000,2.245000,2.227000,0.000000,0.000000,0.000000,0.000000,0.000000,
0.000000,0.000000,0.000000,0.000000,0.000000,1.435000,1.553000,2.053000,2.040000,2.012000,2.002000,2.000000,2.000000,2.000000,2.000000,2.000000,2.000000,2.000000,2.000000,2.003000,2.009000,2.023000,2.019000,2.017000,2.017000,2.030000,2.041000,2.041000,2.038000,2.074000,2.222000,2.286000,2.266000,2.229000,2.221000,0.000000,0.000000,0.000000,0.000000,0.000000,
0.000000,0.000000,0.000000,0.000000,0.000000,1.466000,1.524000,1.877000,2.040000,2.018000,2.008000,2.000000,2.000000,2.000000,2.000000,2.000000,2.000000,2.000000,2.000000,2.009000,2.033000,2.055000,2.060000,2.060000,2.061000,2.188000,2.179000,2.177000,2.171000,2.244000,2.299000,2.275000,2.244000,2.228000,2.207000,0.000000,0.000000,0.000000,0.000000,0.000000,
0.000000,0.000000,0.000000,0.000000,0.000000,1.478000,1.483000,1.627000,2.034000,2.018000,2.013000,2.009000,2.002000,2.000000,2.009000,2.009000,2.011000,2.018000,2.022000,2.032000,2.046000,2.066000,2.071000,2.080000,2.220000,2.366000,2.343000,2.327000,2.308000,2.301000,2.295000,2.267000,2.232000,2.217000,2.207000,0.000000,0.000000,0.000000,0.000000,0.000000,
0.000000,0.000000,0.000000,0.000000,0.000000,1.490000,1.490000,1.630000,2.029000,2.018000,2.024000,2.022000,2.013000,2.020000,2.028000,2.029000,2.041000,2.046000,2.053000,2.059000,2.053000,2.209000,2.277000,2.271000,2.343000,2.341000,2.319000,2.305000,2.291000,2.291000,2.283000,2.256000,2.231000,2.208000,2.207000,0.000000,0.000000,0.000000,0.000000,0.000000,
0.000000,0.000000,0.000000,0.000000,0.000000,1.508000,1.494000,1.532000,1.783000,2.030000,2.033000,2.041000,2.043000,2.047000,2.048000,2.049000,2.066000,2.066000,2.073000,2.169000,2.257000,2.347000,2.386000,2.381000,2.335000,2.318000,2.309000,2.290000,2.275000,2.283000,2.268000,2.239000,2.228000,2.208000,2.207000,0.000000,0.000000,0.000000,0.000000,0.000000,
0.000000,0.000000,0.000000,0.000000,0.000000,1.524000,1.502000,1.502000,1.699000,2.050000,2.058000,2.067000,2.068000,2.068000,2.068000,2.068000,2.121000,2.340000,2.320000,2.323000,2.335000,2.340000,2.328000,2.324000,2.316000,2.310000,2.294000,2.284000,2.269000,2.271000,2.257000,2.233000,2.227000,2.224000,2.207000,0.000000,0.000000,0.000000,0.000000,0.000000,
0.000000,0.000000,0.000000,0.000000,0.000000,1.547000,1.536000,1.552000,1.795000,2.124000,2.096000,2.077000,2.071000,2.071000,2.071000,2.378000,2.363000,2.381000,2.371000,2.346000,2.335000,2.320000,2.312000,2.294000,2.293000,2.310000,2.291000,2.291000,2.281000,2.269000,2.256000,2.233000,2.227000,2.227000,2.226000,0.000000,0.000000,0.000000,0.000000,0.000000,
0.000000,0.000000,0.000000,0.000000,0.000000,0.000000,0.000000,0.000000,0.000000,0.000000,0.000000,0.000000,0.000000,0.000000,0.000000,0.000000,0.000000,0.000000,0.000000,0.000000,0.000000,0.000000,0.000000,0.000000,0.000000,0.000000,0.000000,0.000000,0.000000,0.000000,0.000000,0.000000,0.000000,0.000000,0.000000,0.000000,0.000000,0.000000,0.000000,0.000000,
0.000000,0.000000,0.000000,0.000000,0.000000,0.000000,0.000000,0.000000,0.000000,0.000000,0.000000,0.000000,0.000000,0.000000,0.000000,0.000000,0.000000,0.000000,0.000000,0.000000,0.000000,0.000000,0.000000,0.000000,0.000000,0.000000,0.000000,0.000000,0.000000,0.000000,0.000000,0.000000,0.000000,0.000000,0.000000,0.000000,0.000000,0.000000,0.000000,0.000000,
0.000000,0.000000,0.000000,0.000000,0.000000,0.000000,0.000000,0.000000,0.000000,0.000000,0.000000,0.000000,0.000000,0.000000,0.000000,0.000000,0.000000,0.000000,0.000000,0.000000,0.000000,0.000000,0.000000,0.000000,0.000000,0.000000,0.000000,0.000000,0.000000,0.000000,0.000000,0.000000,0.000000,0.000000,0.000000,0.000000,0.000000,0.000000,0.000000,0.000000,
0.000000,0.000000,0.000000,0.000000,0.000000,0.000000,0.000000,0.000000,0.000000,0.000000,0.000000,0.000000,0.000000,0.000000,0.000000,0.000000,0.000000,0.000000,0.000000,0.000000,0.000000,0.000000,0.000000,0.000000,0.000000,0.000000,0.000000,0.000000,0.000000,0.000000,0.000000,0.000000,0.000000,0.000000,0.000000,0.000000,0.000000,0.000000,0.000000,0.000000,
0.000000,0.000000,0.000000,0.000000,0.000000,0.000000,0.000000,0.000000,0.000000,0.000000,0.000000,0.000000,0.000000,0.000000,0.000000,0.000000,0.000000,0.000000,0.000000,0.000000,0.000000,0.000000,0.000000,0.000000,0.000000,0.000000,0.000000,0.000000,0.000000,0.000000,0.000000,0.000000,0.000000,0.000000,0.000000,0.000000,0.000000,0.000000,0.000000,0.000000,
0.000000,0.000000,0.000000,0.000000,0.000000,0.000000,0.000000,0.000000,0.000000,0.000000,0.000000,0.000000,0.000000,0.000000,0.000000,0.000000,0.000000,0.000000,0.000000,0.000000,0.000000,0.000000,0.000000,0.000000,0.000000,0.000000,0.000000,0.000000,0.000000,0.000000,0.000000,0.000000,0.000000,0.000000,0.000000,0.000000,0.000000,0.000000,0.000000,0.000000,
