40 40
0.000000 0.000000 0.000000 0.000000 0.000000 0.000000 0.000000 0.000000 0.000000 0.000000 0.000000 0.000000 0.000000 0.000000 0.000000 0.000000 0.000000 0.000000 0.000000 0.000000 0.000000 0.000000 0.000000 0.000000 0.000000 0.000000 0.000000 0.000000 0.000000 0.000000 0.000000 0.000000 0.000000 0.000000 0.000000 0.000000 0.000000 0.000000 0.000000 0.000000 
0.000000 0.000000 0.000000 0.000000 0.000000 0.000000 0.000000 0.000000 0.000000 0.000000 0.000000 0.000000 0.000000 0.000000 0.000000 0.000000 0.000000 0.000000 0.000000 0.000000 0.000000 0.000000 0.000000 0.000000 0.000000 0.000000 0.000000 0.000000 0.000000 0.000000 0.000000 0.000000 0.000000 0.000000 0.000000 0.000000 0.000000 0.000000 0.000000 0.000000 
0.000000 0.000000 0.000000 0.000000 0.000000 0.000000 0.000000 0.000000 0.000000 0.000000 0.000000 0.000000 0.000000 0.000000 0.000000 0.000000 0.000000 0.000000 0.000000 0.000000 0.000000 0.000000 0.000000 0.000000 0.000000 0.000000 0.000000 0.000000 0.000000 0.000000 0.000000 0.000000 0.000000 0.000000 0.000000 0.000000 0.000000 0.000000 0.000000 0.000000 
0.000000 0.000000 0.000000 0.000000 0.000000 0.000000 0.000000 0.000000 0.000000 0.000000 2.032000 2.032000 2.034000 2.048000 0.000000 0.000000 0.000000 0.000000 0.000000 0.000000 0.000000 0.000000 0.000000 0.000000 0.000000 0.000000 0.000000 0.000000 0.000000 0.000000 0.000000 0.000000 0.000000 0.000000 0.000000 0.000000 0.000000 0.000000 0.000000 0.000000 
0.000000 0.000000 0.000000 0.000000 0.000000 0.000000 0.000000 0.000000 0.000000 2.735000 2.032000 2.032000 2.044000 2.045000 2.048000 2.048000 0.000000 0.000000 0.000000 0.000000 0.000000 0.000000 0.000000 0.000000 0.000000 0.000000 0.000000 0.000000 0.000000 0.000000 0.000000 0.000000 0.000000 0.000000 0.000000 0.000000 0.000000 0.000000 0.000000 0.000000 
0.000000 0.000000 0.000000 0.000000 0.000000 0.000000 0.000000 0.000000 2.029000 2.025000 2.025000 2.031000 2.032000 2.034000 2.041000 2.045000 2.048000 2.062000 2.048000 2.392000 0.000000 0.000000 0.000000 0.000000 0.000000 0.000000 0.000000 0.000000 0.000000 0.000000 0.000000 0.000000 0.000000 0.000000 0.000000 0.000000 0.000000 0.000000 0.000000 0.000000 
0.000000 0.000000 0.000000 0.000000 0.000000 0.000000 0.000000 0.000000 2.020000 2.016000 2.016000 2.030000 2.023000 2.025000 2.032000 2.041000 2.048000 2.054000 2.048000 2.048000 2.477000 0.000000 0.000000 0.000000 0.000000 0.000000 0.000000 0.000000 0.000000 0.000000 0.000000 0.000000 0.000000 0.000000 0.000000 0.000000 0.000000 0.000000 0.000000 0.000000 
0.000000 0.000000 0.000000 0.000000 0.000000 0.000000 0.000000 2.454000 2.004000 2.004000 2.004000 2.019000 2.016000 2.020000 2.032000 2.034000 2.036000 2.047000 2.048000 2.048000 2.054000 2.427000 2.713000 0.000000 0.000000 0.000000 0.000000 0.000000 0.000000 0.000000 0.000000 0.000000 0.000000 0.000000 0.000000 0.000000 0.000000 0.000000 0.000000 0.000000 
0.000000 0.000000 0.000000 0.000000 0.000000 0.000000 2.220000 2.000000 2.000000 2.000000 2.000000 2.001000 2.001000 2.005000 2.017000 2.017000 2.028000 2.033000 2.034000 2.048000 2.049000 2.049000 2.049000 2.252000 2.423000 0.000000 0.000000 0.000000 0.000000 0.000000 0.000000 0.000000 0.000000 0.000000 0.000000 0.000000 0.000000 0.000000 0.000000 0.000000 
0.000000 0.000000 0.000000 0.000000 0.000000 2.249000 2.029000 2.001000 2.007000 2.016000 2.016000 2.002000 2.000000 2.000000 2.006000 2.015000 2.016000 2.029000 2.031000 2.031000 2.037000 2.047000 2.048000 2.048000 2.048000 2.573000 0.000000 0.000000 0.000000 0.000000 0.000000 0.000000 0.000000 0.000000 0.000000 0.000000 0.000000 0.000000 0.000000 0.000000 
0.000000 0.000000 0.000000 0.000000 0.000000 2.183000 2.016000 2.016000 2.016000 2.014000 2.012000 2.001000 2.000000 2.000000 2.000000 2.007000 2.012000 2.012000 2.012000 2.013000 2.021000 2.030000 2.041000 2.044000 2.043000 2.032000 2.032000 0.000000 0.000000 0.000000 0.000000 0.000000 0.000000 0.000000 0.000000 0.000000 0.000000 0.000000 0.000000 0.000000 
0.000000 0.000000 0.000000 0.000000 2.401000 2.023000 2.022000 2.016000 2.016000 2.007000 2.000000 2.000000 2.000000 2.000000 2.000000 1.997000 1.994000 1.994000 1.994000 1.997000 2.009000 2.015000 2.019000 2.025000 2.032000 2.033000 2.039000 2.035000 2.032000 0.000000 0.000000 0.000000 0.000000 0.000000 0.000000 0.000000 0.000000 0.000000 0.000000 0.000000 
0.000000 0.000000 0.000000 0.000000 2.041000 2.041000 2.031000 2.023000 2.016000 2.012000 2.009000 2.001000 2.000000 2.000000 2.000000 1.992000 1.985000 1.985000 1.985000 1.986000 1.991000 1.991000 1.991000 1.997000 2.014000 2.026000 2.039000 2.035000 2.032000 2.032000 0.000000 0.000000 0.000000 0.000000 0.000000 0.000000 0.000000 0.000000 0.000000 0.000000 
0.000000 0.000000 0.000000 2.307000 2.048000 2.048000 2.032000 2.031000 2.028000 2.028000 2.028000 2.024000 2.012000 2.009000 2.000000 1.998000 1.996000 1.986000 1.985000 1.985000 1.985000 1.985000 1.985000 1.985000 1.990000 2.005000 2.018000 2.032000 2.032000 2.032000 2.032000 2.032000 2.284000 2.694000 0.000000 0.000000 0.000000 0.000000 0.000000 0.000000 
0.000000 0.000000 0.000000 2.048000 2.048000 2.048000 2.045000 2.032000 2.032000 2.032000 2.032000 2.032000 2.029000 2.012000 2.000000 2.000000 2.000000 1.987000 1.985000 1.985000 1.985000 1.985000 1.985000 1.985000 1.985000 1.986000 1.993000 2.003000 2.003000 2.016000 2.018000 2.021000 2.026000 2.016000 2.203000 0.000000 0.000000 0.000000 0.000000 0.000000 
0.000000 0.000000 0.000000 2.048000 2.048000 2.048000 2.047000 2.033000 2.032000 2.032000 2.032000 2.032000 2.031000 2.012000 2.000000 2.000000 2.000000 2.000000 1.999000 1.986000 1.986000 1.985000 1.985000 1.985000 1.985000 1.985000 1.985000 1.985000 1.985000 1.997000 2.000000 2.015000 2.015000 2.024000 2.031000 2.032000 2.134000 0.000000 0.000000 0.000000 
0.000000 0.000000 0.000000 2.048000 2.048000 2.048000 2.048000 2.044000 2.032000 2.032000 2.032000 2.032000 2.031000 2.013000 2.002000 2.000000 2.000000 2.000000 2.004000 2.000000 1.994000 1.985000 1.985000 1.985000 1.985000 1.985000 1.984000 1.981000 1.984000 1.982000 1.982000 1.996000 1.996000 2.005000 2.012000 2.023000 2.028000 2.035000 2.741000 0.000000 
0.000000 0.000000 2.854000 2.048000 2.048000 2.048000 2.048000 2.044000 2.032000 2.032000 2.032000 2.032000 2.031000 2.016000 2.012000 2.006000 2.006000 2.006000 2.015000 2.000000 1.994000 1.985000 1.985000 1.985000 1.985000 1.985000 1.979000 1.970000 1.981000 1.972000 1.970000 1.980000 1.985000 1.990000 1.994000 1.994000 2.010000 2.021000 2.032000 2.830000 
0.000000 0.000000 2.048000 2.048000 2.048000 2.048000 2.048000 2.046000 2.041000 2.036000 2.032000 2.032000 2.032000 2.025000 2.021000 2.016000 2.016000 2.016000 2.015000 2.000000 1.997000 1.989000 1.985000 1.985000 1.985000 1.985000 1.982000 1.978000 1.977000 1.971000 1.970000 1.971000 1.980000 1.985000 1.985000 1.985000 1.992000 1.995000 2.013000 2.032000 
0.000000 0.000000 2.048000 2.055000 2.051000 2.048000 2.048000 2.048000 2.048000 2.039000 2.032000 2.032000 2.032000 2.032000 2.026000 2.016000 2.016000 2.016000 2.016000 2.009000 2.000000 1.992000 1.985000 1.995000 1.985000 1.985000 1.985000 1.985000 1.974000 1.970000 1.970000 1.970000 1.972000 1.974000 1.974000 1.974000 1.974000 1.977000 1.991000 2.014000 
0.000000 2.220000 2.048000 2.057000 2.052000 2.048000 2.048000 2.048000 2.048000 2.039000 2.032000 2.032000 2.032000 2.032000 2.031000 2.030000 2.030000 2.017000 2.016000 2.012000 2.000000 1.992000 1.985000 1.998000 1.985000 1.985000 1.985000 1.985000 1.984000 1.972000 1.970000 1.970000 1.970000 1.970000 1.970000 1.970000 1.970000 1.970000 1.977000 1.995000 
2.048000 2.048000 2.048000 2.057000 2.052000 2.048000 2.048000 2.048000 2.048000 2.039000 2.032000 2.032000 2.034000 2.044000 2.032000 2.032000 2.032000 2.018000 2.016000 2.012000 2.000000 2.000000 2.000000 2.000000 1.985000 1.985000 1.985000 1.985000 1.985000 1.985000 1.971000 1.971000 1.970000 1.970000 1.970000 1.970000 1.970000 1.970000 1.976000 1.993000 
2.055000 2.051000 2.048000 2.057000 2.052000 2.048000 2.048000 2.048000 2.048000 2.041000 2.036000 2.036000 2.048000 2.045000 2.034000 2.032000 2.032000 2.018000 2.016000 2.012000 2.000000 2.000000 2.000000 2.000000 1.988000 1.988000 1.985000 1.985000 1.985000 1.985000 1.985000 1.982000 1.970000 1.970000 1.970000 1.970000 1.970000 1.970000 1.974000 1.983000 
2.079000 2.066000 2.054000 2.060000 2.052000 2.048000 2.048000 2.048000 2.048000 2.048000 2.048000 2.048000 2.048000 2.048000 2.042000 2.032000 2.032000 2.018000 2.016000 2.014000 2.004000 2.000000 2.005000 2.006000 2.000000 1.998000 1.991000 1.988000 1.985000 1.985000 1.985000 1.982000 1.970000 1.970000 1.970000 1.970000 1.970000 1.970000 1.970000 1.978000 
2.089000 2.076000 2.064000 2.069000 2.061000 2.049000 2.048000 2.048000 2.048000 2.048000 2.048000 2.048000 2.048000 2.048000 2.042000 2.032000 2.032000 2.018000 2.016000 2.016000 2.010000 2.000000 2.012000 2.016000 2.008000 2.000000 2.000000 1.996000 1.987000 1.985000 1.985000 1.984000 1.978000 1.974000 1.970000 1.970000 1.970000 1.970000 1.970000 1.978000 
2.096000 2.076000 2.064000 2.073000 2.068000 2.049000 2.049000 2.060000 2.060000 2.053000 2.048000 2.048000 2.048000 2.048000 2.042000 2.032000 2.032000 2.028000 2.028000 2.025000 2.014000 2.012000 2.015000 2.016000 2.015000 2.000000 2.000000 2.000000 1.989000 1.985000 1.985000 1.985000 1.985000 1.977000 1.970000 1.970000 1.970000 1.981000 1.981000 1.989000 
0.000000 0.000000 0.000000 2.086000 2.068000 2.062000 2.063000 2.075000 2.064000 2.063000 2.052000 2.048000 2.048000 2.048000 2.042000 2.032000 2.032000 2.032000 2.032000 2.032000 2.025000 2.016000 2.016000 2.016000 2.002000 2.000000 1.995000 1.987000 1.995000 1.987000 1.985000 1.985000 1.985000 1.984000 1.983000 1.983000 1.984000 2.001000 2.023000 2.074000 
0.000000 0.000000 0.000000 0.000000 2.206000 2.077000 2.066000 2.081000 2.080000 2.071000 2.064000 2.063000 2.048000 2.048000 2.048000 2.039000 2.032000 2.032000 2.032000 2.032000 2.032000 2.032000 2.031000 2.018000 2.000000 2.000000 1.995000 1.986000 1.996000 1.987000 1.986000 1.985000 1.985000 1.985000 1.985000 1.985000 1.984000 1.982000 2.035000 1.766000 
0.000000 0.000000 0.000000 0.000000 0.000000 2.718000 2.533000 2.094000 2.082000 2.080000 2.068000 2.050000 2.048000 2.048000 2.048000 2.048000 2.039000 2.032000 2.032000 2.032000 2.032000 2.032000 2.020000 2.016000 2.004000 2.004000 2.002000 2.000000 2.000000 2.000000 1.999000 1.985000 1.985000 1.985000 1.985000 1.985000 1.864000 1.518000 1.512000 1.512000 
0.000000 0.000000 0.000000 0.000000 0.000000 0.000000 0.000000 2.921000 2.581000 2.083000 2.068000 2.050000 2.048000 2.048000 2.048000 2.048000 2.048000 2.039000 2.038000 2.032000 2.032000 2.032000 2.025000 2.017000 2.016000 2.016000 2.012000 2.006000 2.006000 2.001000 1.999000 1.985000 1.985000 1.985000 1.985000 1.821000 1.509000 1.512000 1.512000 1.512000 
0.000000 0.000000 0.000000 0.000000 0.000000 0.000000 0.000000 0.000000 0.000000 0.000000 2.387000 2.050000 2.048000 2.048000 2.048000 2.048000 2.048000 2.048000 2.048000 2.041000 2.037000 2.032000 2.032000 2.026000 2.025000 2.025000 2.025000 2.020000 2.016000 2.002000 2.000000 1.931000 1.703000 1.705000 1.711000 1.529000 1.503000 1.512000 1.512000 1.512000 
0.000000 0.000000 0.000000 0.000000 0.000000 0.000000 0.000000 0.000000 0.000000 0.000000 0.000000 0.000000 2.048000 2.048000 2.048000 2.048000 2.048000 2.048000 2.048000 2.048000 2.046000 2.037000 2.032000 2.032000 2.032000 2.032000 2.032000 2.023000 2.016000 1.639000 1.591000 1.577000 1.461000 1.470000 1.484000 1.489000 1.496000 1.500000 1.506000 1.495000 
0.000000 0.000000 0.000000 0.000000 0.000000 0.000000 0.000000 0.000000 0.000000 0.000000 0.000000 0.000000 2.048000 2.048000 2.048000 2.048000 2.048000 2.048000 2.048000 2.048000 2.048000 2.039000 2.032000 2.032000 2.032000 2.032000 2.032000 2.031000 2.020000 1.498000 1.431000 1.448000 1.451000 1.466000 1.481000 1.484000 1.485000 1.489000 1.503000 1.488000 
0.000000 0.000000 0.000000 0.000000 0.000000 0.000000 0.000000 0.000000 0.000000 0.000000 0.000000 0.000000 0.000000 0.000000 0.000000 2.086000 2.032000 2.061000 2.063000 2.048000 2.048000 2.048000 2.036000 2.032000 2.030000 2.000000 2.000000 1.675000 1.412000 1.428000 1.431000 1.447000 1.447000 1.457000 1.479000 1.484000 1.512000 1.628000 2.063000 2.089000 
0.000000 0.000000 0.000000 0.000000 0.000000 0.000000 0.000000 0.000000 0.000000 0.000000 0.000000 0.000000 0.000000 0.000000 0.000000 0.000000 2.482000 2.106000 2.056000 2.045000 2.048000 2.048000 2.039000 2.035000 1.866000 1.395000 1.398000 1.404000 1.410000 1.418000 1.431000 1.445000 1.438000 1.522000 1.599000 1.602000 2.033000 2.048000 2.051000 2.048000 
0.000000 0.000000 0.000000 0.000000 0.000000 0.000000 0.000000 0.000000 0.000000 0.000000 0.000000 0.000000 0.000000 0.000000 0.000000 0.000000 0.000000 2.273000 2.032000 2.036000 2.048000 2.048000 2.048000 2.048000 1.395000 1.395000 1.398000 1.404000 1.410000 1.412000 1.431000 1.445000 1.438000 1.772000 2.037000 2.032000 2.033000 2.048000 2.042000 2.023000 
0.000000 0.000000 0.000000 0.000000 0.000000 0.000000 0.000000 0.000000 0.000000 0.000000 0.000000 0.000000 0.000000 0.000000 0.000000 0.000000 0.000000 0.000000 0.000000 0.000000 0.000000 0.000000 0.000000 0.000000 0.000000 0.000000 0.000000 0.000000 0.000000 0.000000 0.000000 0.000000 0.000000 0.000000 0.000000 0.000000 0.000000 0.000000 0.000000 0.000000 
0.000000 0.000000 0.000000 0.000000 0.000000 0.000000 0.000000 0.000000 0.000000 0.000000 0.000000 0.000000 0.000000 0.000000 0.000000 0.000000 0.000000 0.000000 0.000000 0.000000 0.000000 0.000000 0.000000 0.000000 0.000000 0.000000 0.000000 0.000000 0.000000 0.000000 0.000000 0.000000 0.000000 0.000000 0.000000 0.000000 0.000000 0.000000 0.000000 0.000000 
0.000000 0.000000 0.000000 0.000000 0.000000 0.000000 0.000000 0.000000 0.000000 0.000000 0.000000 0.000000 0.000000 0.000000 0.000000 0.000000 0.000000 0.000000 0.000000 0.000000 0.000000 0.000000 0.000000 0.000000 0.000000 0.000000 0.000000 0.000000 0.000000 0.000000 0.000000 0.000000 0.000000 0.000000 0.000000 0.000000 0.000000 0.000000 0.000000 0.000000 
0.000000 0.000000 0.000000 0.000000 0.000000 0.000000 0.000000 0.000000 0.000000 0.000000 0.000000 0.000000 0.000000 0.000000 0.000000 0.000000 0.000000 0.000000 0.000000 0.000000 0.000000 0.000000 0.000000 0.000000 0.000000 0.000000 0.000000 0.000000 0.000000 0.000000 0.000000 0.000000 0.000000 0.000000 0.000000 0.000000 0.000000 0.000000 0.000000 0.000000 
