40 40
0.000000 0.000000 0.000000 0.000000 0.000000 0.000000 0.000000 0.000000 0.000000 0.000000 0.000000 0.000000 0.000000 0.000000 0.000000 0.000000 0.000000 0.000000 2.479000 0.000000 0.000000 2.455000 2.448000 2.447000 2.431000 1.983000 1.980000 1.979000 1.976000 2.392000 0.000000 0.000000 0.000000 0.000000 0.000000 0.000000 0.000000 0.000000 0.000000 0.000000 
0.000000 0.000000 0.000000 0.000000 0.000000 0.000000 0.000000 0.000000 2.945000 2.045000 2.035000 2.031000 2.031000 2.028000 0.000000 0.000000 2.013000 2.010000 2.010000 2.004000 2.001000 1.997000 1.997000 1.993000 1.985000 1.983000 1.982000 1.979000 1.975000 1.978000 2.949000 0.000000 0.000000 0.000000 0.000000 0.000000 0.000000 0.000000 0.000000 0.000000 
0.000000 0.000000 0.000000 0.000000 0.000000 0.000000 0.000000 2.041000 2.039000 2.035000 2.030000 2.029000 2.026000 2.024000 2.022000 2.019000 2.013000 2.010000 2.010000 2.006000 2.001000 2.000000 1.997000 1.992000 1.985000 1.982000 1.982000 1.976000 1.973000 2.016000 2.029000 2.932000 0.000000 0.000000 0.000000 0.000000 0.000000 0.000000 0.000000 0.000000 
0.000000 0.000000 0.000000 0.000000 0.000000 0.000000 0.000000 2.042000 2.039000 2.035000 2.032000 2.026000 2.026000 2.022000 2.022000 2.017000 2.013000 2.010000 2.010000 2.006000 2.001000 1.998000 1.997000 1.991000 1.985000 1.982000 1.982000 1.976000 1.973000 2.013000 2.036000 2.049000 2.102000 0.000000 0.000000 0.000000 0.000000 0.000000 0.000000 0.000000 
0.000000 0.000000 0.000000 0.000000 0.000000 0.000000 0.000000 2.045000 2.039000 2.035000 2.033000 2.028000 2.026000 2.025000 2.022000 2.017000 2.013000 2.010000 2.008000 2.006000 2.000000 1.997000 1.994000 1.991000 1.985000 1.982000 1.981000 1.976000 1.975000 1.984000 2.033000 1.595000 0.000000 0.000000 0.000000 0.000000 0.000000 0.000000 0.000000 0.000000 
0.000000 0.000000 0.000000 0.000000 0.000000 0.000000 0.000000 2.011000 2.039000 2.035000 2.033000 2.031000 2.026000 2.026000 2.022000 2.016000 2.013000 2.013000 2.008000 2.006000 2.000000 1.997000 1.994000 1.991000 1.985000 1.983000 1.978000 1.973000 1.973000 1.979000 2.026000 1.659000 1.426000 0.000000 0.000000 0.000000 0.000000 0.000000 0.000000 0.000000 
0.000000 0.000000 0.000000 0.000000 0.000000 0.000000 0.000000 2.039000 2.037000 2.035000 2.032000 2.029000 2.026000 2.023000 2.019000 2.016000 2.013000 2.012000 2.010000 2.003000 2.000000 1.998000 1.994000 1.993000 1.985000 1.983000 1.980000 1.973000 1.974000 1.982000 2.024000 1.593000 0.000000 0.000000 0.000000 0.000000 0.000000 0.000000 0.000000 0.000000 
0.000000 0.000000 0.000000 0.000000 0.000000 0.000000 0.000000 2.025000 2.039000 2.035000 2.033000 2.031000 2.026000 2.022000 2.019000 2.016000 2.013000 2.010000 2.010000 2.003000 2.000000 1.997000 1.997000 1.992000 1.985000 1.983000 1.978000 1.973000 1.973000 1.985000 2.020000 1.586000 0.000000 0.000000 0.000000 0.000000 0.000000 0.000000 0.000000 0.000000 
0.000000 0.000000 0.000000 0.000000 0.000000 0.000000 0.000000 1.975000 2.039000 2.035000 2.033000 2.027000 2.026000 2.023000 2.022000 2.017000 2.013000 2.010000 2.010000 2.003000 2.000000 1.997000 1.994000 1.992000 1.985000 1.982000 1.978000 1.973000 1.973000 1.983000 2.017000 1.732000 1.947000 0.000000 0.000000 0.000000 0.000000 0.000000 0.000000 0.000000 
0.000000 0.000000 0.000000 0.000000 0.000000 0.000000 0.000000 2.039000 2.037000 2.035000 2.032000 2.027000 2.026000 2.023000 2.021000 2.014000 2.013000 2.010000 2.010000 2.005000 2.000000 1.996000 1.991000 1.991000 1.985000 1.983000 1.978000 1.973000 1.973000 1.978000 2.018000 1.585000 0.000000 0.000000 0.000000 0.000000 0.000000 0.000000 0.000000 0.000000 
0.000000 0.000000 0.000000 0.000000 0.000000 0.000000 0.000000 2.042000 2.037000 2.035000 2.033000 2.029000 2.026000 2.022000 2.019000 2.014000 2.013000 2.010000 2.008000 2.003000 2.001000 1.997000 1.994000 1.991000 1.985000 1.982000 1.979000 1.973000 1.973000 1.975000 2.023000 1.589000 0.000000 0.000000 0.000000 0.000000 0.000000 0.000000 0.000000 0.000000 
0.000000 0.000000 0.000000 0.000000 0.000000 0.000000 0.000000 2.041000 2.037000 2.035000 2.031000 2.026000 2.026000 2.022000 2.019000 2.016000 2.013000 2.010000 2.010000 2.004000 2.000000 1.998000 1.994000 1.989000 1.985000 1.982000 1.978000 1.973000 1.971000 1.975000 2.007000 1.588000 0.000000 0.000000 0.000000 0.000000 0.000000 0.000000 0.000000 0.000000 
0.000000 0.000000 0.000000 0.000000 0.000000 0.000000 0.000000 2.032000 2.035000 2.035000 2.030000 2.026000 2.026000 2.026000 2.019000 2.016000 2.013000 2.010000 2.006000 2.000000 2.000000 1.997000 1.994000 1.989000 1.985000 1.982000 1.978000 1.973000 1.970000 1.977000 2.012000 1.586000 0.000000 0.000000 0.000000 0.000000 0.000000 0.000000 0.000000 0.000000 
0.000000 0.000000 0.000000 0.000000 0.000000 0.000000 0.000000 2.043000 2.037000 2.035000 2.032000 2.029000 2.026000 2.024000 2.019000 2.016000 2.013000 2.010000 2.006000 2.003000 2.000000 1.997000 1.994000 1.989000 1.985000 1.982000 1.978000 1.973000 1.970000 1.974000 2.013000 1.586000 0.000000 0.000000 0.000000 0.000000 0.000000 0.000000 0.000000 0.000000 
0.000000 0.000000 0.000000 0.000000 0.000000 0.000000 0.000000 1.830000 2.037000 2.035000 2.032000 2.029000 2.026000 2.023000 2.019000 2.016000 2.013000 2.010000 2.004000 2.000000 2.000000 1.997000 1.994000 1.989000 1.985000 1.979000 1.975000 1.973000 1.970000 1.974000 2.014000 2.029000 0.000000 0.000000 0.000000 0.000000 0.000000 0.000000 0.000000 0.000000 
0.000000 0.000000 0.000000 0.000000 0.000000 0.000000 0.000000 1.830000 2.037000 2.032000 2.027000 2.026000 2.026000 2.022000 2.016000 2.014000 2.013000 2.010000 2.004000 2.000000 2.000000 1.997000 1.994000 1.988000 1.985000 1.979000 1.976000 1.973000 1.970000 1.974000 1.993000 2.031000 0.000000 0.000000 0.000000 0.000000 0.000000 0.000000 0.000000 0.000000 
0.000000 0.000000 0.000000 0.000000 0.000000 0.000000 0.000000 1.361000 2.037000 2.034000 2.027000 2.026000 2.026000 2.022000 2.018000 2.014000 2.012000 2.010000 2.006000 2.000000 2.000000 1.997000 1.994000 1.989000 1.985000 1.980000 1.975000 1.971000 1.971000 1.967000 2.008000 2.030000 0.000000 0.000000 0.000000 0.000000 0.000000 0.000000 0.000000 0.000000 
0.000000 0.000000 0.000000 0.000000 0.000000 0.000000 0.000000 0.000000 2.037000 2.035000 2.033000 2.026000 2.026000 2.019000 2.018000 2.014000 2.012000 2.010000 2.006000 2.000000 2.000000 1.996000 1.991000 1.988000 1.982000 1.979000 1.973000 1.970000 1.970000 1.971000 2.014000 2.031000 0.000000 0.000000 0.000000 0.000000 0.000000 0.000000 0.000000 0.000000 
0.000000 0.000000 0.000000 0.000000 0.000000 0.000000 0.000000 0.000000 2.037000 2.035000 2.030000 2.028000 2.026000 2.022000 2.016000 2.013000 2.013000 2.010000 2.006000 2.000000 2.000000 1.996000 1.991000 1.988000 1.982000 1.979000 1.973000 1.970000 1.969000 1.963000 2.000000 2.031000 0.000000 0.000000 0.000000 0.000000 0.000000 0.000000 0.000000 0.000000 
0.000000 0.000000 0.000000 0.000000 0.000000 0.000000 0.000000 1.292000 2.036000 2.032000 2.029000 2.028000 2.026000 2.022000 2.019000 2.016000 2.013000 2.010000 2.008000 2.000000 1.999000 1.997000 1.991000 1.987000 1.982000 1.979000 1.975000 1.970000 1.968000 1.961000 2.006000 2.022000 0.000000 0.000000 0.000000 0.000000 0.000000 0.000000 0.000000 0.000000 
0.000000 0.000000 0.000000 0.000000 0.000000 0.000000 0.000000 2.029000 2.035000 2.032000 2.032000 2.026000 2.023000 2.022000 2.019000 2.016000 2.013000 2.010000 2.008000 1.997000 1.997000 1.997000 1.994000 1.986000 1.982000 1.977000 1.975000 1.970000 1.970000 1.970000 2.003000 2.024000 0.000000 0.000000 0.000000 0.000000 0.000000 0.000000 0.000000 0.000000 
0.000000 0.000000 0.000000 0.000000 0.000000 0.000000 0.000000 1.914000 2.036000 2.032000 2.029000 2.026000 2.023000 2.022000 2.018000 2.014000 2.011000 2.010000 2.007000 2.000000 1.997000 1.995000 1.991000 1.988000 1.982000 1.979000 1.973000 1.970000 1.969000 1.969000 2.002000 2.024000 0.000000 0.000000 0.000000 0.000000 0.000000 0.000000 0.000000 0.000000 
0.000000 0.000000 0.000000 0.000000 0.000000 0.000000 0.000000 1.872000 2.039000 2.035000 2.030000 2.026000 2.022000 2.020000 2.018000 2.014000 2.010000 2.010000 2.003000 2.000000 1.997000 1.994000 1.988000 1.988000 1.982000 1.977000 1.973000 1.970000 1.968000 1.970000 1.991000 2.030000 0.000000 0.000000 0.000000 0.000000 0.000000 0.000000 0.000000 0.000000 
0.000000 0.000000 0.000000 0.000000 0.000000 0.000000 0.000000 2.035000 2.039000 2.035000 2.030000 2.026000 2.022000 2.019000 2.016000 2.013000 2.010000 2.010000 2.005000 2.001000 1.998000 1.997000 1.993000 1.986000 1.982000 1.979000 1.973000 1.970000 1.968000 1.970000 1.988000 2.027000 2.033000 0.000000 0.000000 0.000000 0.000000 0.000000 0.000000 0.000000 
0.000000 0.000000 0.000000 0.000000 0.000000 0.000000 0.000000 2.040000 2.039000 2.035000 2.029000 2.026000 2.022000 2.018000 2.016000 2.013000 2.010000 2.010000 2.004000 2.000000 1.997000 1.996000 1.994000 1.987000 1.982000 1.980000 1.974000 1.973000 1.970000 1.969000 1.992000 2.017000 0.000000 0.000000 0.000000 0.000000 0.000000 0.000000 0.000000 0.000000 
0.000000 0.000000 0.000000 0.000000 0.000000 0.000000 0.000000 2.039000 2.039000 2.035000 2.030000 2.026000 2.022000 2.018000 2.013000 2.013000 2.010000 2.010000 2.003000 2.000000 1.997000 1.994000 1.991000 1.986000 1.982000 1.980000 1.975000 1.973000 1.965000 1.964000 1.994000 2.017000 0.000000 0.000000 0.000000 0.000000 0.000000 0.000000 0.000000 0.000000 
0.000000 0.000000 0.000000 0.000000 0.000000 0.000000 0.000000 1.831000 2.038000 2.035000 2.030000 2.026000 2.023000 2.021000 2.016000 2.013000 2.012000 2.010000 2.001000 2.000000 1.997000 1.994000 1.991000 1.987000 1.982000 1.979000 1.975000 1.973000 1.968000 1.967000 1.988000 2.028000 1.652000 0.000000 0.000000 0.000000 0.000000 0.000000 0.000000 0.000000 
0.000000 0.000000 0.000000 0.000000 0.000000 0.000000 0.000000 1.878000 2.035000 2.035000 2.030000 2.026000 2.022000 2.021000 2.016000 2.013000 2.012000 2.010000 2.001000 2.000000 1.997000 1.996000 1.991000 1.988000 1.982000 1.980000 1.975000 1.970000 1.968000 1.967000 1.990000 2.023000 2.039000 0.000000 0.000000 0.000000 0.000000 0.000000 0.000000 0.000000 
0.000000 0.000000 0.000000 0.000000 0.000000 0.000000 0.000000 2.035000 2.037000 2.035000 2.030000 2.026000 2.023000 2.021000 2.016000 2.013000 2.010000 2.010000 2.001000 2.000000 1.997000 1.997000 1.988000 1.988000 1.982000 1.979000 1.976000 1.970000 1.967000 1.967000 1.981000 2.040000 2.049000 0.000000 0.000000 0.000000 0.000000 0.000000 0.000000 0.000000 
0.000000 0.000000 0.000000 0.000000 0.000000 0.000000 0.000000 0.000000 2.036000 2.035000 2.032000 2.026000 2.022000 2.018000 2.014000 2.013000 2.010000 2.006000 2.001000 2.000000 1.997000 1.997000 1.988000 1.986000 1.982000 1.979000 1.975000 1.973000 1.970000 1.970000 1.992000 2.026000 2.044000 0.000000 0.000000 0.000000 0.000000 0.000000 0.000000 0.000000 
0.000000 0.000000 0.000000 0.000000 0.000000 0.000000 0.000000 1.034000 2.035000 2.035000 2.028000 2.026000 2.022000 2.018000 2.013000 2.013000 2.010000 2.006000 2.002000 1.997000 1.997000 1.997000 1.988000 1.988000 1.982000 1.977000 1.973000 1.973000 1.968000 1.968000 1.997000 2.023000 2.032000 0.000000 0.000000 0.000000 0.000000 0.000000 0.000000 0.000000 
0.000000 0.000000 0.000000 0.000000 0.000000 0.000000 0.000000 1.827000 2.039000 2.035000 2.027000 2.026000 2.022000 2.019000 2.013000 2.013000 2.010000 2.006000 2.002000 2.000000 1.996000 1.995000 1.988000 1.988000 1.982000 1.976000 1.973000 1.970000 1.968000 1.968000 1.991000 2.018000 1.691000 0.000000 0.000000 0.000000 0.000000 0.000000 0.000000 0.000000 
0.000000 0.000000 0.000000 0.000000 0.000000 0.000000 0.000000 1.581000 2.039000 2.034000 2.030000 2.025000 2.022000 2.018000 2.014000 2.013000 2.010000 2.003000 2.000000 2.000000 1.995000 1.994000 1.988000 1.988000 1.982000 1.976000 1.973000 1.970000 1.970000 1.970000 1.977000 2.021000 2.049000 0.000000 0.000000 0.000000 0.000000 0.000000 0.000000 0.000000 
0.000000 0.000000 0.000000 0.000000 0.000000 0.000000 0.000000 0.000000 2.039000 2.032000 2.027000 2.022000 2.022000 2.020000 2.016000 2.013000 2.010000 2.006000 2.000000 2.000000 1.997000 1.995000 1.988000 1.986000 1.982000 1.977000 1.973000 1.970000 1.970000 1.964000 1.978000 2.007000 2.049000 0.000000 0.000000 0.000000 0.000000 0.000000 0.000000 0.000000 
0.000000 0.000000 0.000000 0.000000 0.000000 0.000000 0.000000 2.037000 2.037000 2.032000 2.026000 2.025000 2.022000 2.019000 2.013000 2.013000 2.008000 2.003000 2.003000 2.000000 1.998000 1.994000 1.988000 1.986000 1.982000 1.977000 1.976000 1.973000 1.969000 1.964000 1.991000 1.994000 0.000000 0.000000 0.000000 0.000000 0.000000 0.000000 0.000000 0.000000 
0.000000 0.000000 0.000000 0.000000 0.000000 0.000000 0.000000 0.000000 2.351000 2.332000 2.022000 2.026000 2.022000 2.019000 2.013000 2.013000 2.006000 2.003000 1.880000 1.879000 1.963000 1.995000 1.991000 1.986000 1.982000 1.977000 1.973000 1.973000 1.970000 1.964000 2.172000 0.000000 0.000000 0.000000 0.000000 0.000000 0.000000 0.000000 0.000000 0.000000 
0.000000 0.000000 0.000000 0.000000 0.000000 0.000000 0.000000 0.000000 0.000000 0.000000 0.000000 0.000000 0.000000 1.259000 0.000000 1.064000 2.021000 0.000000 0.000000 0.000000 0.000000 1.317000 2.010000 2.905000 0.000000 0.000000 0.000000 0.000000 0.000000 0.000000 0.000000 0.000000 0.000000 0.000000 0.000000 0.000000 0.000000 0.000000 0.000000 0.000000 
0.000000 0.000000 0.000000 0.000000 0.000000 0.000000 0.000000 0.000000 0.000000 0.000000 0.000000 0.000000 0.000000 0.000000 0.000000 0.000000 2.033000 0.000000 0.000000 0.000000 0.000000 0.000000 2.061000 0.000000 0.000000 0.000000 0.000000 0.000000 0.000000 0.000000 0.000000 0.000000 0.000000 0.000000 0.000000 0.000000 0.000000 0.000000 0.000000 0.000000 
0.000000 0.000000 0.000000 0.000000 0.000000 0.000000 0.000000 0.000000 0.000000 0.000000 0.000000 0.000000 0.000000 0.000000 0.000000 0.000000 2.035000 0.000000 2.678000 0.000000 0.000000 2.052000 2.151000 0.000000 0.000000 0.000000 0.000000 0.000000 0.000000 0.000000 0.000000 0.000000 0.000000 0.000000 0.000000 0.000000 0.000000 0.000000 0.000000 0.000000 
0.000000 0.000000 0.000000 0.000000 0.000000 0.000000 0.000000 0.000000 0.000000 0.000000 0.000000 0.000000 0.000000 0.000000 0.000000 0.000000 0.000000 0.000000 0.000000 0.000000 0.000000 0.000000 0.000000 0.000000 0.000000 0.000000 0.000000 0.000000 0.000000 0.000000 0.000000 0.000000 0.000000 0.000000 0.000000 0.000000 0.000000 0.000000 0.000000 0.000000 
