40 40
0.000000 0.000000 0.000000 0.000000 0.000000 0.000000 0.000000 0.000000 0.000000 0.000000 0.000000 0.000000 0.000000 0.000000 0.000000 0.000000 0.000000 0.000000 0.000000 0.000000 0.000000 0.000000 0.000000 0.000000 0.000000 0.000000 0.000000 0.000000 0.000000 0.000000 0.000000 0.000000 0.000000 0.000000 0.000000 0.000000 0.000000 0.000000 0.000000 0.000000 
0.000000 0.000000 0.000000 0.000000 0.000000 0.000000 0.000000 0.000000 0.000000 0.000000 0.000000 0.000000 0.000000 0.000000 0.000000 0.000000 0.000000 0.000000 0.000000 0.000000 0.000000 0.000000 2.074000 2.084000 2.078000 2.046000 2.045000 2.045000 2.043000 2.043000 1.887000 0.000000 0.000000 0.000000 0.000000 1.277000 1.758000 2.044000 2.028000 2.024000 
0.000000 0.000000 0.000000 0.000000 0.000000 0.000000 0.000000 0.000000 0.000000 0.000000 0.000000 0.000000 0.000000 0.000000 0.000000 0.000000 0.000000 0.000000 0.000000 0.000000 0.000000 0.000000 2.080000 2.081000 2.048000 2.031000 2.024000 2.018000 2.012000 2.008000 1.853000 0.000000 0.000000 0.000000 0.000000 0.000000 0.000000 2.044000 2.032000 2.024000 
0.000000 0.000000 0.000000 0.000000 0.000000 0.000000 0.000000 0.000000 0.000000 0.000000 0.000000 0.000000 0.000000 0.000000 0.000000 0.000000 0.000000 0.000000 0.000000 0.000000 0.000000 2.075000 2.066000 2.056000 2.038000 2.021000 2.014000 2.011000 2.002000 2.001000 1.974000 0.000000 0.000000 0.000000 0.000000 0.000000 0.000000 2.055000 2.040000 2.035000 
0.000000 0.000000 0.000000 0.000000 0.000000 0.000000 0.000000 0.000000 0.000000 0.000000 0.000000 0.000000 0.000000 0.000000 0.000000 0.000000 0.000000 0.000000 0.000000 0.000000 2.076000 2.057000 2.042000 2.027000 2.021000 2.006000 2.000000 2.011000 2.000000 2.000000 2.000000 2.010000 0.000000 0.000000 0.000000 0.000000 0.000000 2.059000 2.042000 2.039000 
0.000000 0.000000 0.000000 0.000000 0.000000 0.000000 0.000000 0.000000 0.000000 0.000000 0.000000 0.000000 0.000000 0.000000 0.000000 0.000000 0.000000 0.000000 2.085000 2.063000 2.051000 2.036000 2.025000 2.018000 2.006000 2.000000 2.000000 2.011000 2.000000 2.004000 2.006000 2.013000 2.024000 0.000000 0.000000 0.000000 0.000000 1.452000 2.065000 2.049000 
0.000000 0.000000 0.000000 0.000000 0.000000 0.000000 0.000000 0.000000 0.000000 0.000000 0.000000 0.000000 0.000000 0.000000 0.000000 0.000000 0.000000 2.683000 2.053000 2.046000 2.039000 2.025000 2.009000 2.002000 2.000000 2.000000 2.000000 2.012000 2.010000 2.011000 2.012000 2.017000 2.024000 2.026000 1.903000 1.689000 0.000000 0.000000 1.602000 2.060000 
0.000000 0.000000 0.000000 0.000000 0.000000 0.000000 0.000000 0.000000 0.000000 0.000000 0.000000 0.000000 0.000000 0.000000 0.000000 0.000000 0.000000 2.051000 2.046000 2.029000 2.013000 2.010000 2.006000 2.000000 2.000000 2.000000 2.000000 2.012000 2.012000 2.012000 2.012000 2.017000 2.024000 2.038000 2.049000 2.065000 0.000000 0.000000 0.000000 2.088000 
0.000000 0.000000 0.000000 0.000000 0.000000 0.000000 0.000000 0.000000 0.000000 0.000000 0.000000 0.000000 0.000000 0.000000 0.000000 2.054000 2.043000 2.038000 2.029000 2.010000 2.001000 2.000000 2.000000 2.000000 2.000000 2.000000 2.000000 2.012000 2.012000 2.012000 2.012000 2.017000 2.024000 2.037000 2.043000 2.043000 1.924000 0.000000 1.492000 1.137000 
0.000000 0.000000 0.000000 0.000000 0.000000 0.000000 0.000000 0.000000 0.000000 0.000000 0.000000 0.000000 0.000000 2.049000 2.049000 2.038000 2.022000 2.007000 2.004000 2.000000 2.000000 2.000000 2.000000 2.000000 2.000000 2.000000 2.000000 2.012000 2.012000 2.012000 2.012000 2.017000 2.024000 2.037000 2.037000 2.037000 2.015000 1.005000 0.000000 0.000000 
0.000000 0.000000 0.000000 0.000000 0.000000 0.000000 0.000000 0.000000 0.000000 0.000000 0.000000 0.000000 2.059000 2.042000 2.034000 2.019000 2.006000 2.000000 2.000000 2.000000 2.000000 2.000000 2.000000 2.000000 2.000000 2.000000 2.000000 2.012000 2.012000 2.012000 2.012000 2.018000 2.025000 2.037000 2.037000 2.037000 2.049000 2.055000 0.000000 0.000000 
0.000000 0.000000 0.000000 0.000000 0.000000 0.000000 0.000000 0.000000 0.000000 0.000000 0.000000 2.411000 2.041000 2.022000 2.009000 2.000000 2.000000 2.000000 1.995000 1.995000 1.999000 2.000000 2.000000 2.000000 2.000000 2.000000 2.000000 2.012000 2.012000 2.016000 2.018000 2.024000 2.034000 2.037000 2.037000 2.037000 2.050000 1.684000 0.000000 0.000000 
0.000000 0.000000 0.000000 0.000000 0.000000 0.000000 0.000000 0.000000 0.000000 2.637000 2.045000 2.039000 2.015000 2.002000 1.994000 1.991000 1.991000 1.998000 1.989000 1.989000 1.997000 2.000000 2.000000 2.000000 2.001000 2.010000 2.010000 2.022000 2.022000 2.023000 2.044000 2.040000 2.036000 2.037000 2.037000 2.044000 2.049000 1.889000 0.000000 0.000000 
0.000000 0.000000 0.000000 0.000000 0.000000 0.000000 0.000000 0.000000 2.617000 2.037000 2.029000 2.013000 1.999000 1.994000 1.989000 1.989000 1.989000 1.989000 2.000000 2.000000 2.000000 2.000000 2.000000 2.000000 2.012000 2.017000 2.024000 2.037000 2.038000 2.046000 2.049000 2.049000 2.041000 2.039000 2.049000 2.050000 2.051000 2.051000 0.000000 0.000000 
0.000000 0.000000 0.000000 0.000000 0.000000 0.000000 0.000000 2.983000 2.045000 2.029000 2.013000 1.997000 1.989000 1.989000 1.989000 1.989000 1.989000 1.989000 2.000000 2.000000 2.000000 2.000000 2.002000 2.006000 2.012000 2.017000 2.029000 2.037000 2.042000 2.049000 2.049000 2.049000 2.049000 2.043000 2.046000 2.058000 2.062000 2.062000 2.062000 0.000000 
0.000000 0.000000 0.000000 0.000000 0.000000 2.763000 2.049000 2.043000 2.021000 2.003000 1.993000 1.989000 1.989000 1.989000 1.989000 1.989000 1.989000 1.989000 2.000000 2.000000 2.000000 2.001000 2.011000 2.012000 2.013000 2.023000 2.034000 2.037000 2.042000 2.049000 2.049000 2.049000 2.049000 2.037000 2.042000 2.058000 2.062000 2.062000 2.062000 2.841000 
0.000000 0.000000 0.000000 0.000000 0.000000 2.046000 2.044000 2.028000 2.004000 1.989000 1.989000 1.989000 1.989000 1.989000 1.989000 1.990000 1.995000 2.000000 2.000000 2.000000 2.000000 2.001000 2.011000 2.012000 2.024000 2.026000 2.034000 2.037000 2.042000 2.049000 2.049000 2.049000 2.049000 2.049000 2.050000 2.059000 2.062000 2.062000 2.062000 2.197000 
0.000000 0.000000 0.000000 2.036000 2.031000 2.016000 2.012000 2.001000 1.995000 1.989000 1.989000 1.989000 1.989000 1.989000 1.993000 2.000000 2.000000 2.000000 2.000000 2.000000 2.000000 2.000000 2.000000 2.009000 2.025000 2.037000 2.037000 2.042000 2.045000 2.049000 2.049000 2.049000 2.049000 2.049000 2.052000 2.060000 2.062000 2.064000 2.067000 2.068000 
2.786000 2.405000 2.039000 2.035000 2.015000 1.994000 1.991000 1.990000 1.989000 1.989000 1.989000 1.989000 1.989000 1.989000 1.998000 2.000000 2.000000 2.000000 2.000000 2.000000 2.000000 2.008000 2.000000 2.009000 2.025000 2.037000 2.037000 2.049000 2.049000 2.049000 2.049000 2.053000 2.059000 2.058000 2.049000 2.058000 2.062000 2.063000 2.071000 2.074000 
2.046000 2.036000 2.024000 1.999000 1.994000 1.979000 1.977000 1.977000 1.987000 1.989000 1.989000 1.989000 1.999000 1.989000 1.998000 2.000000 2.000000 2.000000 2.000000 2.000000 2.000000 2.012000 2.018000 2.024000 2.025000 2.037000 2.037000 2.049000 2.049000 2.049000 2.050000 2.062000 2.062000 2.062000 2.062000 2.062000 2.062000 2.063000 2.071000 2.075000 
2.036000 2.019000 1.997000 1.984000 1.984000 1.978000 1.977000 1.977000 1.987000 1.989000 1.989000 1.989000 1.999000 1.994000 1.999000 2.000000 2.000000 2.000000 2.000000 2.002000 2.005000 2.018000 2.026000 2.030000 2.030000 2.037000 2.037000 2.049000 2.049000 2.049000 2.055000 2.062000 2.062000 2.062000 2.062000 2.062000 2.062000 2.065000 2.073000 2.082000 
2.023000 1.999000 1.982000 1.977000 1.977000 1.977000 1.977000 1.977000 1.979000 1.989000 1.989000 1.996000 2.000000 2.000000 2.000000 2.000000 2.000000 2.000000 2.001000 2.010000 2.019000 2.024000 2.030000 2.037000 2.037000 2.037000 2.044000 2.049000 2.049000 2.049000 2.062000 2.062000 2.062000 2.062000 2.062000 2.062000 2.062000 2.062000 2.071000 2.190000 
1.998000 1.983000 1.977000 1.977000 1.977000 1.977000 1.977000 1.977000 1.978000 1.989000 1.989000 1.998000 2.000000 2.000000 2.000000 2.000000 2.001000 2.000000 2.002000 2.012000 2.012000 2.013000 2.030000 2.037000 2.037000 2.042000 2.049000 2.062000 2.057000 2.049000 2.062000 2.062000 2.062000 2.062000 2.062000 2.062000 2.062000 2.062000 2.284000 0.000000 
1.998000 1.983000 1.977000 1.977000 1.977000 1.977000 1.977000 1.977000 1.987000 1.989000 1.989000 1.994000 2.000000 2.000000 2.000000 2.001000 2.011000 2.006000 2.013000 2.017000 2.013000 2.014000 2.033000 2.037000 2.037000 2.040000 2.044000 2.062000 2.059000 2.055000 2.062000 2.062000 2.062000 2.062000 2.062000 2.062000 2.062000 2.551000 0.000000 0.000000 
1.997000 1.978000 1.977000 1.977000 1.977000 1.984000 1.986000 1.986000 1.988000 1.989000 1.989000 1.989000 2.000000 2.000000 2.000000 2.011000 2.022000 2.022000 2.021000 2.024000 2.022000 2.023000 2.037000 2.037000 2.037000 2.037000 2.037000 2.062000 2.062000 2.062000 2.062000 2.062000 2.062000 2.062000 2.062000 2.062000 0.000000 0.000000 0.000000 0.000000 
0.000000 2.130000 1.977000 1.977000 1.978000 1.987000 1.989000 1.989000 1.989000 1.989000 1.989000 1.998000 2.001000 2.001000 2.011000 2.024000 2.024000 2.024000 2.024000 2.025000 2.034000 2.037000 2.037000 2.037000 2.037000 2.037000 2.046000 2.062000 2.062000 2.062000 2.062000 2.062000 2.063000 2.062000 2.170000 0.000000 0.000000 0.000000 0.000000 0.000000 
0.000000 0.000000 1.978000 1.977000 1.983000 1.989000 1.989000 1.989000 1.989000 1.990000 1.994000 1.999000 2.012000 2.012000 2.021000 2.019000 2.021000 2.024000 2.025000 2.037000 2.037000 2.037000 2.037000 2.037000 2.037000 2.037000 2.046000 2.062000 2.062000 2.062000 2.062000 2.069000 2.080000 0.000000 0.000000 0.000000 0.000000 0.000000 0.000000 0.000000 
0.000000 0.000000 0.000000 1.994000 1.996000 1.991000 1.989000 1.989000 1.989000 1.991000 2.000000 2.000000 2.012000 2.012000 2.021000 2.012000 2.017000 2.024000 2.025000 2.037000 2.037000 2.037000 2.037000 2.037000 2.045000 2.037000 2.046000 2.062000 2.062000 2.062000 2.062000 2.076000 0.000000 0.000000 0.000000 0.000000 0.000000 0.000000 0.000000 0.000000 
0.000000 0.000000 0.000000 0.000000 2.141000 2.000000 1.989000 1.989000 1.998000 2.002000 2.011000 2.012000 2.012000 2.012000 2.021000 2.013000 2.018000 2.034000 2.037000 2.037000 2.037000 2.037000 2.037000 2.038000 2.049000 2.049000 2.049000 2.062000 2.062000 2.063000 2.521000 0.000000 0.000000 0.000000 0.000000 0.000000 0.000000 0.000000 0.000000 0.000000 
0.000000 0.000000 0.000000 0.000000 0.000000 2.001000 1.989000 1.989000 1.998000 2.000000 2.000000 2.010000 2.012000 2.012000 2.021000 2.024000 2.026000 2.035000 2.037000 2.037000 2.037000 2.042000 2.042000 2.047000 2.049000 2.049000 2.049000 2.062000 2.067000 2.992000 0.000000 0.000000 0.000000 0.000000 0.000000 0.000000 0.000000 0.000000 0.000000 0.000000 
0.000000 0.000000 0.000000 0.000000 0.000000 2.415000 1.989000 1.989000 1.998000 2.000000 2.004000 2.011000 2.012000 2.012000 2.021000 2.024000 2.030000 2.037000 2.037000 2.037000 2.044000 2.049000 2.049000 2.049000 2.049000 2.049000 2.049000 2.062000 2.962000 0.000000 0.000000 0.000000 0.000000 0.000000 0.000000 0.000000 0.000000 0.000000 0.000000 0.000000 
0.000000 0.000000 0.000000 0.000000 0.000000 0.000000 1.990000 1.995000 2.000000 2.000000 2.006000 2.012000 2.012000 2.018000 2.024000 2.037000 2.037000 2.037000 2.037000 2.037000 2.046000 2.049000 2.049000 2.049000 2.049000 2.049000 2.216000 2.510000 0.000000 0.000000 0.000000 0.000000 0.000000 0.000000 0.000000 0.000000 0.000000 0.000000 0.000000 0.000000 
0.000000 0.000000 0.000000 0.000000 0.000000 0.000000 0.000000 2.005000 2.005000 2.005000 2.010000 2.017000 2.018000 2.024000 2.024000 2.037000 2.037000 2.037000 2.037000 2.039000 2.047000 2.049000 2.047000 2.044000 2.049000 2.527000 0.000000 0.000000 0.000000 0.000000 0.000000 0.000000 0.000000 0.000000 0.000000 0.000000 0.000000 0.000000 0.000000 0.000000 
0.000000 0.000000 0.000000 0.000000 0.000000 0.000000 0.000000 2.050000 2.023000 2.012000 2.018000 2.024000 2.024000 2.024000 2.024000 2.037000 2.037000 2.037000 2.037000 2.042000 2.049000 2.049000 2.044000 2.037000 0.000000 0.000000 0.000000 0.000000 0.000000 0.000000 0.000000 0.000000 0.000000 0.000000 0.000000 0.000000 0.000000 0.000000 0.000000 0.000000 
0.000000 0.000000 0.000000 0.000000 0.000000 0.000000 0.000000 0.000000 0.000000 2.012000 2.018000 2.025000 2.037000 2.037000 2.037000 2.037000 2.037000 2.037000 2.038000 2.048000 2.049000 2.049000 2.134000 0.000000 0.000000 0.000000 0.000000 0.000000 0.000000 0.000000 0.000000 0.000000 0.000000 0.000000 0.000000 0.000000 0.000000 0.000000 0.000000 0.000000 
0.000000 0.000000 0.000000 0.000000 0.000000 0.000000 0.000000 0.000000 0.000000 2.012000 2.021000 2.036000 2.037000 2.037000 2.037000 2.037000 2.037000 2.041000 2.041000 2.037000 2.046000 2.165000 0.000000 0.000000 0.000000 0.000000 0.000000 0.000000 0.000000 0.000000 0.000000 0.000000 0.000000 0.000000 0.000000 0.000000 0.000000 0.000000 0.000000 0.000000 
0.000000 0.000000 0.000000 0.000000 0.000000 0.000000 0.000000 0.000000 0.000000 0.000000 2.018000 2.018000 2.029000 2.037000 2.037000 2.045000 2.037000 2.046000 2.048000 2.037000 0.000000 0.000000 0.000000 0.000000 0.000000 0.000000 0.000000 0.000000 0.000000 0.000000 0.000000 0.000000 0.000000 0.000000 0.000000 0.000000 0.000000 0.000000 0.000000 0.000000 
0.000000 0.000000 0.000000 0.000000 0.000000 0.000000 0.000000 0.000000 0.000000 0.000000 0.000000 2.047000 2.026000 2.037000 2.038000 2.048000 2.037000 2.037000 2.068000 0.000000 0.000000 0.000000 0.000000 0.000000 0.000000 0.000000 0.000000 0.000000 0.000000 0.000000 0.000000 0.000000 0.000000 0.000000 0.000000 0.000000 0.000000 0.000000 0.000000 0.000000 
0.000000 0.000000 0.000000 0.000000 0.000000 0.000000 0.000000 0.000000 0.000000 0.000000 0.000000 0.000000 2.037000 2.037000 2.046000 2.048000 2.042000 2.042000 0.000000 0.000000 0.000000 0.000000 0.000000 0.000000 0.000000 0.000000 0.000000 0.000000 0.000000 0.000000 0.000000 0.000000 0.000000 0.000000 0.000000 0.000000 0.000000 0.000000 0.000000 0.000000 
0.000000 0.000000 0.000000 0.000000 0.000000 0.000000 0.000000 0.000000 0.000000 0.000000 0.000000 0.000000 0.000000 0.000000 0.000000 0.000000 0.000000 0.000000 0.000000 0.000000 0.000000 0.000000 0.000000 0.000000 0.000000 0.000000 0.000000 0.000000 0.000000 0.000000 0.000000 0.000000 0.000000 0.000000 0.000000 0.000000 0.000000 0.000000 0.000000 0.000000 
