0.000000,0.000000,0.000000,0.000000,0.000000,0.000000,0.000000,2.003000,2.003000,2.000000,1.997000,1.997000,1.994000,1.991000,1.988000,1.988000,1.987000,1.988000,1.982000,1.982000,1.980000,1.980000,1.977000,1.974000,1.971000,1.971000,1.969000,1.965000,1.961000,1.957000,2.019000,2.037000,2.043000,0.000000,0.000000,0.000000,0.000000,0.000000,0.000000,0.000000,
0.000000,0.000000,0.000000,0.000000,0.000000,0.000000,0.000000,1.863000,2.003000,2.000000,2.000000,1.997000,1.991000,1.991000,1.989000,1.988000,1.986000,1.985000,1.982000,1.980000,1.980000,1.977000,1.974000,1.971000,1.968000,1.968000,1.967000,1.963000,1.958000,1.957000,1.960000,0.000000,0.000000,0.000000,0.000000,0.000000,0.000000,0.000000,0.000000,0.000000,
0.000000,0.000000,0.000000,0.000000,0.000000,0.000000,0.000000,1.834000,2.003000,2.000000,2.000000,1.997000,1.992000,1.994000,1.991000,1.988000,1.990000,1.987000,1.983000,1.981000,1.980000,1.977000,1.974000,1.971000,1.971000,1.968000,1.967000,1.963000,1.960000,1.957000,1.961000,1.239000,0.000000,0.000000,0.000000,0.000000,0.000000,0.000000,0.000000,0.000000,
0.000000,0.000000,0.000000,0.000000,0.000000,0.000000,0.000000,2.007000,2.003000,2.003000,2.001000,1.999000,1.994000,1.992000,1.991000,1.988000,1.990000,1.991000,1.988000,1.982000,1.980000,1.980000,1.977000,1.974000,1.971000,1.968000,1.966000,1.963000,1.960000,1.960000,1.964000,0.000000,0.000000,0.000000,0.000000,0.000000,0.000000,0.000000,0.000000,0.000000,
0.000000,0.000000,0.000000,0.000000,0.000000,0.000000,0.000000,1.868000,2.006000,2.003000,2.003000,2.000000,1.997000,1.996000,1.991000,1.988000,1.990000,1.991000,1.985000,1.985000,1.981000,1.980000,1.978000,1.974000,1.971000,1.969000,1.968000,1.966000,1.961000,1.957000,1.962000,1.239000,0.000000,0.000000,0.000000,0.000000,0.000000,0.000000,0.000000,0.000000,
0.000000,0.000000,0.000000,0.000000,0.000000,0.000000,0.000000,1.835000,2.008000,2.003000,2.003000,2.000000,1.997000,1.997000,1.993000,1.988000,1.990000,1.991000,1.988000,1.985000,1.982000,1.981000,1.979000,1.975000,1.971000,1.969000,1.968000,1.966000,1.963000,1.960000,1.919000,0.000000,0.000000,0.000000,0.000000,0.000000,0.000000,0.000000,0.000000,0.000000,
0.000000,0.000000,0.000000,0.000000,0.000000,0.000000,0.000000,1.838000,2.011000,2.006000,2.003000,2.002000,2.000000,2.000000,1.997000,1.991000,1.993000,1.991000,1.991000,1.989000,1.984000,1.982000,1.980000,1.977000,1.977000,1.971000,1.968000,1.968000,1.964000,1.963000,1.966000,1.241000,0.000000,0.000000,0.000000,0.000000,0.000000,0.000000,0.000000,0.000000,
0.000000,0.000000,0.000000,0.000000,0.000000,0.000000,0.000000,1.843000,2.011000,2.008000,2.006000,2.002000,2.000000,1.998000,1.997000,1.994000,1.994000,1.994000,1.991000,1.989000,1.984000,1.982000,1.980000,1.980000,1.977000,1.971000,1.971000,1.968000,1.964000,1.963000,1.967000,1.861000,0.000000,0.000000,0.000000,0.000000,0.000000,0.000000,0.000000,0.000000,
0.000000,0.000000,0.000000,0.000000,0.000000,0.000000,0.000000,1.843000,2.012000,2.009000,2.005000,2.002000,2.000000,2.000000,1.997000,1.995000,1.997000,1.993000,1.991000,1.991000,1.985000,1.985000,1.982000,1.980000,1.974000,1.971000,1.971000,1.969000,1.966000,1.966000,1.964000,2.019000,2.040000,0.000000,0.000000,0.000000,0.000000,0.000000,0.000000,0.000000,
0.000000,0.000000,0.000000,0.000000,0.000000,0.000000,0.000000,1.841000,2.012000,2.009000,2.006000,2.003000,2.000000,2.000000,1.999000,1.997000,2.000000,1.993000,1.991000,1.991000,1.985000,1.985000,1.982000,1.980000,1.977000,1.974000,1.971000,1.971000,1.968000,1.968000,1.971000,2.030000,2.037000,0.000000,0.000000,0.000000,0.000000,0.000000,0.000000,0.000000,
0.000000,0.000000,0.000000,0.000000,0.000000,0.000000,0.000000,1.840000,2.012000,2.011000,2.006000,2.003000,2.003000,2.000000,2.000000,1.994000,1.999000,1.995000,1.993000,1.991000,1.988000,1.985000,1.983000,1.982000,1.980000,1.975000,1.974000,1.971000,1.968000,1.968000,1.977000,2.003000,2.037000,0.000000,0.000000,0.000000,0.000000,0.000000,0.000000,0.000000,
0.000000,0.000000,0.000000,0.000000,0.000000,0.000000,0.000000,1.842000,2.015000,2.012000,2.008000,2.004000,2.003000,2.000000,1.999000,1.994000,1.999000,1.997000,1.994000,1.992000,1.991000,1.989000,1.983000,1.982000,1.980000,1.978000,1.976000,1.971000,1.968000,1.968000,1.976000,2.012000,2.040000,0.000000,0.000000,0.000000,0.000000,0.000000,0.000000,0.000000,
0.000000,0.000000,0.000000,0.000000,0.000000,0.000000,0.000000,1.843000,2.015000,2.015000,2.009000,2.006000,2.006000,2.003000,2.000000,1.997000,1.999000,1.997000,1.994000,1.994000,1.991000,1.990000,1.985000,1.982000,1.982000,1.980000,1.974000,1.974000,1.969000,1.968000,1.976000,2.021000,2.034000,0.000000,0.000000,0.000000,0.000000,0.000000,0.000000,0.000000,
0.000000,0.000000,0.000000,0.000000,0.000000,0.000000,0.000000,1.979000,2.015000,2.015000,2.009000,2.009000,2.006000,2.003000,2.003000,2.000000,1.999000,1.999000,1.996000,1.994000,1.991000,1.990000,1.985000,1.982000,1.982000,1.980000,1.980000,1.974000,1.971000,1.970000,1.977000,2.015000,0.000000,0.000000,0.000000,0.000000,0.000000,0.000000,0.000000,0.000000,
0.000000,0.000000,0.000000,0.000000,0.000000,0.000000,0.000000,1.947000,2.018000,2.015000,2.012000,2.009000,2.007000,2.004000,2.003000,2.001000,2.003000,2.000000,1.997000,1.996000,1.994000,1.991000,1.989000,1.984000,1.982000,1.980000,1.979000,1.977000,1.972000,1.971000,1.977000,1.587000,0.000000,0.000000,0.000000,0.000000,0.000000,0.000000,0.000000,0.000000,
0.000000,0.000000,0.000000,0.000000,0.000000,0.000000,0.000000,0.000000,2.018000,2.015000,2.013000,2.012000,2.012000,2.007000,2.003000,2.003000,2.001000,2.000000,1.997000,1.995000,1.994000,1.994000,1.991000,1.987000,1.982000,1.981000,1.980000,1.977000,1.972000,1.971000,1.978000,2.021000,0.000000,0.000000,0.000000,0.000000,0.000000,0.000000,0.000000,0.000000,
0.000000,0.000000,0.000000,0.000000,0.000000,0.000000,0.000000,0.000000,2.023000,2.015000,2.015000,2.012000,2.012000,2.007000,2.003000,2.003000,2.003000,2.002000,1.997000,1.995000,1.994000,1.994000,1.991000,1.989000,1.987000,1.985000,1.981000,1.980000,1.974000,1.974000,1.980000,2.034000,1.814000,0.000000,0.000000,0.000000,0.000000,0.000000,0.000000,0.000000,
0.000000,0.000000,0.000000,0.000000,0.000000,0.000000,0.000000,1.859000,2.021000,2.015000,2.014000,2.012000,2.012000,2.011000,2.006000,2.003000,2.004000,2.003000,2.001000,1.996000,1.994000,1.994000,1.991000,1.988000,1.988000,1.983000,1.981000,1.979000,1.974000,1.975000,1.981000,2.030000,2.049000,0.000000,0.000000,0.000000,0.000000,0.000000,0.000000,0.000000,
0.000000,0.000000,0.000000,0.000000,0.000000,0.000000,0.000000,1.078000,2.023000,2.015000,2.017000,2.015000,2.012000,2.011000,2.005000,2.003000,2.006000,2.003000,2.003000,2.001000,1.997000,1.994000,1.992000,1.991000,1.988000,1.982000,1.981000,1.977000,1.977000,1.978000,1.982000,2.027000,1.939000,0.000000,0.000000,0.000000,0.000000,0.000000,0.000000,0.000000,
0.000000,0.000000,0.000000,0.000000,0.000000,0.000000,0.000000,1.853000,2.023000,2.018000,2.015000,2.014000,2.012000,2.009000,2.010000,2.003000,2.006000,2.003000,2.003000,2.001000,1.997000,1.994000,1.994000,1.991000,1.990000,1.985000,1.982000,1.981000,1.980000,1.980000,1.982000,2.039000,1.799000,0.000000,0.000000,0.000000,0.000000,0.000000,0.000000,0.000000,
0.000000,0.000000,0.000000,0.000000,0.000000,0.000000,0.000000,1.853000,2.023000,2.019000,2.016000,2.015000,2.013000,2.011000,2.009000,2.004000,2.006000,2.006000,2.003000,2.000000,2.000000,1.997000,1.994000,1.993000,1.991000,1.990000,1.985000,1.982000,1.980000,1.980000,1.987000,2.042000,0.000000,0.000000,0.000000,0.000000,0.000000,0.000000,0.000000,0.000000,
0.000000,0.000000,0.000000,0.000000,0.000000,0.000000,0.000000,0.000000,2.024000,2.024000,2.016000,2.015000,2.015000,2.013000,2.011000,2.009000,2.007000,2.006000,2.003000,2.003000,1.999000,1.997000,1.994000,1.994000,1.994000,1.991000,1.984000,1.982000,1.980000,1.980000,1.987000,2.031000,2.057000,0.000000,0.000000,0.000000,0.000000,0.000000,0.000000,0.000000,
0.000000,0.000000,0.000000,0.000000,0.000000,0.000000,0.000000,1.818000,2.026000,2.024000,2.017000,2.015000,2.015000,2.013000,2.012000,2.009000,2.009000,2.007000,2.006000,2.003000,2.001000,1.997000,1.994000,1.994000,1.992000,1.989000,1.984000,1.982000,1.980000,1.980000,1.990000,2.026000,2.070000,0.000000,0.000000,0.000000,0.000000,0.000000,0.000000,0.000000,
0.000000,0.000000,0.000000,0.000000,0.000000,0.000000,0.000000,2.397000,2.027000,2.024000,2.019000,2.018000,2.018000,2.015000,2.012000,2.009000,2.009000,2.008000,2.006000,2.006000,2.002000,2.000000,1.997000,1.996000,1.994000,1.990000,1.986000,1.982000,1.982000,1.980000,1.985000,2.043000,1.617000,0.000000,0.000000,0.000000,0.000000,0.000000,0.000000,0.000000,
0.000000,0.000000,0.000000,0.000000,0.000000,0.000000,0.000000,2.310000,2.027000,2.027000,2.024000,2.021000,2.018000,2.015000,2.012000,2.009000,2.009000,2.010000,2.006000,2.006000,2.003000,2.000000,1.998000,1.994000,1.994000,1.991000,1.990000,1.982000,1.982000,1.982000,1.985000,2.045000,1.077000,0.000000,0.000000,0.000000,0.000000,0.000000,0.000000,0.000000,
0.000000,0.000000,0.000000,0.000000,0.000000,0.000000,0.000000,0.000000,2.027000,2.027000,2.024000,2.020000,2.018000,2.015000,2.012000,2.009000,2.013000,2.009000,2.008000,2.006000,2.003000,2.002000,1.998000,1.994000,1.994000,1.992000,1.991000,1.985000,1.982000,1.982000,2.006000,2.040000,2.059000,0.000000,0.000000,0.000000,0.000000,0.000000,0.000000,0.000000,
0.000000,0.000000,0.000000,0.000000,0.000000,0.000000,0.000000,0.000000,2.030000,2.027000,2.024000,2.024000,2.019000,2.015000,2.014000,2.012000,2.013000,2.011000,2.009000,2.006000,2.003000,2.003000,2.003000,1.996000,1.995000,1.994000,1.991000,1.987000,1.982000,1.983000,1.996000,2.044000,2.058000,0.000000,0.000000,0.000000,0.000000,0.000000,0.000000,0.000000,
0.000000,0.000000,0.000000,0.000000,0.000000,0.000000,0.000000,0.000000,2.032000,2.027000,2.025000,2.024000,2.021000,2.016000,2.015000,2.012000,2.015000,2.014000,2.009000,2.006000,2.004000,2.003000,2.000000,2.000000,1.997000,1.994000,1.991000,1.988000,1.985000,1.985000,1.996000,2.052000,2.060000,0.000000,0.000000,0.000000,0.000000,0.000000,0.000000,0.000000,
0.000000,0.000000,0.000000,0.000000,0.000000,0.000000,0.000000,0.000000,2.035000,2.032000,2.027000,2.024000,2.022000,2.021000,2.018000,2.015000,2.017000,2.015000,2.009000,2.008000,2.003000,2.003000,2.002000,1.999000,1.994000,1.994000,1.991000,1.990000,1.985000,1.985000,1.998000,2.049000,2.063000,0.000000,0.000000,0.000000,0.000000,0.000000,0.000000,0.000000,
0.000000,0.000000,0.000000,0.000000,0.000000,0.000000,0.000000,0.000000,2.035000,2.030000,2.027000,2.024000,2.024000,2.021000,2.018000,2.015000,2.017000,2.015000,2.015000,2.008000,2.004000,2.004000,2.003000,1.999000,1.997000,1.994000,1.992000,1.991000,1.989000,1.989000,2.001000,2.044000,1.638000,0.000000,0.000000,0.000000,0.000000,0.000000,0.000000,0.000000,
0.000000,0.000000,0.000000,0.000000,0.000000,0.000000,0.000000,1.861000,2.037000,2.034000,2.031000,2.027000,2.024000,2.024000,2.018000,2.015000,2.018000,2.015000,2.015000,2.010000,2.009000,2.006000,2.003000,2.003000,2.000000,1.997000,1.993000,1.991000,1.991000,1.989000,1.995000,1.235000,0.000000,0.000000,0.000000,0.000000,0.000000,0.000000,0.000000,0.000000,
0.000000,0.000000,0.000000,0.000000,0.000000,0.000000,0.000000,1.991000,2.037000,2.034000,2.028000,2.027000,2.027000,2.024000,2.021000,2.015000,2.018000,2.018000,2.014000,2.010000,2.009000,2.006000,2.006000,2.004000,2.000000,1.998000,1.995000,1.993000,1.991000,1.991000,1.994000,0.000000,0.000000,0.000000,0.000000,0.000000,0.000000,0.000000,0.000000,0.000000,
0.000000,0.000000,0.000000,0.000000,0.000000,0.000000,0.000000,2.167000,2.038000,2.035000,2.030000,2.029000,2.027000,2.026000,2.023000,2.018000,2.019000,2.018000,2.016000,2.012000,2.011000,2.007000,2.006000,2.003000,2.003000,1.997000,1.995000,1.994000,1.991000,1.991000,1.992000,0.000000,0.000000,0.000000,0.000000,0.000000,0.000000,0.000000,0.000000,0.000000,
0.000000,0.000000,0.000000,0.000000,0.000000,0.000000,0.000000,0.000000,2.629000,2.097000,2.099000,2.091000,2.091000,2.038000,2.023000,2.018000,2.024000,2.018000,2.018000,2.015000,2.012000,2.009000,2.006000,2.003000,2.003000,2.003000,2.000000,1.994000,1.994000,1.994000,1.994000,0.000000,0.000000,0.000000,0.000000,0.000000,0.000000,0.000000,0.000000,0.000000,
0.000000,0.000000,0.000000,0.000000,0.000000,0.000000,0.000000,0.000000,0.000000,0.000000,0.000000,0.000000,0.000000,0.000000,0.000000,0.000000,1.231000,1.289000,2.014000,2.013000,2.015000,2.014000,2.009000,2.003000,2.003000,2.003000,2.002000,1.997000,1.995000,1.991000,1.905000,0.000000,0.000000,0.000000,0.000000,0.000000,0.000000,0.000000,0.000000,0.000000,
0.000000,0.000000,0.000000,0.000000,0.000000,0.000000,0.000000,0.000000,0.000000,0.000000,0.000000,0.000000,0.000000,0.000000,0.000000,2.972000,0.000000,0.000000,2.119000,2.128000,2.135000,2.029000,2.022000,2.025000,1.991000,2.013000,2.128000,2.126000,2.123000,2.124000,1.561000,0.000000,0.000000,0.000000,0.000000,0.000000,0.000000,0.000000,0.000000,0.000000,
0.000000,0.000000,0.000000,0.000000,0.000000,0.000000,0.000000,0.000000,0.000000,0.000000,0.000000,0.000000,0.000000,0.000000,1.015000,0.000000,0.000000,1.036000,2.102000,2.115000,2.112000,2.110000,2.123000,2.105000,1.985000,1.864000,2.108000,2.331000,2.331000,2.336000,0.000000,0.000000,0.000000,0.000000,0.000000,0.000000,0.000000,0.000000,0.000000,0.000000,
0.000000,0.000000,0.000000,0.000000,0.000000,0.000000,0.000000,0.000000,0.000000,0.000000,0.000000,0.000000,0.000000,0.000000,2.073000,1.745000,1.738000,2.088000,2.084000,2.082000,2.085000,2.086000,2.061000,2.090000,2.088000,2.091000,2.095000,2.114000,2.330000,2.332000,0.000000,0.000000,0.000000,0.000000,0.000000,0.000000,0.000000,0.000000,0.000000,0.000000,
0.000000,0.000000,0.000000,0.000000,0.000000,0.000000,0.000000,0.000000,0.000000,0.000000,0.000000,2.805000,1.050000,2.051000,2.056000,2.053000,2.052000,2.057000,2.062000,2.060000,2.058000,2.043000,2.043000,2.063000,2.064000,2.066000,2.083000,2.114000,2.331000,1.482000,0.000000,0.000000,0.000000,0.000000,0.000000,0.000000,0.000000,0.000000,0.000000,0.000000,
0.000000,0.000000,0.000000,0.000000,0.000000,0.000000,0.000000,0.000000,0.000000,0.000000,0.000000,0.000000,1.148000,2.031000,2.032000,2.037000,2.034000,2.038000,2.034000,2.034000,2.034000,2.037000,2.037000,2.038000,2.037000,2.054000,2.077000,0.000000,0.000000,0.000000,0.000000,0.000000,0.000000,0.000000,0.000000,0.000000,0.000000,0.000000,0.000000,0.000000,
