0.000000,0.000000,0.000000,0.000000,0.000000,0.000000,1.982000,1.983000,1.982000,1.984000,1.980000,1.980000,1.980000,1.980000,1.976000,1.976000,1.975000,1.976000,1.974000,1.972000,1.972000,1.971000,1.970000,1.970000,1.969000,1.969000,1.969000,1.968000,1.967000,1.965000,1.969000,2.039000,1.167000,0.000000,0.000000,0.000000,0.000000,0.000000,0.000000,0.000000,
0.000000,0.000000,0.000000,0.000000,0.000000,0.000000,1.984000,1.985000,1.984000,1.984000,1.984000,1.982000,1.982000,1.980000,1.978000,1.976000,1.976000,1.976000,1.974000,1.974000,1.973000,1.972000,1.973000,1.972000,1.969000,1.970000,1.970000,1.969000,1.969000,1.969000,1.982000,2.030000,1.167000,0.000000,0.000000,0.000000,0.000000,0.000000,0.000000,0.000000,
0.000000,0.000000,0.000000,0.000000,0.000000,0.000000,1.984000,1.987000,1.983000,1.984000,1.984000,1.982000,1.982000,1.982000,1.980000,1.976000,1.976000,1.976000,1.976000,1.974000,1.974000,1.974000,1.974000,1.972000,1.970000,1.971000,1.970000,1.970000,1.970000,1.969000,1.980000,2.022000,1.167000,0.000000,0.000000,0.000000,0.000000,0.000000,0.000000,0.000000,
0.000000,0.000000,0.000000,0.000000,0.000000,0.000000,1.984000,1.988000,1.986000,1.988000,1.984000,1.984000,1.982000,1.982000,1.981000,1.980000,1.978000,1.977000,1.978000,1.976000,1.976000,1.974000,1.974000,1.974000,1.973000,1.972000,1.972000,1.970000,1.970000,1.970000,1.988000,2.028000,1.324000,0.000000,0.000000,0.000000,0.000000,0.000000,0.000000,0.000000,
0.000000,0.000000,0.000000,0.000000,0.000000,0.000000,1.988000,1.988000,1.988000,1.988000,1.987000,1.986000,1.984000,1.982000,1.984000,1.982000,1.980000,1.980000,1.979000,1.978000,1.976000,1.976000,1.976000,1.974000,1.975000,1.976000,1.976000,1.973000,1.970000,1.970000,1.988000,2.028000,1.325000,0.000000,0.000000,0.000000,0.000000,0.000000,0.000000,0.000000,
0.000000,0.000000,0.000000,0.000000,0.000000,0.000000,1.515000,1.990000,1.988000,1.989000,1.988000,1.985000,1.985000,1.984000,1.984000,1.984000,1.982000,1.981000,1.980000,1.980000,1.979000,1.977000,1.977000,1.976000,1.976000,1.977000,1.976000,1.972000,1.971000,1.970000,1.998000,2.027000,1.222000,0.000000,0.000000,0.000000,0.000000,0.000000,0.000000,0.000000,
0.000000,0.000000,0.000000,0.000000,0.000000,0.000000,1.257000,1.990000,1.989000,1.990000,1.988000,1.988000,1.987000,1.984000,1.984000,1.984000,1.984000,1.984000,1.982000,1.982000,1.980000,1.978000,1.978000,1.976000,1.976000,1.978000,1.978000,1.976000,1.976000,1.974000,1.980000,2.019000,1.324000,0.000000,0.000000,0.000000,0.000000,0.000000,0.000000,0.000000,
0.000000,0.000000,0.000000,0.000000,0.000000,0.000000,1.258000,1.992000,1.990000,1.990000,1.990000,1.990000,1.987000,1.986000,1.986000,1.986000,1.984000,1.984000,1.984000,1.982000,1.982000,1.980000,1.980000,1.978000,1.978000,1.978000,1.978000,1.978000,1.976000,1.976000,1.978000,2.040000,1.388000,0.000000,0.000000,0.000000,0.000000,0.000000,0.000000,0.000000,
0.000000,0.000000,0.000000,0.000000,0.000000,0.000000,1.257000,1.993000,1.993000,1.994000,1.991000,1.990000,1.990000,1.988000,1.988000,1.986000,1.984000,1.984000,1.984000,1.984000,1.982000,1.982000,1.982000,1.981000,1.981000,1.980000,1.978000,1.978000,1.978000,1.978000,1.977000,2.042000,1.548000,0.000000,0.000000,0.000000,0.000000,0.000000,0.000000,0.000000,
0.000000,0.000000,0.000000,0.000000,0.000000,0.000000,1.258000,1.995000,1.994000,1.994000,1.992000,1.992000,1.992000,1.991000,1.990000,1.990000,1.986000,1.986000,1.986000,1.984000,1.984000,1.983000,1.982000,1.982000,1.982000,1.981000,1.982000,1.980000,1.978000,1.978000,1.981000,2.038000,2.058000,0.000000,0.000000,0.000000,0.000000,0.000000,0.000000,0.000000,
0.000000,0.000000,0.000000,0.000000,0.000000,0.000000,1.190000,1.996000,1.996000,1.998000,1.994000,1.992000,1.992000,1.992000,1.990000,1.990000,1.989000,1.988000,1.988000,1.986000,1.985000,1.984000,1.984000,1.984000,1.983000,1.984000,1.984000,1.984000,1.980000,1.980000,1.989000,2.028000,2.058000,0.000000,0.000000,0.000000,0.000000,0.000000,0.000000,0.000000,
0.000000,0.000000,0.000000,0.000000,0.000000,0.000000,1.167000,1.998000,1.997000,1.998000,1.998000,1.996000,1.995000,1.993000,1.992000,1.992000,1.990000,1.990000,1.990000,1.988000,1.988000,1.986000,1.985000,1.984000,1.984000,1.984000,1.984000,1.984000,1.984000,1.982000,1.983000,2.034000,2.059000,0.000000,0.000000,0.000000,0.000000,0.000000,0.000000,0.000000,
0.000000,0.000000,0.000000,0.000000,0.000000,0.000000,1.167000,2.000000,1.998000,1.998000,1.996000,1.996000,1.996000,1.995000,1.994000,1.992000,1.992000,1.990000,1.990000,1.990000,1.990000,1.988000,1.988000,1.984000,1.984000,1.986000,1.984000,1.984000,1.984000,1.984000,1.984000,2.022000,2.062000,0.000000,0.000000,0.000000,0.000000,0.000000,0.000000,0.000000,
0.000000,0.000000,0.000000,0.000000,0.000000,0.000000,1.167000,2.001000,2.002000,2.000000,1.999000,1.998000,1.998000,1.997000,1.996000,1.995000,1.992000,1.992000,1.992000,1.990000,1.990000,1.988000,1.988000,1.987000,1.988000,1.986000,1.986000,1.986000,1.985000,1.984000,1.985000,2.022000,2.057000,0.000000,0.000000,0.000000,0.000000,0.000000,0.000000,0.000000,
0.000000,0.000000,0.000000,0.000000,0.000000,0.000000,1.167000,2.000000,2.004000,2.002000,2.000000,2.000000,2.000000,1.998000,1.998000,1.997000,1.993000,1.994000,1.992000,1.992000,1.992000,1.990000,1.990000,1.990000,1.989000,1.989000,1.988000,1.987000,1.986000,1.986000,1.987000,2.035000,2.057000,0.000000,0.000000,0.000000,0.000000,0.000000,0.000000,0.000000,
0.000000,0.000000,0.000000,0.000000,0.000000,0.000000,1.167000,2.000000,2.004000,2.004000,2.004000,2.002000,2.000000,2.000000,1.998000,1.998000,1.998000,1.996000,1.996000,1.994000,1.993000,1.992000,1.991000,1.990000,1.990000,1.992000,1.988000,1.988000,1.990000,1.988000,1.987000,2.057000,2.060000,0.000000,0.000000,0.000000,0.000000,0.000000,0.000000,0.000000,
0.000000,0.000000,0.000000,0.000000,0.000000,0.000000,1.167000,2.004000,2.006000,2.006000,2.006000,2.004000,2.003000,2.000000,2.000000,2.000000,2.000000,2.000000,1.998000,1.996000,1.994000,1.993000,1.992000,1.992000,1.992000,1.992000,1.992000,1.988000,1.988000,1.990000,1.991000,2.044000,2.061000,0.000000,0.000000,0.000000,0.000000,0.000000,0.000000,0.000000,
0.000000,0.000000,0.000000,0.000000,0.000000,0.000000,1.167000,1.365000,2.006000,2.008000,2.008000,2.006000,2.004000,2.003000,2.000000,2.000000,2.000000,2.000000,2.000000,1.998000,1.997000,1.995000,1.994000,1.992000,1.992000,1.994000,1.992000,1.991000,1.989000,1.990000,1.992000,1.708000,2.066000,0.000000,0.000000,0.000000,0.000000,0.000000,0.000000,0.000000,
0.000000,0.000000,0.000000,0.000000,0.000000,0.000000,1.167000,2.005000,2.007000,2.008000,2.008000,2.006000,2.006000,2.006000,2.002000,2.001000,2.000000,2.000000,2.000000,1.998000,1.998000,1.997000,1.996000,1.994000,1.993000,1.994000,1.993000,1.993000,1.992000,1.990000,1.992000,1.167000,2.064000,0.000000,0.000000,0.000000,0.000000,0.000000,0.000000,0.000000,
0.000000,0.000000,0.000000,0.000000,0.000000,0.000000,1.167000,1.600000,2.010000,2.008000,2.010000,2.008000,2.007000,2.006000,2.005000,2.003000,2.001000,2.000000,2.000000,2.000000,1.999000,1.998000,1.997000,1.996000,1.996000,1.996000,1.994000,1.994000,1.993000,1.992000,1.995000,1.405000,2.068000,0.000000,0.000000,0.000000,0.000000,0.000000,0.000000,0.000000,
0.000000,0.000000,0.000000,0.000000,0.000000,0.000000,1.167000,1.445000,2.010000,2.010000,2.010000,2.008000,2.008000,2.006000,2.006000,2.006000,2.003000,2.002000,2.002000,2.000000,2.000000,1.998000,1.998000,1.998000,1.998000,1.998000,1.997000,1.994000,1.994000,1.994000,1.995000,1.478000,1.167000,0.000000,0.000000,0.000000,0.000000,0.000000,0.000000,0.000000,
0.000000,0.000000,0.000000,0.000000,0.000000,0.000000,1.167000,1.446000,2.012000,2.013000,2.012000,2.010000,2.010000,2.008000,2.008000,2.006000,2.006000,2.004000,2.004000,2.002000,2.001000,2.000000,2.000000,1.999000,1.998000,2.000000,1.998000,1.996000,1.995000,1.994000,1.996000,2.023000,2.061000,0.000000,0.000000,0.000000,0.000000,0.000000,0.000000,0.000000,
0.000000,0.000000,0.000000,0.000000,0.000000,0.000000,1.167000,1.167000,2.013000,2.014000,2.014000,2.013000,2.009000,2.010000,2.008000,2.008000,2.007000,2.006000,2.004000,2.004000,2.003000,2.002000,2.001000,2.000000,2.000000,2.001000,2.000000,1.999000,1.996000,1.996000,1.998000,2.031000,2.070000,0.000000,0.000000,0.000000,0.000000,0.000000,0.000000,0.000000,
0.000000,0.000000,0.000000,0.000000,0.000000,0.000000,1.167000,1.167000,2.015000,2.015000,2.014000,2.014000,2.013000,2.010000,2.010000,2.009000,2.008000,2.007000,2.006000,2.005000,2.003000,2.004000,2.003000,2.000000,2.000000,2.002000,2.001000,2.000000,1.997000,1.998000,1.997000,2.024000,2.068000,0.000000,0.000000,0.000000,0.000000,0.000000,0.000000,0.000000,
0.000000,0.000000,0.000000,0.000000,0.000000,0.000000,1.167000,1.167000,2.017000,2.016000,2.016000,2.015000,2.014000,2.012000,2.012000,2.010000,2.009000,2.008000,2.008000,2.006000,2.006000,2.003000,2.004000,2.002000,2.000000,2.002000,2.002000,2.002000,2.000000,2.000000,2.000000,2.017000,2.064000,0.000000,0.000000,0.000000,0.000000,0.000000,0.000000,0.000000,
0.000000,0.000000,0.000000,0.000000,0.000000,0.000000,1.167000,1.167000,2.018000,2.018000,2.016000,2.016000,2.016000,2.014000,2.012000,2.014000,2.012000,2.009000,2.008000,2.006000,2.006000,2.005000,2.004000,2.006000,2.004000,2.004000,2.002000,2.002000,2.002000,2.000000,2.001000,2.026000,2.070000,0.000000,0.000000,0.000000,0.000000,0.000000,0.000000,0.000000,
0.000000,0.000000,0.000000,0.000000,0.000000,0.000000,1.167000,1.167000,2.021000,2.023000,2.019000,2.018000,2.016000,2.016000,2.015000,2.015000,2.014000,2.012000,2.011000,2.008000,2.008000,2.006000,2.007000,2.006000,2.004000,2.006000,2.004000,2.002000,2.002000,2.002000,2.002000,2.021000,2.069000,0.000000,0.000000,0.000000,0.000000,0.000000,0.000000,0.000000,
0.000000,0.000000,0.000000,0.000000,0.000000,0.000000,1.167000,1.167000,2.022000,2.023000,2.023000,2.020000,2.019000,2.016000,2.016000,2.016000,2.014000,2.013000,2.012000,2.010000,2.008000,2.008000,2.008000,2.007000,2.007000,2.008000,2.005000,2.005000,2.002000,2.002000,2.003000,2.005000,2.071000,0.000000,0.000000,0.000000,0.000000,0.000000,0.000000,0.000000,
0.000000,0.000000,0.000000,0.000000,0.000000,0.000000,1.167000,1.167000,1.753000,2.025000,2.023000,2.023000,2.021000,2.018000,2.016000,2.016000,2.016000,2.014000,2.014000,2.012000,2.011000,2.010000,2.008000,2.008000,2.008000,2.008000,2.008000,2.008000,2.006000,2.004000,2.006000,2.022000,2.050000,0.000000,0.000000,0.000000,0.000000,0.000000,0.000000,0.000000,
0.000000,0.000000,0.000000,0.000000,0.000000,0.000000,1.167000,1.167000,2.023000,2.025000,2.023000,2.023000,2.023000,2.021000,2.018000,2.016000,2.016000,2.016000,2.015000,2.014000,2.012000,2.012000,2.009000,2.008000,2.008000,2.010000,2.010000,2.008000,2.006000,2.006000,2.006000,2.012000,2.078000,0.000000,0.000000,0.000000,0.000000,0.000000,0.000000,0.000000,
0.000000,0.000000,0.000000,0.000000,0.000000,0.000000,1.167000,1.167000,1.638000,2.028000,2.025000,2.025000,2.023000,2.023000,2.021000,2.021000,2.017000,2.016000,2.016000,2.014000,2.014000,2.014000,2.010000,2.010000,2.010000,2.010000,2.010000,2.010000,2.008000,2.008000,2.008000,2.011000,2.071000,0.000000,0.000000,0.000000,0.000000,0.000000,0.000000,0.000000,
0.000000,0.000000,0.000000,0.000000,0.000000,0.000000,1.167000,1.167000,1.167000,2.031000,2.028000,2.028000,2.024000,2.023000,2.024000,2.023000,2.023000,2.019000,2.018000,2.017000,2.016000,2.014000,2.014000,2.012000,2.014000,2.013000,2.013000,2.011000,2.010000,2.008000,2.008000,2.014000,1.320000,0.000000,0.000000,0.000000,0.000000,0.000000,0.000000,0.000000,
0.000000,0.000000,0.000000,0.000000,0.000000,0.000000,1.167000,1.167000,1.167000,2.029000,2.029000,2.029000,2.026000,2.027000,2.025000,2.025000,2.023000,2.022000,2.021000,2.021000,2.018000,2.017000,2.015000,2.015000,2.015000,2.016000,2.014000,2.012000,2.010000,2.010000,2.010000,2.011000,1.167000,0.000000,0.000000,0.000000,0.000000,0.000000,0.000000,0.000000,
0.000000,0.000000,0.000000,0.000000,0.000000,0.000000,1.167000,1.167000,1.167000,2.031000,2.029000,2.025000,2.024000,2.027000,2.027000,2.025000,2.023000,2.021000,2.023000,2.021000,2.019000,2.017000,2.015000,2.018000,2.018000,2.017000,2.013000,2.011000,2.010000,2.013000,2.012000,2.012000,1.167000,0.000000,0.000000,0.000000,0.000000,0.000000,0.000000,0.000000,
0.000000,0.000000,0.000000,0.000000,0.000000,0.000000,1.167000,1.167000,1.167000,1.167000,1.167000,1.167000,1.167000,1.167000,1.167000,1.167000,1.167000,2.026000,2.045000,2.040000,2.113000,2.118000,2.074000,2.034000,2.034000,1.185000,1.638000,2.119000,2.129000,1.973000,1.206000,0.000000,0.000000,0.000000,0.000000,0.000000,0.000000,0.000000,0.000000,0.000000,
0.000000,0.000000,0.000000,0.000000,0.000000,0.000000,1.167000,1.167000,1.167000,1.167000,1.167000,1.167000,1.167000,1.167000,1.167000,1.167000,1.167000,1.277000,2.047000,1.413000,2.117000,2.117000,2.077000,2.037000,2.043000,2.111000,2.112000,2.109000,2.119000,1.974000,1.971000,0.000000,0.000000,0.000000,0.000000,0.000000,0.000000,0.000000,0.000000,0.000000,
0.000000,0.000000,0.000000,0.000000,0.000000,0.000000,1.167000,1.167000,1.167000,1.167000,1.167000,1.167000,1.167000,1.167000,1.167000,1.167000,1.297000,1.829000,2.047000,2.098000,2.095000,2.098000,2.093000,2.040000,2.042000,2.096000,2.093000,2.095000,2.110000,2.044000,2.534000,0.000000,0.000000,0.000000,0.000000,0.000000,0.000000,0.000000,0.000000,0.000000,
0.000000,0.000000,0.000000,0.000000,0.000000,0.000000,1.167000,1.167000,1.167000,1.167000,1.167000,1.167000,1.167000,1.167000,1.167000,1.167000,2.071000,2.069000,2.055000,2.076000,2.070000,2.068000,2.068000,2.048000,2.044000,2.077000,2.075000,2.077000,2.112000,1.167000,1.992000,0.000000,0.000000,0.000000,0.000000,0.000000,0.000000,0.000000,0.000000,0.000000,
0.000000,0.000000,0.000000,0.000000,0.000000,0.000000,1.167000,1.167000,1.167000,1.167000,1.167000,1.167000,1.167000,1.167000,1.850000,2.049000,2.054000,2.056000,2.050000,2.048000,2.048000,2.048000,2.046000,2.039000,2.047000,2.048000,2.044000,2.055000,2.088000,1.450000,0.000000,0.000000,0.000000,0.000000,0.000000,0.000000,0.000000,0.000000,0.000000,0.000000,
0.000000,0.000000,0.000000,0.000000,0.000000,0.000000,1.167000,1.167000,1.167000,1.167000,1.167000,1.167000,1.167000,1.167000,1.922000,2.035000,2.035000,2.034000,2.029000,2.030000,2.035000,2.031000,2.029000,2.024000,2.024000,2.023000,2.032000,2.056000,2.092000,0.000000,0.000000,0.000000,2.976000,0.000000,0.000000,0.000000,0.000000,0.000000,0.000000,0.000000,
