0.000000,0.000000,0.000000,0.000000,0.000000,0.000000,0.000000,0.000000,0.000000,0.000000,0.000000,0.000000,0.000000,0.000000,0.000000,0.000000,0.000000,0.000000,0.000000,0.000000,0.000000,0.000000,0.000000,0.000000,0.000000,0.000000,0.000000,0.000000,0.000000,0.000000,0.000000,0.000000,0.000000,0.000000,0.000000,0.000000,0.000000,0.000000,0.000000,0.000000,
0.000000,0.000000,0.000000,0.000000,0.000000,0.000000,0.000000,0.000000,0.000000,0.000000,0.000000,0.000000,0.000000,0.000000,0.000000,0.000000,0.000000,0.000000,0.000000,0.000000,0.000000,0.000000,0.000000,0.000000,0.000000,0.000000,0.000000,0.000000,0.000000,0.000000,0.000000,0.000000,0.000000,0.000000,0.000000,0.000000,0.000000,0.000000,0.000000,0.000000,
0.000000,0.000000,0.000000,0.000000,0.000000,0.000000,0.000000,0.000000,0.000000,2.093000,2.053000,2.051000,2.052000,2.711000,2.722000,2.711000,0.000000,0.000000,0.000000,0.000000,0.000000,0.000000,0.000000,0.000000,0.000000,0.000000,0.000000,0.000000,0.000000,0.000000,0.000000,0.000000,0.000000,0.000000,0.000000,0.000000,0.000000,0.000000,0.000000,0.000000,
0.000000,0.000000,0.000000,0.000000,0.000000,0.000000,0.000000,0.000000,0.000000,2.046000,2.045000,2.047000,2.047000,2.051000,2.054000,2.055000,2.060000,2.067000,2.067000,2.070000,2.072000,2.074000,0.000000,0.000000,0.000000,0.000000,0.000000,0.000000,0.000000,0.000000,0.000000,0.000000,0.000000,0.000000,0.000000,0.000000,0.000000,0.000000,0.000000,0.000000,
0.000000,0.000000,0.000000,0.000000,0.000000,1.077000,0.000000,0.000000,1.984000,2.043000,2.040000,2.040000,2.040000,2.045000,2.051000,2.052000,2.054000,2.060000,2.058000,2.067000,2.069000,2.072000,2.073000,2.077000,2.081000,2.086000,2.087000,2.087000,2.458000,0.000000,0.000000,0.000000,0.000000,0.000000,0.000000,0.000000,0.000000,0.000000,0.000000,0.000000,
0.000000,0.000000,0.000000,0.000000,0.000000,0.000000,0.000000,2.002000,2.076000,2.039000,2.035000,2.036000,2.040000,2.040000,2.042000,2.046000,2.052000,2.057000,2.058000,2.059000,2.067000,2.069000,2.069000,2.073000,2.074000,2.081000,2.086000,2.086000,2.086000,2.083000,2.081000,0.000000,0.000000,0.000000,0.000000,0.000000,0.000000,0.000000,0.000000,0.000000,
0.000000,0.000000,0.000000,0.000000,0.000000,0.000000,1.318000,2.103000,2.069000,2.036000,2.030000,2.030000,2.035000,2.036000,2.039000,2.041000,2.047000,2.054000,2.054000,2.056000,2.058000,2.063000,2.069000,2.072000,2.072000,2.079000,2.080000,2.083000,2.084000,2.081000,2.080000,1.123000,0.000000,0.000000,0.000000,0.000000,0.000000,0.000000,0.000000,0.000000,
0.000000,0.000000,0.000000,0.000000,0.000000,0.000000,1.318000,2.099000,2.066000,2.032000,2.025000,2.025000,2.030000,2.033000,2.036000,2.038000,2.040000,2.043000,2.050000,2.053000,2.056000,2.059000,2.060000,2.068000,2.069000,2.071000,2.071000,2.074000,2.078000,2.081000,2.084000,0.000000,0.000000,0.000000,0.000000,0.000000,0.000000,0.000000,0.000000,0.000000,
0.000000,0.000000,0.000000,0.000000,0.000000,2.119000,1.349000,2.089000,2.062000,2.027000,2.019000,2.019000,2.025000,2.026000,2.026000,2.031000,2.035000,2.041000,2.043000,2.045000,2.050000,2.054000,2.054000,2.060000,2.061000,2.067000,2.070000,2.072000,2.072000,2.072000,2.076000,0.000000,0.000000,0.000000,0.000000,0.000000,0.000000,0.000000,0.000000,0.000000,
0.000000,0.000000,0.000000,0.000000,0.000000,2.109000,2.111000,2.090000,2.061000,2.026000,2.018000,2.017000,2.022000,2.023000,2.024000,2.027000,2.031000,2.037000,2.041000,2.042000,2.043000,2.047000,2.052000,2.057000,2.058000,2.059000,2.063000,2.068000,2.069000,2.069000,2.070000,1.023000,0.000000,0.000000,0.000000,0.000000,0.000000,0.000000,0.000000,0.000000,
0.000000,0.000000,0.000000,0.000000,0.000000,2.121000,2.107000,2.092000,2.055000,2.026000,2.016000,2.016000,2.016000,2.016000,2.019000,2.023000,2.026000,2.030000,2.033000,2.040000,2.042000,2.043000,2.043000,2.051000,2.054000,2.056000,2.058000,2.060000,2.061000,2.064000,2.065000,1.022000,0.000000,0.000000,0.000000,0.000000,0.000000,0.000000,0.000000,0.000000,
0.000000,0.000000,0.000000,0.000000,0.000000,2.145000,2.109000,2.088000,2.048000,2.023000,2.010000,2.010000,2.013000,2.013000,2.017000,2.017000,2.022000,2.026000,2.030000,2.032000,2.034000,2.039000,2.041000,2.047000,2.048000,2.048000,2.054000,2.055000,2.056000,2.058000,2.058000,0.000000,0.000000,0.000000,0.000000,0.000000,0.000000,0.000000,0.000000,0.000000,
0.000000,0.000000,0.000000,0.000000,0.000000,0.000000,0.000000,2.082000,2.044000,2.016000,2.002000,2.002000,2.008000,2.009000,2.013000,2.013000,2.015000,2.023000,2.026000,2.030000,2.030000,2.033000,2.039000,2.042000,2.046000,2.046000,2.051000,2.051000,2.053000,2.054000,2.054000,0.000000,2.686000,0.000000,0.000000,0.000000,0.000000,0.000000,0.000000,0.000000,
0.000000,0.000000,0.000000,0.000000,0.000000,0.000000,0.000000,2.084000,2.041000,2.011000,2.000000,2.000000,2.000000,2.004000,2.008000,2.009000,2.013000,2.017000,2.023000,2.026000,2.027000,2.030000,2.031000,2.039000,2.037000,2.041000,2.044000,2.044000,2.044000,2.048000,2.052000,1.022000,0.000000,0.000000,0.000000,0.000000,0.000000,0.000000,0.000000,0.000000,
0.000000,0.000000,0.000000,0.000000,0.000000,0.000000,1.310000,2.077000,2.040000,2.009000,1.997000,1.995000,1.996000,2.000000,2.002000,2.006000,2.009000,2.013000,2.015000,2.018000,2.019000,2.023000,2.029000,2.031000,2.035000,2.038000,2.040000,2.042000,2.043000,2.043000,2.050000,1.022000,2.151000,0.000000,0.000000,0.000000,0.000000,0.000000,0.000000,0.000000,
0.000000,0.000000,0.000000,0.000000,0.000000,0.000000,0.000000,2.074000,2.038000,2.007000,1.992000,1.991000,1.993000,1.996000,2.000000,2.000000,2.003000,2.007000,2.012000,2.016000,2.016000,2.018000,2.023000,2.028000,2.030000,2.030000,2.033000,2.036000,2.040000,2.040000,2.044000,1.021000,0.000000,0.000000,0.000000,0.000000,0.000000,0.000000,0.000000,0.000000,
0.000000,0.000000,0.000000,0.000000,0.000000,0.000000,0.000000,2.070000,2.033000,2.005000,1.989000,1.987000,1.990000,1.993000,1.995000,1.997000,2.000000,2.005000,2.011000,2.013000,2.015000,2.016000,2.016000,2.023000,2.025000,2.026000,2.030000,2.030000,2.034000,2.039000,2.039000,1.021000,0.000000,0.000000,0.000000,0.000000,0.000000,0.000000,0.000000,0.000000,
0.000000,0.000000,0.000000,0.000000,0.000000,0.000000,0.000000,2.070000,2.029000,2.001000,1.986000,1.984000,1.987000,1.987000,1.987000,1.994000,1.996000,2.003000,2.003000,2.009000,2.013000,2.013000,2.013000,2.018000,2.023000,2.026000,2.026000,2.030000,2.031000,2.033000,2.033000,1.980000,2.566000,0.000000,0.000000,0.000000,0.000000,0.000000,0.000000,0.000000,
0.000000,0.000000,0.000000,0.000000,0.000000,0.000000,1.307000,2.055000,2.029000,1.997000,1.981000,1.979000,1.984000,1.986000,1.987000,1.990000,1.992000,1.998000,2.000000,2.004000,2.007000,2.008000,2.009000,2.012000,2.018000,2.021000,2.023000,2.026000,2.028000,2.030000,2.030000,2.030000,0.000000,0.000000,0.000000,0.000000,0.000000,0.000000,0.000000,0.000000,
0.000000,0.000000,0.000000,0.000000,0.000000,0.000000,0.000000,2.060000,2.028000,2.003000,1.974000,1.974000,1.976000,1.980000,1.984000,1.987000,1.987000,1.993000,1.996000,2.000000,2.003000,2.004000,2.009000,2.009000,2.013000,2.016000,2.017000,2.022000,2.023000,2.026000,2.026000,2.023000,0.000000,1.021000,0.000000,0.000000,0.000000,0.000000,0.000000,0.000000,
0.000000,0.000000,0.000000,0.000000,0.000000,0.000000,0.000000,2.056000,2.027000,2.000000,1.970000,1.969000,1.972000,1.977000,1.977000,1.980000,1.984000,1.988000,1.990000,1.998000,2.000000,2.001000,2.003000,2.004000,2.008000,2.012000,2.013000,2.016000,2.017000,2.021000,2.023000,2.023000,0.000000,0.000000,0.000000,0.000000,0.000000,0.000000,0.000000,0.000000,
0.000000,0.000000,0.000000,0.000000,0.000000,0.000000,0.000000,2.053000,2.025000,1.993000,1.970000,1.968000,1.971000,1.971000,1.974000,1.977000,1.980000,1.984000,1.987000,1.993000,1.993000,1.996000,2.000000,2.000000,2.003000,2.007000,2.009000,2.013000,2.014000,2.018000,2.020000,2.023000,1.510000,1.021000,0.000000,0.000000,0.000000,0.000000,0.000000,0.000000,
0.000000,0.000000,0.000000,0.000000,0.000000,0.000000,0.000000,2.045000,2.020000,2.001000,1.968000,1.966000,1.967000,1.969000,1.971000,1.972000,1.977000,1.980000,1.987000,1.990000,1.990000,1.991000,1.994000,1.996000,2.000000,2.003000,2.003000,2.009000,2.013000,2.014000,2.014000,2.016000,1.506000,1.021000,0.000000,0.000000,0.000000,0.000000,0.000000,0.000000,
0.000000,0.000000,0.000000,0.000000,0.000000,0.000000,1.227000,2.040000,2.022000,1.993000,1.963000,1.962000,1.963000,1.964000,1.967000,1.970000,1.975000,1.977000,1.982000,1.986000,1.986000,1.989000,1.990000,1.990000,1.996000,2.000000,2.003000,2.003000,2.005000,2.005000,2.006000,2.012000,1.612000,1.743000,0.000000,0.000000,0.000000,0.000000,0.000000,0.000000,
0.000000,0.000000,0.000000,0.000000,0.000000,0.000000,0.000000,1.920000,2.018000,1.975000,1.961000,1.959000,1.959000,1.960000,1.962000,1.965000,1.973000,1.974000,1.974000,1.977000,1.978000,1.985000,1.987000,1.988000,1.991000,1.994000,1.999000,1.999000,2.001000,2.003000,2.003000,2.006000,1.503000,1.020000,0.000000,0.000000,0.000000,0.000000,0.000000,0.000000,
0.000000,0.000000,0.000000,0.000000,0.000000,1.556000,0.000000,2.032000,2.013000,1.979000,1.956000,1.950000,1.957000,1.958000,1.960000,1.962000,1.964000,1.971000,1.974000,1.974000,1.977000,1.980000,1.986000,1.986000,1.987000,1.990000,1.992000,1.993000,1.996000,2.000000,2.000000,2.000000,2.003000,1.018000,0.000000,0.000000,0.000000,0.000000,0.000000,0.000000,
0.000000,0.000000,0.000000,0.000000,0.000000,1.556000,0.000000,2.035000,2.010000,1.975000,1.953000,1.948000,1.950000,1.950000,1.953000,1.955000,1.962000,1.965000,1.971000,1.972000,1.974000,1.976000,1.978000,1.981000,1.985000,1.987000,1.990000,1.990000,1.990000,1.993000,1.996000,2.000000,1.997000,0.000000,0.000000,0.000000,0.000000,0.000000,0.000000,0.000000,
0.000000,0.000000,0.000000,0.000000,0.000000,1.561000,0.000000,1.969000,2.007000,1.975000,1.949000,1.944000,1.949000,1.947000,1.950000,1.950000,1.958000,1.962000,1.964000,1.966000,1.971000,1.973000,1.974000,1.977000,1.980000,1.986000,1.984000,1.986000,1.987000,1.989000,1.990000,1.995000,1.996000,0.000000,0.000000,0.000000,0.000000,0.000000,0.000000,0.000000,
0.000000,0.000000,0.000000,0.000000,0.000000,1.561000,0.000000,0.000000,2.004000,1.984000,1.944000,1.939000,1.940000,1.945000,1.947000,1.948000,1.955000,1.962000,1.962000,1.965000,1.965000,1.967000,1.971000,1.973000,1.974000,1.979000,1.977000,1.983000,1.987000,1.987000,1.989000,1.990000,1.990000,0.000000,0.000000,0.000000,0.000000,0.000000,0.000000,0.000000,
0.000000,0.000000,0.000000,0.000000,0.000000,1.556000,0.000000,2.021000,2.004000,1.972000,1.942000,1.935000,1.937000,1.943000,1.943000,1.947000,1.949000,1.955000,1.955000,1.959000,1.962000,1.961000,1.965000,1.969000,1.970000,1.970000,1.974000,1.976000,1.977000,1.982000,1.986000,1.987000,1.987000,0.000000,0.000000,0.000000,0.000000,0.000000,0.000000,0.000000,
0.000000,0.000000,0.000000,0.000000,0.000000,1.547000,0.000000,2.027000,2.004000,1.971000,1.940000,1.935000,1.938000,1.938000,1.940000,1.944000,1.949000,1.950000,1.953000,1.953000,1.953000,1.954000,1.962000,1.964000,1.965000,1.968000,1.971000,1.971000,1.974000,1.977000,1.980000,1.984000,1.982000,1.937000,0.000000,0.000000,0.000000,0.000000,0.000000,0.000000,
0.000000,0.000000,0.000000,0.000000,0.000000,0.000000,0.000000,1.349000,2.000000,1.960000,1.938000,1.931000,1.935000,1.935000,1.936000,1.938000,1.942000,1.948000,1.950000,1.949000,1.951000,1.953000,1.957000,1.959000,1.961000,1.965000,1.966000,1.971000,1.971000,1.974000,1.976000,1.977000,1.976000,0.000000,0.000000,0.000000,0.000000,0.000000,0.000000,0.000000,
0.000000,0.000000,0.000000,0.000000,0.000000,1.507000,0.000000,1.857000,1.995000,1.962000,1.938000,1.927000,1.927000,1.933000,1.933000,1.936000,1.940000,1.944000,1.944000,1.945000,1.949000,1.953000,1.953000,1.955000,1.956000,1.962000,1.965000,1.965000,1.966000,1.971000,1.973000,1.971000,1.974000,1.955000,0.000000,0.000000,0.000000,0.000000,0.000000,0.000000,
0.000000,0.000000,0.000000,0.000000,0.000000,0.000000,0.000000,0.000000,1.585000,1.954000,1.936000,1.924000,1.924000,1.925000,1.926000,1.932000,1.935000,1.938000,1.941000,1.941000,1.945000,1.946000,1.953000,1.952000,1.953000,1.958000,1.959000,1.962000,1.963000,1.965000,1.968000,1.966000,1.970000,1.970000,0.000000,0.000000,0.000000,0.000000,0.000000,0.000000,
0.000000,0.000000,0.000000,0.000000,0.000000,1.499000,0.000000,0.000000,1.982000,1.954000,1.935000,1.922000,1.923000,1.924000,1.926000,1.928000,1.932000,1.933000,1.938000,1.938000,1.940000,1.944000,1.947000,1.950000,1.952000,1.955000,1.953000,1.955000,1.959000,1.962000,1.965000,1.965000,1.965000,1.950000,0.000000,0.000000,0.000000,0.000000,0.000000,0.000000,
0.000000,0.000000,0.000000,0.000000,0.000000,1.496000,0.000000,0.000000,1.982000,1.961000,1.955000,1.197000,1.198000,1.295000,1.935000,1.198000,1.199000,1.937000,1.940000,1.939000,1.940000,1.945000,1.949000,1.949000,1.952000,1.953000,1.953000,1.953000,1.956000,1.957000,1.961000,1.965000,1.964000,1.962000,0.000000,0.000000,0.000000,0.000000,0.000000,0.000000,
0.000000,0.000000,0.000000,0.000000,0.000000,1.496000,1.610000,0.000000,1.997000,1.981000,1.978000,0.000000,0.000000,0.000000,0.000000,0.000000,0.000000,0.000000,1.954000,1.552000,0.000000,0.000000,0.000000,0.000000,1.970000,1.972000,1.972000,1.978000,1.969000,1.967000,1.969000,1.968000,1.965000,1.975000,0.000000,0.000000,0.000000,0.000000,0.000000,0.000000,
0.000000,0.000000,0.000000,0.000000,0.000000,0.000000,0.000000,0.000000,2.601000,2.013000,0.000000,0.000000,0.000000,0.000000,0.000000,2.613000,0.000000,0.000000,1.089000,0.000000,0.000000,0.000000,0.000000,0.000000,1.291000,0.000000,0.000000,0.000000,2.020000,2.019000,2.010000,0.000000,0.000000,0.000000,0.000000,0.000000,0.000000,0.000000,0.000000,0.000000,
0.000000,0.000000,0.000000,0.000000,0.000000,0.000000,0.000000,0.000000,0.000000,0.000000,0.000000,0.000000,0.000000,0.000000,0.000000,0.000000,0.000000,0.000000,0.000000,0.000000,0.000000,0.000000,0.000000,0.000000,0.000000,0.000000,0.000000,0.000000,0.000000,0.000000,0.000000,0.000000,0.000000,0.000000,0.000000,0.000000,0.000000,0.000000,0.000000,0.000000,
0.000000,0.000000,0.000000,0.000000,0.000000,0.000000,0.000000,0.000000,0.000000,0.000000,0.000000,0.000000,0.000000,0.000000,0.000000,0.000000,0.000000,0.000000,0.000000,0.000000,0.000000,0.000000,0.000000,0.000000,0.000000,0.000000,0.000000,0.000000,0.000000,0.000000,0.000000,0.000000,0.000000,0.000000,0.000000,0.000000,0.000000,0.000000,0.000000,0.000000,
