40 40
0.000000 0.000000 0.000000 0.000000 0.000000 0.000000 0.000000 0.000000 0.000000 0.000000 0.000000 0.000000 0.000000 0.000000 0.000000 0.000000 0.000000 0.000000 0.000000 0.000000 0.000000 0.000000 0.000000 0.000000 0.000000 0.000000 0.000000 0.000000 0.000000 0.000000 0.000000 0.000000 0.000000 0.000000 0.000000 0.000000 0.000000 0.000000 0.000000 0.000000 
0.000000 0.000000 0.000000 0.000000 0.000000 0.000000 0.000000 0.000000 0.000000 2.057000 2.044000 2.043000 2.032000 2.015000 2.014000 2.008000 1.998000 1.988000 1.987000 2.000000 0.000000 0.000000 0.000000 0.000000 0.000000 0.000000 0.000000 0.000000 0.000000 0.000000 0.000000 0.000000 0.000000 0.000000 0.000000 0.000000 0.000000 0.000000 0.000000 0.000000 
0.000000 0.000000 0.000000 0.000000 0.000000 0.000000 0.000000 0.000000 0.000000 2.052000 2.053000 2.050000 2.032000 2.015000 2.009000 2.000000 1.986000 1.986000 1.987000 2.004000 2.021000 2.028000 2.042000 2.530000 0.000000 0.000000 0.000000 0.000000 0.000000 0.000000 0.000000 0.000000 0.000000 0.000000 0.000000 0.000000 0.000000 0.000000 0.000000 0.000000 
0.000000 0.000000 0.000000 0.000000 0.000000 0.000000 0.000000 0.000000 0.000000 2.042000 2.044000 2.045000 2.032000 2.015000 2.000000 1.994000 1.986000 1.986000 1.994000 2.004000 2.021000 2.028000 2.042000 2.048000 2.080000 2.089000 2.087000 2.102000 2.605000 0.000000 0.000000 0.000000 0.000000 0.000000 0.000000 0.000000 0.000000 0.000000 0.000000 0.000000 
0.000000 0.000000 0.000000 0.000000 0.000000 0.000000 0.000000 0.000000 0.000000 2.031000 2.034000 2.042000 2.032000 2.015000 1.998000 1.988000 1.986000 1.986000 2.000000 2.004000 2.021000 2.037000 2.042000 2.045000 2.070000 2.087000 2.087000 2.102000 2.102000 2.506000 2.786000 2.786000 0.000000 0.000000 0.000000 0.000000 0.000000 0.000000 0.000000 0.000000 
0.000000 0.000000 0.000000 0.000000 0.000000 0.000000 0.000000 0.000000 0.000000 2.028000 2.032000 2.042000 2.022000 2.001000 1.998000 1.986000 1.986000 1.986000 2.000000 2.008000 2.028000 2.039000 2.042000 2.046000 2.064000 2.082000 2.087000 2.104000 2.117000 2.117000 2.130000 2.135000 2.165000 2.165000 0.000000 0.000000 0.000000 0.000000 0.000000 0.000000 
0.000000 0.000000 0.000000 0.000000 0.000000 0.000000 0.000000 0.000000 2.595000 2.042000 2.041000 2.033000 2.018000 2.001000 1.998000 1.986000 1.986000 1.986000 2.000000 2.004000 2.021000 2.039000 2.042000 2.057000 2.064000 2.082000 2.087000 2.104000 2.118000 2.121000 2.134000 2.149000 2.153000 2.165000 0.000000 0.000000 0.000000 0.000000 0.000000 0.000000 
0.000000 0.000000 0.000000 0.000000 0.000000 0.000000 0.000000 0.000000 2.584000 2.042000 2.038000 2.025000 2.011000 2.000000 1.998000 1.986000 1.986000 1.986000 2.000000 2.004000 2.021000 2.039000 2.042000 2.057000 2.064000 2.082000 2.087000 2.103000 2.115000 2.130000 2.146000 2.149000 2.151000 2.157000 0.000000 0.000000 0.000000 0.000000 0.000000 0.000000 
0.000000 0.000000 0.000000 0.000000 0.000000 0.000000 0.000000 0.000000 2.574000 2.042000 2.031000 2.021000 2.004000 2.000000 1.998000 1.986000 1.986000 1.986000 2.000000 2.004000 2.021000 2.039000 2.042000 2.057000 2.064000 2.075000 2.086000 2.102000 2.107000 2.126000 2.146000 2.149000 2.149000 2.149000 0.000000 0.000000 0.000000 0.000000 0.000000 0.000000 
0.000000 0.000000 0.000000 0.000000 0.000000 0.000000 0.000000 0.000000 2.075000 2.029000 2.025000 2.014000 2.004000 2.000000 1.985000 1.973000 1.981000 1.997000 2.000000 2.004000 2.021000 2.029000 2.042000 2.046000 2.064000 2.072000 2.086000 2.102000 2.107000 2.126000 2.146000 2.149000 2.149000 2.149000 0.000000 0.000000 0.000000 0.000000 0.000000 0.000000 
0.000000 0.000000 0.000000 0.000000 0.000000 0.000000 0.000000 0.000000 2.042000 2.028000 2.013000 2.006000 1.998000 1.987000 1.982000 1.972000 1.981000 1.998000 2.000000 2.004000 2.014000 2.014000 2.042000 2.047000 2.064000 2.072000 2.086000 2.102000 2.107000 2.117000 2.130000 2.149000 2.149000 2.149000 0.000000 0.000000 0.000000 0.000000 0.000000 0.000000 
0.000000 0.000000 0.000000 0.000000 0.000000 0.000000 0.000000 0.000000 2.039000 2.022000 2.006000 2.000000 1.990000 1.986000 1.972000 1.972000 1.981000 1.993000 2.000000 2.004000 2.014000 2.018000 2.042000 2.052000 2.061000 2.070000 2.086000 2.102000 2.107000 2.121000 2.131000 2.143000 2.143000 2.143000 0.000000 0.000000 0.000000 0.000000 0.000000 0.000000 
0.000000 0.000000 0.000000 0.000000 0.000000 0.000000 0.000000 0.000000 2.032000 2.014000 2.000000 2.000000 1.990000 1.986000 1.972000 1.972000 1.981000 1.986000 2.000000 2.004000 2.014000 2.025000 2.042000 2.045000 2.057000 2.067000 2.086000 2.102000 2.107000 2.121000 2.131000 2.133000 2.123000 2.123000 0.000000 0.000000 0.000000 0.000000 0.000000 0.000000 
0.000000 0.000000 0.000000 0.000000 0.000000 0.000000 0.000000 0.000000 2.021000 2.014000 2.000000 2.000000 1.990000 1.986000 1.972000 1.977000 1.985000 1.986000 2.000000 2.004000 2.014000 2.025000 2.042000 2.045000 2.057000 2.067000 2.086000 2.102000 2.107000 2.117000 2.119000 2.119000 2.117000 2.117000 0.000000 0.000000 0.000000 0.000000 0.000000 0.000000 
0.000000 0.000000 0.000000 0.000000 0.000000 0.000000 0.000000 0.000000 2.017000 2.000000 1.996000 1.986000 1.985000 1.973000 1.959000 1.970000 1.986000 1.998000 2.000000 2.004000 2.014000 2.025000 2.042000 2.045000 2.057000 2.057000 2.071000 2.101000 2.107000 2.117000 2.117000 2.118000 2.118000 2.118000 0.000000 0.000000 0.000000 0.000000 0.000000 0.000000 
0.000000 0.000000 0.000000 0.000000 0.000000 0.000000 0.000000 2.854000 2.017000 2.000000 1.996000 1.986000 1.976000 1.964000 1.955000 1.967000 1.986000 1.994000 2.000000 2.004000 2.014000 2.025000 2.042000 2.049000 2.057000 2.057000 2.071000 2.089000 2.106000 2.115000 2.117000 2.133000 2.380000 0.000000 0.000000 0.000000 0.000000 0.000000 0.000000 0.000000 
0.000000 0.000000 0.000000 0.000000 0.000000 0.000000 0.000000 2.013000 2.008000 2.000000 1.991000 1.982000 1.974000 1.947000 1.945000 1.953000 1.978000 1.986000 2.000000 2.004000 2.014000 2.025000 2.042000 2.057000 2.057000 2.057000 2.071000 2.089000 2.102000 2.111000 2.124000 2.133000 2.932000 0.000000 0.000000 0.000000 0.000000 0.000000 0.000000 0.000000 
0.000000 0.000000 0.000000 0.000000 0.000000 0.000000 2.433000 2.000000 2.000000 2.000000 1.986000 1.979000 1.965000 1.937000 1.937000 1.945000 1.971000 1.986000 1.990000 2.001000 2.009000 2.025000 2.042000 2.046000 2.051000 2.057000 2.071000 2.089000 2.102000 2.111000 2.130000 2.133000 2.919000 0.000000 0.000000 0.000000 0.000000 0.000000 0.000000 0.000000 
0.000000 0.000000 0.000000 0.000000 0.000000 0.000000 2.014000 2.006000 2.000000 2.000000 1.986000 1.979000 1.963000 1.934000 1.934000 1.945000 1.962000 1.984000 1.987000 2.000000 2.007000 2.025000 2.028000 2.042000 2.042000 2.052000 2.071000 2.102000 2.102000 2.111000 2.117000 2.117000 2.904000 0.000000 0.000000 0.000000 0.000000 0.000000 0.000000 0.000000 
0.000000 0.000000 0.000000 0.000000 0.000000 0.000000 0.000000 2.014000 2.012000 2.000000 1.986000 1.979000 1.953000 1.933000 1.934000 1.946000 1.963000 1.984000 1.987000 2.000000 2.007000 2.025000 2.028000 2.042000 2.042000 2.052000 2.071000 2.099000 2.102000 2.102000 2.112000 2.114000 2.924000 0.000000 0.000000 0.000000 0.000000 0.000000 0.000000 0.000000 
0.000000 0.000000 0.000000 0.000000 0.000000 0.000000 2.035000 2.017000 2.003000 2.000000 1.986000 1.979000 1.953000 1.938000 1.939000 1.951000 1.967000 1.984000 1.987000 2.000000 2.004000 2.023000 2.028000 2.042000 2.042000 2.052000 2.071000 2.089000 2.102000 2.106000 2.103000 2.102000 2.915000 0.000000 0.000000 0.000000 0.000000 0.000000 0.000000 0.000000 
0.000000 0.000000 0.000000 0.000000 0.000000 0.000000 2.034000 2.011000 2.001000 1.990000 1.986000 1.979000 1.953000 1.945000 1.945000 1.947000 1.964000 1.984000 1.987000 2.000000 2.000000 2.014000 2.028000 2.042000 2.042000 2.052000 2.071000 2.089000 2.102000 2.111000 2.113000 2.112000 2.923000 0.000000 0.000000 0.000000 0.000000 0.000000 0.000000 0.000000 
0.000000 0.000000 0.000000 0.000000 0.000000 0.000000 2.032000 2.006000 1.990000 1.986000 1.973000 1.967000 1.949000 1.945000 1.945000 1.945000 1.962000 1.973000 1.986000 1.991000 2.000000 2.011000 2.028000 2.042000 2.042000 2.052000 2.071000 2.089000 2.107000 2.116000 2.117000 2.117000 2.926000 0.000000 0.000000 0.000000 0.000000 0.000000 0.000000 0.000000 
0.000000 0.000000 0.000000 0.000000 0.000000 0.000000 2.000000 1.999000 1.988000 1.986000 1.972000 1.958000 1.945000 1.945000 1.945000 1.946000 1.954000 1.970000 1.986000 1.986000 1.993000 2.000000 2.014000 2.031000 2.042000 2.052000 2.069000 2.100000 2.102000 2.111000 2.117000 2.117000 2.926000 0.000000 0.000000 0.000000 0.000000 0.000000 0.000000 0.000000 
0.000000 0.000000 0.000000 0.000000 0.000000 0.000000 2.000000 1.992000 1.986000 1.981000 1.969000 1.952000 1.942000 1.940000 1.945000 1.949000 1.957000 1.970000 1.986000 1.988000 1.996000 2.000000 2.014000 2.031000 2.042000 2.052000 2.057000 2.089000 2.102000 2.108000 2.112000 2.112000 2.922000 0.000000 0.000000 0.000000 0.000000 0.000000 0.000000 0.000000 
0.000000 0.000000 0.000000 0.000000 0.000000 0.000000 1.997000 1.988000 1.986000 1.972000 1.967000 1.944000 1.934000 1.932000 1.937000 1.940000 1.954000 1.970000 1.986000 1.990000 2.000000 2.006000 2.022000 2.037000 2.046000 2.055000 2.057000 2.089000 2.102000 2.102000 2.102000 2.177000 0.000000 0.000000 0.000000 0.000000 0.000000 0.000000 0.000000 0.000000 
0.000000 0.000000 0.000000 0.000000 0.000000 0.000000 1.988000 1.986000 1.977000 1.972000 1.957000 1.939000 1.932000 1.932000 1.932000 1.937000 1.954000 1.970000 1.986000 1.990000 2.000000 2.011000 2.028000 2.042000 2.049000 2.057000 2.057000 2.100000 2.102000 2.102000 2.102000 2.230000 0.000000 0.000000 0.000000 0.000000 0.000000 0.000000 0.000000 0.000000 
0.000000 0.000000 0.000000 0.000000 0.000000 1.986000 1.986000 1.978000 1.972000 1.971000 1.955000 1.939000 1.932000 1.932000 1.932000 1.937000 1.954000 1.970000 1.986000 1.991000 2.000000 2.011000 2.028000 2.031000 2.049000 2.057000 2.071000 2.102000 2.102000 2.102000 2.102000 2.230000 0.000000 0.000000 0.000000 0.000000 0.000000 0.000000 0.000000 0.000000 
0.000000 0.000000 0.000000 0.000000 0.000000 1.986000 1.986000 1.978000 1.962000 1.959000 1.945000 1.939000 1.932000 1.932000 1.933000 1.939000 1.954000 1.970000 1.987000 2.000000 2.000000 2.008000 2.024000 2.031000 2.049000 2.057000 2.071000 2.102000 2.102000 2.102000 2.102000 0.000000 0.000000 0.000000 0.000000 0.000000 0.000000 0.000000 0.000000 0.000000 
0.000000 0.000000 0.000000 0.000000 0.000000 1.986000 1.986000 1.978000 1.962000 1.952000 1.939000 1.935000 1.932000 1.932000 1.934000 1.945000 1.954000 1.970000 1.987000 1.995000 2.000000 2.000000 2.014000 2.031000 2.049000 2.057000 2.071000 2.102000 2.102000 2.102000 2.102000 0.000000 0.000000 0.000000 0.000000 0.000000 0.000000 0.000000 0.000000 0.000000 
0.000000 0.000000 0.000000 0.000000 0.000000 1.986000 1.983000 1.974000 1.962000 1.945000 1.932000 1.927000 1.923000 1.931000 1.934000 1.949000 1.958000 1.970000 1.986000 1.990000 2.000000 2.000000 2.014000 2.023000 2.049000 2.057000 2.061000 2.083000 2.102000 2.102000 2.102000 0.000000 0.000000 0.000000 0.000000 0.000000 0.000000 0.000000 0.000000 0.000000 
0.000000 0.000000 0.000000 0.000000 0.000000 1.986000 1.981000 1.965000 1.948000 1.945000 1.932000 1.926000 1.919000 1.931000 1.934000 1.945000 1.962000 1.972000 1.974000 1.986000 1.994000 2.000000 2.014000 2.020000 2.042000 2.052000 2.057000 2.074000 2.093000 2.102000 2.102000 0.000000 0.000000 0.000000 0.000000 0.000000 0.000000 0.000000 0.000000 0.000000 
0.000000 0.000000 0.000000 0.000000 0.000000 1.986000 1.977000 1.951000 1.945000 1.945000 1.929000 1.919000 1.919000 1.929000 1.934000 1.945000 1.952000 1.968000 1.973000 1.986000 1.993000 2.000000 2.011000 2.020000 2.042000 2.052000 2.057000 2.074000 2.091000 2.099000 2.099000 0.000000 0.000000 0.000000 0.000000 0.000000 0.000000 0.000000 0.000000 0.000000 
0.000000 0.000000 0.000000 0.000000 0.000000 1.985000 1.975000 1.957000 1.946000 1.939000 1.929000 1.919000 1.919000 1.919000 1.934000 1.945000 1.945000 1.952000 1.968000 1.986000 1.993000 2.000000 2.000000 2.020000 2.042000 2.052000 2.057000 2.074000 2.087000 2.087000 0.000000 0.000000 0.000000 0.000000 0.000000 0.000000 0.000000 0.000000 0.000000 0.000000 
0.000000 0.000000 0.000000 0.000000 0.000000 1.976000 1.964000 1.961000 1.948000 1.932000 1.929000 1.919000 1.919000 1.919000 1.933000 1.937000 1.942000 1.945000 1.960000 1.980000 1.989000 1.998000 2.000000 2.027000 2.042000 2.052000 2.057000 2.074000 2.087000 2.093000 0.000000 0.000000 0.000000 0.000000 0.000000 0.000000 0.000000 0.000000 0.000000 0.000000 
0.000000 0.000000 0.000000 0.000000 0.000000 1.971000 1.959000 1.959000 1.948000 1.932000 1.920000 1.919000 1.919000 1.919000 1.932000 1.932000 1.940000 1.945000 1.960000 1.976000 1.986000 1.997000 2.000000 2.019000 2.035000 2.052000 2.057000 2.074000 2.087000 2.096000 2.411000 0.000000 0.000000 0.000000 0.000000 0.000000 0.000000 0.000000 0.000000 0.000000 
0.000000 0.000000 0.000000 0.000000 0.000000 1.969000 1.958000 1.956000 1.937000 1.932000 1.919000 1.919000 1.919000 1.919000 1.932000 1.932000 1.941000 1.945000 1.959000 1.967000 1.985000 1.995000 2.000000 2.017000 2.034000 2.052000 2.057000 2.077000 2.102000 2.102000 2.102000 0.000000 0.000000 0.000000 0.000000 0.000000 0.000000 0.000000 0.000000 0.000000 
0.000000 0.000000 0.000000 0.000000 0.000000 1.959000 1.950000 1.932000 1.932000 2.835000 2.855000 2.872000 2.872000 2.872000 2.874000 2.960000 2.966000 2.102000 1.959000 1.963000 1.972000 1.983000 2.000000 2.017000 2.034000 2.049000 2.052000 2.085000 2.102000 2.102000 2.850000 0.000000 0.000000 0.000000 0.000000 0.000000 0.000000 0.000000 0.000000 0.000000 
0.000000 0.000000 0.000000 0.000000 0.000000 0.000000 0.000000 0.000000 0.000000 0.000000 0.000000 0.000000 0.000000 0.000000 0.000000 0.000000 0.000000 0.000000 0.000000 0.000000 1.980000 1.985000 2.000000 2.017000 2.034000 2.042000 2.042000 2.075000 2.097000 0.000000 0.000000 0.000000 0.000000 0.000000 0.000000 0.000000 0.000000 0.000000 0.000000 0.000000 
0.000000 0.000000 0.000000 0.000000 0.000000 0.000000 0.000000 0.000000 0.000000 0.000000 0.000000 0.000000 0.000000 0.000000 0.000000 0.000000 0.000000 0.000000 0.000000 0.000000 0.000000 0.000000 0.000000 0.000000 0.000000 0.000000 0.000000 0.000000 0.000000 0.000000 0.000000 0.000000 0.000000 0.000000 0.000000 0.000000 0.000000 0.000000 0.000000 0.000000 
