40 40
0.000000 0.000000 0.000000 0.000000 0.000000 0.000000 0.000000 0.000000 0.000000 0.000000 0.000000 0.000000 0.000000 0.000000 0.000000 0.000000 0.000000 0.000000 0.000000 0.000000 0.000000 0.000000 0.000000 0.000000 0.000000 0.000000 0.000000 0.000000 0.000000 0.000000 0.000000 0.000000 0.000000 0.000000 0.000000 0.000000 0.000000 0.000000 0.000000 0.000000 
0.000000 0.000000 0.000000 0.000000 0.000000 0.000000 0.000000 0.000000 0.000000 0.000000 0.000000 0.000000 0.000000 0.000000 0.000000 0.000000 0.000000 0.000000 0.000000 0.000000 0.000000 0.000000 0.000000 0.000000 0.000000 0.000000 0.000000 0.000000 0.000000 0.000000 0.000000 0.000000 0.000000 0.000000 0.000000 0.000000 0.000000 0.000000 0.000000 0.000000 
0.000000 0.000000 0.000000 0.000000 0.000000 0.000000 0.000000 0.000000 0.000000 0.000000 0.000000 0.000000 0.000000 0.000000 0.000000 0.000000 0.000000 0.000000 0.000000 0.000000 0.000000 0.000000 0.000000 0.000000 0.000000 0.000000 0.000000 0.000000 0.000000 0.000000 0.000000 0.000000 0.000000 0.000000 0.000000 0.000000 0.000000 0.000000 0.000000 0.000000 
0.000000 0.000000 0.000000 0.000000 0.000000 0.000000 0.000000 0.000000 0.000000 0.000000 0.000000 0.000000 0.000000 0.000000 0.000000 0.000000 0.000000 0.000000 0.000000 0.000000 0.000000 0.000000 0.000000 0.000000 0.000000 0.000000 0.000000 0.000000 0.000000 0.000000 0.000000 0.000000 0.000000 0.000000 0.000000 0.000000 0.000000 0.000000 0.000000 0.000000 
0.000000 0.000000 0.000000 0.000000 0.000000 0.000000 0.000000 0.000000 0.000000 0.000000 0.000000 0.000000 0.000000 0.000000 0.000000 2.061000 2.039000 2.037000 2.343000 2.703000 2.703000 2.703000 2.689000 2.687000 2.707000 2.707000 2.708000 0.000000 0.000000 0.000000 0.000000 0.000000 0.000000 0.000000 0.000000 0.000000 0.000000 0.000000 0.000000 0.000000 
0.000000 0.000000 0.000000 0.000000 0.000000 0.000000 0.000000 0.000000 0.000000 0.000000 0.000000 0.000000 0.000000 0.000000 2.957000 2.052000 2.044000 2.037000 2.190000 2.619000 2.685000 2.685000 2.685000 2.697000 2.707000 2.707000 2.705000 2.685000 2.693000 0.000000 0.000000 0.000000 0.000000 0.000000 0.000000 0.000000 0.000000 0.000000 0.000000 0.000000 
0.000000 0.000000 0.000000 0.000000 0.000000 0.000000 0.000000 0.000000 0.000000 0.000000 2.766000 2.376000 2.059000 2.052000 2.051000 2.049000 2.049000 2.046000 2.033000 2.116000 2.668000 2.668000 2.681000 2.691000 2.699000 2.689000 2.669000 2.650000 2.664000 2.854000 0.000000 0.000000 0.000000 0.000000 0.000000 0.000000 0.000000 0.000000 0.000000 0.000000 
0.000000 0.000000 0.000000 0.000000 0.000000 0.000000 0.000000 0.000000 0.000000 2.995000 2.058000 2.047000 2.047000 2.037000 2.035000 2.035000 2.037000 2.035000 2.018000 2.012000 2.574000 2.664000 2.664000 2.682000 2.682000 2.666000 2.643000 2.643000 2.643000 2.643000 0.000000 0.000000 0.000000 0.000000 0.000000 0.000000 0.000000 0.000000 0.000000 0.000000 
0.000000 0.000000 0.000000 0.000000 0.000000 0.000000 0.000000 0.000000 2.040000 2.025000 2.030000 2.031000 2.034000 2.026000 2.024000 2.024000 2.029000 2.030000 2.018000 2.012000 2.091000 2.664000 2.656000 2.654000 2.654000 2.645000 2.643000 2.643000 2.636000 2.634000 0.000000 0.000000 0.000000 0.000000 0.000000 0.000000 0.000000 0.000000 0.000000 0.000000 
0.000000 0.000000 0.000000 0.000000 0.000000 0.000000 0.000000 2.134000 2.033000 2.012000 2.014000 2.016000 2.025000 2.024000 2.024000 2.024000 2.024000 2.024000 2.023000 2.014000 2.091000 2.656000 2.644000 2.643000 2.643000 2.643000 2.643000 2.643000 2.628000 2.625000 2.762000 0.000000 0.000000 0.000000 0.000000 0.000000 0.000000 0.000000 0.000000 0.000000 
0.000000 0.000000 0.000000 0.000000 0.000000 0.000000 2.108000 2.070000 2.038000 2.025000 2.014000 2.014000 2.023000 2.024000 2.024000 2.022000 2.022000 2.022000 2.024000 2.016000 2.015000 2.294000 2.623000 2.623000 2.631000 2.640000 2.638000 2.623000 2.623000 2.623000 2.631000 2.657000 0.000000 0.000000 0.000000 0.000000 0.000000 0.000000 0.000000 0.000000 
0.000000 0.000000 0.000000 0.000000 0.000000 2.173000 2.114000 2.089000 2.058000 2.031000 2.014000 2.012000 2.015000 2.018000 2.017000 2.012000 2.012000 2.014000 2.024000 2.024000 2.024000 2.165000 2.538000 2.598000 2.623000 2.623000 2.623000 2.623000 2.623000 2.623000 2.631000 2.643000 0.000000 0.000000 0.000000 0.000000 0.000000 0.000000 0.000000 0.000000 
0.000000 0.000000 0.000000 0.000000 0.000000 2.177000 2.135000 2.102000 2.078000 2.046000 2.024000 2.020000 2.012000 2.012000 2.012000 2.012000 2.012000 2.012000 2.019000 2.024000 2.024000 2.024000 2.113000 2.549000 2.580000 2.619000 2.623000 2.623000 2.623000 2.623000 2.631000 2.643000 2.653000 0.000000 0.000000 0.000000 0.000000 0.000000 0.000000 0.000000 
0.000000 0.000000 0.000000 0.000000 0.000000 2.166000 2.149000 2.120000 2.098000 2.063000 2.039000 2.022000 2.012000 2.012000 2.012000 2.012000 2.012000 2.012000 2.012000 2.012000 2.024000 2.024000 2.024000 2.072000 2.487000 2.582000 2.623000 2.623000 2.623000 2.623000 2.623000 2.623000 2.623000 0.000000 0.000000 0.000000 0.000000 0.000000 0.000000 0.000000 
0.000000 0.000000 0.000000 0.000000 0.000000 2.181000 2.171000 2.143000 2.115000 2.075000 2.045000 2.028000 2.015000 2.012000 2.012000 2.012000 2.008000 2.007000 2.012000 2.012000 2.023000 2.018000 2.018000 2.019000 2.140000 2.514000 2.623000 2.623000 2.623000 2.623000 2.623000 2.616000 2.614000 2.627000 0.000000 0.000000 0.000000 0.000000 0.000000 0.000000 
0.000000 0.000000 0.000000 0.000000 0.000000 2.205000 2.182000 2.156000 2.132000 2.082000 2.060000 2.045000 2.028000 2.014000 2.011000 2.002000 2.000000 2.002000 2.012000 2.012000 2.014000 2.012000 2.012000 2.012000 2.012000 2.478000 2.623000 2.623000 2.623000 2.637000 2.623000 2.607000 2.602000 2.606000 0.000000 0.000000 0.000000 0.000000 0.000000 0.000000 
0.000000 0.000000 0.000000 0.000000 0.000000 2.284000 2.203000 2.174000 2.148000 2.095000 2.066000 2.049000 2.032000 2.014000 2.011000 2.001000 2.000000 2.000000 2.005000 2.012000 2.012000 2.012000 2.012000 2.012000 2.010000 2.484000 2.623000 2.623000 2.638000 2.641000 2.624000 2.609000 2.604000 2.602000 0.000000 0.000000 0.000000 0.000000 0.000000 0.000000 
0.000000 0.000000 0.000000 0.000000 0.000000 2.744000 2.339000 2.184000 2.153000 2.103000 2.082000 2.060000 2.037000 2.014000 2.012000 2.006000 2.000000 2.000000 2.000000 2.005000 2.006000 2.006000 2.006000 2.006000 1.998000 2.255000 2.623000 2.627000 2.640000 2.643000 2.638000 2.625000 2.621000 2.602000 0.000000 0.000000 0.000000 0.000000 0.000000 0.000000 
0.000000 0.000000 0.000000 0.000000 0.000000 2.796000 2.504000 2.196000 2.163000 2.123000 2.100000 2.070000 2.047000 2.024000 2.012000 2.006000 2.000000 2.000000 2.000000 2.000000 2.000000 2.000000 2.000000 2.000000 1.995000 1.989000 2.183000 2.641000 2.643000 2.643000 2.643000 2.640000 2.623000 0.000000 0.000000 0.000000 0.000000 0.000000 0.000000 0.000000 
0.000000 0.000000 0.000000 0.000000 0.000000 2.792000 2.773000 2.282000 2.175000 2.142000 2.116000 2.084000 2.057000 2.039000 2.000000 2.000000 2.000000 1.999000 1.999000 2.000000 2.000000 2.000000 2.000000 2.000000 2.000000 1.999000 2.059000 2.583000 2.631000 2.662000 0.000000 0.000000 0.000000 0.000000 0.000000 0.000000 0.000000 0.000000 0.000000 0.000000 
0.000000 0.000000 0.000000 0.000000 0.000000 2.784000 2.768000 2.260000 2.157000 2.161000 2.124000 2.091000 2.065000 2.039000 2.005000 2.000000 1.996000 1.989000 1.994000 2.000000 2.000000 2.000000 2.000000 2.000000 2.000000 1.992000 1.989000 1.987000 2.267000 0.000000 0.000000 0.000000 0.000000 0.000000 0.000000 0.000000 0.000000 0.000000 0.000000 0.000000 
0.000000 0.000000 0.000000 0.000000 0.000000 2.756000 2.745000 2.625000 2.188000 2.174000 2.140000 2.107000 2.074000 2.049000 2.012000 2.005000 1.991000 1.989000 1.994000 2.000000 2.000000 2.000000 2.000000 2.000000 1.996000 1.990000 1.989000 1.984000 1.977000 0.000000 0.000000 0.000000 0.000000 0.000000 0.000000 0.000000 0.000000 0.000000 0.000000 0.000000 
0.000000 0.000000 0.000000 0.000000 0.000000 2.728000 2.727000 2.726000 2.638000 2.218000 2.158000 2.128000 2.101000 2.057000 2.024000 2.006000 1.991000 1.989000 1.989000 1.989000 1.989000 1.989000 1.989000 1.989000 1.984000 1.977000 1.989000 1.989000 1.997000 0.000000 0.000000 0.000000 0.000000 0.000000 0.000000 0.000000 0.000000 0.000000 0.000000 0.000000 
0.000000 0.000000 0.000000 0.000000 0.000000 2.719000 2.713000 2.707000 2.704000 2.437000 2.169000 2.154000 2.113000 2.060000 2.034000 2.006000 1.995000 1.988000 1.984000 1.984000 1.984000 1.989000 1.989000 1.989000 1.984000 1.977000 1.984000 1.989000 1.997000 2.204000 0.000000 0.000000 0.000000 0.000000 0.000000 0.000000 0.000000 0.000000 0.000000 0.000000 
0.000000 0.000000 0.000000 0.000000 0.000000 2.707000 2.707000 2.707000 2.687000 2.425000 2.168000 2.165000 2.141000 2.081000 2.043000 2.016000 2.002000 1.987000 1.973000 1.968000 1.977000 1.980000 1.980000 1.980000 1.979000 1.977000 1.977000 1.980000 1.982000 2.029000 0.000000 0.000000 0.000000 0.000000 0.000000 0.000000 0.000000 0.000000 0.000000 0.000000 
0.000000 0.000000 0.000000 0.000000 0.000000 2.707000 2.706000 2.688000 2.682000 2.447000 2.217000 2.166000 2.149000 2.110000 2.072000 2.034000 2.014000 2.000000 1.979000 1.965000 1.965000 1.965000 1.965000 1.965000 1.970000 1.976000 1.976000 1.976000 1.976000 1.976000 2.792000 0.000000 0.000000 0.000000 0.000000 0.000000 0.000000 0.000000 0.000000 0.000000 
0.000000 0.000000 0.000000 0.000000 0.000000 2.707000 2.696000 2.685000 2.682000 2.664000 2.647000 2.328000 2.164000 2.143000 2.084000 2.050000 2.031000 2.009000 1.983000 1.968000 1.965000 1.965000 1.965000 1.965000 1.965000 1.965000 1.965000 1.965000 1.965000 1.965000 1.960000 0.000000 0.000000 0.000000 0.000000 0.000000 0.000000 0.000000 0.000000 0.000000 
0.000000 0.000000 0.000000 0.000000 0.000000 2.690000 2.688000 2.685000 2.682000 2.656000 2.644000 2.553000 2.179000 2.159000 2.092000 2.055000 2.039000 2.010000 1.992000 1.977000 1.965000 1.965000 1.965000 1.965000 1.965000 1.965000 1.965000 1.965000 1.965000 1.964000 1.954000 2.350000 2.608000 0.000000 0.000000 0.000000 0.000000 0.000000 0.000000 0.000000 
0.000000 0.000000 0.000000 0.000000 0.000000 2.683000 2.673000 2.662000 2.659000 2.633000 2.623000 2.623000 2.432000 2.180000 2.100000 2.069000 2.052000 2.012000 1.996000 1.980000 1.965000 1.965000 1.965000 1.965000 1.965000 1.965000 1.965000 1.965000 1.965000 1.964000 1.955000 1.946000 2.111000 0.000000 0.000000 0.000000 0.000000 0.000000 0.000000 0.000000 
0.000000 0.000000 0.000000 0.000000 0.000000 2.663000 2.649000 2.643000 2.642000 2.629000 2.623000 2.623000 2.623000 2.267000 2.141000 2.090000 2.057000 2.027000 2.006000 1.986000 1.964000 1.960000 1.964000 1.965000 1.965000 1.965000 1.965000 1.965000 1.961000 1.960000 1.958000 1.949000 1.948000 2.851000 0.000000 0.000000 0.000000 0.000000 0.000000 0.000000 
0.000000 0.000000 0.000000 0.000000 0.000000 2.661000 2.643000 2.643000 2.640000 2.623000 2.623000 2.623000 2.623000 2.536000 2.154000 2.119000 2.074000 2.043000 2.016000 1.993000 1.964000 1.954000 1.956000 1.957000 1.957000 1.957000 1.957000 1.957000 1.955000 1.954000 1.954000 1.954000 1.954000 2.855000 0.000000 0.000000 0.000000 0.000000 0.000000 0.000000 
0.000000 0.000000 0.000000 0.000000 0.000000 2.643000 2.643000 2.643000 2.640000 2.624000 2.623000 2.623000 2.622000 2.621000 2.155000 2.135000 2.083000 2.047000 2.020000 2.003000 1.965000 1.955000 1.954000 1.954000 1.954000 1.954000 1.954000 1.954000 1.954000 1.954000 1.954000 1.954000 1.953000 1.952000 0.000000 0.000000 0.000000 0.000000 0.000000 0.000000 
0.000000 0.000000 0.000000 0.000000 0.000000 2.643000 2.643000 2.643000 2.643000 2.633000 2.623000 2.623000 2.613000 2.602000 2.165000 2.132000 2.097000 2.064000 2.034000 2.009000 1.980000 1.963000 1.955000 1.954000 1.954000 1.954000 1.954000 1.954000 1.954000 1.954000 1.954000 1.954000 1.942000 1.931000 2.844000 0.000000 0.000000 0.000000 0.000000 0.000000 
0.000000 0.000000 0.000000 0.000000 0.000000 2.643000 2.643000 2.643000 2.643000 2.633000 2.623000 2.621000 2.605000 2.602000 2.426000 2.107000 2.101000 2.072000 2.051000 2.025000 1.994000 1.965000 1.954000 1.954000 1.950000 1.946000 1.946000 1.949000 1.954000 1.954000 1.951000 1.946000 1.943000 1.940000 1.940000 0.000000 0.000000 0.000000 0.000000 0.000000 
0.000000 0.000000 0.000000 0.000000 0.000000 2.644000 2.643000 2.642000 2.639000 2.622000 2.621000 2.599000 2.582000 2.582000 2.520000 2.120000 2.111000 2.097000 2.068000 2.043000 2.011000 1.974000 1.946000 1.943000 1.943000 1.942000 1.943000 1.947000 1.953000 1.942000 1.942000 1.943000 1.943000 1.943000 1.950000 0.000000 0.000000 0.000000 0.000000 0.000000 
0.000000 0.000000 0.000000 0.000000 0.000000 2.661000 2.643000 2.626000 2.622000 2.608000 2.602000 2.592000 2.582000 2.582000 2.582000 2.455000 2.162000 2.102000 2.071000 2.052000 2.033000 1.993000 1.954000 1.943000 1.938000 1.931000 1.943000 1.943000 1.943000 1.931000 1.936000 1.943000 1.943000 1.943000 1.934000 0.000000 0.000000 0.000000 0.000000 0.000000 
0.000000 0.000000 0.000000 0.000000 0.000000 0.000000 0.000000 0.000000 0.000000 0.000000 0.000000 0.000000 0.000000 0.000000 0.000000 0.000000 0.000000 0.000000 0.000000 0.000000 0.000000 0.000000 0.000000 0.000000 0.000000 0.000000 0.000000 0.000000 0.000000 0.000000 0.000000 0.000000 0.000000 0.000000 0.000000 0.000000 0.000000 0.000000 0.000000 0.000000 
0.000000 0.000000 0.000000 0.000000 0.000000 0.000000 0.000000 0.000000 0.000000 0.000000 0.000000 0.000000 0.000000 0.000000 0.000000 0.000000 0.000000 0.000000 0.000000 0.000000 0.000000 0.000000 0.000000 0.000000 0.000000 0.000000 0.000000 0.000000 0.000000 0.000000 0.000000 0.000000 0.000000 0.000000 0.000000 0.000000 0.000000 0.000000 0.000000 0.000000 
0.000000 0.000000 0.000000 0.000000 0.000000 0.000000 0.000000 0.000000 0.000000 0.000000 0.000000 0.000000 0.000000 0.000000 0.000000 0.000000 0.000000 0.000000 0.000000 0.000000 0.000000 0.000000 0.000000 0.000000 0.000000 0.000000 0.000000 0.000000 0.000000 0.000000 0.000000 0.000000 0.000000 0.000000 0.000000 0.000000 0.000000 0.000000 0.000000 0.000000 
0.000000 0.000000 0.000000 0.000000 0.000000 0.000000 0.000000 0.000000 0.000000 0.000000 0.000000 0.000000 0.000000 0.000000 0.000000 0.000000 0.000000 0.000000 0.000000 0.000000 0.000000 0.000000 0.000000 0.000000 0.000000 0.000000 0.000000 0.000000 0.000000 0.000000 0.000000 0.000000 0.000000 0.000000 0.000000 0.000000 0.000000 0.000000 0.000000 0.000000 
