0.000000,0.000000,0.000000,0.000000,0.000000,0.000000,0.000000,0.000000,0.000000,0.000000,2.609000,2.579000,2.570000,2.592000,2.597000,2.597000,2.595000,2.570000,2.570000,2.409000,2.120000,2.130000,2.130000,2.130000,2.131000,2.131000,2.131000,2.631000,2.658000,2.676000,2.653000,2.642000,2.611000,2.582000,2.570000,2.570000,0.000000,0.000000,0.000000,0.000000,
0.000000,0.000000,0.000000,0.000000,0.000000,0.000000,0.000000,0.000000,0.000000,0.000000,2.639000,2.504000,2.497000,2.517000,2.526000,2.529000,2.527000,2.505000,2.505000,2.366000,2.110000,2.110000,2.111000,2.112000,2.127000,2.131000,2.131000,2.157000,2.682000,2.676000,2.656000,2.642000,2.611000,2.584000,2.571000,2.570000,0.000000,0.000000,0.000000,0.000000,
0.000000,0.000000,0.000000,0.000000,0.000000,0.000000,0.000000,0.000000,0.000000,0.000000,2.657000,2.000000,2.013000,2.018000,2.044000,2.066000,2.074000,2.074000,2.074000,2.081000,2.093000,2.093000,2.102000,2.108000,2.123000,2.130000,2.131000,2.148000,2.575000,2.687000,2.673000,2.642000,2.611000,2.597000,2.579000,2.570000,0.000000,0.000000,0.000000,0.000000,
0.000000,0.000000,0.000000,0.000000,0.000000,0.000000,0.000000,0.000000,0.000000,2.000000,2.000000,2.000000,2.013000,2.018000,2.018000,2.036000,2.068000,2.069000,2.074000,2.079000,2.090000,2.093000,2.093000,2.093000,2.108000,2.129000,2.131000,2.112000,2.193000,2.705000,2.673000,2.642000,2.611000,2.597000,2.579000,2.570000,0.000000,0.000000,0.000000,0.000000,
0.000000,0.000000,0.000000,0.000000,0.000000,0.000000,0.000000,0.000000,2.720000,2.000000,2.000000,2.000000,2.013000,2.018000,2.018000,2.029000,2.048000,2.058000,2.074000,2.074000,2.079000,2.089000,2.093000,2.093000,2.108000,2.129000,2.131000,2.112000,2.195000,2.716000,2.684000,2.649000,2.617000,2.602000,2.579000,2.570000,0.000000,0.000000,0.000000,0.000000,
0.000000,0.000000,0.000000,0.000000,0.000000,0.000000,2.807000,2.018000,2.011000,2.000000,2.000000,2.000000,2.013000,2.018000,2.018000,2.018000,2.038000,2.058000,2.074000,2.074000,2.074000,2.079000,2.089000,2.093000,2.108000,2.129000,2.131000,2.121000,2.167000,2.511000,2.692000,2.665000,2.632000,2.609000,2.588000,2.573000,0.000000,0.000000,0.000000,0.000000,
0.000000,0.000000,0.000000,0.000000,2.073000,2.053000,2.032000,2.018000,2.011000,2.000000,2.000000,2.000000,2.013000,2.018000,2.018000,2.018000,2.037000,2.048000,2.066000,2.070000,2.063000,2.069000,2.079000,2.090000,2.108000,2.129000,2.131000,2.131000,2.132000,2.260000,2.682000,2.670000,2.639000,2.618000,2.602000,2.588000,0.000000,0.000000,0.000000,0.000000,
0.000000,0.000000,0.000000,0.000000,2.073000,2.053000,2.032000,2.018000,2.011000,2.000000,2.000000,2.000000,2.005000,2.016000,2.018000,2.018000,2.025000,2.039000,2.057000,2.059000,2.055000,2.058000,2.069000,2.087000,2.098000,2.116000,2.131000,2.130000,2.119000,2.244000,2.682000,2.670000,2.648000,2.633000,2.607000,2.597000,0.000000,0.000000,0.000000,0.000000,
0.000000,0.000000,0.000000,0.000000,2.073000,2.053000,2.035000,2.023000,2.003000,2.000000,2.000000,2.000000,2.000000,2.015000,2.018000,2.018000,2.018000,2.026000,2.041000,2.046000,2.055000,2.055000,2.067000,2.077000,2.090000,2.110000,2.117000,2.117000,2.112000,2.239000,2.682000,2.670000,2.653000,2.649000,2.627000,2.602000,0.000000,0.000000,0.000000,0.000000,
0.000000,0.000000,0.000000,0.000000,2.073000,2.053000,2.033000,2.015000,2.000000,1.993000,1.986000,1.995000,2.011000,2.017000,2.018000,2.018000,2.018000,2.021000,2.036000,2.043000,2.055000,2.063000,2.073000,2.074000,2.089000,2.110000,2.112000,2.113000,2.128000,2.256000,2.699000,2.670000,2.653000,2.640000,2.627000,2.604000,0.000000,0.000000,0.000000,0.000000,
0.000000,0.000000,0.000000,0.000000,2.073000,2.053000,2.032000,2.013000,2.000000,1.992000,1.983000,1.984000,1.997000,2.002000,2.017000,2.018000,2.018000,2.018000,2.024000,2.043000,2.055000,2.065000,2.074000,2.074000,2.075000,2.107000,2.112000,2.113000,2.131000,2.260000,2.702000,2.670000,2.653000,2.637000,2.625000,2.604000,0.000000,0.000000,0.000000,0.000000,
0.000000,0.000000,0.000000,0.000000,2.054000,2.036000,2.032000,2.013000,2.000000,1.992000,1.983000,1.983000,1.996000,2.000000,2.016000,2.018000,2.018000,2.018000,2.023000,2.036000,2.044000,2.065000,2.074000,2.074000,2.074000,2.107000,2.112000,2.113000,2.131000,2.260000,2.702000,2.670000,2.653000,2.637000,2.625000,2.604000,0.000000,0.000000,0.000000,0.000000,
0.000000,0.000000,0.000000,0.000000,2.036000,2.036000,2.036000,2.031000,2.011000,1.993000,1.985000,1.984000,1.994000,2.000000,2.015000,2.016000,2.018000,2.018000,2.022000,2.035000,2.044000,2.064000,2.074000,2.074000,2.074000,2.107000,2.112000,2.113000,2.131000,2.243000,2.648000,2.670000,2.653000,2.637000,2.607000,2.597000,0.000000,0.000000,0.000000,0.000000,
0.000000,0.000000,0.000000,0.000000,2.357000,2.039000,2.036000,2.031000,2.014000,2.002000,2.000000,1.989000,1.983000,1.995000,2.000000,2.000000,2.018000,2.018000,2.018000,2.023000,2.034000,2.054000,2.073000,2.074000,2.074000,2.107000,2.112000,2.113000,2.128000,2.131000,2.271000,2.612000,2.653000,2.637000,2.607000,2.597000,0.000000,0.000000,0.000000,0.000000,
0.000000,0.000000,0.000000,0.000000,0.000000,2.058000,2.041000,2.039000,2.031000,2.012000,2.000000,1.989000,1.983000,1.983000,1.999000,2.000000,2.013000,2.013000,2.015000,2.018000,2.026000,2.046000,2.064000,2.069000,2.073000,2.103000,2.107000,2.112000,2.115000,2.131000,2.131000,2.283000,2.582000,2.637000,2.607000,2.597000,0.000000,0.000000,0.000000,0.000000,
0.000000,0.000000,0.000000,0.000000,0.000000,2.694000,2.055000,2.051000,2.040000,2.019000,2.000000,1.993000,1.989000,1.989000,1.999000,2.000000,2.000000,2.000000,2.005000,2.018000,2.023000,2.039000,2.052000,2.055000,2.070000,2.091000,2.093000,2.112000,2.115000,2.131000,2.131000,2.131000,2.384000,2.637000,2.613000,2.607000,0.000000,0.000000,0.000000,0.000000,
0.000000,0.000000,0.000000,0.000000,0.000000,0.000000,2.063000,2.061000,2.048000,2.019000,2.000000,2.000000,2.000000,2.000000,2.000000,2.000000,2.000000,2.000000,2.005000,2.018000,2.018000,2.027000,2.043000,2.052000,2.070000,2.091000,2.093000,2.104000,2.106000,2.123000,2.125000,2.131000,2.390000,2.649000,2.629000,2.625000,0.000000,0.000000,0.000000,0.000000,
0.000000,0.000000,0.000000,0.000000,0.000000,0.000000,2.072000,2.061000,2.048000,2.023000,2.004000,2.000000,2.000000,2.000000,2.000000,2.000000,2.000000,2.000000,2.005000,2.018000,2.018000,2.022000,2.032000,2.042000,2.060000,2.089000,2.093000,2.093000,2.096000,2.112000,2.115000,2.125000,2.398000,2.665000,2.635000,2.625000,0.000000,0.000000,0.000000,0.000000,
0.000000,0.000000,0.000000,0.000000,0.000000,0.000000,2.061000,2.055000,2.048000,2.027000,2.014000,2.004000,2.000000,1.991000,1.990000,1.990000,2.000000,2.000000,2.005000,2.018000,2.018000,2.018000,2.029000,2.036000,2.051000,2.088000,2.093000,2.105000,2.106000,2.112000,2.112000,2.120000,2.234000,2.521000,2.646000,2.617000,0.000000,0.000000,0.000000,0.000000,
0.000000,0.000000,0.000000,0.000000,0.000000,1.015000,2.068000,2.068000,2.061000,2.047000,2.029000,2.006000,2.000000,1.986000,1.983000,1.983000,2.000000,2.000000,2.001000,2.005000,2.011000,2.018000,2.021000,2.032000,2.051000,2.077000,2.092000,2.112000,2.112000,2.112000,2.112000,2.120000,2.131000,2.429000,2.640000,2.606000,0.000000,0.000000,0.000000,0.000000,
0.000000,0.000000,0.000000,0.000000,0.000000,0.000000,0.000000,2.074000,2.072000,2.063000,2.034000,2.006000,2.000000,1.986000,1.983000,1.983000,2.000000,2.000000,2.000000,2.000000,2.002000,2.011000,2.018000,2.031000,2.039000,2.070000,2.078000,2.083000,2.097000,2.100000,2.112000,2.114000,2.109000,2.165000,2.484000,2.604000,0.000000,0.000000,0.000000,0.000000,
0.000000,0.000000,0.000000,0.000000,0.000000,0.000000,0.000000,2.074000,2.067000,2.048000,2.027000,2.006000,2.000000,1.986000,1.983000,1.983000,1.985000,1.988000,2.000000,2.000000,2.000000,2.001000,2.012000,2.020000,2.033000,2.069000,2.074000,2.075000,2.093000,2.097000,2.112000,2.112000,2.103000,2.093000,2.443000,2.604000,0.000000,0.000000,0.000000,0.000000,
0.000000,0.000000,0.000000,0.000000,0.000000,0.000000,0.000000,0.000000,0.000000,2.046000,2.026000,2.018000,2.004000,1.999000,1.984000,1.983000,1.983000,1.986000,2.000000,2.000000,2.000000,2.000000,2.011000,2.018000,2.019000,2.051000,2.056000,2.058000,2.093000,2.097000,2.112000,2.112000,2.112000,2.111000,2.125000,2.499000,0.000000,0.000000,0.000000,0.000000,
0.000000,0.000000,0.000000,0.000000,0.000000,0.000000,0.000000,0.000000,0.000000,2.046000,2.026000,2.018000,2.005000,2.000000,1.984000,1.983000,1.965000,1.968000,1.982000,1.989000,2.000000,2.000000,2.000000,2.013000,2.018000,2.034000,2.054000,2.058000,2.093000,2.097000,2.111000,2.111000,2.112000,2.113000,2.113000,2.495000,0.000000,0.000000,0.000000,0.000000,
0.000000,0.000000,0.000000,0.000000,0.000000,0.000000,0.000000,0.000000,0.000000,2.058000,2.028000,2.019000,2.005000,2.000000,1.984000,1.983000,1.965000,1.965000,1.970000,1.983000,1.990000,2.000000,2.000000,2.011000,2.017000,2.034000,2.052000,2.072000,2.093000,2.093000,2.093000,2.101000,2.112000,2.123000,2.129000,2.447000,0.000000,0.000000,0.000000,0.000000,
0.000000,0.000000,0.000000,0.000000,0.000000,0.000000,0.000000,0.000000,0.000000,2.290000,2.046000,2.024000,2.005000,2.000000,1.984000,1.983000,1.965000,1.965000,1.970000,1.983000,1.990000,2.000000,2.000000,2.000000,2.014000,2.034000,2.036000,2.057000,2.089000,2.093000,2.093000,2.101000,2.112000,2.120000,2.117000,2.112000,0.000000,0.000000,0.000000,0.000000,
0.000000,0.000000,0.000000,0.000000,0.000000,0.000000,0.000000,0.000000,0.000000,0.000000,2.053000,2.026000,2.009000,2.001000,1.984000,1.983000,1.965000,1.965000,1.970000,1.983000,1.988000,1.998000,2.000000,2.000000,2.014000,2.034000,2.036000,2.056000,2.071000,2.093000,2.093000,2.098000,2.109000,2.112000,2.112000,2.108000,0.000000,0.000000,0.000000,0.000000,
0.000000,0.000000,0.000000,0.000000,0.000000,0.000000,0.000000,0.000000,0.000000,0.000000,2.047000,2.033000,2.020000,2.003000,1.984000,1.983000,1.972000,1.965000,1.968000,1.978000,1.983000,1.988000,1.997000,2.000000,2.020000,2.035000,2.036000,2.055000,2.059000,2.087000,2.093000,2.093000,2.099000,2.109000,2.112000,2.098000,0.000000,0.000000,0.000000,0.000000,
0.000000,0.000000,0.000000,0.000000,0.000000,0.000000,0.000000,0.000000,0.000000,0.000000,2.036000,2.036000,2.023000,2.003000,1.992000,1.991000,1.981000,1.965000,1.965000,1.968000,1.978000,1.983000,1.993000,2.000000,2.021000,2.027000,2.027000,2.046000,2.050000,2.076000,2.084000,2.087000,2.093000,2.099000,2.109000,2.098000,0.000000,0.000000,0.000000,0.000000,
0.000000,0.000000,0.000000,0.000000,0.000000,0.000000,0.000000,0.000000,0.000000,0.000000,2.487000,2.026000,2.020000,2.012000,2.001000,2.000000,1.981000,1.965000,1.962000,1.955000,1.963000,1.978000,1.993000,2.000000,2.014000,2.018000,2.018000,2.036000,2.041000,2.074000,2.074000,2.082000,2.093000,2.093000,2.098000,2.103000,0.000000,0.000000,0.000000,0.000000,
0.000000,0.000000,0.000000,0.000000,0.000000,0.000000,0.000000,0.000000,0.000000,0.000000,2.826000,2.018000,2.018000,2.018000,2.002000,2.000000,1.982000,1.975000,1.961000,1.948000,1.955000,1.974000,1.993000,2.000000,2.014000,2.018000,2.018000,2.036000,2.041000,2.074000,2.074000,2.077000,2.080000,2.088000,2.093000,2.107000,0.000000,0.000000,0.000000,0.000000,
0.000000,0.000000,0.000000,0.000000,0.000000,0.000000,0.000000,0.000000,0.000000,0.000000,2.826000,2.018000,2.018000,2.018000,2.002000,2.000000,1.983000,1.980000,1.964000,1.961000,1.963000,1.974000,1.993000,2.000000,2.014000,2.018000,2.031000,2.036000,2.039000,2.060000,2.064000,2.068000,2.060000,2.071000,2.088000,2.107000,0.000000,0.000000,0.000000,0.000000,
0.000000,0.000000,0.000000,0.000000,0.000000,0.000000,0.000000,0.000000,0.000000,0.000000,0.000000,2.555000,2.018000,2.018000,2.002000,2.000000,1.996000,1.980000,1.965000,1.965000,1.965000,1.967000,1.979000,1.996000,2.014000,2.018000,2.035000,2.036000,2.036000,2.039000,2.040000,2.041000,2.047000,2.066000,2.087000,0.000000,0.000000,0.000000,0.000000,0.000000,
0.000000,0.000000,0.000000,0.000000,0.000000,0.000000,0.000000,0.000000,0.000000,0.000000,0.000000,2.664000,2.018000,2.018000,2.002000,2.000000,2.000000,1.996000,1.977000,1.965000,1.965000,1.965000,1.976000,1.995000,2.014000,2.018000,2.035000,2.036000,2.036000,2.036000,2.036000,2.036000,2.883000,0.000000,0.000000,0.000000,0.000000,0.000000,0.000000,0.000000,
0.000000,0.000000,0.000000,0.000000,0.000000,0.000000,0.000000,0.000000,0.000000,0.000000,0.000000,0.000000,2.529000,2.021000,2.018000,2.000000,2.000000,2.000000,1.991000,1.965000,1.965000,1.965000,1.976000,1.983000,1.996000,2.016000,2.035000,2.036000,2.036000,2.036000,2.625000,0.000000,0.000000,0.000000,0.000000,0.000000,0.000000,0.000000,0.000000,0.000000,
0.000000,0.000000,0.000000,0.000000,0.000000,0.000000,0.000000,0.000000,0.000000,0.000000,0.000000,0.000000,2.656000,2.055000,2.018000,2.018000,2.000000,1.997000,1.978000,1.963000,1.963000,1.973000,1.981000,1.981000,1.995000,2.016000,2.035000,2.036000,2.036000,2.036000,2.625000,0.000000,0.000000,0.000000,0.000000,0.000000,0.000000,0.000000,0.000000,0.000000,
0.000000,0.000000,0.000000,0.000000,0.000000,0.000000,0.000000,0.000000,0.000000,0.000000,0.000000,0.000000,0.000000,2.354000,2.020000,2.018000,2.000000,1.994000,1.971000,1.948000,1.948000,1.955000,1.964000,1.965000,1.979000,2.014000,2.035000,2.036000,2.039000,2.039000,2.624000,0.000000,0.000000,0.000000,0.000000,0.000000,0.000000,0.000000,0.000000,0.000000,
0.000000,0.000000,0.000000,0.000000,0.000000,0.000000,0.000000,0.000000,0.000000,0.000000,0.000000,0.000000,0.000000,2.350000,2.019000,2.018000,1.998000,1.980000,1.961000,1.946000,1.943000,1.946000,1.958000,1.965000,2.368000,2.500000,2.516000,2.004000,1.471000,1.909000,1.793000,0.000000,0.000000,0.000000,0.000000,0.000000,0.000000,0.000000,0.000000,0.000000,
0.000000,0.000000,0.000000,0.000000,0.000000,0.000000,0.000000,0.000000,0.000000,0.000000,0.000000,0.000000,0.000000,2.339000,2.018000,2.018000,1.998000,1.980000,1.961000,1.942000,1.931000,1.940000,1.958000,1.965000,0.000000,0.000000,0.000000,1.916000,0.000000,1.509000,0.000000,1.237000,0.000000,0.000000,0.000000,0.000000,0.000000,0.000000,0.000000,0.000000,
0.000000,0.000000,0.000000,0.000000,0.000000,0.000000,0.000000,0.000000,0.000000,0.000000,0.000000,0.000000,0.000000,0.000000,0.000000,0.000000,0.000000,0.000000,0.000000,0.000000,0.000000,0.000000,0.000000,0.000000,0.000000,0.000000,0.000000,0.000000,0.000000,0.000000,0.000000,0.000000,0.000000,0.000000,0.000000,0.000000,0.000000,0.000000,0.000000,0.000000,
