0.000000,0.000000,0.000000,0.000000,0.000000,0.000000,0.000000,0.000000,0.000000,0.000000,0.000000,0.000000,0.000000,0.000000,0.000000,0.000000,0.000000,0.000000,0.000000,0.000000,0.000000,0.000000,0.000000,0.000000,0.000000,0.000000,0.000000,0.000000,0.000000,0.000000,0.000000,0.000000,0.000000,0.000000,0.000000,0.000000,0.000000,0.000000,0.000000,0.000000,
0.000000,0.000000,0.000000,0.000000,0.000000,0.000000,0.000000,0.000000,0.000000,0.000000,0.000000,0.000000,0.000000,0.000000,0.000000,0.000000,0.000000,0.000000,0.000000,2.368000,2.005000,2.000000,2.000000,1.986000,1.975000,1.975000,1.975000,1.988000,2.025000,2.267000,0.000000,0.000000,0.000000,0.000000,0.000000,0.000000,0.000000,0.000000,0.000000,0.000000,
0.000000,0.000000,0.000000,0.000000,0.000000,0.000000,0.000000,0.000000,0.000000,2.483000,2.465000,2.449000,2.443000,2.443000,2.431000,2.388000,2.350000,2.340000,2.320000,2.043000,2.001000,2.000000,1.986000,1.964000,1.954000,1.962000,1.975000,1.982000,2.007000,2.267000,0.000000,0.000000,0.000000,0.000000,0.000000,0.000000,0.000000,0.000000,0.000000,0.000000,
0.000000,0.000000,0.000000,0.000000,0.000000,0.000000,0.000000,0.000000,2.308000,2.156000,2.141000,2.129000,2.120000,2.100000,2.078000,2.050000,2.025000,2.024000,2.001000,2.000000,1.984000,1.980000,1.964000,1.953000,1.951000,1.953000,1.956000,1.967000,2.001000,2.052000,2.533000,0.000000,0.000000,0.000000,0.000000,0.000000,0.000000,0.000000,0.000000,0.000000,
0.000000,0.000000,0.000000,0.000000,0.000000,2.965000,2.965000,2.313000,2.142000,2.136000,2.132000,2.129000,2.110000,2.081000,2.069000,2.045000,2.025000,2.024000,2.001000,2.000000,1.980000,1.975000,1.960000,1.951000,1.951000,1.951000,1.951000,1.963000,2.000000,2.000000,2.047000,0.000000,0.000000,0.000000,0.000000,0.000000,0.000000,0.000000,0.000000,0.000000,
0.000000,0.000000,0.000000,0.000000,0.000000,2.156000,2.156000,2.156000,2.136000,2.129000,2.129000,2.129000,2.107000,2.076000,2.065000,2.032000,2.025000,2.024000,2.001000,1.986000,1.977000,1.964000,1.954000,1.951000,1.951000,1.951000,1.951000,1.959000,1.984000,1.984000,2.031000,0.000000,0.000000,0.000000,0.000000,0.000000,0.000000,0.000000,0.000000,0.000000,
0.000000,0.000000,0.000000,0.000000,0.000000,2.156000,2.156000,2.156000,2.148000,2.134000,2.129000,2.121000,2.098000,2.076000,2.063000,2.025000,2.025000,2.024000,2.001000,1.978000,1.975000,1.958000,1.951000,1.951000,1.951000,1.951000,1.951000,1.957000,1.975000,1.975000,2.021000,0.000000,0.000000,0.000000,0.000000,0.000000,0.000000,0.000000,0.000000,0.000000,
0.000000,0.000000,0.000000,0.000000,0.000000,2.156000,2.156000,2.156000,2.156000,2.138000,2.129000,2.116000,2.097000,2.080000,2.053000,2.025000,2.025000,2.024000,2.001000,1.978000,1.975000,1.958000,1.951000,1.951000,1.951000,1.951000,1.951000,1.957000,1.975000,1.976000,2.033000,0.000000,0.000000,0.000000,0.000000,0.000000,0.000000,0.000000,0.000000,0.000000,
0.000000,0.000000,0.000000,0.000000,0.000000,2.156000,2.156000,2.156000,2.148000,2.135000,2.129000,2.116000,2.102000,2.084000,2.046000,2.034000,2.025000,2.025000,2.011000,1.979000,1.975000,1.958000,1.951000,1.951000,1.951000,1.951000,1.951000,1.957000,1.975000,1.976000,2.035000,0.000000,0.000000,0.000000,0.000000,0.000000,0.000000,0.000000,0.000000,0.000000,
0.000000,0.000000,0.000000,0.000000,0.000000,2.166000,2.157000,2.156000,2.136000,2.129000,2.129000,2.116000,2.098000,2.079000,2.050000,2.045000,2.025000,2.025000,2.025000,1.989000,1.983000,1.960000,1.951000,1.951000,1.951000,1.951000,1.951000,1.957000,1.975000,1.975000,2.005000,0.000000,0.000000,0.000000,0.000000,0.000000,0.000000,0.000000,0.000000,0.000000,
0.000000,0.000000,0.000000,0.000000,0.000000,2.184000,2.159000,2.156000,2.136000,2.129000,2.129000,2.116000,2.091000,2.067000,2.050000,2.045000,2.025000,2.025000,2.025000,2.003000,2.000000,1.969000,1.953000,1.951000,1.951000,1.954000,1.957000,1.962000,1.975000,1.976000,1.982000,1.999000,0.000000,0.000000,0.000000,0.000000,0.000000,0.000000,0.000000,0.000000,
0.000000,0.000000,0.000000,0.000000,0.000000,2.184000,2.159000,2.152000,2.135000,2.129000,2.129000,2.118000,2.096000,2.070000,2.050000,2.045000,2.025000,2.025000,2.025000,2.003000,2.000000,1.982000,1.960000,1.951000,1.951000,1.959000,1.971000,1.972000,1.975000,1.977000,1.995000,1.995000,0.000000,0.000000,0.000000,0.000000,0.000000,0.000000,0.000000,0.000000,
0.000000,0.000000,0.000000,0.000000,0.000000,2.184000,2.159000,2.134000,2.129000,2.129000,2.129000,2.129000,2.118000,2.084000,2.050000,2.045000,2.025000,2.025000,2.025000,2.003000,2.000000,1.982000,1.960000,1.951000,1.951000,1.951000,1.951000,1.957000,1.975000,1.975000,1.975000,1.975000,1.997000,0.000000,0.000000,0.000000,0.000000,0.000000,0.000000,0.000000,
0.000000,0.000000,0.000000,0.000000,0.000000,2.268000,2.169000,2.134000,2.129000,2.129000,2.129000,2.129000,2.118000,2.084000,2.050000,2.045000,2.025000,2.025000,2.025000,2.003000,2.000000,1.982000,1.960000,1.951000,1.951000,1.951000,1.951000,1.957000,1.975000,1.975000,1.975000,1.975000,1.996000,0.000000,0.000000,0.000000,0.000000,0.000000,0.000000,0.000000,
0.000000,0.000000,0.000000,0.000000,0.000000,0.000000,2.486000,2.134000,2.129000,2.129000,2.129000,2.129000,2.118000,2.084000,2.050000,2.045000,2.025000,2.025000,2.025000,2.003000,2.000000,1.982000,1.960000,1.951000,1.951000,1.951000,1.951000,1.957000,1.975000,1.975000,1.975000,1.975000,1.976000,0.000000,0.000000,0.000000,0.000000,0.000000,0.000000,0.000000,
0.000000,0.000000,0.000000,0.000000,0.000000,0.000000,2.514000,2.153000,2.153000,2.137000,2.129000,2.129000,2.118000,2.084000,2.050000,2.045000,2.025000,2.025000,2.025000,2.003000,2.000000,1.982000,1.960000,1.951000,1.951000,1.951000,1.951000,1.957000,1.975000,1.975000,1.975000,1.975000,1.975000,0.000000,0.000000,0.000000,0.000000,0.000000,0.000000,0.000000,
0.000000,0.000000,0.000000,0.000000,0.000000,2.809000,2.232000,2.156000,2.156000,2.138000,2.129000,2.129000,2.118000,2.084000,2.045000,2.029000,2.025000,2.025000,2.025000,2.003000,2.000000,1.982000,1.960000,1.951000,1.951000,1.951000,1.951000,1.957000,1.975000,1.975000,1.975000,1.975000,1.992000,0.000000,0.000000,0.000000,0.000000,0.000000,0.000000,0.000000,
0.000000,0.000000,0.000000,0.000000,0.000000,2.164000,2.157000,2.156000,2.156000,2.138000,2.129000,2.129000,2.118000,2.084000,2.043000,2.025000,2.025000,2.025000,2.025000,2.003000,2.000000,1.982000,1.960000,1.951000,1.951000,1.951000,1.951000,1.957000,1.975000,1.975000,1.975000,1.975000,1.997000,0.000000,0.000000,0.000000,0.000000,0.000000,0.000000,0.000000,
0.000000,0.000000,0.000000,0.000000,0.000000,2.156000,2.156000,2.156000,2.156000,2.138000,2.129000,2.129000,2.118000,2.084000,2.048000,2.038000,2.025000,2.025000,2.025000,2.017000,1.991000,1.978000,1.960000,1.951000,1.951000,1.951000,1.951000,1.957000,1.975000,1.975000,1.975000,1.975000,1.997000,0.000000,0.000000,0.000000,0.000000,0.000000,0.000000,0.000000,
0.000000,0.000000,0.000000,0.000000,0.000000,2.156000,2.156000,2.156000,2.156000,2.138000,2.129000,2.129000,2.118000,2.089000,2.061000,2.045000,2.025000,2.025000,2.025000,2.013000,1.982000,1.965000,1.955000,1.951000,1.951000,1.951000,1.951000,1.957000,1.975000,1.975000,1.975000,1.975000,1.984000,0.000000,0.000000,0.000000,0.000000,0.000000,0.000000,0.000000,
0.000000,0.000000,0.000000,0.000000,0.000000,0.000000,2.307000,2.156000,2.156000,2.147000,2.135000,2.129000,2.118000,2.097000,2.078000,2.048000,2.036000,2.025000,2.025000,2.003000,1.980000,1.958000,1.951000,1.951000,1.951000,1.951000,1.951000,1.957000,1.975000,1.975000,1.975000,1.975000,1.975000,2.983000,0.000000,0.000000,0.000000,0.000000,0.000000,0.000000,
0.000000,0.000000,0.000000,0.000000,0.000000,0.000000,2.467000,2.156000,2.156000,2.149000,2.136000,2.129000,2.118000,2.095000,2.073000,2.050000,2.047000,2.025000,2.015000,2.002000,1.980000,1.958000,1.951000,1.951000,1.951000,1.951000,1.951000,1.957000,1.975000,1.975000,1.975000,1.975000,1.975000,1.975000,0.000000,0.000000,0.000000,0.000000,0.000000,0.000000,
0.000000,0.000000,0.000000,0.000000,0.000000,0.000000,2.467000,2.156000,2.156000,2.138000,2.129000,2.129000,2.118000,2.084000,2.050000,2.050000,2.047000,2.024000,2.001000,2.000000,1.980000,1.958000,1.951000,1.951000,1.951000,1.951000,1.951000,1.957000,1.975000,1.975000,1.975000,1.975000,1.975000,1.975000,0.000000,0.000000,0.000000,0.000000,0.000000,0.000000,
0.000000,0.000000,0.000000,0.000000,0.000000,0.000000,0.000000,2.281000,2.149000,2.136000,2.129000,2.129000,2.118000,2.084000,2.050000,2.050000,2.047000,2.024000,2.007000,2.001000,1.980000,1.962000,1.953000,1.951000,1.951000,1.951000,1.951000,1.957000,1.975000,1.975000,1.975000,1.975000,1.975000,1.975000,0.000000,0.000000,0.000000,0.000000,0.000000,0.000000,
0.000000,0.000000,0.000000,0.000000,0.000000,0.000000,0.000000,2.656000,2.129000,2.129000,2.129000,2.129000,2.118000,2.084000,2.050000,2.050000,2.048000,2.029000,2.025000,2.003000,1.984000,1.976000,1.962000,1.953000,1.951000,1.951000,1.951000,1.957000,1.975000,1.975000,1.975000,1.975000,1.975000,1.975000,0.000000,0.000000,0.000000,0.000000,0.000000,0.000000,
0.000000,0.000000,0.000000,0.000000,0.000000,0.000000,0.000000,2.908000,2.209000,2.130000,2.129000,2.129000,2.118000,2.084000,2.050000,2.050000,2.050000,2.047000,2.026000,2.003000,2.000000,1.984000,1.976000,1.962000,1.951000,1.951000,1.951000,1.956000,1.973000,1.973000,1.975000,1.975000,1.975000,1.975000,0.000000,0.000000,0.000000,0.000000,0.000000,0.000000,
0.000000,0.000000,0.000000,0.000000,0.000000,0.000000,0.000000,0.000000,2.964000,2.138000,2.129000,2.129000,2.118000,2.084000,2.050000,2.050000,2.047000,2.025000,2.025000,2.003000,2.000000,2.000000,1.984000,1.962000,1.951000,1.951000,1.951000,1.951000,1.951000,1.953000,1.975000,1.975000,1.975000,1.975000,0.000000,0.000000,0.000000,0.000000,0.000000,0.000000,
0.000000,0.000000,0.000000,0.000000,0.000000,0.000000,0.000000,0.000000,2.938000,2.138000,2.129000,2.129000,2.118000,2.084000,2.050000,2.050000,2.047000,2.025000,2.025000,2.003000,2.000000,2.000000,1.984000,1.962000,1.951000,1.942000,1.928000,1.934000,1.951000,1.951000,1.952000,1.952000,1.952000,1.970000,0.000000,0.000000,0.000000,0.000000,0.000000,0.000000,
0.000000,0.000000,0.000000,0.000000,0.000000,0.000000,0.000000,0.000000,2.936000,2.154000,2.139000,2.129000,2.118000,2.084000,2.050000,2.050000,2.047000,2.025000,2.025000,2.003000,2.000000,2.000000,1.984000,1.962000,1.951000,1.941000,1.927000,1.933000,1.951000,1.951000,1.951000,1.951000,1.951000,1.970000,0.000000,0.000000,0.000000,0.000000,0.000000,0.000000,
0.000000,0.000000,0.000000,0.000000,0.000000,0.000000,0.000000,0.000000,2.915000,2.156000,2.141000,2.129000,2.118000,2.098000,2.080000,2.050000,2.047000,2.025000,2.025000,2.003000,1.984000,1.980000,1.977000,1.962000,1.951000,1.949000,1.946000,1.947000,1.951000,1.951000,1.951000,1.951000,1.951000,1.970000,0.000000,0.000000,0.000000,0.000000,0.000000,0.000000,
0.000000,0.000000,0.000000,0.000000,0.000000,0.000000,0.000000,0.000000,2.890000,2.156000,2.141000,2.129000,2.118000,2.102000,2.088000,2.050000,2.047000,2.025000,2.025000,2.003000,1.980000,1.975000,1.975000,1.962000,1.951000,1.951000,1.951000,1.951000,1.951000,1.951000,1.951000,1.951000,1.951000,1.957000,0.000000,0.000000,0.000000,0.000000,0.000000,0.000000,
0.000000,0.000000,0.000000,0.000000,0.000000,0.000000,0.000000,0.000000,2.882000,2.156000,2.141000,2.129000,2.118000,2.102000,2.088000,2.050000,2.047000,2.025000,2.025000,2.003000,1.980000,1.975000,1.975000,1.962000,1.951000,1.951000,1.951000,1.951000,1.951000,1.951000,1.951000,1.951000,1.951000,1.951000,0.000000,0.000000,0.000000,0.000000,0.000000,0.000000,
0.000000,0.000000,0.000000,0.000000,0.000000,0.000000,0.000000,0.000000,0.000000,2.671000,2.141000,2.129000,2.118000,2.102000,2.088000,2.047000,2.035000,2.025000,2.025000,2.003000,1.980000,1.975000,1.967000,1.956000,1.951000,1.951000,1.951000,1.951000,1.951000,1.951000,1.951000,1.951000,1.951000,1.951000,0.000000,0.000000,0.000000,0.000000,0.000000,0.000000,
0.000000,0.000000,0.000000,0.000000,0.000000,0.000000,0.000000,0.000000,0.000000,0.000000,2.141000,2.129000,2.118000,2.102000,2.088000,2.045000,2.025000,2.025000,2.025000,2.003000,1.980000,1.975000,1.960000,1.951000,1.951000,1.951000,1.951000,1.951000,1.951000,1.951000,1.951000,1.951000,1.951000,1.951000,0.000000,0.000000,0.000000,0.000000,0.000000,0.000000,
0.000000,0.000000,0.000000,0.000000,0.000000,0.000000,0.000000,0.000000,0.000000,0.000000,2.593000,2.129000,2.118000,2.102000,2.086000,2.037000,2.024000,2.015000,2.015000,2.002000,1.980000,1.975000,1.966000,1.961000,1.961000,1.957000,1.951000,1.953000,1.959000,1.951000,1.951000,1.951000,1.951000,2.734000,0.000000,0.000000,0.000000,0.000000,0.000000,0.000000,
0.000000,0.000000,0.000000,0.000000,0.000000,0.000000,0.000000,0.000000,0.000000,0.000000,0.000000,2.548000,2.121000,2.111000,2.088000,2.024000,2.014000,1.992000,1.992000,1.992000,1.978000,1.981000,1.978000,1.975000,1.975000,1.962000,1.943000,1.951000,1.971000,1.951000,1.951000,1.951000,2.643000,0.000000,0.000000,0.000000,0.000000,0.000000,0.000000,0.000000,
0.000000,0.000000,0.000000,0.000000,0.000000,0.000000,0.000000,0.000000,0.000000,0.000000,0.000000,0.000000,2.779000,2.779000,2.753000,2.553000,1.997000,1.975000,1.975000,1.975000,1.975000,1.997000,1.994000,1.984000,1.978000,1.955000,1.927000,1.939000,1.972000,2.014000,2.557000,2.557000,0.000000,0.000000,0.000000,0.000000,0.000000,0.000000,0.000000,0.000000,
0.000000,0.000000,0.000000,0.000000,0.000000,0.000000,0.000000,0.000000,0.000000,0.000000,0.000000,0.000000,0.000000,0.000000,0.000000,0.000000,1.997000,1.975000,1.975000,1.975000,1.975000,2.011000,2.025000,2.011000,1.988000,1.955000,1.927000,1.939000,1.975000,2.214000,0.000000,0.000000,0.000000,0.000000,0.000000,0.000000,0.000000,0.000000,0.000000,0.000000,
0.000000,0.000000,0.000000,0.000000,0.000000,0.000000,0.000000,0.000000,0.000000,0.000000,0.000000,0.000000,0.000000,0.000000,0.000000,0.000000,0.000000,0.000000,0.000000,0.000000,0.000000,0.000000,0.000000,0.000000,0.000000,0.000000,0.000000,0.000000,0.000000,0.000000,0.000000,0.000000,0.000000,0.000000,0.000000,0.000000,0.000000,0.000000,0.000000,0.000000,
0.000000,0.000000,0.000000,0.000000,0.000000,0.000000,0.000000,0.000000,0.000000,0.000000,0.000000,0.000000,0.000000,0.000000,0.000000,0.000000,0.000000,0.000000,0.000000,0.000000,0.000000,0.000000,0.000000,0.000000,0.000000,0.000000,0.000000,0.000000,0.000000,0.000000,0.000000,0.000000,0.000000,0.000000,0.000000,0.000000,0.000000,0.000000,0.000000,0.000000,
