0.000000,0.000000,0.000000,0.000000,0.000000,0.000000,0.000000,0.000000,0.000000,0.000000,0.000000,0.000000,0.000000,0.000000,0.000000,0.000000,0.000000,0.000000,0.000000,0.000000,0.000000,0.000000,0.000000,0.000000,0.000000,0.000000,0.000000,0.000000,0.000000,0.000000,0.000000,0.000000,0.000000,0.000000,0.000000,0.000000,0.000000,0.000000,0.000000,0.000000,
0.000000,0.000000,0.000000,0.000000,0.000000,0.000000,0.000000,0.000000,0.000000,0.000000,0.000000,0.000000,0.000000,0.000000,0.000000,0.000000,0.000000,0.000000,0.000000,0.000000,0.000000,2.001000,2.661000,2.786000,1.995000,1.996000,1.997000,1.996000,1.993000,1.990000,1.986000,0.000000,0.000000,0.000000,0.000000,0.000000,0.000000,0.000000,0.000000,0.000000,
0.000000,0.000000,0.000000,0.000000,0.000000,0.000000,0.000000,0.000000,0.000000,0.000000,0.000000,2.026000,2.021000,2.020000,2.022000,2.022000,2.015000,2.005000,2.000000,2.002000,2.000000,2.000000,2.000000,1.996000,1.995000,1.991000,1.990000,1.991000,1.992000,1.990000,1.988000,0.000000,0.000000,0.000000,0.000000,0.000000,0.000000,0.000000,0.000000,0.000000,
0.000000,0.000000,0.000000,0.000000,0.000000,0.000000,0.000000,2.701000,2.033000,2.026000,2.026000,2.026000,2.026000,2.021000,2.020000,2.020000,2.014000,2.005000,2.005000,2.000000,2.000000,2.000000,2.000000,1.997000,1.995000,1.991000,1.990000,1.990000,1.990000,1.986000,1.990000,0.000000,0.000000,0.000000,0.000000,0.000000,0.000000,0.000000,0.000000,0.000000,
0.000000,0.000000,0.000000,0.000000,0.000000,0.000000,0.000000,2.031000,2.029000,2.027000,2.026000,2.026000,2.026000,2.024000,2.020000,2.015000,2.018000,2.005000,2.005000,2.004000,2.000000,2.000000,2.000000,1.999000,1.997000,1.992000,1.990000,1.990000,1.990000,1.986000,1.987000,0.000000,0.000000,0.000000,0.000000,0.000000,0.000000,0.000000,0.000000,0.000000,
0.000000,0.000000,0.000000,0.000000,0.000000,0.000000,0.000000,2.033000,2.028000,2.026000,2.026000,2.026000,2.026000,2.026000,2.020000,2.015000,2.019000,2.005000,2.005000,2.004000,2.000000,2.000000,2.000000,2.000000,1.995000,1.992000,1.990000,1.990000,1.990000,1.987000,1.989000,0.000000,0.000000,0.000000,0.000000,0.000000,0.000000,0.000000,0.000000,0.000000,
0.000000,0.000000,0.000000,0.000000,0.000000,0.000000,0.000000,2.031000,2.031000,2.031000,2.027000,2.026000,2.026000,2.026000,2.015000,2.015000,2.010000,2.005000,2.005000,2.004000,2.000000,2.000000,2.000000,2.000000,1.995000,1.992000,1.990000,1.990000,1.990000,1.987000,1.986000,0.000000,0.000000,0.000000,0.000000,0.000000,0.000000,0.000000,0.000000,0.000000,
0.000000,0.000000,0.000000,0.000000,0.000000,0.000000,0.000000,2.033000,2.031000,2.031000,2.026000,2.026000,2.026000,2.020000,2.020000,2.015000,2.010000,2.005000,2.005000,2.004000,2.000000,2.000000,2.000000,2.000000,1.997000,1.995000,1.990000,1.990000,1.987000,1.986000,1.986000,1.848000,0.000000,0.000000,0.000000,0.000000,0.000000,0.000000,0.000000,0.000000,
0.000000,0.000000,0.000000,0.000000,0.000000,0.000000,0.000000,2.031000,2.031000,2.026000,2.026000,2.026000,2.020000,2.026000,2.026000,2.020000,2.010000,2.005000,2.005000,2.000000,2.000000,2.000000,2.000000,2.000000,1.997000,1.995000,1.995000,1.990000,1.986000,1.986000,1.986000,1.986000,0.000000,0.000000,0.000000,0.000000,0.000000,0.000000,0.000000,0.000000,
0.000000,0.000000,0.000000,0.000000,0.000000,0.000000,0.000000,2.031000,2.031000,2.028000,2.026000,2.026000,2.026000,2.026000,2.026000,2.020000,2.015000,2.009000,2.005000,2.000000,2.000000,2.000000,2.000000,1.998000,1.995000,1.995000,1.992000,1.990000,1.986000,1.986000,1.986000,1.986000,0.000000,0.000000,0.000000,0.000000,0.000000,0.000000,0.000000,0.000000,
0.000000,0.000000,0.000000,0.000000,0.000000,0.000000,0.000000,2.031000,2.031000,2.028000,2.026000,2.026000,2.026000,2.020000,2.020000,2.015000,2.014000,2.009000,2.005000,2.000000,2.000000,2.000000,2.000000,2.000000,1.992000,1.993000,1.992000,1.990000,1.986000,1.986000,1.981000,1.981000,0.000000,0.000000,0.000000,0.000000,0.000000,0.000000,0.000000,0.000000,
0.000000,0.000000,0.000000,0.000000,0.000000,0.000000,0.000000,2.031000,2.031000,2.031000,2.027000,2.026000,2.020000,2.020000,2.020000,2.015000,2.005000,2.005000,2.005000,2.004000,2.000000,2.000000,2.000000,2.000000,1.992000,1.990000,1.990000,1.987000,1.986000,1.986000,1.982000,1.821000,0.000000,0.000000,0.000000,0.000000,0.000000,0.000000,0.000000,0.000000,
0.000000,0.000000,0.000000,0.000000,0.000000,0.000000,0.000000,2.033000,2.030000,2.030000,2.027000,2.026000,2.021000,2.020000,2.020000,2.015000,2.005000,2.005000,2.005000,2.005000,2.000000,2.000000,2.000000,2.000000,1.995000,1.992000,1.990000,1.986000,1.986000,1.986000,1.986000,0.000000,0.000000,0.000000,0.000000,0.000000,0.000000,0.000000,0.000000,0.000000,
0.000000,0.000000,0.000000,0.000000,0.000000,0.000000,0.000000,2.032000,2.029000,2.026000,2.026000,2.026000,2.026000,2.022000,2.020000,2.015000,2.010000,2.005000,2.005000,2.005000,2.000000,2.000000,1.998000,1.997000,1.995000,1.992000,1.990000,1.986000,1.986000,1.986000,1.985000,0.000000,0.000000,0.000000,0.000000,0.000000,0.000000,0.000000,0.000000,0.000000,
0.000000,0.000000,0.000000,0.000000,0.000000,0.000000,0.000000,2.035000,2.032000,2.031000,2.026000,2.026000,2.024000,2.024000,2.020000,2.013000,2.008000,2.005000,2.005000,2.005000,2.003000,2.000000,1.998000,1.995000,1.995000,1.992000,1.989000,1.986000,1.986000,1.986000,1.976000,0.000000,0.000000,0.000000,0.000000,0.000000,0.000000,0.000000,0.000000,0.000000,
0.000000,0.000000,0.000000,0.000000,0.000000,0.000000,0.000000,2.035000,2.031000,2.031000,2.027000,2.026000,2.023000,2.020000,2.020000,2.010000,2.005000,2.005000,2.005000,2.005000,2.002000,2.000000,1.999000,1.995000,1.995000,1.991000,1.987000,1.986000,1.986000,1.984000,1.981000,1.981000,0.000000,0.000000,0.000000,0.000000,0.000000,0.000000,0.000000,0.000000,
0.000000,0.000000,0.000000,0.000000,0.000000,0.000000,0.000000,2.033000,2.031000,2.029000,2.027000,2.026000,2.026000,2.021000,2.020000,2.010000,2.005000,2.005000,2.005000,2.000000,2.000000,2.000000,2.000000,1.995000,1.993000,1.990000,1.987000,1.986000,1.986000,1.982000,1.979000,1.979000,0.000000,0.000000,0.000000,0.000000,0.000000,0.000000,0.000000,0.000000,
0.000000,0.000000,0.000000,0.000000,0.000000,0.000000,0.000000,2.031000,2.031000,2.026000,2.027000,2.026000,2.026000,2.021000,2.018000,2.010000,2.005000,2.007000,2.005000,2.004000,2.000000,1.998000,1.995000,1.995000,1.990000,1.990000,1.993000,1.987000,1.986000,1.982000,1.979000,1.981000,1.452000,0.000000,0.000000,0.000000,0.000000,0.000000,0.000000,0.000000,
0.000000,0.000000,0.000000,0.000000,0.000000,0.000000,0.000000,1.687000,2.031000,2.029000,2.027000,2.026000,2.026000,2.020000,2.015000,2.010000,2.005000,2.009000,2.005000,2.004000,2.000000,1.998000,1.995000,1.998000,1.991000,1.990000,1.988000,1.986000,1.986000,1.986000,1.984000,1.981000,0.000000,0.000000,0.000000,0.000000,0.000000,0.000000,0.000000,0.000000,
0.000000,0.000000,0.000000,0.000000,0.000000,0.000000,0.000000,1.404000,2.031000,2.028000,2.026000,2.026000,2.026000,2.021000,2.015000,2.015000,2.005000,2.005000,2.005000,2.005000,2.000000,1.999000,1.999000,2.000000,1.995000,1.990000,1.986000,1.986000,1.986000,1.986000,1.986000,1.981000,0.000000,0.000000,0.000000,0.000000,0.000000,0.000000,0.000000,0.000000,
0.000000,0.000000,0.000000,0.000000,0.000000,0.000000,0.000000,1.404000,2.031000,2.030000,2.026000,2.026000,2.026000,2.024000,2.017000,2.015000,2.005000,2.005000,2.005000,2.005000,2.000000,2.000000,2.000000,1.998000,1.993000,1.990000,1.989000,1.990000,1.986000,1.986000,1.986000,1.983000,0.000000,0.000000,0.000000,0.000000,0.000000,0.000000,0.000000,0.000000,
0.000000,0.000000,0.000000,0.000000,0.000000,0.000000,0.000000,1.404000,2.031000,2.031000,2.027000,2.026000,2.020000,2.026000,2.015000,2.015000,2.010000,2.005000,2.005000,2.000000,2.000000,2.000000,2.000000,1.998000,1.992000,1.990000,1.990000,1.986000,1.986000,1.986000,1.986000,1.981000,0.000000,0.000000,0.000000,0.000000,0.000000,0.000000,0.000000,0.000000,
0.000000,0.000000,0.000000,0.000000,0.000000,0.000000,0.000000,0.000000,2.031000,2.031000,2.027000,2.026000,2.025000,2.021000,2.019000,2.015000,2.010000,2.009000,2.005000,2.005000,2.000000,2.000000,2.000000,1.998000,1.994000,1.990000,1.990000,1.986000,1.986000,1.986000,1.982000,1.981000,1.954000,0.000000,0.000000,0.000000,0.000000,0.000000,0.000000,0.000000,
0.000000,0.000000,0.000000,0.000000,0.000000,0.000000,0.000000,0.000000,2.031000,2.031000,2.027000,2.026000,2.026000,2.026000,2.020000,2.020000,2.010000,2.010000,2.005000,2.005000,2.005000,2.000000,2.000000,1.998000,1.995000,1.990000,1.990000,1.986000,1.986000,1.986000,1.981000,1.989000,1.954000,0.000000,0.000000,0.000000,0.000000,0.000000,0.000000,0.000000,
0.000000,0.000000,0.000000,0.000000,0.000000,0.000000,0.000000,1.416000,2.033000,2.028000,2.026000,2.026000,2.026000,2.026000,2.021000,2.020000,2.015000,2.015000,2.009000,2.005000,2.005000,2.000000,2.000000,2.000000,1.997000,1.992000,1.990000,1.990000,1.986000,1.986000,1.976000,1.977000,0.000000,0.000000,0.000000,0.000000,0.000000,0.000000,0.000000,0.000000,
0.000000,0.000000,0.000000,0.000000,0.000000,0.000000,0.000000,1.416000,2.038000,2.031000,2.026000,2.026000,2.026000,2.021000,2.020000,2.020000,2.015000,2.015000,2.010000,2.005000,2.005000,2.000000,2.000000,2.000000,2.000000,1.995000,1.995000,1.990000,1.990000,1.986000,1.981000,1.976000,2.031000,0.000000,0.000000,0.000000,0.000000,0.000000,0.000000,0.000000,
0.000000,0.000000,0.000000,0.000000,0.000000,0.000000,0.000000,0.000000,2.033000,2.031000,2.031000,2.031000,2.026000,2.020000,2.020000,2.020000,2.010000,2.010000,2.009000,2.005000,2.005000,2.000000,2.000000,2.000000,2.000000,1.997000,1.992000,1.990000,1.990000,1.990000,1.986000,1.986000,0.000000,0.000000,0.000000,0.000000,0.000000,0.000000,0.000000,0.000000,
0.000000,0.000000,0.000000,0.000000,0.000000,0.000000,0.000000,0.000000,2.033000,2.031000,2.031000,2.031000,2.027000,2.021000,2.020000,2.020000,2.010000,2.010000,2.009000,2.005000,2.005000,2.000000,2.000000,2.000000,2.000000,1.995000,1.995000,1.991000,1.990000,1.990000,1.986000,1.981000,1.946000,0.000000,0.000000,0.000000,0.000000,0.000000,0.000000,0.000000,
0.000000,0.000000,0.000000,0.000000,0.000000,0.000000,0.000000,0.000000,1.484000,2.031000,2.026000,2.026000,2.027000,2.026000,2.026000,2.021000,2.015000,2.014000,2.009000,2.005000,2.005000,2.000000,2.000000,2.000000,2.000000,1.996000,1.997000,1.991000,1.991000,1.990000,1.990000,1.986000,1.988000,0.000000,0.000000,0.000000,0.000000,0.000000,0.000000,0.000000,
0.000000,0.000000,0.000000,0.000000,0.000000,0.000000,0.000000,0.000000,1.481000,2.026000,2.031000,2.027000,2.026000,2.025000,2.026000,2.025000,2.015000,2.014000,2.009000,2.005000,2.005000,2.003000,2.000000,2.000000,2.000000,2.000000,1.995000,1.990000,1.990000,1.991000,1.989000,1.989000,1.994000,0.000000,0.000000,0.000000,0.000000,0.000000,0.000000,0.000000,
0.000000,0.000000,0.000000,0.000000,0.000000,0.000000,0.000000,0.000000,1.630000,2.031000,2.031000,2.031000,2.026000,2.022000,2.020000,2.020000,2.015000,2.010000,2.010000,2.005000,2.005000,2.004000,2.000000,2.000000,2.000000,1.995000,1.995000,1.990000,1.990000,1.990000,1.986000,1.986000,1.989000,0.000000,0.000000,0.000000,0.000000,0.000000,0.000000,0.000000,
0.000000,0.000000,0.000000,0.000000,0.000000,0.000000,0.000000,0.000000,2.041000,2.031000,2.031000,2.027000,2.026000,2.026000,2.022000,2.020000,2.010000,2.010000,2.010000,2.005000,2.005000,2.004000,2.000000,2.000000,1.995000,1.998000,1.995000,1.990000,1.990000,1.987000,1.986000,1.986000,1.981000,0.000000,0.000000,0.000000,0.000000,0.000000,0.000000,0.000000,
0.000000,0.000000,0.000000,0.000000,0.000000,0.000000,0.000000,0.000000,2.043000,2.031000,2.031000,2.027000,2.026000,2.026000,2.024000,2.020000,2.010000,2.010000,2.010000,2.009000,2.005000,2.003000,2.000000,2.000000,1.997000,1.995000,1.996000,1.990000,1.990000,1.986000,1.986000,1.986000,1.983000,0.000000,0.000000,0.000000,0.000000,0.000000,0.000000,0.000000,
0.000000,0.000000,0.000000,0.000000,0.000000,0.000000,0.000000,1.810000,0.000000,2.026000,2.027000,2.026000,2.026000,2.026000,2.020000,2.020000,2.010000,2.010000,2.010000,2.009000,2.005000,2.005000,2.005000,2.000000,2.000000,2.000000,1.997000,1.995000,1.992000,1.988000,1.988000,1.986000,1.986000,0.000000,0.000000,0.000000,0.000000,0.000000,0.000000,0.000000,
0.000000,0.000000,0.000000,0.000000,0.000000,0.000000,0.000000,0.000000,1.097000,2.028000,2.026000,2.026000,2.026000,2.021000,2.026000,2.020000,2.015000,2.013000,2.010000,2.009000,2.005000,2.005000,2.005000,2.001000,2.000000,2.000000,1.995000,1.991000,1.990000,1.990000,1.990000,1.988000,1.986000,0.000000,0.000000,0.000000,0.000000,0.000000,0.000000,0.000000,
0.000000,0.000000,0.000000,0.000000,0.000000,0.000000,0.000000,0.000000,1.487000,2.033000,2.031000,2.027000,2.026000,2.026000,2.026000,2.020000,2.015000,2.015000,2.012000,2.009000,2.005000,2.005000,2.005000,2.004000,2.000000,1.997000,1.996000,1.991000,1.990000,1.990000,1.988000,1.983000,2.035000,0.000000,0.000000,0.000000,0.000000,0.000000,0.000000,0.000000,
0.000000,0.000000,0.000000,0.000000,0.000000,0.000000,0.000000,0.000000,0.000000,2.032000,2.031000,2.030000,2.026000,2.026000,2.022000,2.020000,2.015000,2.014000,2.010000,2.009000,2.005000,2.003000,2.002000,2.005000,2.003000,1.997000,1.990000,1.987000,0.000000,0.000000,1.986000,0.000000,0.000000,0.000000,0.000000,0.000000,0.000000,0.000000,0.000000,0.000000,
0.000000,0.000000,0.000000,0.000000,0.000000,0.000000,0.000000,0.000000,0.000000,0.000000,2.029000,2.026000,2.026000,2.026000,2.024000,1.112000,1.112000,2.015000,2.016000,1.791000,0.000000,0.000000,0.000000,0.000000,1.108000,1.108000,0.000000,0.000000,0.000000,0.000000,0.000000,0.000000,0.000000,0.000000,0.000000,0.000000,0.000000,0.000000,0.000000,0.000000,
0.000000,0.000000,0.000000,0.000000,0.000000,0.000000,0.000000,0.000000,0.000000,0.000000,0.000000,0.000000,0.000000,0.000000,0.000000,0.000000,0.000000,0.000000,0.000000,0.000000,0.000000,0.000000,0.000000,0.000000,0.000000,0.000000,0.000000,0.000000,0.000000,0.000000,0.000000,0.000000,0.000000,0.000000,0.000000,0.000000,0.000000,0.000000,0.000000,0.000000,
0.000000,0.000000,0.000000,0.000000,0.000000,0.000000,0.000000,0.000000,0.000000,0.000000,0.000000,0.000000,0.000000,0.000000,0.000000,0.000000,0.000000,0.000000,0.000000,0.000000,0.000000,0.000000,0.000000,0.000000,0.000000,0.000000,0.000000,0.000000,0.000000,0.000000,0.000000,0.000000,0.000000,0.000000,0.000000,0.000000,0.000000,0.000000,0.000000,0.000000,
