40 40
0.000000 0.000000 0.000000 0.000000 0.000000 0.000000 0.000000 0.000000 0.000000 0.000000 0.000000 0.000000 0.000000 0.000000 0.000000 0.000000 0.000000 0.000000 0.000000 0.000000 0.000000 0.000000 0.000000 0.000000 0.000000 0.000000 0.000000 0.000000 0.000000 0.000000 0.000000 0.000000 0.000000 0.000000 0.000000 0.000000 0.000000 0.000000 0.000000 0.000000 
0.000000 0.000000 0.000000 0.000000 0.000000 0.000000 0.000000 0.000000 0.000000 0.000000 0.000000 0.000000 0.000000 0.000000 0.000000 0.000000 0.000000 0.000000 0.000000 0.000000 0.000000 0.000000 0.000000 0.000000 0.000000 0.000000 0.000000 0.000000 0.000000 0.000000 0.000000 0.000000 0.000000 0.000000 0.000000 0.000000 0.000000 0.000000 0.000000 0.000000 
0.000000 0.000000 0.000000 0.000000 0.000000 0.000000 0.000000 0.000000 0.000000 0.000000 0.000000 0.000000 0.000000 0.000000 0.000000 0.000000 0.000000 0.000000 0.000000 0.000000 0.000000 0.000000 0.000000 0.000000 0.000000 0.000000 0.000000 0.000000 0.000000 0.000000 0.000000 0.000000 0.000000 0.000000 0.000000 0.000000 0.000000 0.000000 0.000000 0.000000 
0.000000 0.000000 0.000000 0.000000 0.000000 0.000000 0.000000 0.000000 0.000000 0.000000 0.000000 0.000000 0.000000 0.000000 0.000000 0.000000 0.000000 0.000000 0.000000 0.000000 0.000000 0.000000 0.000000 0.000000 0.000000 0.000000 0.000000 0.000000 0.000000 0.000000 0.000000 0.000000 0.000000 0.000000 0.000000 0.000000 0.000000 0.000000 0.000000 0.000000 
0.000000 0.000000 0.000000 0.000000 0.000000 0.000000 0.000000 0.000000 0.000000 0.000000 0.000000 0.000000 0.000000 0.000000 0.000000 0.000000 0.000000 0.000000 0.000000 0.000000 0.000000 0.000000 0.000000 0.000000 0.000000 0.000000 0.000000 0.000000 0.000000 0.000000 0.000000 0.000000 0.000000 0.000000 0.000000 0.000000 0.000000 0.000000 0.000000 0.000000 
0.000000 0.000000 0.000000 0.000000 0.000000 0.000000 0.000000 0.000000 0.000000 0.000000 0.000000 0.000000 0.000000 0.000000 0.000000 0.000000 0.000000 0.000000 0.000000 0.000000 0.000000 0.000000 0.000000 0.000000 0.000000 0.000000 0.000000 0.000000 0.000000 0.000000 0.000000 0.000000 0.000000 0.000000 0.000000 0.000000 0.000000 0.000000 0.000000 0.000000 
0.000000 0.000000 0.000000 0.000000 0.000000 0.000000 0.000000 0.000000 0.000000 0.000000 0.000000 1.145000 0.000000 1.285000 1.951000 1.952000 1.959000 1.959000 1.959000 1.959000 1.959000 1.959000 1.959000 1.959000 1.959000 1.961000 1.959000 1.959000 1.959000 1.959000 1.963000 1.967000 1.967000 1.967000 1.967000 1.967000 1.965000 0.000000 0.000000 0.000000 
0.000000 0.000000 0.000000 0.000000 0.000000 0.000000 0.000000 2.363000 2.245000 2.245000 2.245000 2.110000 1.740000 1.951000 1.951000 1.956000 1.959000 1.959000 1.959000 1.959000 1.962000 1.966000 1.961000 1.959000 1.959000 1.967000 1.966000 1.959000 1.966000 1.966000 1.969000 1.974000 1.971000 1.967000 1.967000 1.967000 1.928000 1.301000 0.000000 0.000000 
0.000000 0.000000 0.000000 0.000000 0.000000 2.229000 1.951000 1.951000 1.951000 1.951000 1.951000 1.951000 1.951000 1.951000 1.951000 1.956000 1.959000 1.959000 1.959000 1.959000 1.963000 1.967000 1.967000 1.967000 1.967000 1.967000 1.967000 1.967000 1.968000 1.971000 1.975000 1.975000 1.973000 1.971000 1.971000 1.967000 1.943000 1.312000 0.000000 0.000000 
0.000000 0.000000 0.000000 2.804000 1.951000 1.951000 1.951000 1.951000 1.951000 1.951000 1.951000 1.959000 1.959000 1.951000 1.951000 1.956000 1.959000 1.965000 1.967000 1.960000 1.963000 1.967000 1.967000 1.967000 1.967000 1.967000 1.967000 1.967000 1.975000 1.982000 1.984000 1.976000 1.975000 1.975000 1.975000 1.974000 1.967000 1.354000 0.000000 0.000000 
0.000000 0.000000 2.787000 1.951000 1.951000 1.951000 1.951000 1.956000 1.951000 1.952000 1.956000 1.959000 1.959000 1.959000 1.959000 1.959000 1.964000 1.966000 1.967000 1.967000 1.967000 1.972000 1.972000 1.967000 1.967000 1.969000 1.967000 1.970000 1.976000 1.983000 1.984000 1.981000 1.981000 1.984000 1.984000 1.983000 1.981000 2.008000 2.042000 1.668000 
0.000000 2.960000 1.951000 1.952000 1.953000 1.953000 1.959000 1.959000 1.956000 1.953000 1.959000 1.959000 1.959000 1.960000 1.961000 1.961000 1.967000 1.973000 1.975000 1.975000 1.975000 1.975000 1.975000 1.975000 1.971000 1.973000 1.969000 1.973000 1.978000 1.984000 1.984000 1.985000 1.986000 1.992000 1.992000 1.992000 1.992000 2.005000 2.034000 2.029000 
1.953000 1.951000 1.951000 1.956000 1.959000 1.959000 1.959000 1.959000 1.959000 1.959000 1.959000 1.961000 1.965000 1.966000 1.967000 1.967000 1.973000 1.975000 1.975000 1.975000 1.979000 1.982000 1.982000 1.982000 1.984000 1.984000 1.982000 1.987000 1.989000 1.984000 1.990000 1.992000 1.992000 1.992000 1.992000 1.992000 1.992000 1.999000 2.034000 2.043000 
1.954000 1.951000 1.954000 1.957000 1.959000 1.959000 1.959000 1.959000 1.959000 1.959000 1.962000 1.963000 1.969000 1.975000 1.975000 1.975000 1.975000 1.975000 1.978000 1.978000 1.984000 1.984000 1.984000 1.985000 1.987000 1.986000 1.984000 1.992000 1.992000 1.992000 1.992000 1.992000 1.992000 1.995000 1.995000 1.995000 1.995000 2.000000 2.030000 0.000000 
1.959000 1.959000 1.959000 1.959000 1.959000 1.959000 1.959000 1.959000 1.967000 1.967000 1.967000 1.975000 1.975000 1.975000 1.975000 1.975000 1.975000 1.975000 1.984000 1.984000 1.988000 1.992000 1.992000 1.992000 1.992000 1.992000 1.992000 1.992000 1.992000 1.992000 1.992000 1.992000 1.992000 2.000000 2.000000 2.000000 2.000000 2.003000 2.009000 0.000000 
1.963000 1.963000 1.963000 1.967000 1.967000 1.967000 1.967000 1.967000 1.967000 1.971000 1.971000 1.975000 1.975000 1.982000 1.980000 1.975000 1.984000 1.984000 1.992000 1.992000 1.992000 1.992000 1.992000 1.992000 1.992000 1.998000 1.992000 1.994000 2.000000 2.000000 2.000000 2.000000 2.002000 2.000000 2.000000 1.992000 1.998000 2.003000 2.009000 2.009000 
1.999000 1.967000 1.967000 1.967000 1.967000 1.967000 1.970000 1.975000 1.968000 1.975000 1.976000 1.976000 1.983000 1.984000 1.984000 1.984000 1.985000 1.990000 1.992000 1.992000 1.992000 1.992000 1.992000 1.992000 1.992000 1.995000 2.000000 2.000000 2.000000 2.000000 2.000000 2.000000 2.009000 2.009000 2.001000 2.000000 2.000000 2.012000 2.017000 2.010000 
2.270000 1.962000 1.967000 1.970000 1.972000 1.972000 1.973000 1.975000 1.975000 1.981000 1.983000 1.984000 1.984000 1.984000 1.984000 1.989000 1.992000 1.992000 1.992000 1.992000 1.997000 1.997000 1.997000 1.996000 1.992000 1.999000 2.000000 2.003000 2.000000 2.000000 2.000000 2.000000 2.009000 2.017000 2.009000 2.006000 2.006000 2.023000 2.023000 2.023000 
0.000000 1.961000 1.967000 1.972000 1.975000 1.976000 1.975000 1.975000 1.977000 1.984000 1.984000 1.984000 1.984000 1.984000 1.984000 1.989000 1.992000 1.992000 1.995000 2.000000 2.000000 2.000000 2.000000 2.000000 2.000000 2.000000 2.009000 2.009000 2.002000 2.000000 2.000000 2.008000 2.009000 2.017000 2.017000 2.017000 2.017000 2.026000 2.028000 2.035000 
0.000000 0.000000 1.981000 1.977000 1.977000 1.983000 1.983000 1.983000 1.984000 1.984000 1.984000 1.984000 1.984000 1.984000 1.991000 1.996000 1.998000 1.992000 1.995000 2.000000 2.000000 2.000000 2.000000 2.000000 2.000000 2.003000 2.016000 2.012000 2.009000 2.008000 2.008000 2.009000 2.012000 2.017000 2.022000 2.023000 2.017000 2.026000 2.035000 2.035000 
0.000000 2.777000 1.984000 1.981000 1.980000 1.984000 1.985000 1.992000 1.990000 1.987000 1.987000 1.987000 1.987000 1.992000 1.992000 1.997000 2.000000 2.000000 2.000000 2.000000 2.000000 2.000000 2.003000 2.005000 2.009000 2.010000 2.017000 2.017000 2.017000 2.017000 2.018000 2.017000 2.017000 2.017000 2.023000 2.026000 2.026000 2.032000 2.035000 2.035000 
0.000000 0.000000 1.992000 1.984000 1.984000 1.984000 1.987000 1.992000 1.992000 1.992000 1.992000 1.992000 1.992000 1.992000 1.992000 1.997000 2.000000 2.000000 2.009000 2.009000 2.009000 2.000000 2.006000 2.009000 2.009000 2.012000 2.017000 2.017000 2.017000 2.024000 2.026000 2.026000 2.026000 2.026000 2.026000 2.026000 2.026000 2.035000 2.035000 0.000000 
0.000000 0.000000 1.992000 1.992000 1.984000 1.990000 1.992000 1.992000 1.992000 1.992000 1.992000 1.992000 1.992000 1.992000 1.992000 2.005000 2.009000 2.009000 2.011000 2.014000 2.011000 2.009000 2.009000 2.009000 2.013000 2.015000 2.022000 2.022000 2.023000 2.026000 2.026000 2.026000 2.026000 2.026000 2.026000 2.026000 2.026000 2.559000 0.000000 0.000000 
0.000000 0.000000 0.000000 1.992000 1.992000 1.992000 1.992000 1.992000 1.992000 1.992000 1.992000 1.992000 1.993000 1.993000 2.000000 2.005000 2.009000 2.010000 2.017000 2.017000 2.019000 2.019000 2.023000 2.024000 2.019000 2.026000 2.026000 2.026000 2.026000 2.026000 2.026000 2.026000 2.027000 2.026000 2.274000 0.000000 0.000000 0.000000 0.000000 0.000000 
0.000000 0.000000 0.000000 2.661000 1.992000 1.992000 1.992000 1.992000 1.992000 1.992000 1.992000 1.998000 2.000000 2.003000 2.000000 2.005000 2.015000 2.017000 2.019000 2.024000 2.026000 2.026000 2.026000 2.026000 2.026000 2.026000 2.026000 2.026000 2.026000 2.026000 2.031000 2.026000 2.034000 0.000000 0.000000 0.000000 0.000000 0.000000 0.000000 0.000000 
0.000000 0.000000 0.000000 0.000000 2.628000 1.992000 1.992000 1.992000 1.995000 1.996000 2.003000 2.009000 2.009000 2.012000 2.009000 2.012000 2.020000 2.020000 2.026000 2.026000 2.026000 2.026000 2.028000 2.026000 2.026000 2.029000 2.026000 2.024000 2.023000 2.026000 2.269000 0.000000 0.000000 0.000000 0.000000 0.000000 0.000000 0.000000 0.000000 0.000000 
0.000000 0.000000 0.000000 0.000000 0.000000 1.992000 1.992000 1.999000 2.004000 2.008000 2.009000 2.009000 2.015000 2.017000 2.016000 2.022000 2.026000 2.026000 2.026000 2.026000 2.026000 2.026000 2.032000 2.034000 2.034000 2.035000 2.026000 2.021000 2.332000 0.000000 0.000000 0.000000 0.000000 0.000000 0.000000 0.000000 0.000000 0.000000 0.000000 0.000000 
0.000000 0.000000 0.000000 0.000000 0.000000 2.497000 1.992000 2.000000 2.013000 2.017000 2.014000 2.014000 2.017000 2.017000 2.017000 2.022000 2.026000 2.026000 2.029000 2.026000 2.026000 2.027000 2.035000 2.035000 2.038000 0.000000 0.000000 0.000000 0.000000 0.000000 0.000000 0.000000 0.000000 0.000000 0.000000 0.000000 0.000000 0.000000 0.000000 0.000000 
0.000000 0.000000 0.000000 0.000000 0.000000 2.650000 2.009000 2.009000 2.013000 2.017000 2.017000 2.017000 2.017000 2.017000 2.017000 2.023000 2.026000 2.027000 2.035000 2.027000 2.027000 2.035000 2.042000 2.755000 0.000000 0.000000 0.000000 0.000000 0.000000 0.000000 0.000000 0.000000 0.000000 0.000000 0.000000 0.000000 0.000000 0.000000 0.000000 0.000000 
0.000000 0.000000 0.000000 0.000000 0.000000 0.000000 2.983000 2.015000 2.016000 2.018000 2.019000 2.017000 2.017000 2.017000 2.017000 2.028000 2.032000 2.034000 2.035000 2.035000 2.035000 2.162000 0.000000 0.000000 0.000000 0.000000 0.000000 0.000000 0.000000 0.000000 0.000000 0.000000 0.000000 0.000000 0.000000 0.000000 0.000000 0.000000 0.000000 0.000000 
0.000000 0.000000 0.000000 0.000000 0.000000 0.000000 0.000000 2.024000 2.024000 2.024000 2.026000 2.024000 2.019000 2.017000 2.026000 2.031000 2.035000 2.028000 2.028000 2.585000 0.000000 0.000000 0.000000 0.000000 0.000000 0.000000 0.000000 0.000000 0.000000 0.000000 0.000000 0.000000 0.000000 0.000000 0.000000 0.000000 0.000000 0.000000 0.000000 0.000000 
0.000000 0.000000 0.000000 0.000000 0.000000 0.000000 0.000000 2.017000 2.014000 2.011000 2.024000 2.026000 2.026000 2.024000 2.026000 2.031000 2.035000 2.034000 0.000000 0.000000 0.000000 0.000000 0.000000 0.000000 0.000000 0.000000 0.000000 0.000000 0.000000 0.000000 0.000000 0.000000 0.000000 0.000000 0.000000 0.000000 0.000000 0.000000 0.000000 0.000000 
0.000000 0.000000 0.000000 0.000000 0.000000 0.000000 0.000000 0.000000 2.475000 2.016000 2.024000 2.026000 2.026000 2.026000 2.036000 2.933000 0.000000 0.000000 0.000000 0.000000 0.000000 0.000000 0.000000 0.000000 0.000000 0.000000 0.000000 0.000000 0.000000 0.000000 0.000000 0.000000 0.000000 0.000000 0.000000 0.000000 0.000000 0.000000 0.000000 0.000000 
0.000000 0.000000 0.000000 0.000000 0.000000 0.000000 0.000000 0.000000 0.000000 0.000000 0.000000 0.000000 0.000000 0.000000 0.000000 0.000000 0.000000 0.000000 0.000000 0.000000 0.000000 0.000000 0.000000 0.000000 0.000000 0.000000 0.000000 0.000000 0.000000 0.000000 0.000000 0.000000 0.000000 0.000000 0.000000 0.000000 0.000000 0.000000 0.000000 0.000000 
0.000000 0.000000 0.000000 0.000000 0.000000 0.000000 0.000000 0.000000 0.000000 0.000000 0.000000 0.000000 0.000000 0.000000 0.000000 0.000000 0.000000 0.000000 0.000000 0.000000 0.000000 0.000000 0.000000 0.000000 0.000000 0.000000 0.000000 0.000000 0.000000 0.000000 0.000000 0.000000 0.000000 0.000000 0.000000 0.000000 0.000000 0.000000 0.000000 0.000000 
0.000000 0.000000 0.000000 0.000000 0.000000 0.000000 0.000000 0.000000 0.000000 0.000000 0.000000 0.000000 0.000000 0.000000 0.000000 0.000000 0.000000 0.000000 0.000000 0.000000 0.000000 0.000000 0.000000 0.000000 0.000000 0.000000 0.000000 0.000000 0.000000 0.000000 0.000000 0.000000 0.000000 0.000000 0.000000 0.000000 0.000000 0.000000 0.000000 0.000000 
0.000000 0.000000 0.000000 0.000000 0.000000 0.000000 0.000000 0.000000 0.000000 0.000000 0.000000 0.000000 0.000000 0.000000 0.000000 0.000000 0.000000 0.000000 0.000000 0.000000 0.000000 0.000000 0.000000 0.000000 0.000000 0.000000 0.000000 0.000000 0.000000 0.000000 0.000000 0.000000 0.000000 0.000000 0.000000 0.000000 0.000000 0.000000 0.000000 0.000000 
0.000000 0.000000 0.000000 0.000000 0.000000 0.000000 0.000000 0.000000 0.000000 0.000000 0.000000 0.000000 0.000000 0.000000 0.000000 0.000000 0.000000 0.000000 0.000000 0.000000 0.000000 0.000000 0.000000 0.000000 0.000000 0.000000 0.000000 0.000000 0.000000 0.000000 0.000000 0.000000 0.000000 0.000000 0.000000 0.000000 0.000000 0.000000 0.000000 0.000000 
0.000000 0.000000 0.000000 0.000000 0.000000 0.000000 0.000000 0.000000 0.000000 0.000000 0.000000 0.000000 0.000000 0.000000 0.000000 0.000000 0.000000 0.000000 0.000000 0.000000 0.000000 0.000000 0.000000 0.000000 0.000000 0.000000 0.000000 0.000000 0.000000 0.000000 0.000000 0.000000 0.000000 0.000000 0.000000 0.000000 0.000000 0.000000 0.000000 0.000000 
0.000000 0.000000 0.000000 0.000000 0.000000 0.000000 0.000000 0.000000 0.000000 0.000000 0.000000 0.000000 0.000000 0.000000 0.000000 0.000000 0.000000 0.000000 0.000000 0.000000 0.000000 0.000000 0.000000 0.000000 0.000000 0.000000 0.000000 0.000000 0.000000 0.000000 0.000000 0.000000 0.000000 0.000000 0.000000 0.000000 0.000000 0.000000 0.000000 0.000000 
