0.000000,0.000000,0.000000,0.000000,0.000000,0.000000,0.000000,0.000000,0.000000,0.000000,0.000000,0.000000,0.000000,0.000000,0.000000,0.000000,0.000000,0.000000,0.000000,0.000000,0.000000,0.000000,0.000000,0.000000,0.000000,0.000000,0.000000,0.000000,0.000000,0.000000,0.000000,0.000000,0.000000,0.000000,0.000000,0.000000,0.000000,0.000000,0.000000,0.000000,
0.000000,0.000000,0.000000,0.000000,0.000000,0.000000,0.000000,0.000000,0.000000,2.076000,0.000000,1.971000,1.971000,2.080000,0.000000,0.000000,0.000000,0.000000,0.000000,0.000000,0.000000,0.000000,0.000000,0.000000,0.000000,0.000000,0.000000,0.000000,0.000000,2.813000,0.000000,0.000000,0.000000,0.000000,0.000000,0.000000,0.000000,0.000000,0.000000,0.000000,
0.000000,0.000000,0.000000,0.000000,0.000000,0.000000,0.000000,1.431000,1.070000,2.000000,1.968000,1.960000,1.963000,1.969000,1.972000,1.976000,1.980000,1.983000,1.988000,1.989000,1.994000,2.322000,2.005000,2.005000,2.003000,1.866000,2.329000,2.331000,2.188000,2.038000,2.041000,2.352000,0.000000,0.000000,0.000000,0.000000,0.000000,0.000000,0.000000,0.000000,
0.000000,0.000000,0.000000,0.000000,0.000000,0.000000,0.000000,1.070000,1.627000,2.001000,1.962000,1.957000,1.958000,1.964000,1.968000,1.973000,1.973000,1.978000,1.983000,1.983000,1.987000,1.993000,1.998000,2.000000,2.003000,2.005000,2.015000,2.019000,2.024000,2.028000,2.031000,2.034000,2.037000,0.000000,0.000000,0.000000,0.000000,0.000000,0.000000,0.000000,
0.000000,0.000000,0.000000,0.000000,0.000000,0.000000,0.000000,1.070000,1.070000,1.989000,1.961000,1.957000,1.959000,1.965000,1.967000,1.971000,1.976000,1.978000,1.982000,1.984000,1.988000,1.994000,1.998000,2.000000,2.003000,2.007000,2.016000,2.018000,2.024000,2.027000,2.031000,2.037000,2.037000,0.000000,0.000000,0.000000,0.000000,0.000000,0.000000,0.000000,
0.000000,0.000000,0.000000,0.000000,0.000000,0.000000,0.000000,1.070000,1.940000,2.001000,1.962000,1.957000,1.963000,1.965000,1.969000,1.973000,1.976000,1.978000,1.983000,1.985000,1.993000,1.994000,1.998000,2.003000,2.004000,2.008000,2.016000,2.022000,2.026000,2.028000,2.033000,2.034000,2.000000,0.000000,0.000000,0.000000,0.000000,0.000000,0.000000,0.000000,
0.000000,0.000000,0.000000,0.000000,0.000000,0.000000,0.000000,1.070000,2.030000,2.001000,1.965000,1.957000,1.964000,1.966000,1.971000,1.973000,1.976000,1.980000,1.983000,1.987000,1.992000,1.994000,1.998000,2.003000,2.005000,2.010000,2.017000,2.021000,2.026000,2.028000,2.033000,2.037000,2.002000,0.000000,0.000000,0.000000,0.000000,0.000000,0.000000,0.000000,
0.000000,0.000000,0.000000,0.000000,0.000000,0.000000,0.000000,1.070000,1.901000,1.997000,1.965000,1.959000,1.964000,1.966000,1.971000,1.973000,1.978000,1.980000,1.984000,1.988000,1.993000,1.995000,1.999000,2.003000,2.005000,2.013000,2.017000,2.021000,2.025000,2.029000,2.032000,2.035000,2.002000,0.000000,0.000000,0.000000,0.000000,0.000000,0.000000,0.000000,
0.000000,0.000000,0.000000,0.000000,0.000000,0.000000,0.000000,1.070000,2.023000,1.989000,1.962000,1.959000,1.964000,1.968000,1.971000,1.973000,1.976000,1.980000,1.985000,1.989000,1.994000,1.995000,2.000000,2.005000,2.008000,2.016000,2.018000,2.024000,2.026000,2.029000,2.035000,2.037000,2.000000,0.000000,0.000000,0.000000,0.000000,0.000000,0.000000,0.000000,
0.000000,0.000000,0.000000,0.000000,0.000000,0.000000,0.000000,1.070000,2.029000,1.985000,1.961000,1.958000,1.965000,1.966000,1.971000,1.973000,1.978000,1.983000,1.984000,1.991000,1.994000,1.998000,1.998000,2.003000,2.008000,2.013000,2.018000,2.024000,2.026000,2.033000,2.037000,2.040000,1.988000,0.000000,0.000000,0.000000,0.000000,0.000000,0.000000,0.000000,
0.000000,0.000000,0.000000,0.000000,0.000000,0.000000,0.000000,1.070000,2.020000,1.984000,1.960000,1.959000,1.965000,1.966000,1.971000,1.976000,1.980000,1.982000,1.985000,1.992000,1.994000,1.998000,2.001000,2.003000,2.008000,2.013000,2.020000,2.026000,2.027000,2.033000,2.037000,2.040000,2.007000,0.000000,0.000000,0.000000,0.000000,0.000000,0.000000,0.000000,
0.000000,0.000000,0.000000,0.000000,0.000000,0.000000,0.000000,1.070000,2.015000,1.986000,1.960000,1.958000,1.965000,1.966000,1.971000,1.976000,1.980000,1.983000,1.985000,1.992000,1.995000,1.998000,2.001000,2.005000,2.010000,2.016000,2.020000,2.025000,2.029000,2.033000,2.037000,2.040000,2.010000,0.000000,0.000000,0.000000,0.000000,0.000000,0.000000,0.000000,
0.000000,0.000000,0.000000,0.000000,0.000000,0.000000,0.000000,1.070000,1.340000,1.973000,1.961000,1.961000,1.966000,1.966000,1.973000,1.976000,1.980000,1.983000,1.985000,1.992000,1.996000,2.001000,2.003000,2.005000,2.013000,2.016000,2.022000,2.027000,2.029000,2.034000,2.037000,2.042000,1.384000,0.000000,0.000000,0.000000,0.000000,0.000000,0.000000,0.000000,
0.000000,0.000000,0.000000,0.000000,0.000000,0.000000,0.000000,1.070000,2.037000,1.995000,1.961000,1.964000,1.966000,1.969000,1.973000,1.978000,1.983000,1.984000,1.986000,1.994000,1.996000,2.003000,2.005000,2.005000,2.013000,2.013000,2.023000,2.027000,2.031000,2.035000,2.037000,2.044000,2.044000,0.000000,0.000000,0.000000,0.000000,0.000000,0.000000,0.000000,
0.000000,0.000000,0.000000,0.000000,0.000000,0.000000,0.000000,1.070000,2.022000,1.990000,1.960000,1.962000,1.966000,1.968000,1.973000,1.978000,1.983000,1.985000,1.989000,1.995000,1.999000,2.003000,2.005000,2.005000,2.013000,2.016000,2.021000,2.029000,2.032000,2.035000,2.037000,2.043000,2.028000,0.000000,0.000000,0.000000,0.000000,0.000000,0.000000,0.000000,
0.000000,0.000000,0.000000,0.000000,0.000000,0.000000,0.000000,1.070000,1.607000,1.980000,1.963000,1.963000,1.966000,1.969000,1.974000,1.977000,1.983000,1.985000,1.989000,1.995000,1.999000,2.003000,2.005000,2.005000,2.013000,2.016000,2.024000,2.029000,2.032000,2.037000,2.037000,2.045000,2.010000,0.000000,0.000000,0.000000,0.000000,0.000000,0.000000,0.000000,
0.000000,0.000000,0.000000,0.000000,0.000000,0.000000,0.000000,1.070000,2.022000,1.974000,1.961000,1.964000,1.966000,1.971000,1.973000,1.976000,1.983000,1.985000,1.990000,1.994000,1.999000,2.003000,2.005000,2.005000,2.013000,2.016000,2.025000,2.029000,2.032000,2.037000,2.040000,2.045000,2.021000,0.000000,0.000000,0.000000,0.000000,0.000000,0.000000,0.000000,
0.000000,0.000000,0.000000,0.000000,0.000000,0.000000,0.000000,1.070000,2.014000,1.977000,1.961000,1.965000,1.966000,1.971000,1.973000,1.978000,1.983000,1.987000,1.992000,1.995000,1.998000,2.003000,2.005000,2.010000,2.013000,2.020000,2.026000,2.029000,2.036000,2.038000,2.041000,2.045000,1.929000,0.000000,0.000000,0.000000,0.000000,0.000000,0.000000,0.000000,
0.000000,0.000000,0.000000,0.000000,0.000000,0.000000,0.000000,1.070000,2.014000,1.980000,1.964000,1.964000,1.966000,1.971000,1.973000,1.980000,1.983000,1.989000,1.990000,1.998000,2.000000,2.004000,2.006000,2.010000,2.013000,2.023000,2.026000,2.029000,2.033000,2.038000,2.043000,2.045000,1.100000,0.000000,0.000000,0.000000,0.000000,0.000000,0.000000,0.000000,
0.000000,0.000000,0.000000,0.000000,0.000000,0.000000,0.000000,1.070000,2.016000,1.968000,1.964000,1.965000,1.967000,1.971000,1.976000,1.978000,1.983000,1.985000,1.992000,1.998000,2.000000,2.004000,2.006000,2.010000,2.016000,2.023000,2.028000,2.029000,2.034000,2.040000,2.043000,2.045000,1.070000,0.000000,0.000000,0.000000,0.000000,0.000000,0.000000,0.000000,
0.000000,0.000000,0.000000,0.000000,0.000000,0.000000,0.000000,1.744000,2.028000,1.969000,1.964000,1.966000,1.966000,1.971000,1.976000,1.978000,1.984000,1.988000,1.994000,2.000000,2.000000,2.003000,2.006000,2.010000,2.016000,2.022000,2.028000,2.031000,2.037000,2.040000,2.044000,2.048000,1.070000,0.000000,0.000000,0.000000,0.000000,0.000000,0.000000,0.000000,
0.000000,0.000000,0.000000,0.000000,0.000000,0.000000,0.000000,1.977000,2.018000,1.966000,1.962000,1.965000,1.968000,1.971000,1.976000,1.983000,1.985000,1.990000,1.994000,1.998000,2.000000,2.004000,2.006000,2.013000,2.016000,2.024000,2.028000,2.031000,2.036000,2.040000,2.044000,2.048000,1.070000,0.000000,0.000000,0.000000,0.000000,0.000000,0.000000,0.000000,
0.000000,0.000000,0.000000,0.000000,0.000000,0.000000,0.000000,2.039000,2.034000,1.964000,1.963000,1.966000,1.969000,1.973000,1.976000,1.980000,1.985000,1.988000,1.992000,1.998000,2.001000,2.004000,2.008000,2.010000,2.017000,2.024000,2.028000,2.033000,2.036000,2.041000,2.044000,2.048000,1.070000,0.000000,0.000000,0.000000,0.000000,0.000000,0.000000,0.000000,
0.000000,0.000000,0.000000,0.000000,0.000000,0.000000,0.000000,1.421000,2.029000,1.966000,1.964000,1.966000,1.969000,1.973000,1.977000,1.981000,1.985000,1.992000,1.994000,1.999000,2.003000,2.005000,2.008000,2.010000,2.020000,2.025000,2.029000,2.034000,2.037000,2.041000,2.044000,2.048000,1.112000,0.000000,0.000000,0.000000,0.000000,0.000000,0.000000,0.000000,
0.000000,0.000000,0.000000,0.000000,0.000000,0.000000,0.000000,2.041000,2.021000,1.967000,1.963000,1.966000,1.969000,1.973000,1.976000,1.982000,1.987000,1.992000,1.994000,2.000000,2.003000,2.005000,2.008000,2.013000,2.021000,2.024000,2.029000,2.032000,2.037000,2.043000,2.046000,2.049000,1.910000,0.000000,0.000000,0.000000,0.000000,0.000000,0.000000,0.000000,
0.000000,0.000000,0.000000,0.000000,0.000000,0.000000,0.000000,1.995000,2.003000,1.965000,1.963000,1.967000,1.971000,1.973000,1.978000,1.983000,1.985000,1.990000,1.994000,1.999000,2.003000,2.005000,2.013000,2.013000,2.021000,2.026000,2.029000,2.034000,2.039000,2.042000,2.048000,2.051000,0.000000,0.000000,0.000000,0.000000,0.000000,0.000000,0.000000,0.000000,
0.000000,0.000000,0.000000,0.000000,0.000000,0.000000,0.000000,2.035000,2.010000,1.965000,1.963000,1.968000,1.973000,1.976000,1.976000,1.983000,1.988000,1.990000,1.994000,1.999000,2.004000,2.006000,2.013000,2.016000,2.021000,2.026000,2.033000,2.037000,2.040000,2.046000,2.049000,1.904000,1.178000,0.000000,0.000000,0.000000,0.000000,0.000000,0.000000,0.000000,
0.000000,0.000000,0.000000,0.000000,0.000000,0.000000,0.000000,2.035000,2.012000,1.965000,1.965000,1.968000,1.972000,1.976000,1.978000,1.983000,1.990000,1.992000,1.995000,2.002000,2.005000,2.009000,2.013000,2.016000,2.021000,2.029000,2.033000,2.039000,2.040000,2.044000,2.049000,1.899000,1.177000,0.000000,0.000000,0.000000,0.000000,0.000000,0.000000,0.000000,
0.000000,0.000000,0.000000,0.000000,0.000000,0.000000,0.000000,1.978000,2.011000,1.964000,1.965000,1.969000,1.973000,1.976000,1.980000,1.983000,1.988000,1.992000,1.998000,2.002000,2.005000,2.009000,2.011000,2.018000,2.021000,2.029000,2.032000,2.039000,2.040000,2.046000,2.051000,1.899000,1.179000,0.000000,0.000000,0.000000,0.000000,0.000000,0.000000,0.000000,
0.000000,0.000000,0.000000,0.000000,0.000000,0.000000,0.000000,2.041000,2.008000,1.967000,1.965000,1.969000,1.973000,1.976000,1.980000,1.985000,1.990000,1.994000,1.997000,2.002000,2.004000,2.009000,2.013000,2.018000,2.021000,2.028000,2.036000,2.040000,2.043000,2.045000,2.051000,1.899000,1.176000,0.000000,0.000000,0.000000,0.000000,0.000000,0.000000,0.000000,
0.000000,0.000000,0.000000,0.000000,0.000000,0.000000,0.000000,2.040000,1.997000,1.966000,1.965000,1.971000,1.974000,1.976000,1.980000,1.985000,1.990000,1.993000,1.997000,2.003000,2.005000,2.011000,2.013000,2.020000,2.024000,2.030000,2.036000,2.040000,2.043000,2.045000,2.051000,1.903000,2.300000,0.000000,0.000000,0.000000,0.000000,0.000000,0.000000,0.000000,
0.000000,0.000000,0.000000,0.000000,0.000000,0.000000,0.000000,2.038000,1.997000,1.969000,1.967000,1.972000,1.976000,1.976000,1.980000,1.987000,1.990000,1.994000,1.998000,2.003000,2.007000,2.013000,2.015000,2.023000,2.025000,2.036000,2.037000,2.040000,2.045000,2.045000,2.051000,1.070000,0.000000,0.000000,0.000000,0.000000,0.000000,0.000000,0.000000,0.000000,
0.000000,0.000000,0.000000,0.000000,0.000000,0.000000,0.000000,1.997000,1.991000,1.972000,1.969000,1.973000,1.974000,1.977000,1.980000,1.985000,1.990000,1.993000,1.999000,2.004000,2.007000,2.011000,2.016000,2.023000,2.025000,2.033000,2.037000,2.040000,2.044000,2.048000,2.050000,1.070000,0.000000,0.000000,0.000000,0.000000,0.000000,0.000000,0.000000,0.000000,
0.000000,0.000000,0.000000,0.000000,0.000000,0.000000,0.000000,2.032000,1.992000,1.971000,1.968000,1.973000,1.977000,1.980000,1.983000,1.988000,1.993000,1.995000,1.998000,2.003000,2.006000,2.011000,2.014000,2.019000,2.024000,2.031000,2.037000,2.042000,2.045000,2.051000,2.055000,1.070000,0.000000,0.000000,0.000000,0.000000,0.000000,0.000000,0.000000,0.000000,
0.000000,0.000000,0.000000,0.000000,0.000000,0.000000,0.000000,1.926000,1.986000,1.967000,1.966000,1.973000,1.974000,1.980000,1.985000,1.988000,1.993000,1.995000,1.998000,2.004000,2.010000,2.013000,2.018000,2.021000,2.026000,2.032000,2.037000,2.040000,2.045000,2.051000,2.057000,1.904000,0.000000,0.000000,0.000000,0.000000,0.000000,0.000000,0.000000,0.000000,
0.000000,0.000000,0.000000,0.000000,0.000000,0.000000,0.000000,1.070000,1.826000,1.967000,1.967000,1.973000,1.974000,1.980000,1.985000,1.988000,1.993000,1.995000,2.002000,2.005000,2.007000,2.016000,2.021000,2.024000,2.026000,2.033000,2.037000,2.040000,2.045000,2.049000,2.054000,0.000000,0.000000,0.000000,0.000000,0.000000,0.000000,0.000000,0.000000,0.000000,
0.000000,0.000000,0.000000,0.000000,0.000000,0.000000,0.000000,1.070000,1.959000,1.967000,1.969000,1.973000,1.976000,1.980000,1.985000,1.990000,1.995000,1.999000,1.999000,2.005000,2.008000,2.013000,2.022000,2.024000,2.026000,2.032000,0.000000,0.000000,0.000000,0.000000,0.000000,0.000000,0.000000,0.000000,0.000000,0.000000,0.000000,0.000000,0.000000,0.000000,
0.000000,0.000000,0.000000,0.000000,0.000000,0.000000,0.000000,1.070000,1.249000,1.967000,1.970000,1.973000,1.977000,1.978000,1.985000,1.993000,2.000000,1.992000,1.983000,1.985000,1.293000,1.070000,2.042000,1.958000,0.000000,0.000000,0.000000,0.000000,0.000000,0.000000,0.000000,0.000000,0.000000,0.000000,0.000000,0.000000,0.000000,0.000000,0.000000,0.000000,
0.000000,0.000000,0.000000,0.000000,0.000000,0.000000,0.000000,0.000000,0.000000,0.000000,0.000000,0.000000,0.000000,0.000000,0.000000,0.000000,0.000000,0.000000,0.000000,0.000000,0.000000,0.000000,0.000000,0.000000,0.000000,0.000000,0.000000,0.000000,0.000000,0.000000,0.000000,0.000000,0.000000,0.000000,0.000000,0.000000,0.000000,0.000000,0.000000,0.000000,
0.000000,0.000000,0.000000,0.000000,0.000000,0.000000,0.000000,0.000000,0.000000,0.000000,0.000000,0.000000,0.000000,0.000000,0.000000,0.000000,0.000000,0.000000,0.000000,0.000000,0.000000,0.000000,0.000000,0.000000,0.000000,0.000000,0.000000,0.000000,0.000000,0.000000,0.000000,0.000000,0.000000,0.000000,0.000000,0.000000,0.000000,0.000000,0.000000,0.000000,
