0.000000,0.000000,0.000000,0.000000,0.000000,0.000000,0.000000,0.000000,0.000000,0.000000,0.000000,0.000000,0.000000,0.000000,0.000000,0.000000,0.000000,0.000000,0.000000,0.000000,0.000000,0.000000,0.000000,0.000000,0.000000,0.000000,0.000000,0.000000,0.000000,0.000000,0.000000,0.000000,0.000000,0.000000,0.000000,0.000000,0.000000,0.000000,0.000000,0.000000,
0.000000,0.000000,0.000000,0.000000,0.000000,0.000000,0.000000,0.000000,0.000000,0.000000,0.000000,0.000000,0.000000,0.000000,0.000000,0.000000,0.000000,0.000000,0.000000,0.000000,0.000000,0.000000,0.000000,0.000000,0.000000,0.000000,0.000000,0.000000,0.000000,0.000000,0.000000,0.000000,0.000000,0.000000,0.000000,0.000000,0.000000,0.000000,0.000000,0.000000,
1.981000,1.982000,1.985000,1.987000,0.000000,0.000000,0.000000,0.000000,0.000000,0.000000,0.000000,2.011000,2.010000,2.475000,0.000000,0.000000,0.000000,0.000000,0.000000,0.000000,0.000000,0.000000,0.000000,0.000000,0.000000,0.000000,0.000000,0.000000,0.000000,0.000000,0.000000,0.000000,0.000000,0.000000,0.000000,0.000000,0.000000,0.000000,0.000000,0.000000,
1.981000,1.983000,1.986000,1.993000,0.000000,0.000000,0.000000,1.095000,1.913000,0.000000,2.681000,2.007000,2.009000,2.014000,2.016000,2.192000,0.000000,0.000000,0.000000,0.000000,0.000000,0.000000,0.000000,0.000000,0.000000,0.000000,0.000000,0.000000,0.000000,0.000000,0.000000,0.000000,0.000000,0.000000,0.000000,0.000000,0.000000,0.000000,0.000000,0.000000,
1.979000,1.983000,2.005000,1.268000,2.025000,0.000000,0.000000,1.098000,0.000000,0.000000,2.001000,2.005000,2.009000,2.010000,2.012000,2.010000,2.257000,0.000000,0.000000,0.000000,0.000000,0.000000,0.000000,0.000000,0.000000,0.000000,0.000000,0.000000,0.000000,0.000000,0.000000,0.000000,0.000000,0.000000,0.000000,0.000000,0.000000,0.000000,0.000000,0.000000,
1.979000,1.999000,1.660000,0.000000,1.664000,0.000000,2.915000,0.000000,1.289000,1.998000,2.000000,2.004000,2.007000,2.010000,2.010000,2.010000,2.014000,2.010000,2.920000,0.000000,0.000000,0.000000,0.000000,0.000000,0.000000,0.000000,0.000000,0.000000,0.000000,0.000000,0.000000,0.000000,0.000000,0.000000,0.000000,0.000000,0.000000,0.000000,0.000000,0.000000,
1.984000,2.010000,1.660000,0.000000,0.000000,0.000000,0.000000,0.000000,1.999000,2.000000,2.000000,2.004000,2.004000,2.004000,2.007000,2.010000,2.014000,2.014000,2.017000,2.081000,0.000000,0.000000,0.000000,0.000000,0.000000,0.000000,0.000000,0.000000,0.000000,0.000000,0.000000,0.000000,0.000000,0.000000,0.000000,0.000000,0.000000,0.000000,0.000000,0.000000,
1.999000,2.033000,2.060000,0.000000,0.000000,0.000000,0.000000,1.316000,1.999000,1.999000,1.997000,2.000000,2.006000,2.004000,2.005000,2.010000,2.010000,2.010000,2.014000,2.018000,2.021000,0.000000,0.000000,0.000000,0.000000,0.000000,0.000000,0.000000,0.000000,0.000000,0.000000,0.000000,0.000000,0.000000,0.000000,0.000000,0.000000,0.000000,0.000000,0.000000,
2.015000,2.051000,2.068000,1.103000,0.000000,0.000000,1.947000,1.997000,1.994000,1.994000,2.000000,2.000000,2.004000,2.004000,2.004000,2.007000,2.010000,2.010000,2.010000,2.015000,2.017000,2.017000,2.014000,2.767000,0.000000,0.000000,0.000000,0.000000,0.000000,0.000000,0.000000,0.000000,0.000000,0.000000,0.000000,0.000000,0.000000,0.000000,0.000000,0.000000,
2.052000,2.067000,1.916000,1.032000,0.000000,0.000000,1.984000,1.987000,1.994000,1.994000,1.997000,1.997000,2.000000,2.000000,2.004000,2.007000,2.007000,2.010000,2.012000,2.014000,2.014000,2.014000,2.017000,2.026000,2.027000,0.000000,0.000000,0.000000,0.000000,0.000000,0.000000,0.000000,0.000000,0.000000,0.000000,0.000000,0.000000,0.000000,0.000000,0.000000,
2.058000,2.073000,0.000000,0.000000,0.000000,1.978000,1.985000,1.987000,1.992000,1.994000,1.997000,1.997000,2.000000,2.000000,2.000000,2.005000,2.007000,2.007000,2.010000,2.010000,2.013000,2.014000,2.014000,2.017000,2.024000,2.024000,2.111000,0.000000,0.000000,0.000000,0.000000,0.000000,0.000000,0.000000,0.000000,0.000000,0.000000,0.000000,0.000000,0.000000,
1.109000,1.054000,0.000000,0.000000,1.638000,1.984000,1.985000,1.987000,1.987000,1.989000,1.996000,1.997000,1.999000,2.000000,2.000000,2.000000,2.007000,2.007000,2.010000,2.010000,2.013000,2.015000,2.017000,2.014000,2.017000,2.023000,2.019000,2.021000,0.000000,0.000000,0.000000,0.000000,0.000000,0.000000,0.000000,0.000000,0.000000,0.000000,0.000000,0.000000,
0.000000,0.000000,1.983000,1.821000,1.981000,1.981000,1.984000,1.987000,1.987000,1.987000,1.991000,1.997000,1.997000,1.997000,2.000000,2.000000,2.004000,2.005000,2.009000,2.010000,2.010000,2.015000,2.017000,2.015000,2.017000,2.021000,2.024000,2.025000,2.031000,2.038000,0.000000,0.000000,0.000000,0.000000,0.000000,0.000000,0.000000,0.000000,0.000000,0.000000,
0.000000,0.000000,1.983000,1.979000,1.978000,1.979000,1.982000,1.984000,1.987000,1.987000,1.988000,1.991000,1.995000,1.996000,1.997000,1.998000,1.999000,2.004000,2.007000,2.007000,2.010000,2.014000,2.014000,2.017000,2.017000,2.021000,2.024000,2.027000,2.029000,2.029000,2.031000,2.515000,0.000000,0.000000,0.000000,0.000000,0.000000,0.000000,0.000000,0.000000,
0.000000,0.000000,1.978000,1.975000,1.976000,1.975000,1.981000,1.981000,1.984000,1.984000,1.987000,1.987000,1.991000,1.994000,1.997000,1.997000,1.999000,2.001000,2.007000,2.007000,2.010000,2.010000,2.010000,2.014000,2.017000,2.018000,2.024000,2.025000,2.027000,2.027000,2.031000,2.027000,2.034000,0.000000,0.000000,0.000000,0.000000,0.000000,0.000000,0.000000,
0.000000,1.406000,1.973000,1.973000,1.975000,1.976000,1.976000,1.979000,1.982000,1.982000,1.987000,1.987000,1.988000,1.992000,1.996000,1.997000,2.000000,1.999000,2.001000,2.006000,2.007000,2.007000,2.010000,2.011000,2.015000,2.015000,2.017000,2.021000,2.025000,2.027000,2.027000,2.029000,2.031000,2.032000,2.960000,0.000000,0.000000,0.000000,0.000000,0.000000,
0.000000,1.971000,1.971000,1.971000,1.975000,1.975000,1.975000,1.978000,1.981000,1.984000,1.987000,1.987000,1.987000,1.987000,1.993000,1.997000,1.999000,2.000000,2.000000,2.001000,2.006000,2.010000,2.010000,2.010000,2.013000,2.014000,2.014000,2.019000,2.024000,2.027000,2.027000,2.027000,2.027000,2.031000,2.031000,2.031000,0.000000,0.000000,0.000000,0.000000,
1.561000,1.966000,1.971000,1.971000,1.973000,1.975000,1.975000,1.978000,1.981000,1.981000,1.985000,1.985000,1.987000,1.989000,1.991000,1.997000,1.997000,2.000000,2.000000,2.003000,2.005000,2.007000,2.010000,2.010000,2.010000,2.012000,2.014000,2.019000,2.021000,2.023000,2.027000,2.027000,2.027000,2.031000,2.031000,2.031000,2.036000,0.000000,0.000000,0.000000,
1.962000,1.962000,1.966000,1.968000,1.969000,1.971000,1.974000,1.975000,1.975000,1.978000,1.984000,1.984000,1.987000,1.987000,1.989000,1.997000,1.997000,1.997000,1.999000,2.000000,2.000000,2.003000,2.007000,2.008000,2.010000,2.010000,2.014000,2.015000,2.017000,2.022000,2.024000,2.027000,2.027000,2.027000,2.031000,2.031000,2.031000,2.034000,2.034000,0.000000,
1.962000,1.962000,1.962000,1.965000,1.967000,1.969000,1.971000,1.975000,1.975000,1.978000,1.981000,1.982000,1.984000,1.987000,1.988000,1.992000,1.994000,1.997000,1.999000,2.000000,2.000000,2.000000,2.003000,2.005000,2.007000,2.010000,2.011000,2.015000,2.017000,2.018000,2.024000,2.025000,2.025000,2.027000,2.027000,2.031000,2.031000,2.031000,2.034000,2.038000,
1.962000,1.962000,1.962000,1.965000,1.966000,1.967000,1.971000,1.975000,1.975000,1.980000,1.978000,1.980000,1.984000,1.984000,1.987000,1.987000,1.993000,1.993000,1.996000,1.997000,2.000000,2.000000,2.003000,2.007000,2.007000,2.010000,2.010000,2.013000,2.017000,2.017000,2.021000,2.024000,2.024000,2.027000,2.027000,2.027000,2.030000,2.031000,2.034000,2.038000,
1.963000,1.965000,1.963000,1.965000,1.966000,1.967000,1.971000,1.972000,1.975000,1.975000,1.977000,1.978000,1.981000,1.984000,1.986000,1.987000,1.987000,1.987000,1.993000,1.997000,1.999000,2.000000,2.000000,2.004000,2.005000,2.010000,2.010000,2.012000,2.014000,2.017000,2.017000,2.018000,2.024000,2.024000,2.027000,2.027000,2.027000,2.031000,2.031000,2.037000,
1.241000,1.984000,1.972000,1.969000,1.967000,1.968000,1.969000,1.971000,1.971000,1.975000,1.975000,1.978000,1.978000,1.981000,1.984000,1.986000,1.987000,1.987000,1.993000,1.997000,1.997000,2.000000,2.000000,2.001000,2.004000,2.005000,2.007000,2.010000,2.014000,2.015000,2.017000,2.017000,2.020000,2.022000,2.024000,2.027000,2.027000,2.027000,2.027000,2.037000,
1.016000,1.854000,1.468000,1.980000,1.971000,1.968000,1.968000,1.971000,1.971000,1.975000,1.975000,1.975000,1.979000,1.981000,1.984000,1.984000,1.987000,1.988000,1.992000,1.995000,1.994000,1.997000,1.999000,2.000000,2.001000,2.004000,2.007000,2.009000,2.014000,2.014000,2.014000,2.015000,2.017000,2.018000,2.021000,2.024000,2.024000,2.027000,2.027000,0.000000,
0.000000,0.000000,1.821000,2.013000,2.000000,1.973000,1.972000,1.971000,1.970000,1.971000,1.974000,1.975000,1.975000,1.977000,1.981000,1.983000,1.984000,1.987000,1.987000,1.990000,1.994000,1.995000,1.997000,1.999000,2.000000,2.000000,2.004000,2.008000,2.010000,2.012000,2.014000,2.014000,2.017000,2.016000,2.017000,2.021000,2.021000,2.024000,2.026000,0.000000,
0.000000,0.000000,0.000000,0.000000,2.029000,2.016000,1.981000,1.971000,1.968000,1.971000,1.971000,1.975000,1.975000,1.975000,1.981000,1.981000,1.983000,1.987000,1.987000,1.987000,1.991000,1.994000,1.997000,1.997000,1.997000,2.000000,2.000000,2.005000,2.008000,2.010000,2.014000,2.014000,2.015000,2.014000,2.017000,2.017000,2.018000,2.022000,0.000000,0.000000,
0.000000,0.000000,0.000000,0.000000,0.000000,2.547000,1.682000,1.675000,1.984000,1.976000,1.972000,1.971000,1.973000,1.975000,1.977000,1.983000,1.984000,1.984000,1.987000,1.987000,1.987000,1.992000,1.997000,1.995000,1.997000,1.997000,1.999000,2.002000,2.004000,2.008000,2.010000,2.013000,2.014000,2.014000,2.014000,2.014000,2.013000,1.680000,0.000000,0.000000,
0.000000,0.000000,0.000000,0.000000,0.000000,0.000000,0.000000,0.000000,1.441000,2.004000,1.979000,1.974000,1.972000,1.971000,1.975000,1.978000,1.981000,1.984000,1.984000,1.987000,1.987000,1.989000,1.994000,1.994000,1.994000,1.995000,1.999000,2.004000,2.004000,2.006000,2.007000,2.010000,2.010000,2.014000,2.014000,2.014000,1.910000,1.257000,0.000000,0.000000,
0.000000,0.000000,0.000000,0.000000,0.000000,0.000000,0.000000,0.000000,0.000000,2.035000,2.014000,1.992000,1.978000,1.975000,1.975000,1.975000,1.978000,1.981000,1.984000,1.984000,1.986000,1.987000,1.990000,1.992000,1.993000,1.995000,1.996000,2.000000,2.004000,2.004000,2.007000,2.010000,2.010000,2.010000,2.014000,2.014000,2.018000,0.000000,0.000000,0.000000,
0.000000,0.000000,0.000000,0.000000,0.000000,0.000000,0.000000,0.000000,0.000000,0.000000,2.045000,2.039000,2.035000,1.975000,1.978000,1.978000,1.978000,1.979000,1.983000,1.984000,1.984000,1.987000,1.987000,1.989000,1.991000,1.994000,1.994000,2.000000,2.000000,2.002000,2.004000,2.004000,2.005000,2.007000,2.011000,2.014000,0.000000,0.000000,0.000000,0.000000,
0.000000,0.000000,0.000000,0.000000,0.000000,0.000000,0.000000,0.000000,0.000000,0.000000,0.000000,2.811000,2.046000,2.038000,2.000000,1.980000,1.978000,1.978000,1.981000,1.981000,1.984000,1.985000,1.986000,1.987000,1.987000,1.992000,1.991000,1.999000,2.000000,2.000000,2.002000,2.003000,2.004000,2.006000,2.007000,0.000000,0.000000,0.000000,0.000000,0.000000,
0.000000,0.000000,0.000000,0.000000,0.000000,0.000000,0.000000,0.000000,0.000000,0.000000,0.000000,0.000000,0.000000,2.049000,2.041000,2.036000,1.987000,1.984000,1.981000,1.981000,1.983000,1.984000,1.984000,1.987000,1.987000,1.987000,1.991000,1.997000,1.997000,2.000000,2.000000,2.000000,2.004000,2.004000,2.134000,0.000000,0.000000,0.000000,0.000000,0.000000,
0.000000,0.000000,0.000000,0.000000,0.000000,0.000000,0.000000,0.000000,0.000000,0.000000,0.000000,0.000000,0.000000,0.000000,2.932000,2.057000,2.040000,1.998000,1.992000,1.982000,1.983000,1.984000,1.984000,1.986000,1.987000,1.987000,1.991000,1.996000,2.000000,1.997000,1.999000,2.000000,2.000000,2.001000,1.694000,0.000000,0.000000,0.000000,0.000000,0.000000,
0.000000,0.000000,0.000000,0.000000,0.000000,0.000000,0.000000,0.000000,0.000000,0.000000,0.000000,0.000000,0.000000,0.000000,0.000000,0.000000,0.000000,1.150000,2.026000,1.990000,1.982000,1.982000,1.986000,1.986000,1.984000,1.987000,1.987000,1.991000,1.997000,1.997000,1.997000,2.000000,2.000000,2.000000,0.000000,0.000000,0.000000,0.000000,0.000000,0.000000,
0.000000,0.000000,0.000000,0.000000,0.000000,0.000000,0.000000,0.000000,0.000000,0.000000,0.000000,0.000000,0.000000,0.000000,0.000000,0.000000,0.000000,0.000000,2.343000,2.039000,2.010000,1.992000,1.986000,1.985000,1.984000,1.984000,1.987000,1.991000,1.992000,1.994000,1.996000,1.996000,1.985000,0.000000,0.000000,0.000000,0.000000,0.000000,0.000000,0.000000,
0.000000,0.000000,0.000000,0.000000,0.000000,0.000000,0.000000,0.000000,0.000000,0.000000,0.000000,0.000000,0.000000,0.000000,0.000000,0.000000,0.000000,0.000000,0.000000,0.000000,2.053000,2.035000,2.015000,2.003000,1.982000,1.984000,1.987000,1.991000,1.987000,1.991000,1.994000,1.991000,2.082000,0.000000,0.000000,0.000000,0.000000,0.000000,0.000000,0.000000,
0.000000,0.000000,0.000000,0.000000,0.000000,0.000000,0.000000,0.000000,0.000000,0.000000,0.000000,0.000000,0.000000,0.000000,0.000000,0.000000,0.000000,0.000000,0.000000,0.000000,2.753000,2.837000,2.047000,2.029000,2.015000,1.986000,1.984000,1.987000,1.987000,1.991000,1.994000,1.994000,0.000000,0.000000,0.000000,0.000000,0.000000,0.000000,0.000000,0.000000,
0.000000,0.000000,0.000000,0.000000,0.000000,0.000000,0.000000,0.000000,0.000000,0.000000,0.000000,0.000000,0.000000,0.000000,0.000000,0.000000,0.000000,0.000000,0.000000,0.000000,0.000000,0.000000,0.000000,2.056000,2.062000,2.017000,2.013000,1.991000,1.991000,1.991000,1.991000,2.602000,0.000000,0.000000,0.000000,0.000000,0.000000,0.000000,0.000000,0.000000,
0.000000,0.000000,0.000000,0.000000,0.000000,0.000000,0.000000,0.000000,0.000000,0.000000,0.000000,0.000000,0.000000,0.000000,0.000000,0.000000,0.000000,0.000000,0.000000,0.000000,0.000000,0.000000,0.000000,0.000000,0.000000,0.000000,0.000000,0.000000,0.000000,0.000000,0.000000,0.000000,0.000000,0.000000,0.000000,0.000000,0.000000,0.000000,0.000000,0.000000,
0.000000,0.000000,0.000000,0.000000,0.000000,0.000000,0.000000,0.000000,0.000000,0.000000,0.000000,0.000000,0.000000,0.000000,0.000000,0.000000,0.000000,0.000000,0.000000,0.000000,0.000000,0.000000,0.000000,0.000000,0.000000,0.000000,0.000000,0.000000,0.000000,0.000000,0.000000,0.000000,0.000000,0.000000,0.000000,0.000000,0.000000,0.000000,0.000000,0.000000,
