40 40
0.000000 0.000000 0.000000 0.000000 0.000000 0.000000 0.000000 0.000000 0.000000 0.000000 0.000000 0.000000 0.000000 0.000000 0.000000 0.000000 0.000000 0.000000 0.000000 0.000000 0.000000 0.000000 0.000000 0.000000 0.000000 0.000000 0.000000 0.000000 0.000000 0.000000 0.000000 0.000000 0.000000 0.000000 0.000000 0.000000 0.000000 0.000000 0.000000 0.000000 
0.000000 0.000000 0.000000 0.000000 0.000000 0.000000 0.000000 0.000000 0.000000 0.000000 0.000000 0.000000 0.000000 0.000000 0.000000 0.000000 0.000000 0.000000 0.000000 0.000000 0.000000 0.000000 0.000000 0.000000 0.000000 0.000000 0.000000 0.000000 0.000000 0.000000 0.000000 0.000000 0.000000 0.000000 0.000000 0.000000 0.000000 0.000000 0.000000 0.000000 
0.000000 0.000000 0.000000 0.000000 0.000000 0.000000 0.000000 0.000000 0.000000 0.000000 0.000000 0.000000 0.000000 0.000000 0.000000 0.000000 0.000000 0.000000 0.000000 0.000000 0.000000 0.000000 0.000000 0.000000 0.000000 0.000000 0.000000 0.000000 0.000000 0.000000 0.000000 0.000000 0.000000 0.000000 0.000000 0.000000 0.000000 0.000000 0.000000 0.000000 
0.000000 0.000000 0.000000 0.000000 0.000000 0.000000 0.000000 0.000000 0.000000 0.000000 0.000000 0.000000 0.000000 0.000000 0.000000 0.000000 0.000000 0.000000 0.000000 0.000000 0.000000 0.000000 0.000000 0.000000 0.000000 0.000000 0.000000 0.000000 0.000000 0.000000 0.000000 0.000000 0.000000 0.000000 0.000000 0.000000 0.000000 0.000000 0.000000 0.000000 
0.000000 0.000000 0.000000 0.000000 0.000000 0.000000 0.000000 0.000000 0.000000 0.000000 0.000000 0.000000 0.000000 0.000000 0.000000 0.000000 0.000000 0.000000 0.000000 0.000000 0.000000 0.000000 0.000000 0.000000 0.000000 0.000000 0.000000 0.000000 0.000000 0.000000 0.000000 0.000000 0.000000 0.000000 0.000000 0.000000 0.000000 0.000000 0.000000 0.000000 
0.000000 0.000000 0.000000 0.000000 0.000000 0.000000 0.000000 0.000000 0.000000 0.000000 0.000000 0.000000 0.000000 0.000000 0.000000 0.000000 0.000000 0.000000 0.000000 0.000000 0.000000 0.000000 0.000000 0.000000 0.000000 0.000000 0.000000 0.000000 0.000000 0.000000 0.000000 0.000000 0.000000 0.000000 0.000000 0.000000 0.000000 0.000000 0.000000 0.000000 
0.000000 0.000000 0.000000 0.000000 0.000000 0.000000 0.000000 0.000000 0.000000 0.000000 0.000000 0.000000 0.000000 0.000000 0.000000 0.000000 0.000000 0.000000 0.000000 0.000000 0.000000 0.000000 0.000000 0.000000 0.000000 0.000000 0.000000 0.000000 0.000000 0.000000 0.000000 0.000000 0.000000 0.000000 0.000000 0.000000 0.000000 0.000000 0.000000 0.000000 
0.000000 0.000000 0.000000 0.000000 0.000000 0.000000 0.000000 0.000000 0.000000 0.000000 0.000000 0.000000 0.000000 0.000000 0.000000 0.000000 0.000000 0.000000 0.000000 0.000000 0.000000 0.000000 0.000000 0.000000 0.000000 0.000000 0.000000 0.000000 0.000000 0.000000 0.000000 0.000000 0.000000 0.000000 0.000000 0.000000 0.000000 0.000000 0.000000 0.000000 
2.034000 2.032000 2.030000 2.032000 2.030000 2.025000 2.025000 2.025000 2.021000 2.021000 2.021000 2.017000 2.017000 2.017000 2.017000 2.014000 2.008000 2.010000 2.005000 2.004000 1.995000 1.998000 2.501000 2.794000 2.779000 2.791000 2.351000 1.983000 2.728000 2.170000 2.716000 2.202000 2.727000 2.984000 0.000000 0.000000 0.000000 0.000000 0.000000 0.000000 
2.034000 2.034000 2.030000 2.030000 2.030000 2.025000 2.021000 2.022000 2.023000 2.021000 2.021000 2.020000 2.017000 2.017000 2.013000 2.009000 2.005000 2.006000 2.001000 2.000000 2.000000 2.001000 2.003000 2.000000 1.995000 1.995000 1.991000 1.990000 1.990000 1.987000 1.983000 1.987000 1.983000 1.979000 2.998000 0.000000 0.000000 0.000000 0.000000 0.000000 
2.034000 2.034000 2.025000 2.030000 2.030000 2.025000 2.025000 2.021000 2.021000 2.021000 2.017000 2.017000 2.017000 2.014000 2.009000 2.008000 2.005000 2.006000 2.001000 2.000000 2.000000 2.000000 2.003000 2.001000 2.000000 1.995000 1.991000 1.991000 1.991000 1.987000 1.987000 1.987000 1.986000 1.983000 0.000000 0.000000 0.000000 0.000000 0.000000 0.000000 
2.033000 2.034000 2.025000 2.026000 2.028000 2.026000 2.024000 2.021000 2.021000 2.017000 2.017000 2.017000 2.017000 2.017000 2.013000 2.008000 2.008000 2.004000 2.004000 2.004000 2.000000 2.002000 2.004000 2.001000 2.000000 1.991000 1.991000 1.991000 1.991000 1.987000 1.987000 1.987000 1.979000 1.916000 0.000000 0.000000 0.000000 0.000000 0.000000 0.000000 
2.031000 2.033000 2.030000 2.025000 2.025000 2.025000 2.023000 2.021000 2.021000 2.020000 2.017000 2.017000 2.017000 2.017000 2.015000 2.012000 2.004000 2.004000 2.004000 2.004000 2.004000 2.003000 2.004000 2.004000 2.000000 1.995000 1.991000 1.991000 1.991000 1.990000 1.988000 1.988000 1.979000 1.885000 0.000000 0.000000 0.000000 0.000000 0.000000 0.000000 
2.034000 2.034000 2.034000 2.032000 2.029000 2.029000 2.030000 2.024000 2.021000 2.019000 2.020000 2.017000 2.017000 2.017000 2.017000 2.012000 2.007000 2.006000 2.001000 2.004000 2.003000 2.002000 2.001000 2.000000 1.995000 1.992000 1.993000 1.991000 1.988000 1.990000 1.987000 1.984000 1.979000 1.818000 2.083000 0.000000 0.000000 0.000000 2.927000 0.000000 
2.034000 2.034000 2.034000 2.034000 2.030000 2.030000 2.030000 2.021000 2.021000 2.021000 2.021000 2.021000 2.017000 2.017000 2.017000 2.012000 2.008000 2.006000 2.004000 2.000000 2.000000 2.002000 2.000000 2.000000 1.995000 1.994000 1.991000 1.992000 1.987000 1.991000 1.989000 1.987000 1.979000 1.971000 0.000000 0.000000 0.000000 2.052000 2.026000 1.998000 
2.034000 2.031000 2.030000 2.034000 2.030000 2.030000 2.030000 2.024000 2.021000 2.021000 2.017000 2.017000 2.017000 2.015000 2.012000 2.017000 2.012000 2.004000 2.004000 2.004000 2.000000 2.002000 2.001000 2.000000 2.000000 1.993000 1.991000 1.991000 1.991000 1.991000 1.987000 1.987000 1.980000 1.771000 0.000000 0.000000 1.894000 2.043000 2.026000 2.003000 
2.034000 2.031000 2.030000 2.030000 2.030000 2.030000 2.025000 2.022000 2.022000 2.021000 2.021000 2.021000 2.020000 2.017000 2.012000 2.012000 2.008000 2.008000 2.004000 2.004000 2.002000 2.002000 2.004000 2.002000 2.000000 1.992000 1.991000 1.991000 1.989000 1.989000 1.987000 1.987000 1.983000 1.776000 1.023000 1.003000 1.945000 2.040000 2.012000 1.994000 
2.034000 2.034000 2.033000 2.032000 2.030000 2.030000 2.027000 2.025000 2.023000 2.021000 2.021000 2.018000 2.018000 2.017000 2.013000 2.012000 2.008000 2.006000 2.002000 2.004000 2.003000 2.002000 2.002000 2.003000 2.000000 1.995000 1.991000 1.991000 1.987000 1.987000 1.987000 1.984000 1.987000 1.990000 1.998000 2.002000 1.997000 2.004000 2.000000 1.993000 
2.036000 2.034000 2.034000 2.034000 2.034000 2.031000 2.025000 2.026000 2.023000 2.021000 2.021000 2.017000 2.017000 2.017000 2.017000 2.012000 2.010000 2.002000 2.000000 2.000000 2.000000 2.002000 2.000000 2.000000 2.000000 1.995000 1.993000 1.991000 1.987000 1.987000 1.987000 1.984000 1.983000 1.984000 2.016000 2.000000 2.057000 2.050000 2.008000 1.996000 
2.036000 2.034000 2.031000 2.034000 2.032000 2.029000 2.025000 2.024000 2.023000 2.021000 2.021000 2.018000 2.017000 2.017000 2.017000 2.017000 2.010000 2.004000 2.004000 2.004000 2.004000 2.005000 2.002000 2.000000 2.000000 1.999000 1.995000 1.991000 1.987000 1.987000 1.987000 1.987000 1.986000 1.985000 0.000000 1.688000 2.066000 2.047000 2.024000 2.001000 
2.036000 2.034000 2.034000 2.033000 2.029000 2.025000 2.025000 2.023000 2.023000 2.021000 2.021000 2.021000 2.017000 2.017000 2.017000 2.012000 2.008000 2.005000 2.004000 2.000000 2.000000 2.002000 2.004000 2.004000 2.000000 2.000000 1.996000 1.992000 1.991000 1.987000 1.987000 1.987000 1.982000 1.975000 0.000000 1.898000 2.064000 2.049000 2.021000 2.001000 
2.038000 2.034000 2.034000 2.030000 2.029000 2.025000 2.025000 2.025000 2.023000 2.021000 2.019000 2.019000 2.020000 2.017000 2.013000 2.012000 2.011000 2.004000 2.004000 2.002000 2.000000 2.002000 2.004000 2.004000 2.000000 2.000000 1.995000 1.991000 1.991000 1.990000 1.987000 1.987000 1.984000 1.977000 0.000000 1.786000 2.063000 2.052000 2.019000 2.002000 
2.034000 2.034000 2.034000 2.032000 2.028000 2.030000 2.025000 2.024000 2.021000 2.021000 2.021000 2.017000 2.017000 2.017000 2.016000 2.012000 2.005000 2.004000 2.004000 2.004000 2.000000 2.002000 2.004000 2.004000 2.000000 1.994000 1.992000 1.991000 1.991000 1.987000 1.987000 1.990000 1.987000 1.987000 1.816000 0.000000 0.000000 1.084000 2.017000 1.993000 
2.034000 2.034000 2.034000 2.029000 2.027000 2.030000 2.025000 2.021000 2.021000 2.021000 2.021000 2.017000 2.017000 2.017000 2.017000 2.012000 2.004000 2.004000 2.004000 2.004000 2.000000 2.002000 2.004000 2.000000 2.000000 1.991000 1.987000 1.991000 1.991000 1.987000 1.987000 1.987000 1.983000 1.984000 1.991000 1.233000 0.000000 0.000000 2.018000 1.985000 
2.039000 2.036000 2.034000 2.029000 2.028000 2.030000 2.025000 2.022000 2.024000 2.021000 2.021000 2.017000 2.017000 2.017000 2.012000 2.012000 2.005000 2.004000 2.004000 2.001000 2.000000 2.004000 2.004000 2.000000 1.995000 1.991000 1.991000 1.991000 1.991000 1.987000 1.987000 1.987000 1.982000 1.984000 1.620000 0.000000 0.000000 2.047000 2.020000 1.993000 
2.039000 2.039000 2.034000 2.032000 2.031000 2.031000 2.030000 2.028000 2.025000 2.021000 2.021000 2.017000 2.017000 2.017000 2.017000 2.012000 2.008000 2.004000 2.004000 2.004000 2.000000 2.002000 2.004000 2.000000 2.000000 1.995000 1.996000 1.992000 1.991000 1.987000 1.987000 1.987000 1.975000 1.971000 0.000000 0.000000 0.000000 2.030000 2.021000 1.987000 
2.039000 2.035000 2.034000 2.033000 2.032000 2.030000 2.030000 2.022000 2.024000 2.021000 2.021000 2.021000 2.017000 2.017000 2.017000 2.008000 2.007000 2.004000 2.004000 2.004000 2.003000 2.004000 2.001000 2.000000 2.000000 1.996000 1.995000 1.992000 1.991000 1.991000 1.987000 1.987000 1.982000 1.973000 2.005000 0.000000 0.000000 2.034000 2.020000 1.983000 
2.036000 2.034000 2.034000 2.034000 2.032000 2.030000 2.030000 2.021000 2.021000 2.017000 2.020000 2.017000 2.017000 2.017000 2.013000 2.008000 2.004000 2.004000 2.004000 2.004000 2.000000 2.002000 2.004000 2.000000 2.000000 1.994000 1.991000 1.991000 1.991000 1.990000 1.987000 1.987000 1.987000 1.781000 0.000000 0.000000 0.000000 0.000000 0.000000 2.756000 
2.039000 2.034000 2.034000 2.034000 2.030000 2.030000 2.029000 2.024000 2.021000 2.018000 2.021000 2.017000 2.018000 2.017000 2.013000 2.008000 2.008000 2.004000 2.004000 2.004000 2.000000 2.002000 2.004000 2.000000 2.000000 1.992000 1.991000 1.991000 1.991000 1.990000 1.987000 1.987000 1.987000 1.544000 0.000000 0.000000 0.000000 0.000000 0.000000 0.000000 
2.037000 2.037000 2.034000 2.030000 2.030000 2.028000 2.027000 2.023000 2.021000 2.021000 2.018000 2.017000 2.017000 2.014000 2.012000 2.008000 2.008000 2.004000 2.004000 2.004000 2.000000 2.002000 2.003000 2.000000 1.998000 1.994000 1.991000 1.991000 1.991000 1.990000 1.987000 1.987000 1.987000 1.263000 2.827000 0.000000 0.000000 0.000000 0.000000 0.000000 
2.038000 2.039000 2.034000 2.034000 2.030000 2.025000 2.030000 2.025000 2.021000 2.021000 2.017000 2.017000 2.017000 2.012000 2.012000 2.012000 2.008000 2.004000 2.004000 2.000000 2.000000 2.002000 2.003000 2.000000 1.995000 1.991000 1.991000 1.991000 1.991000 1.987000 1.987000 1.987000 1.987000 1.781000 0.000000 0.000000 0.000000 0.000000 0.000000 0.000000 
0.000000 0.000000 0.000000 0.000000 0.000000 0.000000 0.000000 0.000000 0.000000 0.000000 0.000000 0.000000 0.000000 0.000000 2.017000 2.012000 2.011000 2.004000 2.004000 2.000000 2.000000 2.002000 2.004000 2.000000 1.999000 1.994000 1.991000 1.991000 1.987000 1.991000 1.985000 1.980000 1.983000 1.991000 0.000000 0.000000 0.000000 0.000000 0.000000 0.000000 
0.000000 0.000000 0.000000 0.000000 0.000000 0.000000 0.000000 0.000000 0.000000 0.000000 0.000000 0.000000 0.000000 0.000000 0.000000 0.000000 0.000000 0.000000 0.000000 0.000000 0.000000 0.000000 0.000000 0.000000 0.000000 0.000000 0.000000 0.000000 0.000000 0.000000 0.000000 0.000000 0.000000 0.000000 0.000000 0.000000 0.000000 0.000000 0.000000 0.000000 
0.000000 0.000000 0.000000 0.000000 0.000000 0.000000 0.000000 0.000000 0.000000 0.000000 0.000000 0.000000 0.000000 0.000000 0.000000 0.000000 0.000000 0.000000 0.000000 0.000000 0.000000 0.000000 0.000000 0.000000 0.000000 0.000000 0.000000 0.000000 0.000000 0.000000 0.000000 0.000000 0.000000 0.000000 0.000000 0.000000 0.000000 0.000000 0.000000 0.000000 
0.000000 0.000000 0.000000 0.000000 0.000000 0.000000 0.000000 0.000000 0.000000 0.000000 0.000000 0.000000 0.000000 0.000000 0.000000 0.000000 0.000000 0.000000 0.000000 0.000000 0.000000 0.000000 0.000000 0.000000 0.000000 0.000000 0.000000 0.000000 0.000000 0.000000 0.000000 0.000000 0.000000 0.000000 0.000000 0.000000 0.000000 0.000000 0.000000 0.000000 
0.000000 0.000000 0.000000 0.000000 0.000000 0.000000 0.000000 0.000000 0.000000 0.000000 0.000000 0.000000 0.000000 0.000000 0.000000 0.000000 0.000000 0.000000 0.000000 0.000000 0.000000 0.000000 0.000000 0.000000 0.000000 0.000000 0.000000 0.000000 0.000000 0.000000 0.000000 0.000000 0.000000 0.000000 0.000000 0.000000 0.000000 0.000000 0.000000 0.000000 
0.000000 0.000000 0.000000 0.000000 0.000000 0.000000 0.000000 0.000000 0.000000 0.000000 0.000000 0.000000 0.000000 0.000000 0.000000 0.000000 0.000000 0.000000 0.000000 0.000000 0.000000 0.000000 0.000000 0.000000 0.000000 0.000000 0.000000 0.000000 0.000000 0.000000 0.000000 0.000000 0.000000 0.000000 0.000000 0.000000 0.000000 0.000000 0.000000 0.000000 
0.000000 0.000000 0.000000 0.000000 0.000000 0.000000 0.000000 0.000000 0.000000 0.000000 0.000000 0.000000 0.000000 0.000000 0.000000 0.000000 0.000000 0.000000 0.000000 0.000000 0.000000 0.000000 0.000000 0.000000 0.000000 0.000000 0.000000 0.000000 0.000000 0.000000 0.000000 0.000000 0.000000 0.000000 0.000000 0.000000 0.000000 0.000000 0.000000 0.000000 
0.000000 0.000000 0.000000 0.000000 0.000000 0.000000 0.000000 0.000000 0.000000 0.000000 0.000000 0.000000 0.000000 0.000000 0.000000 0.000000 0.000000 0.000000 0.000000 0.000000 0.000000 0.000000 0.000000 0.000000 0.000000 0.000000 0.000000 0.000000 0.000000 0.000000 0.000000 0.000000 0.000000 0.000000 0.000000 0.000000 0.000000 0.000000 0.000000 0.000000 
0.000000 0.000000 0.000000 0.000000 0.000000 0.000000 0.000000 0.000000 0.000000 0.000000 0.000000 0.000000 0.000000 0.000000 0.000000 0.000000 0.000000 0.000000 0.000000 0.000000 0.000000 0.000000 0.000000 0.000000 0.000000 0.000000 0.000000 0.000000 0.000000 0.000000 0.000000 0.000000 0.000000 0.000000 0.000000 0.000000 0.000000 0.000000 0.000000 0.000000 
