40 40
0.000000 0.000000 0.000000 0.000000 0.000000 0.000000 0.000000 0.000000 0.000000 0.000000 0.000000 0.000000 0.000000 0.000000 0.000000 0.000000 0.000000 0.000000 0.000000 0.000000 0.000000 0.000000 0.000000 0.000000 0.000000 0.000000 0.000000 0.000000 0.000000 0.000000 0.000000 0.000000 0.000000 0.000000 0.000000 0.000000 0.000000 0.000000 0.000000 0.000000 
0.000000 0.000000 0.000000 0.000000 0.000000 0.000000 0.000000 0.000000 0.000000 0.000000 0.000000 0.000000 2.337000 2.008000 2.006000 2.059000 0.000000 0.000000 0.000000 0.000000 0.000000 0.000000 0.000000 0.000000 0.000000 0.000000 0.000000 0.000000 0.000000 0.000000 0.000000 0.000000 0.000000 0.000000 0.000000 0.000000 0.000000 0.000000 0.000000 0.000000 
0.000000 0.000000 0.000000 0.000000 0.000000 0.000000 0.000000 0.000000 0.000000 0.000000 1.999000 1.998000 2.001000 2.005000 2.020000 2.041000 2.046000 2.059000 2.069000 0.000000 0.000000 0.000000 0.000000 0.000000 0.000000 0.000000 0.000000 0.000000 0.000000 0.000000 0.000000 0.000000 0.000000 0.000000 0.000000 0.000000 0.000000 0.000000 0.000000 0.000000 
0.000000 0.000000 0.000000 0.000000 0.000000 0.000000 0.000000 1.169000 1.169000 1.377000 1.998000 1.995000 1.993000 1.994000 2.007000 2.007000 2.014000 2.043000 2.051000 2.056000 2.053000 2.058000 2.068000 0.000000 0.000000 0.000000 0.000000 0.000000 0.000000 0.000000 0.000000 0.000000 0.000000 0.000000 0.000000 0.000000 0.000000 0.000000 0.000000 0.000000 
0.000000 0.000000 0.000000 0.000000 0.000000 0.000000 0.000000 1.169000 1.169000 1.376000 1.996000 1.996000 1.995000 1.994000 1.992000 1.991000 1.990000 1.990000 1.992000 1.992000 1.994000 2.009000 2.016000 2.054000 2.058000 2.061000 2.212000 0.000000 0.000000 0.000000 0.000000 0.000000 0.000000 0.000000 0.000000 0.000000 0.000000 0.000000 0.000000 0.000000 
0.000000 0.000000 0.000000 0.000000 0.000000 0.000000 1.169000 1.169000 1.169000 2.000000 1.999000 1.998000 1.996000 1.994000 1.992000 1.992000 1.992000 1.990000 1.990000 1.990000 1.988000 1.990000 1.992000 1.992000 1.992000 1.992000 2.005000 2.059000 2.060000 2.060000 2.070000 2.074000 2.063000 2.058000 2.063000 0.000000 0.000000 0.000000 0.000000 0.000000 
0.000000 0.000000 0.000000 0.000000 0.000000 0.000000 1.751000 1.169000 1.169000 1.999000 2.000000 1.998000 1.996000 1.994000 1.993000 1.992000 1.992000 1.992000 1.992000 1.992000 1.990000 1.988000 1.988000 1.986000 1.986000 1.985000 1.987000 1.992000 1.993000 1.997000 2.051000 2.061000 2.059000 2.059000 2.072000 0.000000 0.000000 0.000000 0.000000 0.000000 
0.000000 0.000000 0.000000 0.000000 1.757000 0.000000 2.378000 1.169000 1.169000 1.999000 2.000000 1.998000 1.996000 1.996000 1.993000 1.992000 1.992000 1.992000 1.992000 1.992000 1.990000 1.990000 1.990000 1.987000 1.985000 1.985000 1.985000 1.985000 1.984000 1.983000 1.984000 1.985000 1.985000 2.015000 2.068000 0.000000 0.000000 0.000000 0.000000 0.000000 
0.000000 0.000000 0.000000 0.000000 1.169000 2.179000 1.169000 1.169000 1.189000 2.000000 2.000000 1.998000 1.997000 1.996000 1.994000 1.993000 1.992000 1.992000 1.994000 1.992000 1.992000 1.990000 1.990000 1.987000 1.988000 1.986000 1.986000 1.984000 1.984000 1.984000 1.983000 1.984000 1.982000 1.987000 1.433000 0.000000 0.000000 0.000000 0.000000 0.000000 
0.000000 0.000000 0.000000 0.000000 1.169000 1.169000 1.169000 1.169000 1.946000 2.002000 2.000000 1.999000 1.998000 1.998000 1.994000 1.994000 1.992000 1.994000 1.992000 1.992000 1.992000 1.990000 1.990000 1.988000 1.988000 1.986000 1.986000 1.986000 1.984000 1.984000 1.984000 1.984000 1.984000 1.185000 1.169000 0.000000 0.000000 0.000000 0.000000 0.000000 
0.000000 0.000000 0.000000 0.000000 1.169000 1.169000 1.169000 1.169000 2.003000 2.003000 2.000000 2.000000 1.998000 1.998000 1.996000 1.994000 1.994000 1.996000 1.994000 1.992000 1.992000 1.992000 1.990000 1.989000 1.988000 1.986000 1.986000 1.986000 1.985000 1.984000 1.982000 1.984000 1.986000 1.169000 1.169000 0.000000 0.000000 0.000000 0.000000 0.000000 
0.000000 0.000000 0.000000 0.000000 1.169000 1.169000 1.169000 1.169000 2.006000 2.005000 2.003000 2.000000 2.000000 1.998000 1.998000 1.997000 1.996000 1.994000 1.994000 1.992000 1.992000 1.992000 1.992000 1.990000 1.990000 1.986000 1.986000 1.986000 1.985000 1.984000 1.983000 1.986000 1.987000 1.169000 1.169000 0.000000 0.000000 0.000000 0.000000 0.000000 
0.000000 0.000000 0.000000 0.000000 1.169000 1.169000 1.169000 1.169000 2.004000 2.006000 2.004000 2.000000 2.000000 2.000000 1.998000 1.998000 1.995000 1.996000 1.996000 1.994000 1.994000 1.992000 1.992000 1.991000 1.990000 1.988000 1.986000 1.986000 1.985000 1.984000 1.984000 1.987000 2.002000 1.719000 1.169000 0.000000 0.000000 0.000000 0.000000 0.000000 
0.000000 0.000000 0.000000 0.000000 1.169000 1.169000 1.169000 1.169000 2.004000 2.006000 2.005000 2.002000 2.000000 2.000000 1.999000 1.998000 1.995000 1.996000 1.996000 1.994000 1.994000 1.994000 1.992000 1.992000 1.991000 1.988000 1.986000 1.986000 1.986000 1.984000 1.984000 1.986000 2.023000 2.063000 1.169000 0.000000 0.000000 0.000000 0.000000 0.000000 
0.000000 0.000000 0.000000 0.000000 1.169000 1.169000 1.169000 1.169000 2.006000 2.006000 2.004000 2.003000 2.000000 2.000000 1.999000 1.998000 1.998000 1.998000 1.996000 1.996000 1.994000 1.994000 1.994000 1.992000 1.992000 1.990000 1.988000 1.988000 1.986000 1.986000 1.984000 1.986000 2.060000 2.065000 1.169000 0.000000 0.000000 0.000000 0.000000 0.000000 
0.000000 0.000000 0.000000 0.000000 1.169000 1.169000 1.169000 1.837000 2.008000 2.006000 2.006000 2.004000 2.002000 2.001000 2.000000 1.998000 1.998000 1.999000 1.997000 1.995000 1.994000 1.994000 1.994000 1.992000 1.992000 1.990000 1.989000 1.986000 1.986000 1.986000 1.986000 1.996000 2.064000 1.429000 1.169000 0.000000 0.000000 0.000000 0.000000 0.000000 
0.000000 0.000000 0.000000 0.000000 1.169000 1.169000 1.169000 2.008000 2.008000 2.006000 2.006000 2.003000 2.002000 2.000000 2.000000 1.999000 1.998000 2.000000 2.000000 1.996000 1.994000 1.994000 1.994000 1.992000 1.992000 1.990000 1.990000 1.988000 1.986000 1.986000 1.986000 2.005000 2.059000 1.431000 1.169000 0.000000 0.000000 0.000000 0.000000 0.000000 
0.000000 0.000000 0.000000 0.000000 1.169000 1.169000 1.169000 2.008000 2.008000 2.006000 2.006000 2.005000 2.002000 2.000000 2.000000 1.999000 1.998000 2.000000 1.998000 1.998000 1.996000 1.994000 1.994000 1.993000 1.992000 1.992000 1.991000 1.988000 1.986000 1.986000 1.988000 2.008000 2.063000 1.432000 1.169000 0.000000 0.000000 0.000000 0.000000 0.000000 
0.000000 0.000000 0.000000 0.000000 1.169000 1.169000 1.169000 2.008000 2.008000 2.008000 2.006000 2.006000 2.004000 2.002000 2.000000 1.999000 2.000000 2.000000 1.998000 1.996000 1.996000 1.994000 1.994000 1.992000 1.992000 1.992000 1.990000 1.989000 1.986000 1.986000 1.988000 2.014000 2.061000 1.169000 1.169000 0.000000 0.000000 0.000000 0.000000 0.000000 
0.000000 0.000000 0.000000 0.000000 1.169000 1.169000 1.645000 2.009000 2.008000 2.008000 2.006000 2.004000 2.002000 2.002000 2.002000 1.999000 1.998000 2.000000 1.998000 1.998000 1.996000 1.994000 1.994000 1.994000 1.994000 1.992000 1.992000 1.990000 1.988000 1.988000 1.990000 1.879000 1.537000 1.169000 1.169000 0.000000 0.000000 0.000000 0.000000 0.000000 
0.000000 0.000000 0.000000 0.000000 1.169000 1.169000 1.651000 2.012000 2.008000 2.007000 2.006000 2.006000 2.004000 2.002000 2.002000 2.000000 1.998000 2.000000 2.000000 2.000000 1.996000 1.995000 1.994000 1.994000 1.992000 1.992000 1.992000 1.990000 1.988000 1.988000 1.993000 1.169000 1.169000 1.169000 1.169000 0.000000 0.000000 0.000000 0.000000 0.000000 
0.000000 0.000000 0.000000 0.000000 1.169000 1.169000 2.014000 2.012000 2.008000 2.008000 2.006000 2.005000 2.004000 2.004000 2.002000 2.001000 2.000000 2.000000 2.000000 1.998000 1.996000 1.994000 1.994000 1.994000 1.993000 1.992000 1.992000 1.990000 1.987000 1.989000 2.010000 1.169000 1.169000 1.169000 1.169000 0.000000 0.000000 0.000000 0.000000 0.000000 
0.000000 0.000000 0.000000 0.000000 1.169000 1.169000 2.012000 2.012000 2.010000 2.008000 2.008000 2.008000 2.006000 2.002000 2.003000 2.001000 2.000000 2.002000 2.000000 2.000000 1.996000 1.996000 1.994000 1.994000 1.993000 1.992000 1.992000 1.992000 1.989000 1.990000 1.995000 1.169000 1.169000 1.169000 1.169000 0.000000 0.000000 0.000000 0.000000 0.000000 
0.000000 0.000000 0.000000 0.000000 1.169000 1.203000 2.014000 2.014000 2.010000 2.008000 2.008000 2.008000 2.006000 2.004000 2.004000 2.003000 2.000000 2.002000 2.000000 2.000000 1.998000 1.998000 1.996000 1.994000 1.994000 1.992000 1.992000 1.992000 1.991000 1.992000 1.995000 1.169000 1.169000 1.169000 1.169000 0.000000 0.000000 0.000000 0.000000 0.000000 
0.000000 0.000000 0.000000 0.000000 1.169000 1.458000 2.015000 2.012000 2.012000 2.010000 2.008000 2.008000 2.008000 2.006000 2.005000 2.002000 2.002000 2.002000 2.000000 2.002000 1.998000 1.998000 1.997000 1.994000 1.994000 1.992000 1.992000 1.992000 1.992000 1.997000 1.446000 1.169000 1.169000 1.169000 1.169000 0.000000 0.000000 0.000000 0.000000 0.000000 
0.000000 0.000000 0.000000 0.000000 1.169000 1.776000 2.015000 2.013000 2.012000 2.011000 2.008000 2.008000 2.006000 2.006000 2.005000 2.004000 2.002000 2.002000 2.001000 2.000000 2.000000 1.998000 1.996000 1.996000 1.994000 1.993000 1.992000 1.992000 1.992000 1.996000 1.995000 1.169000 1.169000 1.169000 1.169000 0.000000 0.000000 0.000000 0.000000 0.000000 
0.000000 0.000000 0.000000 0.000000 1.169000 2.009000 2.014000 2.014000 2.014000 2.010000 2.008000 2.008000 2.006000 2.006000 2.006000 2.004000 2.002000 2.002000 2.002000 2.000000 2.000000 2.000000 1.998000 1.996000 1.994000 1.994000 1.994000 1.994000 1.994000 1.335000 1.169000 1.169000 1.169000 1.169000 1.169000 0.000000 0.000000 0.000000 0.000000 0.000000 
0.000000 0.000000 0.000000 0.000000 1.169000 2.016000 2.016000 2.014000 2.014000 2.010000 2.010000 2.008000 2.008000 2.006000 2.006000 2.004000 2.002000 2.002000 2.002000 2.001000 2.000000 2.000000 1.998000 1.998000 1.996000 1.994000 1.994000 1.994000 1.994000 1.169000 1.169000 1.169000 1.169000 1.169000 1.169000 0.000000 0.000000 0.000000 0.000000 0.000000 
0.000000 0.000000 0.000000 0.000000 1.169000 1.600000 2.014000 2.014000 2.014000 2.012000 2.010000 2.010000 2.008000 2.008000 2.007000 2.006000 2.004000 2.004000 2.003000 2.002000 2.002000 2.000000 2.000000 1.998000 1.996000 1.994000 1.994000 1.994000 2.001000 1.338000 1.169000 1.169000 1.169000 1.169000 1.169000 0.000000 0.000000 0.000000 0.000000 0.000000 
0.000000 0.000000 0.000000 0.000000 1.265000 2.016000 2.016000 2.015000 2.014000 2.012000 2.010000 2.010000 2.010000 2.008000 2.008000 2.006000 2.005000 2.006000 2.007000 2.004000 2.002000 2.000000 2.000000 2.000000 1.997000 1.995000 1.994000 1.994000 1.998000 1.256000 1.169000 1.169000 1.169000 1.169000 1.169000 0.000000 0.000000 0.000000 0.000000 0.000000 
0.000000 0.000000 0.000000 0.000000 1.265000 2.016000 2.016000 2.016000 2.014000 2.012000 2.010000 2.010000 2.008000 2.008000 2.007000 2.008000 2.006000 2.006000 2.007000 2.005000 2.002000 2.002000 2.000000 2.000000 1.998000 1.997000 1.995000 1.996000 1.523000 1.169000 1.169000 1.169000 1.169000 1.169000 1.169000 0.000000 0.000000 0.000000 0.000000 0.000000 
0.000000 0.000000 0.000000 0.000000 2.016000 2.016000 2.016000 2.016000 2.014000 2.014000 2.012000 2.012000 2.012000 2.008000 2.008000 2.008000 2.006000 2.008000 2.006000 2.004000 2.002000 2.002000 2.002000 2.000000 2.000000 1.998000 1.998000 1.999000 1.169000 1.169000 1.169000 1.169000 1.169000 1.169000 1.169000 0.000000 0.000000 0.000000 0.000000 0.000000 
0.000000 0.000000 0.000000 0.000000 2.018000 2.018000 2.016000 2.014000 2.014000 2.014000 2.014000 2.012000 2.014000 2.010000 2.008000 2.008000 2.006000 2.008000 2.006000 2.005000 2.004000 2.002000 2.002000 2.002000 2.000000 1.998000 2.000000 2.003000 1.169000 1.169000 1.169000 1.169000 1.169000 1.169000 1.169000 0.000000 0.000000 0.000000 0.000000 0.000000 
0.000000 0.000000 0.000000 0.000000 2.021000 2.018000 2.016000 2.014000 2.014000 2.014000 2.014000 2.012000 2.010000 2.012000 2.009000 2.008000 2.006000 2.008000 2.006000 2.006000 2.004000 2.003000 2.002000 2.002000 2.000000 2.000000 1.998000 2.020000 1.315000 1.169000 1.169000 1.169000 1.169000 1.169000 1.169000 0.000000 0.000000 0.000000 0.000000 0.000000 
0.000000 0.000000 0.000000 0.000000 2.016000 2.016000 2.016000 2.016000 2.016000 2.014000 2.014000 2.012000 2.011000 2.010000 2.008000 2.006000 2.006000 2.008000 2.009000 2.007000 2.006000 2.005000 2.002000 2.002000 2.001000 2.000000 2.000000 2.028000 2.056000 1.169000 1.169000 1.169000 1.169000 1.169000 1.169000 0.000000 0.000000 0.000000 0.000000 0.000000 
0.000000 0.000000 0.000000 0.000000 2.016000 2.014000 2.016000 2.016000 2.016000 2.014000 2.016000 2.014000 2.014000 2.012000 2.010000 2.008000 2.008000 2.008000 2.009000 2.008000 2.008000 2.006000 2.004000 2.002000 2.001000 2.000000 2.002000 2.026000 1.628000 1.169000 1.169000 1.169000 1.169000 1.169000 1.169000 0.000000 0.000000 0.000000 0.000000 0.000000 
0.000000 0.000000 0.000000 0.000000 1.169000 1.169000 1.169000 1.169000 2.014000 2.013000 2.013000 2.012000 2.014000 2.012000 2.012000 2.009000 2.008000 2.010000 2.009000 2.008000 2.008000 2.006000 2.006000 2.004000 2.002000 2.002000 2.002000 1.169000 1.169000 1.169000 1.169000 1.169000 1.169000 1.169000 1.169000 0.000000 0.000000 0.000000 0.000000 0.000000 
0.000000 0.000000 0.000000 0.000000 1.169000 1.169000 1.169000 1.169000 1.169000 1.169000 1.169000 1.585000 2.019000 2.012000 2.010000 2.011000 2.010000 2.010000 2.010000 2.008000 2.008000 2.006000 2.006000 2.003000 2.002000 2.002000 2.004000 1.169000 1.169000 1.169000 1.169000 1.169000 1.169000 1.169000 1.169000 0.000000 0.000000 0.000000 0.000000 0.000000 
0.000000 0.000000 0.000000 0.000000 1.169000 1.169000 1.169000 1.169000 1.169000 1.169000 1.169000 1.777000 2.034000 1.169000 1.564000 2.014000 2.007000 2.007000 2.009000 2.008000 2.007000 2.008000 2.007000 2.003000 2.003000 2.004000 1.907000 1.169000 1.169000 1.169000 1.169000 1.169000 1.169000 1.169000 1.169000 0.000000 0.000000 0.000000 0.000000 0.000000 
0.000000 0.000000 0.000000 0.000000 0.000000 0.000000 0.000000 0.000000 0.000000 0.000000 0.000000 0.000000 0.000000 0.000000 0.000000 0.000000 0.000000 0.000000 0.000000 0.000000 0.000000 0.000000 0.000000 0.000000 0.000000 0.000000 0.000000 0.000000 0.000000 0.000000 0.000000 0.000000 0.000000 0.000000 0.000000 0.000000 0.000000 0.000000 0.000000 0.000000 
