40 40
0.000000 0.000000 0.000000 0.000000 0.000000 0.000000 0.000000 1.974000 1.977000 1.980000 1.977000 1.980000 1.980000 1.980000 1.980000 1.980000 1.982000 1.982000 1.984000 1.987000 1.987000 1.987000 1.989000 1.991000 1.993000 1.993000 1.993000 1.996000 1.998000 1.998000 2.000000 1.102000 1.102000 0.000000 0.000000 0.000000 0.000000 0.000000 0.000000 0.000000 
0.000000 0.000000 0.000000 0.000000 0.000000 0.000000 0.000000 1.102000 1.977000 1.977000 1.977000 1.980000 1.980000 1.980000 1.982000 1.982000 1.982000 1.982000 1.984000 1.987000 1.989000 1.989000 1.989000 1.991000 1.993000 1.993000 1.995000 1.998000 1.996000 1.998000 2.000000 1.395000 1.102000 0.000000 0.000000 0.000000 0.000000 0.000000 0.000000 0.000000 
0.000000 0.000000 0.000000 0.000000 0.000000 0.000000 0.000000 1.102000 1.980000 1.977000 1.980000 1.980000 1.980000 1.980000 1.982000 1.982000 1.982000 1.982000 1.984000 1.989000 1.989000 1.989000 1.989000 1.993000 1.993000 1.993000 1.993000 1.997000 1.999000 1.998000 2.000000 1.396000 1.102000 0.000000 0.000000 0.000000 0.000000 0.000000 0.000000 0.000000 
0.000000 0.000000 0.000000 0.000000 0.000000 0.000000 0.000000 1.102000 1.980000 1.977000 1.980000 1.980000 1.980000 1.980000 1.982000 1.982000 1.982000 1.982000 1.984000 1.989000 1.989000 1.989000 1.990000 1.993000 1.993000 1.994000 1.995000 1.997000 1.999000 1.998000 2.000000 1.396000 1.102000 0.000000 0.000000 0.000000 0.000000 0.000000 0.000000 0.000000 
0.000000 0.000000 0.000000 0.000000 0.000000 0.000000 0.000000 1.102000 1.980000 1.980000 1.980000 1.980000 1.982000 1.982000 1.982000 1.982000 1.982000 1.986000 1.987000 1.991000 1.991000 1.992000 1.991000 1.993000 1.993000 1.996000 1.997000 1.998000 1.998000 1.998000 2.000000 1.396000 1.102000 0.000000 0.000000 0.000000 0.000000 0.000000 0.000000 0.000000 
0.000000 0.000000 0.000000 0.000000 0.000000 0.000000 0.000000 1.998000 1.980000 1.980000 1.980000 1.982000 1.982000 1.982000 1.982000 1.982000 1.984000 1.987000 1.989000 1.991000 1.991000 1.991000 1.993000 1.995000 1.995000 1.996000 1.998000 1.998000 2.000000 2.000000 2.000000 1.998000 1.102000 0.000000 0.000000 0.000000 0.000000 0.000000 0.000000 0.000000 
0.000000 0.000000 0.000000 0.000000 0.000000 0.000000 0.000000 1.216000 1.980000 1.980000 1.980000 1.982000 1.982000 1.982000 1.982000 1.984000 1.984000 1.987000 1.989000 1.991000 1.991000 1.991000 1.995000 1.996000 1.996000 1.996000 2.000000 2.000000 2.000000 2.000000 2.003000 2.000000 1.102000 0.000000 0.000000 0.000000 0.000000 0.000000 0.000000 0.000000 
0.000000 0.000000 0.000000 0.000000 0.000000 0.000000 0.000000 1.102000 1.982000 1.980000 1.982000 1.982000 1.982000 1.982000 1.984000 1.984000 1.987000 1.987000 1.989000 1.991000 1.991000 1.991000 1.993000 1.996000 1.996000 1.997000 2.000000 2.000000 2.003000 2.003000 2.003000 2.000000 1.102000 0.000000 0.000000 0.000000 0.000000 0.000000 0.000000 0.000000 
0.000000 0.000000 0.000000 0.000000 0.000000 0.000000 0.000000 1.102000 1.982000 1.982000 1.982000 1.982000 1.984000 1.984000 1.984000 1.984000 1.987000 1.989000 1.989000 1.992000 1.993000 1.993000 1.993000 1.996000 1.998000 1.998000 2.000000 2.000000 2.003000 2.003000 2.005000 2.005000 1.102000 0.000000 0.000000 0.000000 0.000000 0.000000 0.000000 0.000000 
0.000000 0.000000 0.000000 0.000000 0.000000 0.000000 0.000000 2.002000 1.984000 1.982000 1.982000 1.982000 1.984000 1.987000 1.987000 1.988000 1.989000 1.989000 1.991000 1.993000 1.993000 1.993000 1.995000 1.998000 2.000000 2.000000 2.000000 2.002000 2.002000 2.003000 2.003000 2.007000 1.102000 0.000000 0.000000 0.000000 0.000000 0.000000 0.000000 0.000000 
0.000000 0.000000 0.000000 0.000000 0.000000 0.000000 0.000000 1.264000 1.972000 1.982000 1.982000 1.982000 1.984000 1.987000 1.989000 1.989000 1.989000 1.989000 1.991000 1.993000 1.993000 1.993000 1.997000 2.000000 2.000000 2.000000 2.000000 2.003000 2.003000 2.003000 2.005000 2.007000 1.102000 0.000000 0.000000 0.000000 0.000000 0.000000 0.000000 0.000000 
0.000000 0.000000 0.000000 0.000000 0.000000 0.000000 0.000000 1.102000 1.969000 1.982000 1.982000 1.984000 1.987000 1.987000 1.987000 1.989000 1.989000 1.991000 1.991000 1.993000 1.996000 1.996000 1.996000 2.000000 2.000000 2.000000 2.002000 2.003000 2.003000 2.005000 2.007000 2.008000 1.102000 0.000000 0.000000 0.000000 0.000000 0.000000 0.000000 0.000000 
0.000000 0.000000 0.000000 0.000000 0.000000 0.000000 0.000000 1.102000 1.969000 1.984000 1.984000 1.984000 1.985000 1.987000 1.989000 1.989000 1.989000 1.991000 1.991000 1.993000 1.996000 1.998000 1.998000 2.000000 2.000000 2.000000 2.003000 2.004000 2.005000 2.005000 2.005000 2.010000 1.102000 0.000000 0.000000 0.000000 0.000000 0.000000 0.000000 0.000000 
0.000000 0.000000 0.000000 0.000000 0.000000 0.000000 0.000000 1.102000 1.969000 1.984000 1.986000 1.987000 1.987000 1.989000 1.989000 1.989000 1.989000 1.991000 1.991000 1.996000 1.996000 1.998000 1.998000 2.000000 2.002000 2.002000 2.003000 2.005000 2.004000 2.005000 2.007000 2.008000 1.102000 0.000000 0.000000 0.000000 0.000000 0.000000 0.000000 0.000000 
0.000000 0.000000 0.000000 0.000000 0.000000 0.000000 0.000000 1.102000 1.769000 1.986000 1.989000 1.989000 1.989000 1.989000 1.989000 1.989000 1.991000 1.991000 1.996000 1.996000 1.998000 1.998000 2.000000 2.003000 2.003000 2.003000 2.003000 2.006000 2.008000 2.010000 2.008000 2.008000 1.102000 0.000000 0.000000 0.000000 0.000000 0.000000 0.000000 0.000000 
0.000000 0.000000 0.000000 0.000000 0.000000 0.000000 0.000000 1.102000 1.976000 1.987000 1.987000 1.989000 1.989000 1.989000 1.990000 1.991000 1.991000 1.992000 1.995000 1.998000 1.998000 2.000000 2.000000 2.003000 2.003000 2.003000 2.003000 2.003000 2.007000 2.009000 2.009000 2.009000 1.102000 0.000000 0.000000 0.000000 0.000000 0.000000 0.000000 0.000000 
0.000000 0.000000 0.000000 0.000000 0.000000 0.000000 0.000000 1.102000 1.971000 1.989000 1.989000 1.989000 1.989000 1.989000 1.989000 1.991000 1.991000 1.993000 1.996000 2.000000 2.000000 2.000000 2.000000 2.003000 2.003000 2.005000 2.005000 2.007000 2.008000 2.008000 2.010000 2.008000 1.102000 0.000000 0.000000 0.000000 0.000000 0.000000 0.000000 0.000000 
0.000000 0.000000 0.000000 0.000000 0.000000 0.000000 0.000000 1.102000 1.975000 1.989000 1.989000 1.989000 1.989000 1.989000 1.990000 1.991000 1.993000 1.993000 1.996000 1.998000 2.000000 2.000000 2.000000 2.003000 2.003000 2.005000 2.005000 2.008000 2.010000 2.010000 2.010000 2.010000 1.406000 0.000000 0.000000 0.000000 0.000000 0.000000 0.000000 0.000000 
0.000000 0.000000 0.000000 0.000000 0.000000 0.000000 0.000000 1.102000 1.997000 1.989000 1.989000 1.989000 1.989000 1.990000 1.991000 1.991000 1.993000 1.993000 1.996000 1.998000 2.000000 2.000000 2.000000 2.003000 2.004000 2.005000 2.005000 2.008000 2.008000 2.010000 2.010000 2.010000 1.102000 0.000000 0.000000 0.000000 0.000000 0.000000 0.000000 0.000000 
0.000000 0.000000 0.000000 0.000000 0.000000 0.000000 0.000000 1.102000 1.972000 1.989000 1.989000 1.989000 1.990000 1.991000 1.991000 1.992000 1.993000 1.993000 1.996000 2.000000 2.002000 2.002000 2.000000 2.003000 2.005000 2.005000 2.005000 2.008000 2.010000 2.010000 2.010000 2.010000 1.102000 0.000000 0.000000 0.000000 0.000000 0.000000 0.000000 0.000000 
0.000000 0.000000 0.000000 0.000000 0.000000 0.000000 0.000000 1.102000 1.102000 1.990000 1.989000 1.990000 1.991000 1.991000 1.993000 1.994000 1.996000 1.996000 1.998000 2.000000 2.000000 2.002000 2.000000 2.003000 2.005000 2.007000 2.005000 2.007000 2.010000 2.010000 2.010000 2.010000 1.411000 0.000000 0.000000 0.000000 0.000000 0.000000 0.000000 0.000000 
0.000000 0.000000 0.000000 0.000000 0.000000 0.000000 0.000000 1.102000 1.102000 1.989000 1.989000 1.990000 1.991000 1.991000 1.993000 1.993000 1.996000 1.997000 1.998000 2.000000 2.002000 2.003000 2.003000 2.005000 2.007000 2.006000 2.007000 2.009000 2.010000 2.012000 2.010000 2.012000 1.411000 0.000000 0.000000 0.000000 0.000000 0.000000 0.000000 0.000000 
0.000000 0.000000 0.000000 0.000000 0.000000 0.000000 0.000000 1.102000 1.102000 1.991000 1.991000 1.991000 1.991000 1.993000 1.993000 1.996000 1.996000 1.997000 1.998000 2.003000 2.003000 2.003000 2.003000 2.003000 2.008000 2.005000 2.008000 2.010000 2.010000 2.011000 2.010000 2.012000 1.805000 0.000000 0.000000 0.000000 0.000000 0.000000 0.000000 0.000000 
0.000000 0.000000 0.000000 0.000000 0.000000 0.000000 0.000000 1.102000 1.102000 1.993000 1.992000 1.991000 1.991000 1.992000 1.993000 1.998000 1.998000 1.998000 1.999000 2.003000 2.003000 2.003000 2.003000 2.005000 2.008000 2.008000 2.010000 2.010000 2.011000 2.012000 2.012000 2.011000 2.015000 0.000000 0.000000 0.000000 0.000000 0.000000 0.000000 0.000000 
0.000000 0.000000 0.000000 0.000000 0.000000 0.000000 0.000000 1.102000 1.102000 1.991000 1.991000 1.991000 1.993000 1.995000 1.996000 1.998000 1.998000 1.998000 1.998000 2.003000 2.005000 2.003000 2.005000 2.007000 2.008000 2.010000 2.009000 2.010000 2.012000 2.012000 2.012000 2.012000 1.633000 0.000000 0.000000 0.000000 0.000000 0.000000 0.000000 0.000000 
0.000000 0.000000 0.000000 0.000000 0.000000 0.000000 0.000000 1.102000 1.102000 1.992000 1.991000 1.993000 1.993000 1.996000 1.997000 1.996000 1.998000 1.998000 1.998000 2.003000 2.003000 2.006000 2.003000 2.005000 2.007000 2.010000 2.008000 2.010000 2.011000 2.012000 2.012000 2.012000 1.785000 0.000000 0.000000 0.000000 0.000000 0.000000 0.000000 0.000000 
0.000000 0.000000 0.000000 0.000000 0.000000 0.000000 0.000000 1.102000 1.102000 1.992000 1.991000 1.994000 1.996000 1.996000 1.996000 1.997000 1.998000 1.998000 2.000000 2.003000 2.005000 2.006000 2.008000 2.005000 2.010000 2.010000 2.010000 2.010000 2.012000 2.012000 2.013000 2.013000 2.016000 0.000000 0.000000 0.000000 0.000000 0.000000 0.000000 0.000000 
0.000000 0.000000 0.000000 0.000000 0.000000 0.000000 0.000000 1.102000 1.102000 1.975000 1.993000 1.993000 1.996000 1.997000 1.998000 1.998000 1.999000 1.998000 2.000000 2.003000 2.005000 2.007000 2.007000 2.005000 2.010000 2.010000 2.010000 2.011000 2.012000 2.012000 2.012000 2.014000 1.770000 0.000000 0.000000 0.000000 0.000000 0.000000 0.000000 0.000000 
0.000000 0.000000 0.000000 0.000000 0.000000 0.000000 0.000000 1.102000 1.102000 1.961000 1.992000 1.996000 1.996000 1.998000 1.998000 1.998000 2.000000 2.000000 2.000000 2.005000 2.007000 2.008000 2.006000 2.007000 2.010000 2.010000 2.010000 2.012000 2.012000 2.013000 2.014000 2.015000 2.014000 0.000000 0.000000 0.000000 0.000000 0.000000 0.000000 0.000000 
0.000000 0.000000 0.000000 0.000000 0.000000 0.000000 0.000000 1.102000 1.102000 1.965000 1.995000 1.997000 1.997000 1.998000 1.998000 1.998000 1.998000 2.000000 2.000000 2.008000 2.008000 2.009000 2.008000 2.010000 2.010000 2.010000 2.010000 2.012000 2.012000 2.012000 2.016000 2.015000 2.017000 0.000000 0.000000 0.000000 0.000000 0.000000 0.000000 0.000000 
0.000000 0.000000 0.000000 0.000000 0.000000 0.000000 0.000000 1.102000 1.102000 1.968000 1.996000 1.996000 1.998000 1.998000 1.998000 1.998000 1.999000 2.000000 2.004000 2.008000 2.008000 2.010000 2.010000 2.010000 2.010000 2.010000 2.011000 2.012000 2.014000 2.017000 2.017000 2.016000 2.016000 0.000000 0.000000 0.000000 0.000000 0.000000 0.000000 0.000000 
0.000000 0.000000 0.000000 0.000000 0.000000 0.000000 0.000000 1.102000 1.102000 1.102000 1.998000 1.997000 1.998000 1.998000 1.998000 1.999000 2.000000 2.003000 2.003000 2.008000 2.008000 2.009000 2.010000 2.011000 2.011000 2.012000 2.012000 2.012000 2.012000 2.013000 2.012000 2.014000 1.692000 0.000000 0.000000 0.000000 0.000000 0.000000 0.000000 0.000000 
0.000000 0.000000 0.000000 0.000000 0.000000 0.000000 0.000000 1.102000 1.102000 1.102000 1.999000 1.998000 1.998000 1.998000 2.000000 1.998000 1.999000 2.000000 2.004000 2.004000 2.008000 2.010000 2.010000 2.021000 2.016000 1.535000 1.214000 1.102000 1.102000 1.102000 1.102000 1.102000 1.102000 0.000000 0.000000 0.000000 0.000000 0.000000 0.000000 0.000000 
0.000000 0.000000 0.000000 0.000000 0.000000 0.000000 0.000000 1.102000 1.102000 1.102000 1.540000 1.540000 1.539000 1.539000 1.146000 1.102000 1.500000 2.015000 2.023000 2.065000 1.717000 1.204000 1.102000 2.033000 2.030000 1.102000 1.102000 1.102000 1.102000 1.102000 1.102000 1.102000 1.102000 0.000000 0.000000 0.000000 0.000000 0.000000 0.000000 0.000000 
0.000000 0.000000 0.000000 0.000000 0.000000 0.000000 0.000000 1.110000 1.102000 1.102000 1.102000 1.102000 1.102000 1.102000 1.609000 1.102000 1.102000 2.008000 2.025000 2.117000 2.120000 2.118000 2.097000 2.033000 2.032000 1.102000 1.102000 1.102000 1.102000 1.102000 1.102000 1.102000 1.102000 0.000000 0.000000 0.000000 0.000000 0.000000 0.000000 0.000000 
0.000000 0.000000 0.000000 0.000000 0.000000 0.000000 0.000000 2.243000 2.227000 1.102000 1.102000 1.102000 1.102000 1.102000 2.105000 2.097000 2.095000 2.021000 2.025000 2.098000 2.093000 2.090000 2.087000 2.034000 2.030000 2.081000 1.573000 1.102000 1.102000 1.102000 1.102000 1.102000 1.102000 0.000000 0.000000 0.000000 0.000000 0.000000 0.000000 0.000000 
0.000000 0.000000 0.000000 0.000000 0.000000 0.000000 0.000000 0.000000 0.000000 0.000000 1.102000 1.102000 1.102000 1.102000 2.082000 2.075000 2.072000 2.044000 2.027000 2.075000 2.072000 2.071000 2.067000 2.046000 2.031000 2.060000 2.060000 1.102000 1.102000 1.102000 1.102000 1.102000 1.102000 0.000000 0.000000 0.000000 0.000000 0.000000 0.000000 0.000000 
0.000000 0.000000 0.000000 0.000000 0.000000 0.000000 0.000000 0.000000 0.000000 0.000000 0.000000 0.000000 1.102000 1.102000 2.070000 2.053000 2.055000 2.046000 2.028000 2.048000 2.045000 2.046000 2.040000 2.037000 2.034000 2.037000 2.030000 2.028000 1.102000 1.102000 1.102000 1.102000 1.102000 0.000000 0.000000 0.000000 0.000000 0.000000 0.000000 0.000000 
0.000000 0.000000 0.000000 0.000000 0.000000 0.000000 0.000000 0.000000 0.000000 0.000000 0.000000 0.000000 1.191000 1.102000 1.629000 2.028000 2.020000 2.035000 2.029000 2.025000 2.026000 2.018000 2.018000 2.018000 2.011000 2.013000 2.013000 2.012000 1.503000 1.102000 1.102000 1.102000 1.102000 0.000000 0.000000 0.000000 0.000000 0.000000 0.000000 0.000000 
0.000000 0.000000 0.000000 0.000000 0.000000 0.000000 0.000000 0.000000 0.000000 0.000000 0.000000 0.000000 1.102000 1.102000 1.102000 1.909000 1.999000 1.998000 2.000000 2.003000 2.004000 2.003000 2.006000 2.005000 2.003000 2.008000 2.008000 2.010000 2.004000 1.102000 1.102000 1.102000 1.102000 0.000000 0.000000 0.000000 0.000000 0.000000 0.000000 0.000000 
