0.000000,0.000000,0.000000,0.000000,0.000000,0.000000,0.000000,0.000000,0.000000,0.000000,0.000000,0.000000,0.000000,0.000000,0.000000,0.000000,0.000000,0.000000,0.000000,0.000000,0.000000,0.000000,0.000000,0.000000,0.000000,0.000000,0.000000,0.000000,0.000000,0.000000,0.000000,0.000000,0.000000,0.000000,0.000000,0.000000,0.000000,0.000000,0.000000,0.000000,
0.000000,0.000000,0.000000,0.000000,0.000000,0.000000,0.000000,0.000000,0.000000,0.000000,0.000000,0.000000,0.000000,0.000000,0.000000,0.000000,0.000000,0.000000,0.000000,0.000000,0.000000,0.000000,0.000000,0.000000,0.000000,0.000000,0.000000,0.000000,0.000000,0.000000,0.000000,0.000000,0.000000,0.000000,0.000000,0.000000,0.000000,0.000000,0.000000,0.000000,
0.000000,0.000000,0.000000,0.000000,0.000000,0.000000,0.000000,0.000000,0.000000,0.000000,0.000000,0.000000,0.000000,0.000000,0.000000,0.000000,0.000000,0.000000,0.000000,0.000000,0.000000,0.000000,0.000000,0.000000,0.000000,0.000000,0.000000,0.000000,0.000000,0.000000,0.000000,0.000000,0.000000,0.000000,0.000000,0.000000,0.000000,0.000000,0.000000,0.000000,
0.000000,0.000000,0.000000,0.000000,0.000000,0.000000,0.000000,2.114000,2.114000,2.114000,2.114000,2.114000,2.114000,2.114000,2.114000,2.114000,2.093000,2.057000,2.023000,2.000000,2.000000,2.000000,2.000000,2.000000,2.000000,2.000000,2.000000,2.000000,2.000000,2.000000,2.000000,0.000000,0.000000,0.000000,0.000000,0.000000,0.000000,0.000000,0.000000,0.000000,
0.000000,0.000000,0.000000,0.000000,0.000000,0.000000,0.000000,2.089000,2.100000,2.114000,2.114000,2.114000,2.114000,2.114000,2.111000,2.096000,2.077000,2.057000,2.037000,2.019000,2.004000,2.000000,2.000000,2.000000,2.000000,2.000000,2.000000,2.000000,2.000000,2.000000,2.000000,0.000000,0.000000,0.000000,0.000000,0.000000,0.000000,0.000000,0.000000,0.000000,
0.000000,0.000000,0.000000,0.000000,0.000000,0.000000,0.000000,2.056000,2.081000,2.114000,2.114000,2.114000,2.114000,2.114000,2.107000,2.071000,2.056000,2.056000,2.056000,2.044000,2.010000,2.000000,2.000000,2.000000,2.000000,2.000000,2.000000,2.000000,2.000000,2.000000,2.000000,0.000000,0.000000,0.000000,0.000000,0.000000,0.000000,0.000000,0.000000,0.000000,
0.000000,0.000000,0.000000,0.000000,0.000000,0.000000,0.000000,2.056000,2.081000,2.114000,2.114000,2.114000,2.114000,2.114000,2.107000,2.071000,2.056000,2.056000,2.056000,2.044000,2.010000,2.000000,2.000000,2.000000,2.000000,2.000000,2.000000,2.000000,2.000000,2.000000,2.000000,0.000000,0.000000,0.000000,0.000000,0.000000,0.000000,0.000000,0.000000,0.000000,
0.000000,0.000000,0.000000,0.000000,0.000000,0.000000,0.000000,2.072000,2.090000,2.114000,2.114000,2.114000,2.114000,2.106000,2.093000,2.067000,2.056000,2.056000,2.056000,2.044000,2.010000,2.000000,2.000000,2.000000,2.000000,2.000000,2.000000,1.998000,1.989000,1.985000,1.985000,0.000000,0.000000,0.000000,0.000000,0.000000,0.000000,0.000000,0.000000,0.000000,
0.000000,0.000000,0.000000,0.000000,0.000000,0.000000,0.000000,2.108000,2.110000,2.114000,2.114000,2.114000,2.114000,2.088000,2.061000,2.058000,2.056000,2.056000,2.056000,2.044000,2.010000,2.000000,2.000000,2.000000,2.000000,2.000000,2.000000,1.993000,1.963000,1.952000,1.952000,0.000000,0.000000,0.000000,0.000000,0.000000,0.000000,0.000000,0.000000,0.000000,
0.000000,0.000000,0.000000,0.000000,0.000000,0.000000,0.000000,2.114000,2.127000,2.143000,2.124000,2.114000,2.114000,2.085000,2.056000,2.056000,2.056000,2.056000,2.056000,2.044000,2.010000,2.000000,2.000000,2.000000,2.000000,2.000000,2.000000,1.992000,1.959000,1.946000,1.946000,0.000000,0.000000,0.000000,0.000000,0.000000,0.000000,0.000000,0.000000,0.000000,
0.000000,0.000000,0.000000,0.000000,0.000000,0.000000,0.000000,2.114000,2.139000,2.171000,2.134000,2.114000,2.114000,2.088000,2.062000,2.058000,2.056000,2.056000,2.056000,2.044000,2.010000,2.000000,2.000000,2.000000,2.000000,2.000000,2.000000,1.993000,1.964000,1.953000,1.953000,0.000000,0.000000,0.000000,0.000000,0.000000,0.000000,0.000000,0.000000,0.000000,
0.000000,0.000000,0.000000,0.000000,0.000000,0.000000,0.000000,2.114000,2.139000,2.171000,2.134000,2.114000,2.114000,2.106000,2.094000,2.067000,2.056000,2.056000,2.056000,2.044000,2.010000,2.000000,2.000000,2.000000,2.000000,2.000000,2.000000,1.998000,1.989000,1.986000,1.986000,2.332000,2.554000,0.000000,0.000000,0.000000,0.000000,0.000000,0.000000,0.000000,
0.000000,0.000000,0.000000,0.000000,0.000000,0.000000,0.000000,2.114000,2.139000,2.171000,2.134000,2.114000,2.114000,2.114000,2.107000,2.071000,2.056000,2.056000,2.056000,2.049000,2.026000,2.020000,2.020000,2.020000,2.014000,2.002000,2.000000,2.000000,2.000000,2.000000,2.000000,2.000000,2.000000,0.000000,0.000000,0.000000,0.000000,0.000000,0.000000,0.000000,
0.000000,0.000000,0.000000,0.000000,0.000000,0.000000,0.000000,2.114000,2.139000,2.171000,2.134000,2.114000,2.114000,2.114000,2.107000,2.071000,2.056000,2.056000,2.056000,2.056000,2.055000,2.055000,2.055000,2.055000,2.039000,2.005000,2.000000,2.000000,2.000000,2.000000,2.000000,2.000000,2.000000,0.000000,0.000000,0.000000,0.000000,0.000000,0.000000,0.000000,
0.000000,0.000000,0.000000,0.000000,0.000000,0.000000,0.000000,2.149000,2.159000,2.171000,2.134000,2.114000,2.114000,2.114000,2.107000,2.071000,2.056000,2.056000,2.056000,2.056000,2.056000,2.056000,2.056000,2.056000,2.040000,2.005000,2.000000,2.000000,2.000000,2.000000,2.000000,2.020000,2.033000,0.000000,0.000000,0.000000,0.000000,0.000000,0.000000,0.000000,
0.000000,0.000000,0.000000,0.000000,0.000000,0.000000,0.000000,2.173000,2.173000,2.171000,2.134000,2.114000,2.114000,2.114000,2.107000,2.071000,2.056000,2.056000,2.056000,2.056000,2.056000,2.056000,2.055000,2.048000,2.031000,2.004000,2.000000,2.000000,2.000000,2.000000,2.000000,2.034000,2.056000,0.000000,0.000000,0.000000,0.000000,0.000000,0.000000,0.000000,
0.000000,0.000000,0.000000,0.000000,0.000000,0.000000,0.000000,2.173000,2.173000,2.171000,2.134000,2.114000,2.114000,2.114000,2.107000,2.071000,2.056000,2.056000,2.056000,2.056000,2.056000,2.056000,2.053000,2.025000,2.007000,2.001000,2.000000,2.000000,2.000000,2.000000,2.000000,2.034000,2.056000,0.000000,0.000000,0.000000,0.000000,0.000000,0.000000,0.000000,
0.000000,0.000000,0.000000,0.000000,0.000000,0.000000,0.000000,2.173000,2.173000,2.171000,2.134000,2.114000,2.114000,2.114000,2.107000,2.071000,2.056000,2.056000,2.056000,2.056000,2.056000,2.045000,2.029000,2.010000,1.993000,1.978000,1.976000,1.980000,1.994000,2.000000,2.000000,2.034000,2.056000,0.000000,0.000000,0.000000,0.000000,0.000000,0.000000,0.000000,
0.000000,0.000000,0.000000,0.000000,0.000000,0.000000,0.000000,2.173000,2.173000,2.171000,2.136000,2.117000,2.114000,2.114000,2.107000,2.071000,2.056000,2.056000,2.056000,2.055000,2.053000,2.029000,2.000000,2.000000,1.984000,1.951000,1.946000,1.954000,1.987000,2.000000,2.000000,2.034000,2.056000,0.000000,0.000000,0.000000,0.000000,0.000000,0.000000,0.000000,
0.000000,0.000000,0.000000,0.000000,0.000000,0.000000,0.000000,2.173000,2.173000,2.172000,2.160000,2.143000,2.118000,2.114000,2.107000,2.071000,2.056000,2.056000,2.056000,2.048000,2.025000,2.010000,2.000000,2.000000,1.984000,1.951000,1.946000,1.954000,1.987000,2.000000,2.000000,2.034000,2.056000,0.000000,0.000000,0.000000,0.000000,0.000000,0.000000,0.000000,
0.000000,0.000000,0.000000,0.000000,0.000000,0.000000,0.000000,2.173000,2.173000,2.173000,2.173000,2.157000,2.120000,2.114000,2.107000,2.071000,2.056000,2.056000,2.056000,2.044000,2.010000,2.000000,1.999000,1.989000,1.973000,1.949000,1.946000,1.954000,1.987000,2.000000,2.000000,2.034000,2.056000,0.000000,0.000000,0.000000,0.000000,0.000000,0.000000,0.000000,
0.000000,0.000000,0.000000,0.000000,0.000000,0.000000,0.000000,2.173000,2.173000,2.173000,2.173000,2.157000,2.120000,2.114000,2.107000,2.071000,2.056000,2.056000,2.056000,2.044000,2.010000,2.000000,1.997000,1.967000,1.949000,1.946000,1.946000,1.954000,1.987000,2.000000,2.000000,2.034000,2.056000,0.000000,0.000000,0.000000,0.000000,0.000000,0.000000,0.000000,
0.000000,0.000000,0.000000,0.000000,0.000000,0.000000,0.000000,0.000000,2.808000,2.173000,2.173000,2.157000,2.120000,2.114000,2.107000,2.071000,2.056000,2.056000,2.056000,2.044000,2.010000,2.000000,1.997000,1.964000,1.946000,1.946000,1.946000,1.954000,1.987000,2.000000,2.000000,2.034000,2.056000,0.000000,0.000000,0.000000,0.000000,0.000000,0.000000,0.000000,
0.000000,0.000000,0.000000,0.000000,0.000000,0.000000,0.000000,0.000000,0.000000,2.173000,2.173000,2.157000,2.120000,2.114000,2.107000,2.071000,2.056000,2.056000,2.056000,2.044000,2.010000,2.000000,1.997000,1.964000,1.946000,1.946000,1.946000,1.954000,1.987000,2.000000,2.000000,2.034000,2.056000,0.000000,0.000000,0.000000,0.000000,0.000000,0.000000,0.000000,
0.000000,0.000000,0.000000,0.000000,0.000000,0.000000,0.000000,2.679000,2.464000,2.173000,2.173000,2.157000,2.120000,2.114000,2.107000,2.071000,2.056000,2.056000,2.056000,2.044000,2.010000,2.000000,1.997000,1.964000,1.946000,1.946000,1.946000,1.954000,1.987000,2.000000,2.000000,2.034000,2.056000,0.000000,0.000000,0.000000,0.000000,0.000000,0.000000,0.000000,
0.000000,0.000000,0.000000,0.000000,0.000000,0.000000,0.000000,2.173000,2.173000,2.173000,2.173000,2.157000,2.120000,2.114000,2.107000,2.071000,2.056000,2.056000,2.056000,2.049000,2.027000,2.012000,1.998000,1.977000,1.960000,1.948000,1.946000,1.954000,1.987000,2.000000,2.000000,2.021000,2.035000,0.000000,0.000000,0.000000,0.000000,0.000000,0.000000,0.000000,
0.000000,0.000000,0.000000,0.000000,0.000000,0.000000,0.000000,2.173000,2.173000,2.173000,2.173000,2.157000,2.120000,2.114000,2.107000,2.071000,2.056000,2.056000,2.056000,2.056000,2.056000,2.031000,2.000000,2.000000,1.984000,1.951000,1.946000,1.954000,1.987000,2.000000,2.000000,2.000000,2.000000,0.000000,0.000000,0.000000,0.000000,0.000000,0.000000,0.000000,
0.000000,0.000000,0.000000,0.000000,0.000000,0.000000,0.000000,2.137000,2.137000,2.139000,2.161000,2.157000,2.120000,2.114000,2.107000,2.071000,2.056000,2.056000,2.056000,2.049000,2.028000,2.012000,2.000000,2.000000,1.984000,1.951000,1.946000,1.954000,1.987000,2.000000,2.000000,2.000000,2.000000,0.000000,0.000000,0.000000,0.000000,0.000000,0.000000,0.000000,
0.000000,0.000000,0.000000,0.000000,0.000000,0.000000,0.000000,2.114000,2.114000,2.116000,2.153000,2.157000,2.120000,2.114000,2.107000,2.071000,2.056000,2.056000,2.056000,2.044000,2.010000,2.000000,2.000000,2.000000,1.988000,1.962000,1.958000,1.964000,1.990000,2.000000,2.000000,2.000000,2.000000,0.000000,0.000000,0.000000,0.000000,0.000000,0.000000,0.000000,
0.000000,0.000000,0.000000,0.000000,0.000000,0.000000,0.000000,2.114000,2.114000,2.116000,2.153000,2.157000,2.120000,2.114000,2.107000,2.071000,2.056000,2.056000,2.056000,2.044000,2.010000,2.000000,2.000000,2.000000,1.998000,1.992000,1.991000,1.993000,1.998000,2.000000,2.000000,2.000000,2.000000,0.000000,0.000000,0.000000,0.000000,0.000000,0.000000,0.000000,
0.000000,0.000000,0.000000,0.000000,0.000000,0.000000,0.000000,2.141000,2.141000,2.142000,2.162000,2.157000,2.120000,2.114000,2.107000,2.071000,2.056000,2.056000,2.056000,2.050000,2.031000,2.026000,2.024000,2.008000,1.993000,1.977000,1.975000,1.975000,1.975000,1.985000,2.000000,2.000000,2.000000,0.000000,0.000000,0.000000,0.000000,0.000000,0.000000,0.000000,
0.000000,0.000000,0.000000,0.000000,0.000000,0.000000,0.000000,2.332000,2.264000,2.173000,2.173000,2.157000,2.120000,2.114000,2.107000,2.071000,2.056000,2.056000,2.056000,2.056000,2.056000,2.056000,2.053000,2.018000,1.984000,1.951000,1.946000,1.946000,1.946000,1.965000,1.996000,1.998000,2.000000,0.000000,0.000000,0.000000,0.000000,0.000000,0.000000,0.000000,
0.000000,0.000000,0.000000,0.000000,0.000000,0.000000,0.000000,0.000000,0.000000,2.173000,2.173000,2.157000,2.120000,2.114000,2.107000,2.071000,2.056000,2.056000,2.056000,2.056000,2.056000,2.056000,2.053000,2.018000,1.984000,1.951000,1.946000,1.946000,1.946000,1.952000,1.962000,1.985000,2.000000,0.000000,0.000000,0.000000,0.000000,0.000000,0.000000,0.000000,
0.000000,0.000000,0.000000,0.000000,0.000000,0.000000,0.000000,0.000000,0.000000,2.210000,2.198000,2.175000,2.139000,2.123000,2.109000,2.084000,2.074000,2.074000,2.063000,2.056000,2.056000,2.056000,2.053000,2.018000,1.984000,1.951000,1.946000,1.946000,1.946000,1.946000,1.946000,1.969000,1.983000,0.000000,0.000000,0.000000,0.000000,0.000000,0.000000,0.000000,
0.000000,0.000000,0.000000,0.000000,0.000000,0.000000,0.000000,0.000000,0.000000,2.284000,2.248000,2.212000,2.175000,2.141000,2.113000,2.111000,2.110000,2.110000,2.078000,2.056000,2.056000,2.056000,2.053000,2.018000,1.984000,1.951000,1.946000,1.946000,1.946000,1.946000,1.946000,1.948000,1.950000,0.000000,0.000000,0.000000,0.000000,0.000000,0.000000,0.000000,
0.000000,0.000000,0.000000,0.000000,0.000000,0.000000,0.000000,0.000000,0.000000,2.259000,2.221000,2.184000,2.147000,2.127000,2.114000,2.114000,2.114000,2.114000,2.080000,2.056000,2.056000,2.056000,2.053000,2.018000,1.984000,1.951000,1.931000,1.917000,1.917000,1.917000,1.917000,1.935000,1.946000,0.000000,0.000000,0.000000,0.000000,0.000000,0.000000,0.000000,
0.000000,0.000000,0.000000,0.000000,0.000000,0.000000,0.000000,0.000000,0.000000,2.230000,2.193000,2.157000,2.120000,2.114000,2.114000,2.114000,2.114000,2.114000,2.080000,2.056000,2.056000,2.056000,2.053000,2.018000,1.984000,1.951000,1.918000,1.892000,1.892000,1.892000,1.892000,1.925000,1.946000,0.000000,0.000000,0.000000,0.000000,0.000000,0.000000,0.000000,
0.000000,0.000000,0.000000,0.000000,0.000000,0.000000,0.000000,0.000000,0.000000,0.000000,0.000000,0.000000,0.000000,0.000000,0.000000,0.000000,0.000000,0.000000,0.000000,0.000000,0.000000,0.000000,0.000000,0.000000,0.000000,0.000000,0.000000,0.000000,0.000000,0.000000,0.000000,0.000000,0.000000,0.000000,0.000000,0.000000,0.000000,0.000000,0.000000,0.000000,
0.000000,0.000000,0.000000,0.000000,0.000000,0.000000,0.000000,0.000000,0.000000,0.000000,0.000000,0.000000,0.000000,0.000000,0.000000,0.000000,0.000000,0.000000,0.000000,0.000000,0.000000,0.000000,0.000000,0.000000,0.000000,0.000000,0.000000,0.000000,0.000000,0.000000,0.000000,0.000000,0.000000,0.000000,0.000000,0.000000,0.000000,0.000000,0.000000,0.000000,
0.000000,0.000000,0.000000,0.000000,0.000000,0.000000,0.000000,0.000000,0.000000,0.000000,0.000000,0.000000,0.000000,0.000000,0.000000,0.000000,0.000000,0.000000,0.000000,0.000000,0.000000,0.000000,0.000000,0.000000,0.000000,0.000000,0.000000,0.000000,0.000000,0.000000,0.000000,0.000000,0.000000,0.000000,0.000000,0.000000,0.000000,0.000000,0.000000,0.000000,
