0.000000,0.000000,0.000000,0.000000,0.000000,0.000000,0.000000,0.000000,0.000000,0.000000,0.000000,0.000000,0.000000,0.000000,0.000000,0.000000,0.000000,2.142000,1.492000,1.586000,1.990000,1.985000,1.985000,1.986000,1.995000,1.990000,1.987000,1.988000,1.990000,1.989000,1.988000,0.000000,0.000000,0.000000,0.000000,0.000000,0.000000,0.000000,0.000000,0.000000,
0.000000,0.000000,0.000000,0.000000,0.000000,0.000000,0.000000,0.000000,1.982000,1.981000,1.974000,1.980000,1.980000,1.980000,1.986000,1.980000,1.977000,1.977000,1.980000,1.982000,1.982000,1.982000,1.978000,1.982000,1.982000,1.985000,1.982000,1.985000,1.988000,1.988000,1.980000,0.000000,2.159000,0.000000,0.000000,0.000000,0.000000,0.000000,0.000000,0.000000,
0.000000,0.000000,0.000000,0.000000,0.000000,0.000000,0.000000,1.974000,1.974000,1.977000,1.974000,1.974000,1.974000,1.978000,1.980000,1.977000,1.977000,1.977000,1.977000,1.980000,1.982000,1.982000,1.984000,1.982000,1.985000,1.985000,1.985000,1.985000,1.988000,1.987000,1.982000,0.000000,0.000000,0.000000,0.000000,0.000000,0.000000,0.000000,0.000000,0.000000,
0.000000,0.000000,0.000000,0.000000,0.000000,0.000000,0.000000,1.976000,1.974000,1.977000,1.974000,1.974000,1.975000,1.978000,1.981000,1.980000,1.980000,1.981000,1.980000,1.982000,1.982000,1.982000,1.985000,1.985000,1.985000,1.985000,1.985000,1.985000,1.988000,1.989000,1.984000,1.237000,0.000000,0.000000,0.000000,0.000000,0.000000,0.000000,0.000000,0.000000,
0.000000,0.000000,0.000000,0.000000,0.000000,0.000000,0.000000,1.977000,1.975000,1.977000,1.977000,1.977000,1.977000,1.980000,1.981000,1.981000,1.982000,1.981000,1.982000,1.985000,1.985000,1.985000,1.985000,1.985000,1.985000,1.986000,1.985000,1.988000,1.988000,1.991000,1.988000,0.000000,0.000000,0.000000,0.000000,0.000000,0.000000,0.000000,0.000000,0.000000,
0.000000,0.000000,0.000000,0.000000,0.000000,0.000000,0.000000,1.974000,1.975000,1.977000,1.979000,1.980000,1.980000,1.982000,1.983000,1.982000,1.984000,1.982000,1.985000,1.985000,1.985000,1.985000,1.988000,1.988000,1.988000,1.988000,1.987000,1.988000,1.991000,1.991000,1.988000,0.000000,0.000000,0.000000,0.000000,0.000000,0.000000,0.000000,0.000000,0.000000,
0.000000,0.000000,0.000000,0.000000,0.000000,0.000000,0.000000,1.977000,1.979000,1.980000,1.980000,1.981000,1.982000,1.985000,1.985000,1.985000,1.982000,1.984000,1.985000,1.985000,1.985000,1.985000,1.988000,1.988000,1.988000,1.988000,1.988000,1.988000,1.991000,1.992000,1.991000,0.000000,0.000000,0.000000,0.000000,0.000000,0.000000,0.000000,0.000000,0.000000,
0.000000,0.000000,0.000000,0.000000,0.000000,0.000000,0.000000,1.981000,1.980000,1.980000,1.980000,1.980000,1.982000,1.985000,1.985000,1.985000,1.985000,1.985000,1.985000,1.985000,1.985000,1.985000,1.988000,1.988000,1.988000,1.988000,1.988000,1.989000,1.993000,1.997000,1.994000,0.000000,1.189000,0.000000,0.000000,0.000000,0.000000,0.000000,0.000000,0.000000,
0.000000,0.000000,0.000000,0.000000,0.000000,0.000000,0.000000,1.982000,1.980000,1.982000,1.982000,1.982000,1.982000,1.985000,1.985000,1.985000,1.988000,1.987000,1.988000,1.988000,1.987000,1.988000,1.988000,1.993000,1.993000,1.992000,1.991000,1.991000,1.994000,1.994000,1.905000,0.000000,2.406000,0.000000,0.000000,0.000000,0.000000,0.000000,0.000000,0.000000,
0.000000,0.000000,0.000000,0.000000,0.000000,0.000000,0.000000,1.983000,1.982000,1.982000,1.982000,1.982000,1.982000,1.986000,1.985000,1.985000,1.987000,1.988000,1.988000,1.988000,1.987000,1.988000,1.991000,1.990000,1.991000,1.994000,1.991000,1.994000,1.994000,1.994000,1.945000,1.108000,2.420000,0.000000,0.000000,0.000000,0.000000,0.000000,0.000000,0.000000,
0.000000,0.000000,0.000000,0.000000,0.000000,0.000000,0.000000,1.818000,1.982000,1.982000,1.982000,1.982000,1.982000,1.985000,1.988000,1.985000,1.986000,1.989000,1.991000,1.990000,1.991000,1.991000,1.991000,1.991000,1.991000,1.996000,1.993000,1.992000,1.994000,1.994000,1.991000,1.240000,2.420000,0.000000,0.000000,0.000000,0.000000,0.000000,0.000000,0.000000,
0.000000,0.000000,0.000000,0.000000,0.000000,0.000000,0.000000,1.824000,1.985000,1.984000,1.985000,1.984000,1.985000,1.988000,1.988000,1.988000,1.988000,1.989000,1.991000,1.989000,1.991000,1.991000,1.994000,1.994000,1.994000,1.997000,1.994000,1.994000,1.995000,1.994000,1.993000,1.240000,1.290000,0.000000,0.000000,0.000000,0.000000,0.000000,0.000000,0.000000,
0.000000,0.000000,0.000000,0.000000,0.000000,0.000000,0.000000,1.824000,1.985000,1.985000,1.985000,1.985000,1.985000,1.988000,1.990000,1.988000,1.989000,1.992000,1.991000,1.991000,1.991000,1.988000,1.994000,1.994000,1.994000,1.994000,1.994000,1.994000,1.997000,1.998000,1.998000,1.242000,2.434000,0.000000,0.000000,0.000000,0.000000,0.000000,0.000000,0.000000,
0.000000,0.000000,0.000000,0.000000,0.000000,0.000000,0.000000,1.994000,1.985000,1.985000,1.985000,1.985000,1.988000,1.991000,1.989000,1.991000,1.991000,1.994000,1.994000,1.994000,1.993000,1.988000,1.994000,1.994000,1.994000,1.994000,1.996000,1.995000,1.997000,2.000000,2.000000,1.242000,2.452000,0.000000,0.000000,0.000000,0.000000,0.000000,0.000000,0.000000,
0.000000,0.000000,0.000000,0.000000,0.000000,0.000000,0.000000,1.982000,1.985000,1.988000,1.987000,1.987000,1.988000,1.989000,1.989000,1.994000,1.993000,1.996000,1.994000,1.996000,1.997000,1.993000,1.994000,1.996000,1.996000,1.997000,1.997000,1.997000,2.000000,2.000000,2.000000,1.242000,0.000000,0.000000,0.000000,0.000000,0.000000,0.000000,0.000000,0.000000,
0.000000,0.000000,0.000000,0.000000,0.000000,0.000000,0.000000,2.000000,1.988000,1.988000,1.988000,1.988000,1.988000,1.991000,1.991000,1.994000,1.994000,1.996000,1.995000,1.994000,1.995000,1.997000,1.997000,1.998000,1.997000,1.997000,1.997000,1.997000,2.000000,2.000000,2.000000,1.243000,1.761000,0.000000,0.000000,0.000000,0.000000,0.000000,0.000000,0.000000,
0.000000,0.000000,0.000000,0.000000,0.000000,0.000000,0.000000,1.735000,1.991000,1.988000,1.988000,1.990000,1.991000,1.994000,1.994000,1.997000,1.997000,1.997000,1.997000,1.994000,1.997000,1.997000,1.997000,2.000000,2.000000,1.997000,1.997000,1.997000,2.002000,2.000000,2.000000,1.325000,0.000000,0.000000,0.000000,0.000000,0.000000,0.000000,0.000000,0.000000,
0.000000,0.000000,0.000000,0.000000,0.000000,0.000000,0.000000,0.000000,1.993000,1.991000,1.990000,1.991000,1.994000,1.997000,1.996000,1.996000,1.997000,1.997000,1.997000,1.999000,1.998000,1.997000,1.999000,2.000000,1.998000,1.998000,2.000000,1.997000,2.003000,2.002000,2.003000,2.005000,0.000000,0.000000,0.000000,0.000000,0.000000,0.000000,0.000000,0.000000,
0.000000,0.000000,0.000000,0.000000,0.000000,0.000000,0.000000,0.000000,1.994000,1.994000,1.994000,1.992000,1.994000,1.997000,1.997000,1.997000,1.997000,1.997000,1.997000,1.998000,2.000000,1.998000,1.999000,2.000000,1.998000,2.000000,2.000000,1.997000,2.003000,2.000000,2.003000,2.003000,1.861000,0.000000,0.000000,0.000000,0.000000,0.000000,0.000000,0.000000,
0.000000,0.000000,0.000000,0.000000,0.000000,0.000000,0.000000,1.995000,1.994000,1.994000,1.994000,1.994000,1.994000,1.997000,1.997000,1.997000,1.997000,1.999000,2.000000,1.997000,1.999000,2.000000,2.000000,2.000000,2.000000,2.000000,2.000000,1.998000,2.002000,2.003000,2.006000,2.006000,2.680000,0.000000,0.000000,0.000000,0.000000,0.000000,0.000000,0.000000,
0.000000,0.000000,0.000000,0.000000,0.000000,0.000000,0.000000,1.834000,1.997000,1.994000,1.996000,1.994000,1.997000,1.997000,2.000000,2.000000,1.999000,2.000000,2.000000,2.000000,2.000000,2.000000,2.000000,2.003000,2.003000,2.001000,2.000000,2.001000,2.005000,2.003000,2.003000,2.003000,2.663000,0.000000,0.000000,0.000000,0.000000,0.000000,0.000000,0.000000,
0.000000,0.000000,0.000000,0.000000,0.000000,0.000000,0.000000,0.000000,1.998000,1.994000,1.997000,1.995000,1.997000,2.000000,1.999000,2.000000,2.000000,2.000000,2.000000,2.000000,1.999000,2.000000,2.000000,2.001000,2.000000,2.000000,2.000000,2.002000,2.008000,2.006000,2.006000,2.003000,1.824000,0.000000,0.000000,0.000000,0.000000,0.000000,0.000000,0.000000,
0.000000,0.000000,0.000000,0.000000,0.000000,0.000000,0.000000,0.000000,1.999000,1.997000,1.997000,1.994000,1.997000,2.000000,2.000000,2.000000,2.000000,2.000000,2.000000,2.000000,2.003000,2.000000,2.000000,2.003000,2.003000,2.003000,2.003000,2.004000,2.007000,2.006000,2.009000,2.002000,1.529000,0.000000,0.000000,0.000000,0.000000,0.000000,0.000000,0.000000,
0.000000,0.000000,0.000000,0.000000,0.000000,0.000000,0.000000,0.000000,2.002000,1.997000,1.997000,1.997000,1.999000,2.000000,2.000000,2.002000,2.000000,2.000000,2.000000,2.003000,2.000000,2.000000,2.004000,2.007000,2.003000,2.003000,2.005000,2.009000,2.006000,2.006000,2.009000,1.822000,0.000000,0.000000,0.000000,0.000000,0.000000,0.000000,0.000000,0.000000,
0.000000,0.000000,0.000000,0.000000,0.000000,0.000000,0.000000,0.000000,2.004000,1.998000,1.998000,1.998000,2.000000,2.003000,2.001000,2.003000,2.000000,2.001000,2.003000,2.006000,2.007000,2.004000,2.006000,2.009000,2.006000,2.006000,2.004000,2.009000,2.009000,2.007000,2.009000,2.010000,0.000000,0.000000,0.000000,0.000000,0.000000,0.000000,0.000000,0.000000,
0.000000,0.000000,0.000000,0.000000,0.000000,0.000000,0.000000,0.000000,2.002000,1.997000,1.999000,2.000000,2.000000,2.005000,2.006000,2.006000,2.003000,2.003000,2.006000,2.009000,2.009000,2.009000,2.009000,2.009000,2.009000,2.009000,2.009000,2.012000,2.012000,2.009000,2.009000,2.009000,2.252000,0.000000,0.000000,0.000000,0.000000,0.000000,0.000000,0.000000,
0.000000,0.000000,0.000000,0.000000,0.000000,0.000000,0.000000,0.000000,2.005000,1.999000,1.999000,2.001000,2.005000,2.008000,2.003000,2.009000,2.007000,2.006000,2.006000,2.009000,2.007000,2.009000,2.007000,2.009000,2.009000,2.009000,2.009000,2.012000,2.012000,2.012000,2.011000,2.011000,2.252000,0.000000,0.000000,0.000000,0.000000,0.000000,0.000000,0.000000,
0.000000,0.000000,0.000000,0.000000,0.000000,0.000000,0.000000,0.000000,2.003000,2.001000,2.003000,2.003000,2.006000,2.008000,2.009000,2.009000,2.006000,2.006000,2.009000,2.009000,2.009000,2.006000,2.006000,2.009000,2.009000,2.009000,2.009000,2.012000,2.013000,2.013000,2.012000,2.012000,2.248000,0.000000,0.000000,0.000000,0.000000,0.000000,0.000000,0.000000,
0.000000,0.000000,0.000000,0.000000,0.000000,0.000000,0.000000,0.000000,2.009000,2.003000,2.003000,2.003000,2.006000,2.006000,2.009000,2.009000,2.009000,2.009000,2.010000,2.009000,2.010000,2.009000,2.009000,2.012000,2.012000,2.012000,2.009000,2.015000,2.015000,2.014000,2.012000,2.015000,2.255000,0.000000,0.000000,0.000000,0.000000,0.000000,0.000000,0.000000,
0.000000,0.000000,0.000000,0.000000,0.000000,0.000000,0.000000,0.000000,1.630000,2.006000,2.006000,2.006000,2.006000,2.009000,2.009000,2.009000,2.009000,2.009000,2.012000,2.012000,2.012000,2.009000,2.012000,2.012000,2.012000,2.012000,2.012000,2.015000,2.015000,2.014000,2.012000,2.015000,2.255000,0.000000,0.000000,0.000000,0.000000,0.000000,0.000000,0.000000,
0.000000,0.000000,0.000000,0.000000,0.000000,0.000000,0.000000,0.000000,1.498000,2.006000,2.006000,2.006000,2.006000,2.009000,2.009000,2.009000,2.011000,2.012000,2.012000,2.012000,2.012000,2.012000,2.012000,2.013000,2.012000,2.012000,2.013000,2.015000,2.014000,2.015000,2.016000,2.015000,2.257000,0.000000,0.000000,0.000000,0.000000,0.000000,0.000000,0.000000,
0.000000,0.000000,0.000000,0.000000,0.000000,0.000000,0.000000,0.000000,1.502000,2.009000,2.009000,2.006000,2.007000,2.012000,2.010000,2.012000,2.012000,2.012000,2.012000,2.012000,2.012000,2.012000,2.012000,2.012000,2.012000,2.013000,2.012000,2.015000,2.012000,2.015000,2.018000,2.018000,2.257000,0.000000,0.000000,0.000000,0.000000,0.000000,0.000000,0.000000,
0.000000,0.000000,0.000000,0.000000,0.000000,0.000000,0.000000,0.000000,1.495000,2.006000,2.006000,2.009000,2.009000,2.012000,2.012000,2.012000,2.012000,2.012000,2.012000,2.012000,2.013000,2.013000,2.012000,2.012000,2.015000,2.012000,2.014000,2.015000,2.014000,2.016000,2.018000,2.018000,2.257000,0.000000,0.000000,0.000000,0.000000,0.000000,0.000000,0.000000,
0.000000,0.000000,0.000000,0.000000,0.000000,0.000000,0.000000,0.000000,0.000000,2.009000,2.009000,2.008000,2.009000,2.012000,2.012000,2.012000,2.012000,2.012000,2.013000,2.015000,2.014000,2.013000,2.015000,2.015000,2.015000,2.015000,2.014000,2.015000,2.015000,2.018000,2.021000,2.019000,2.023000,0.000000,0.000000,0.000000,0.000000,0.000000,0.000000,0.000000,
0.000000,0.000000,0.000000,0.000000,0.000000,0.000000,0.000000,0.000000,0.000000,2.011000,2.009000,2.009000,2.009000,2.012000,2.014000,2.015000,2.016000,2.012000,2.015000,2.015000,2.015000,2.018000,2.018000,2.018000,2.012000,2.014000,2.030000,2.326000,2.026000,2.295000,2.290000,2.281000,2.261000,0.000000,0.000000,0.000000,0.000000,0.000000,0.000000,0.000000,
0.000000,0.000000,0.000000,0.000000,0.000000,0.000000,0.000000,2.339000,1.799000,2.009000,2.012000,2.009000,2.009000,2.014000,2.014000,2.012000,2.012000,2.017000,2.014000,2.012000,2.010000,2.100000,2.038000,2.032000,2.247000,2.318000,2.325000,2.321000,2.311000,2.298000,2.290000,2.289000,1.212000,0.000000,0.000000,0.000000,0.000000,0.000000,0.000000,0.000000,
0.000000,0.000000,0.000000,0.000000,0.000000,0.000000,0.000000,0.000000,0.000000,0.000000,0.000000,2.017000,2.021000,2.056000,2.057000,2.050000,2.067000,2.036000,2.016000,2.114000,2.131000,2.123000,2.055000,2.036000,2.326000,2.332000,2.329000,2.315000,2.311000,2.298000,2.290000,1.194000,0.000000,0.000000,0.000000,0.000000,0.000000,0.000000,0.000000,0.000000,
0.000000,0.000000,0.000000,0.000000,0.000000,0.000000,0.000000,0.000000,0.000000,0.000000,2.261000,1.978000,1.154000,2.119000,2.118000,2.114000,2.108000,2.037000,2.107000,2.101000,2.105000,2.109000,2.049000,2.031000,2.098000,2.340000,2.334000,2.315000,2.311000,2.303000,2.296000,0.000000,0.000000,0.000000,0.000000,0.000000,0.000000,0.000000,0.000000,0.000000,
0.000000,0.000000,0.000000,0.000000,0.000000,0.000000,0.000000,0.000000,0.000000,0.000000,0.000000,1.758000,0.000000,1.960000,2.091000,2.088000,2.092000,2.101000,2.085000,2.082000,2.082000,2.077000,2.064000,2.034000,2.078000,2.130000,2.330000,2.321000,2.315000,2.309000,1.350000,0.000000,1.842000,0.000000,0.000000,0.000000,0.000000,0.000000,0.000000,0.000000,
0.000000,0.000000,0.000000,0.000000,0.000000,0.000000,0.000000,0.000000,0.000000,0.000000,0.000000,0.000000,0.000000,0.000000,2.075000,2.073000,2.064000,2.054000,2.054000,2.062000,2.060000,2.059000,2.051000,2.039000,2.048000,2.052000,2.169000,2.321000,2.316000,2.312000,1.657000,1.176000,2.267000,0.000000,0.000000,0.000000,0.000000,0.000000,0.000000,0.000000,
