2.841000,2.798000,2.798000,2.798000,2.798000,2.798000,2.798000,2.838000,2.890000,2.892000,2.892000,2.892000,2.892000,2.892000,2.883000,2.865000,2.835000,2.800000,2.782000,2.768000,2.768000,2.784000,2.836000,2.861000,2.861000,2.873000,2.890000,2.830000,2.764000,2.730000,2.672000,2.555000,2.495000,2.495000,2.495000,2.495000,2.324000,2.139000,2.085000,2.046000,
2.841000,2.798000,2.798000,2.798000,2.798000,2.798000,2.798000,2.838000,2.890000,2.892000,2.892000,2.892000,2.892000,2.892000,2.867000,2.821000,2.804000,2.798000,2.756000,2.717000,2.717000,2.733000,2.784000,2.809000,2.809000,2.842000,2.888000,2.804000,2.716000,2.710000,2.614000,2.302000,2.142000,2.142000,2.142000,2.142000,2.085000,2.024000,2.015000,2.008000,
2.863000,2.839000,2.839000,2.839000,2.839000,2.839000,2.839000,2.862000,2.891000,2.892000,2.892000,2.892000,2.892000,2.892000,2.864000,2.812000,2.798000,2.798000,2.750000,2.706000,2.706000,2.722000,2.773000,2.798000,2.798000,2.819000,2.848000,2.638000,2.427000,2.427000,2.363000,2.148000,2.039000,2.039000,2.039000,2.039000,2.020000,2.000000,2.000000,2.000000,
2.892000,2.891000,2.891000,2.891000,2.891000,2.891000,2.891000,2.892000,2.892000,2.892000,2.892000,2.892000,2.892000,2.892000,2.864000,2.812000,2.798000,2.798000,2.750000,2.706000,2.706000,2.722000,2.773000,2.798000,2.798000,2.798000,2.799000,2.435000,2.074000,2.074000,2.062000,2.021000,2.001000,2.001000,2.001000,2.001000,2.000000,2.000000,2.000000,2.000000,
2.892000,2.892000,2.892000,2.892000,2.892000,2.892000,2.892000,2.892000,2.892000,2.892000,2.892000,2.892000,2.892000,2.892000,2.864000,2.812000,2.798000,2.798000,2.750000,2.706000,2.706000,2.713000,2.737000,2.734000,2.707000,2.581000,2.415000,2.215000,2.031000,2.031000,2.026000,2.009000,2.000000,2.000000,2.000000,2.000000,2.000000,2.000000,2.000000,2.000000,
2.892000,2.892000,2.892000,2.892000,2.892000,2.892000,2.892000,2.892000,2.892000,2.892000,2.892000,2.892000,2.890000,2.885000,2.857000,2.810000,2.794000,2.789000,2.746000,2.705000,2.700000,2.697000,2.697000,2.659000,2.584000,2.366000,2.088000,2.031000,2.000000,2.000000,2.000000,2.000000,2.000000,2.000000,2.000000,2.000000,2.000000,2.000000,2.000000,2.000000,
2.892000,2.892000,2.892000,2.892000,2.892000,2.892000,2.892000,2.892000,2.892000,2.892000,2.892000,2.892000,2.880000,2.846000,2.821000,2.803000,2.773000,2.740000,2.721000,2.702000,2.670000,2.648000,2.648000,2.537000,2.321000,2.166000,2.036000,2.012000,2.000000,2.000000,2.000000,2.000000,2.000000,2.000000,2.000000,2.000000,2.000000,2.000000,2.000000,2.000000,
2.892000,2.892000,2.892000,2.892000,2.892000,2.892000,2.892000,2.884000,2.873000,2.872000,2.872000,2.872000,2.858000,2.817000,2.792000,2.782000,2.749000,2.709000,2.697000,2.683000,2.644000,2.598000,2.534000,2.379000,2.138000,2.042000,2.004000,2.000000,2.000000,2.000000,2.000000,2.000000,2.000000,2.000000,2.005000,2.013000,2.007000,2.000000,2.000000,2.000000,
2.892000,2.892000,2.892000,2.892000,2.892000,2.892000,2.892000,2.862000,2.822000,2.820000,2.820000,2.820000,2.816000,2.804000,2.777000,2.738000,2.719000,2.707000,2.671000,2.637000,2.626000,2.543000,2.312000,2.162000,2.090000,2.042000,2.004000,2.000000,2.000000,2.000000,2.000000,2.000000,2.000000,2.000000,2.020000,2.049000,2.027000,2.000000,2.000000,2.000000,
2.892000,2.892000,2.892000,2.886000,2.869000,2.862000,2.862000,2.835000,2.799000,2.798000,2.796000,2.779000,2.769000,2.769000,2.733000,2.668000,2.651000,2.651000,2.533000,2.423000,2.423000,2.356000,2.148000,2.053000,2.066000,2.042000,2.004000,2.000000,2.000000,2.000000,2.000000,2.000000,2.000000,2.000000,2.026000,2.064000,2.035000,2.000000,2.000000,2.000000,
2.892000,2.892000,2.892000,2.875000,2.830000,2.810000,2.810000,2.805000,2.798000,2.798000,2.791000,2.747000,2.718000,2.718000,2.669000,2.578000,2.555000,2.555000,2.310000,2.080000,2.080000,2.068000,2.028000,2.026000,2.059000,2.042000,2.004000,2.000000,2.000000,2.000000,2.000000,2.000000,2.000000,2.000000,2.026000,2.064000,2.035000,2.000000,2.000000,2.000000,
2.892000,2.892000,2.892000,2.872000,2.820000,2.798000,2.798000,2.798000,2.798000,2.777000,2.754000,2.725000,2.685000,2.625000,2.567000,2.511000,2.443000,2.371000,2.177000,2.000000,2.000000,2.000000,2.000000,2.020000,2.058000,2.053000,2.031000,2.029000,2.029000,2.029000,2.029000,2.029000,2.029000,2.029000,2.044000,2.066000,2.050000,2.029000,2.029000,2.029000,
2.892000,2.892000,2.892000,2.872000,2.820000,2.798000,2.798000,2.798000,2.798000,2.750000,2.708000,2.707000,2.657000,2.518000,2.454000,2.451000,2.328000,2.161000,2.072000,2.000000,2.000000,2.000000,2.000000,2.020000,2.058000,2.068000,2.068000,2.067000,2.067000,2.067000,2.067000,2.067000,2.067000,2.067000,2.068000,2.069000,2.068000,2.067000,2.067000,2.067000,
2.892000,2.892000,2.892000,2.883000,2.858000,2.832000,2.805000,2.777000,2.750000,2.701000,2.655000,2.630000,2.565000,2.427000,2.352000,2.330000,2.249000,2.148000,2.068000,2.000000,2.000000,2.000000,2.000000,2.020000,2.058000,2.069000,2.069000,2.069000,2.069000,2.069000,2.069000,2.069000,2.069000,2.069000,2.069000,2.069000,2.069000,2.069000,2.069000,1.681000,
2.892000,2.892000,2.892000,2.890000,2.886000,2.854000,2.802000,2.748000,2.693000,2.641000,2.589000,2.542000,2.466000,2.336000,2.256000,2.218000,2.180000,2.143000,2.071000,2.005000,2.002000,2.000000,2.000000,2.018000,2.053000,2.063000,2.063000,2.063000,2.063000,2.063000,2.063000,2.063000,2.063000,2.063000,2.065000,2.069000,2.075000,2.064000,1.824000,0.000000,
2.892000,2.892000,2.892000,2.879000,2.846000,2.803000,2.751000,2.678000,2.598000,2.522000,2.451000,2.406000,2.342000,2.241000,2.186000,2.171000,2.157000,2.142000,2.091000,2.041000,2.017000,2.000000,2.000000,2.007000,2.021000,2.025000,2.025000,2.025000,2.025000,2.025000,2.025000,2.025000,2.025000,2.025000,2.042000,2.066000,2.114000,2.030000,0.000000,0.000000,
2.892000,2.890000,2.880000,2.854000,2.802000,2.751000,2.701000,2.603000,2.490000,2.407000,2.332000,2.289000,2.235000,2.161000,2.127000,2.127000,2.133000,2.140000,2.111000,2.077000,2.031000,2.000000,2.000000,2.000000,2.000000,2.000000,2.000000,2.000000,1.999000,1.992000,1.987000,1.987000,1.990000,1.998000,1.666000,1.179000,1.177000,1.070000,0.000000,0.000000,
2.892000,2.885000,2.846000,2.803000,2.751000,2.701000,2.652000,2.518000,2.358000,2.299000,2.247000,2.205000,2.161000,2.110000,2.087000,2.087000,2.109000,2.139000,2.132000,2.114000,2.046000,2.000000,2.000000,2.000000,2.000000,2.000000,2.000000,2.000000,1.997000,1.969000,1.949000,1.949000,1.963000,1.991000,0.000000,0.000000,0.000000,0.000000,0.000000,0.000000,
2.892000,2.880000,2.812000,2.751000,2.701000,2.644000,2.582000,2.440000,2.274000,2.227000,2.186000,2.146000,2.110000,2.082000,2.069000,2.069000,2.090000,2.117000,2.119000,2.111000,2.045000,2.000000,2.000000,2.000000,2.000000,1.992000,1.981000,1.980000,1.977000,1.951000,1.932000,1.932000,1.555000,0.000000,0.000000,0.000000,0.000000,0.000000,0.000000,0.000000,
2.892000,2.875000,2.779000,2.701000,2.652000,2.581000,2.494000,2.368000,2.231000,2.186000,2.145000,2.105000,2.077000,2.072000,2.069000,2.069000,2.073000,2.079000,2.079000,2.074000,2.030000,2.000000,2.000000,2.000000,2.000000,1.977000,1.945000,1.942000,1.941000,1.936000,1.932000,1.932000,0.000000,0.000000,0.000000,0.000000,0.000000,0.000000,0.000000,0.000000,
2.850000,2.798000,2.697000,2.610000,2.544000,2.474000,2.401000,2.299000,2.189000,2.146000,2.108000,2.084000,2.069000,2.069000,2.069000,2.069000,2.069000,2.069000,2.054000,2.038000,2.015000,2.000000,2.000000,1.992000,1.977000,1.956000,1.934000,1.932000,1.932000,1.932000,1.613000,0.000000,0.000000,0.000000,0.000000,0.000000,0.000000,0.000000,0.000000,0.000000,
2.794000,2.695000,2.599000,2.505000,2.416000,2.352000,2.306000,2.231000,2.147000,2.105000,2.071000,2.070000,2.069000,2.069000,2.069000,2.069000,2.069000,2.069000,2.035000,2.002000,2.001000,2.000000,2.000000,1.981000,1.945000,1.934000,1.932000,1.932000,1.932000,1.932000,1.180000,0.000000,0.000000,0.000000,0.000000,0.000000,0.000000,0.000000,0.000000,0.000000,
2.654000,2.553000,2.439000,2.343000,2.279000,2.227000,2.186000,2.145000,2.105000,2.085000,2.069000,2.069000,2.069000,2.069000,2.069000,2.069000,2.069000,2.069000,2.033000,1.998000,1.978000,1.959000,1.940000,1.921000,1.903000,1.911000,1.930000,1.932000,1.794000,0.000000,0.000000,0.000000,0.000000,0.000000,0.000000,0.000000,0.000000,0.000000,0.000000,0.000000,
2.506000,2.409000,2.283000,2.190000,2.152000,2.113000,2.073000,2.064000,2.064000,2.067000,2.069000,2.069000,2.069000,2.069000,2.069000,2.069000,2.069000,2.069000,2.031000,1.991000,1.956000,1.920000,1.884000,1.866000,1.866000,1.759000,1.609000,1.595000,1.347000,0.000000,0.000000,0.000000,0.000000,0.000000,0.000000,0.000000,0.000000,0.000000,0.000000,0.000000,
2.353000,2.284000,2.185000,2.118000,2.103000,2.074000,2.035000,2.026000,2.026000,2.049000,2.069000,2.069000,2.069000,2.069000,2.069000,2.069000,2.069000,2.069000,2.011000,1.956000,1.942000,1.920000,1.884000,1.866000,1.866000,0.000000,0.000000,0.000000,0.000000,0.000000,0.000000,0.000000,0.000000,0.000000,0.000000,0.000000,0.000000,0.000000,0.000000,0.000000,
2.229000,2.188000,2.115000,2.069000,2.069000,2.047000,2.009000,2.000000,2.000000,2.037000,2.069000,2.069000,2.069000,2.069000,2.069000,2.069000,2.069000,2.069000,1.998000,1.932000,1.932000,1.770000,1.268000,1.026000,1.026000,0.000000,0.000000,0.000000,0.000000,0.000000,0.000000,0.000000,0.000000,0.000000,0.000000,0.000000,0.000000,0.000000,0.000000,0.000000,
2.170000,2.151000,2.101000,2.069000,2.069000,2.047000,2.009000,2.000000,2.000000,2.037000,2.069000,2.069000,2.069000,2.069000,2.069000,2.069000,2.069000,2.069000,1.998000,1.932000,1.932000,1.305000,0.000000,0.000000,0.000000,0.000000,0.000000,0.000000,0.000000,0.000000,0.000000,0.000000,0.000000,0.000000,0.000000,0.000000,0.000000,0.000000,0.000000,0.000000,
2.141000,2.134000,2.094000,2.065000,2.054000,2.034000,2.006000,2.000000,2.000000,2.026000,2.049000,2.049000,2.053000,2.064000,2.069000,2.069000,2.069000,2.069000,2.029000,1.891000,1.101000,0.000000,0.000000,0.000000,0.000000,0.000000,0.000000,0.000000,0.000000,0.000000,0.000000,0.000000,0.000000,0.000000,0.000000,0.000000,0.000000,0.000000,0.000000,0.000000,
2.141000,2.134000,2.094000,2.057000,2.025000,2.008000,2.001000,2.000000,2.000000,2.006000,2.011000,2.011000,2.022000,2.054000,2.069000,2.069000,2.069000,2.069000,2.089000,1.812000,0.000000,0.000000,0.000000,0.000000,0.000000,0.000000,0.000000,0.000000,0.000000,0.000000,0.000000,0.000000,0.000000,0.000000,0.000000,0.000000,0.000000,0.000000,0.000000,0.000000,
2.113000,2.106000,2.066000,2.033000,2.010000,2.000000,2.000000,2.000000,2.000000,2.000000,2.000000,2.000000,2.013000,2.052000,2.069000,2.069000,1.278000,0.000000,0.000000,0.000000,0.000000,0.000000,0.000000,0.000000,0.000000,0.000000,0.000000,0.000000,0.000000,0.000000,0.000000,0.000000,0.000000,0.000000,0.000000,0.000000,0.000000,0.000000,0.000000,0.000000,
2.073000,2.066000,2.028000,2.003000,2.001000,2.000000,2.000000,2.000000,2.000000,2.000000,2.000000,2.000000,2.013000,2.052000,2.069000,2.069000,0.000000,0.000000,0.000000,0.000000,0.000000,0.000000,0.000000,0.000000,0.000000,0.000000,0.000000,0.000000,0.000000,0.000000,0.000000,0.000000,0.000000,0.000000,0.000000,0.000000,0.000000,0.000000,0.000000,0.000000,
2.069000,2.062000,2.024000,2.000000,2.000000,2.000000,2.000000,2.000000,2.000000,2.000000,2.003000,2.022000,2.041000,2.060000,1.327000,0.000000,0.000000,0.000000,0.000000,0.000000,0.000000,0.000000,0.000000,0.000000,0.000000,0.000000,0.000000,0.000000,0.000000,0.000000,0.000000,0.000000,0.000000,0.000000,0.000000,0.000000,0.000000,0.000000,0.000000,0.000000,
2.069000,2.062000,2.024000,2.000000,2.000000,2.000000,2.000000,2.000000,2.000000,2.000000,2.006000,2.047000,2.074000,2.076000,0.000000,0.000000,0.000000,0.000000,0.000000,0.000000,0.000000,0.000000,0.000000,0.000000,0.000000,0.000000,0.000000,0.000000,0.000000,0.000000,0.000000,0.000000,0.000000,0.000000,0.000000,0.000000,0.000000,0.000000,0.000000,0.000000,
2.069000,2.062000,2.024000,2.000000,2.000000,2.000000,2.000000,2.000000,2.000000,2.000000,2.010000,2.072000,2.121000,2.146000,0.000000,0.000000,0.000000,0.000000,0.000000,0.000000,0.000000,0.000000,0.000000,0.000000,0.000000,0.000000,0.000000,0.000000,0.000000,0.000000,0.000000,0.000000,0.000000,0.000000,0.000000,0.000000,0.000000,0.000000,0.000000,0.000000,
2.069000,2.063000,2.031000,2.011000,2.011000,1.757000,1.313000,1.553000,2.005000,2.023000,2.033000,2.098000,2.155000,2.196000,0.000000,0.000000,0.000000,0.000000,0.000000,0.000000,0.000000,0.000000,0.000000,0.000000,0.000000,0.000000,0.000000,0.000000,0.000000,0.000000,0.000000,0.000000,0.000000,0.000000,0.000000,0.000000,0.000000,0.000000,0.000000,0.000000,
2.069000,2.067000,2.056000,2.050000,2.050000,0.000000,0.000000,0.000000,2.021000,2.101000,2.105000,2.127000,2.155000,2.196000,0.000000,0.000000,0.000000,0.000000,0.000000,0.000000,0.000000,0.000000,0.000000,0.000000,0.000000,0.000000,0.000000,0.000000,0.000000,0.000000,0.000000,0.000000,0.000000,0.000000,0.000000,0.000000,0.000000,0.000000,0.000000,0.000000,
2.069000,2.069000,2.069000,1.792000,1.053000,0.000000,0.000000,0.000000,0.000000,1.529000,2.181000,2.181000,1.922000,1.181000,0.000000,0.000000,0.000000,0.000000,0.000000,0.000000,0.000000,0.000000,0.000000,0.000000,0.000000,0.000000,0.000000,0.000000,0.000000,0.000000,0.000000,0.000000,0.000000,0.000000,0.000000,0.000000,0.000000,0.000000,0.000000,0.000000,
2.069000,2.069000,2.069000,1.225000,0.000000,0.000000,0.000000,0.000000,0.000000,0.000000,2.264000,2.264000,1.448000,0.000000,0.000000,0.000000,0.000000,0.000000,0.000000,0.000000,0.000000,0.000000,0.000000,0.000000,0.000000,0.000000,0.000000,0.000000,0.000000,0.000000,0.000000,0.000000,0.000000,0.000000,0.000000,0.000000,0.000000,0.000000,0.000000,0.000000,
2.069000,2.069000,2.069000,1.434000,0.000000,0.000000,0.000000,0.000000,0.000000,0.000000,0.000000,0.000000,0.000000,0.000000,0.000000,0.000000,0.000000,0.000000,0.000000,0.000000,0.000000,0.000000,0.000000,0.000000,0.000000,0.000000,0.000000,0.000000,0.000000,0.000000,0.000000,0.000000,0.000000,0.000000,0.000000,0.000000,0.000000,0.000000,0.000000,0.000000,
2.069000,2.069000,2.069000,2.001000,1.819000,0.000000,0.000000,0.000000,0.000000,0.000000,0.000000,0.000000,0.000000,0.000000,0.000000,0.000000,0.000000,0.000000,0.000000,0.000000,0.000000,0.000000,0.000000,0.000000,0.000000,0.000000,0.000000,0.000000,0.000000,0.000000,0.000000,0.000000,0.000000,0.000000,0.000000,0.000000,0.000000,0.000000,0.000000,0.000000,
