40 40
0.000000 0.000000 0.000000 0.000000 0.000000 0.000000 2.026000 2.030000 2.026000 2.026000 2.021000 2.017000 2.016000 2.013000 2.008000 2.004000 2.001000 1.996000 1.996000 1.995000 1.990000 1.987000 1.984000 1.979000 1.976000 1.975000 1.975000 1.970000 1.967000 1.964000 1.955000 0.000000 0.000000 0.000000 0.000000 0.000000 0.000000 0.000000 0.000000 0.000000 
0.000000 0.000000 0.000000 0.000000 0.000000 0.000000 2.033000 2.030000 2.026000 2.026000 2.023000 2.018000 2.015000 2.013000 2.010000 2.008000 2.003000 1.998000 1.996000 1.993000 1.988000 1.987000 1.985000 1.979000 1.979000 1.975000 1.975000 1.970000 1.967000 1.964000 1.955000 1.257000 0.000000 0.000000 0.000000 0.000000 0.000000 0.000000 0.000000 0.000000 
0.000000 0.000000 0.000000 0.000000 0.000000 0.000000 2.039000 2.038000 2.030000 2.026000 2.023000 2.017000 2.017000 2.012000 2.008000 2.008000 2.008000 1.997000 1.996000 1.993000 1.991000 1.987000 1.986000 1.982000 1.979000 1.975000 1.975000 1.971000 1.967000 1.963000 1.958000 1.706000 0.000000 0.000000 0.000000 0.000000 0.000000 0.000000 0.000000 0.000000 
0.000000 0.000000 0.000000 0.000000 0.000000 0.000000 1.556000 2.039000 2.030000 2.026000 2.026000 2.017000 2.013000 2.013000 2.011000 2.008000 2.005000 1.996000 1.996000 1.991000 1.991000 1.987000 1.987000 1.983000 1.979000 1.976000 1.975000 1.974000 1.965000 1.963000 1.959000 1.948000 0.000000 0.000000 0.000000 0.000000 0.000000 0.000000 0.000000 0.000000 
0.000000 0.000000 0.000000 0.000000 0.000000 0.000000 1.562000 2.043000 2.030000 2.027000 2.023000 2.017000 2.013000 2.013000 2.011000 2.008000 2.005000 1.997000 1.996000 1.991000 1.988000 1.987000 1.988000 1.983000 1.979000 1.976000 1.975000 1.974000 1.965000 1.963000 1.959000 1.955000 0.000000 0.000000 0.000000 0.000000 0.000000 0.000000 0.000000 0.000000 
0.000000 0.000000 0.000000 0.000000 0.000000 0.000000 1.251000 2.040000 2.030000 2.029000 2.026000 2.021000 2.017000 2.014000 2.013000 2.009000 2.008000 2.004000 1.998000 1.996000 1.989000 1.991000 1.991000 1.984000 1.980000 1.977000 1.975000 1.974000 1.966000 1.963000 1.959000 1.947000 0.000000 0.000000 0.000000 0.000000 0.000000 0.000000 0.000000 0.000000 
0.000000 0.000000 0.000000 0.000000 0.000000 0.000000 1.559000 2.042000 2.030000 2.029000 2.026000 2.026000 2.021000 2.017000 2.013000 2.009000 2.008000 2.004000 1.999000 1.996000 1.991000 1.991000 1.991000 1.985000 1.982000 1.979000 1.975000 1.975000 1.971000 1.966000 1.959000 1.958000 0.000000 0.000000 0.000000 0.000000 0.000000 0.000000 0.000000 0.000000 
0.000000 0.000000 0.000000 0.000000 0.000000 0.000000 2.151000 2.045000 2.035000 2.030000 2.026000 2.023000 2.021000 2.017000 2.013000 2.008000 2.008000 2.004000 1.999000 1.996000 1.992000 1.991000 1.991000 1.983000 1.979000 1.979000 1.975000 1.971000 1.971000 1.967000 1.960000 1.952000 0.000000 0.000000 0.000000 0.000000 0.000000 0.000000 0.000000 0.000000 
0.000000 0.000000 0.000000 0.000000 0.000000 0.000000 2.578000 2.039000 2.039000 2.030000 2.028000 2.022000 2.021000 2.016000 2.013000 2.008000 2.008000 2.004000 2.000000 1.998000 1.996000 1.996000 1.995000 1.985000 1.980000 1.979000 1.975000 1.971000 1.969000 1.963000 1.959000 1.933000 0.000000 0.000000 0.000000 0.000000 0.000000 0.000000 0.000000 0.000000 
0.000000 0.000000 0.000000 0.000000 0.000000 0.000000 2.570000 2.044000 2.039000 2.030000 2.027000 2.023000 2.020000 2.016000 2.013000 2.009000 2.008000 2.008000 2.003000 1.999000 1.992000 1.991000 1.990000 1.985000 1.979000 1.979000 1.975000 1.974000 1.965000 1.963000 1.963000 1.785000 0.000000 0.000000 0.000000 0.000000 0.000000 0.000000 0.000000 0.000000 
0.000000 0.000000 0.000000 0.000000 0.000000 0.000000 2.570000 2.044000 2.035000 2.032000 2.029000 2.026000 2.019000 2.021000 2.015000 2.013000 2.008000 2.008000 2.004000 2.002000 1.997000 1.991000 1.990000 1.985000 1.980000 1.979000 1.975000 1.975000 1.971000 1.968000 1.963000 1.957000 1.695000 2.271000 0.000000 0.000000 0.000000 0.000000 0.000000 0.000000 
0.000000 0.000000 0.000000 0.000000 0.000000 0.000000 1.534000 1.842000 2.042000 2.030000 2.030000 2.026000 2.021000 2.020000 2.015000 2.013000 2.008000 2.008000 1.999000 1.996000 1.996000 1.991000 1.991000 1.987000 1.982000 1.979000 1.975000 1.975000 1.971000 1.967000 1.959000 1.952000 1.827000 0.000000 0.000000 0.000000 0.000000 0.000000 0.000000 0.000000 
0.000000 0.000000 0.000000 0.000000 0.000000 0.000000 0.000000 1.843000 2.043000 2.034000 2.030000 2.026000 2.026000 2.020000 2.013000 2.013000 2.008000 2.008000 2.003000 1.998000 1.996000 1.991000 1.991000 1.987000 1.984000 1.980000 1.979000 1.975000 1.969000 1.963000 1.963000 1.959000 1.455000 0.000000 0.000000 0.000000 0.000000 0.000000 0.000000 0.000000 
0.000000 0.000000 0.000000 0.000000 0.000000 0.000000 0.000000 1.842000 2.044000 2.036000 2.030000 2.027000 2.026000 2.021000 2.016000 2.013000 2.008000 2.008000 2.006000 2.000000 1.997000 1.991000 1.991000 1.989000 1.984000 1.980000 1.979000 1.974000 1.969000 1.963000 1.963000 1.959000 1.959000 0.000000 0.000000 0.000000 0.000000 0.000000 0.000000 0.000000 
0.000000 0.000000 0.000000 0.000000 0.000000 0.000000 0.000000 1.837000 2.039000 2.038000 2.031000 2.028000 2.026000 2.021000 2.017000 2.013000 2.008000 2.008000 2.007000 2.005000 2.003000 1.996000 1.995000 1.990000 1.986000 1.980000 1.979000 1.975000 1.969000 1.967000 1.963000 1.963000 1.962000 2.477000 0.000000 0.000000 0.000000 0.000000 0.000000 0.000000 
0.000000 0.000000 0.000000 0.000000 0.000000 0.000000 0.000000 1.966000 2.039000 2.039000 2.032000 2.030000 2.026000 2.025000 2.017000 2.013000 2.011000 2.011000 2.008000 2.006000 1.998000 1.996000 1.995000 1.991000 1.984000 1.983000 1.983000 1.978000 1.971000 1.967000 1.967000 1.960000 1.963000 0.000000 0.000000 0.000000 0.000000 0.000000 0.000000 0.000000 
0.000000 0.000000 0.000000 0.000000 0.000000 0.000000 2.621000 2.044000 2.044000 2.039000 2.032000 2.030000 2.026000 2.026000 2.019000 2.014000 2.013000 2.013000 2.008000 2.004000 1.997000 1.996000 1.996000 1.991000 1.984000 1.983000 1.979000 1.979000 1.973000 1.967000 1.963000 1.959000 1.958000 0.000000 0.000000 0.000000 0.000000 0.000000 0.000000 0.000000 
0.000000 0.000000 0.000000 0.000000 0.000000 0.000000 0.000000 2.044000 2.044000 2.039000 2.035000 2.030000 2.026000 2.026000 2.019000 2.014000 2.013000 2.013000 2.008000 2.008000 2.001000 1.996000 1.996000 1.991000 1.985000 1.983000 1.979000 1.978000 1.973000 1.968000 1.963000 1.958000 1.955000 0.000000 0.000000 0.000000 0.000000 0.000000 0.000000 0.000000 
0.000000 0.000000 0.000000 0.000000 0.000000 0.000000 0.000000 2.046000 2.044000 2.040000 2.030000 2.030000 2.026000 2.026000 2.021000 2.015000 2.013000 2.013000 2.008000 2.007000 2.004000 1.996000 1.996000 1.991000 1.988000 1.984000 1.979000 1.975000 1.971000 1.964000 1.964000 1.960000 1.955000 2.166000 0.000000 0.000000 0.000000 0.000000 0.000000 0.000000 
0.000000 0.000000 0.000000 0.000000 0.000000 0.000000 0.000000 2.049000 2.044000 2.038000 2.030000 2.030000 2.026000 2.026000 2.024000 2.019000 2.015000 2.013000 2.008000 2.004000 2.000000 1.996000 1.996000 1.991000 1.991000 1.987000 1.983000 1.975000 1.972000 1.969000 1.963000 1.962000 1.957000 2.285000 0.000000 0.000000 0.000000 0.000000 0.000000 0.000000 
0.000000 0.000000 0.000000 0.000000 0.000000 0.000000 2.922000 2.044000 2.049000 2.044000 2.036000 2.031000 2.030000 2.026000 2.026000 2.021000 2.017000 2.013000 2.008000 2.005000 2.000000 1.996000 1.996000 1.993000 1.991000 1.984000 1.980000 1.977000 1.975000 1.971000 1.967000 1.962000 1.955000 2.279000 0.000000 0.000000 0.000000 0.000000 0.000000 0.000000 
0.000000 0.000000 0.000000 0.000000 0.000000 0.000000 0.000000 2.044000 2.049000 2.044000 2.041000 2.031000 2.030000 2.026000 2.024000 2.017000 2.013000 2.013000 2.012000 2.008000 2.008000 1.996000 1.996000 1.996000 1.991000 1.988000 1.979000 1.979000 1.975000 1.972000 1.963000 1.962000 1.955000 2.160000 0.000000 0.000000 0.000000 0.000000 0.000000 0.000000 
0.000000 0.000000 0.000000 0.000000 0.000000 0.000000 0.000000 2.404000 2.049000 2.044000 2.041000 2.035000 2.030000 2.026000 2.022000 2.017000 2.013000 2.013000 2.013000 2.008000 2.003000 1.996000 1.996000 1.996000 1.993000 1.991000 1.983000 1.979000 1.979000 1.975000 1.967000 1.963000 1.963000 1.195000 0.000000 0.000000 0.000000 0.000000 0.000000 0.000000 
0.000000 0.000000 0.000000 0.000000 0.000000 0.000000 0.000000 2.399000 2.049000 2.048000 2.041000 2.036000 2.030000 2.027000 2.026000 2.020000 2.015000 2.015000 2.014000 2.010000 2.005000 1.996000 1.996000 1.996000 1.993000 1.991000 1.983000 1.979000 1.977000 1.974000 1.967000 1.963000 1.963000 1.195000 0.000000 0.000000 0.000000 0.000000 0.000000 0.000000 
0.000000 0.000000 0.000000 0.000000 0.000000 0.000000 0.000000 2.391000 2.049000 2.048000 2.044000 2.040000 2.030000 2.030000 2.026000 2.025000 2.024000 2.020000 2.017000 2.013000 2.009000 2.000000 1.999000 1.999000 1.996000 1.991000 1.983000 1.981000 1.977000 1.971000 1.967000 1.963000 1.963000 1.195000 0.000000 0.000000 0.000000 0.000000 0.000000 0.000000 
0.000000 0.000000 0.000000 0.000000 0.000000 0.000000 0.000000 2.098000 2.052000 2.048000 2.044000 2.040000 2.030000 2.030000 2.028000 2.023000 2.018000 2.017000 2.013000 2.013000 2.005000 2.000000 2.000000 1.998000 1.996000 1.992000 1.983000 1.983000 1.979000 1.972000 1.967000 1.963000 1.963000 1.195000 0.000000 0.000000 0.000000 0.000000 0.000000 0.000000 
0.000000 0.000000 0.000000 0.000000 0.000000 0.000000 2.612000 2.058000 2.053000 2.049000 2.044000 2.036000 2.030000 2.030000 2.026000 2.023000 2.017000 2.013000 2.013000 2.010000 2.004000 2.000000 2.000000 1.999000 1.996000 1.991000 1.987000 1.983000 1.979000 1.972000 1.967000 1.966000 1.963000 1.195000 0.000000 0.000000 0.000000 0.000000 0.000000 0.000000 
0.000000 0.000000 0.000000 0.000000 0.000000 0.000000 0.000000 1.990000 2.053000 2.049000 2.046000 2.040000 2.030000 2.030000 2.028000 2.026000 2.022000 2.018000 2.014000 2.008000 2.006000 2.003000 2.000000 2.000000 1.996000 1.991000 1.990000 1.983000 1.979000 1.973000 1.968000 1.966000 1.963000 1.447000 0.000000 0.000000 0.000000 0.000000 0.000000 0.000000 
0.000000 0.000000 0.000000 0.000000 0.000000 0.000000 0.000000 0.000000 2.058000 2.049000 2.046000 2.044000 2.033000 2.030000 2.026000 2.026000 2.022000 2.021000 2.016000 2.012000 2.009000 2.000000 2.000000 2.001000 1.996000 1.994000 1.991000 1.983000 1.980000 1.976000 1.975000 1.967000 1.963000 1.963000 0.000000 0.000000 0.000000 0.000000 0.000000 0.000000 
0.000000 0.000000 0.000000 0.000000 0.000000 0.000000 0.000000 0.000000 2.058000 2.049000 2.049000 2.045000 2.043000 2.030000 2.028000 2.026000 2.022000 2.017000 2.017000 2.010000 2.008000 2.004000 2.000000 2.001000 1.996000 1.991000 1.991000 1.984000 1.981000 1.977000 1.972000 1.970000 1.963000 1.963000 0.000000 0.000000 0.000000 0.000000 0.000000 0.000000 
0.000000 0.000000 0.000000 0.000000 0.000000 0.000000 0.000000 0.000000 2.053000 2.049000 2.046000 2.044000 2.035000 2.030000 2.028000 2.023000 2.021000 2.017000 2.013000 2.008000 2.008000 2.004000 1.996000 2.000000 1.997000 1.991000 1.991000 1.983000 1.979000 1.976000 1.971000 1.966000 1.963000 1.963000 0.000000 0.000000 0.000000 0.000000 0.000000 0.000000 
0.000000 0.000000 0.000000 0.000000 0.000000 0.000000 0.000000 0.000000 2.053000 2.052000 2.046000 2.040000 2.030000 2.030000 2.028000 2.026000 2.026000 2.018000 2.014000 2.013000 2.008000 2.008000 2.001000 1.998000 1.996000 1.991000 1.987000 1.983000 1.979000 1.976000 1.968000 1.967000 1.963000 1.963000 0.000000 0.000000 0.000000 0.000000 0.000000 0.000000 
0.000000 0.000000 0.000000 0.000000 0.000000 0.000000 0.000000 0.000000 1.523000 2.049000 2.048000 2.042000 2.035000 2.030000 2.030000 2.026000 2.026000 2.017000 2.013000 2.013000 2.011000 2.008000 2.007000 1.998000 1.996000 1.991000 1.990000 1.983000 1.979000 1.977000 1.973000 1.972000 1.964000 1.961000 0.000000 0.000000 0.000000 0.000000 0.000000 0.000000 
0.000000 0.000000 0.000000 0.000000 0.000000 0.000000 0.000000 0.000000 0.000000 1.448000 2.046000 2.038000 2.030000 2.030000 2.029000 2.026000 2.023000 2.017000 2.013000 2.010000 2.008000 2.008000 2.004000 1.998000 1.993000 1.991000 1.988000 1.987000 1.984000 1.983000 1.979000 1.974000 1.965000 1.959000 0.000000 0.000000 0.000000 0.000000 0.000000 0.000000 
0.000000 0.000000 0.000000 0.000000 0.000000 0.000000 0.000000 0.000000 0.000000 0.000000 2.042000 2.035000 2.030000 2.026000 2.026000 2.023000 2.025000 2.021000 2.016000 2.008000 2.005000 2.000000 2.000000 2.006000 1.996000 1.988000 1.984000 1.982000 1.980000 1.979000 1.975000 1.967000 1.963000 1.959000 0.000000 0.000000 0.000000 0.000000 0.000000 0.000000 
0.000000 0.000000 0.000000 0.000000 0.000000 0.000000 0.000000 0.000000 0.000000 0.000000 0.000000 0.000000 0.000000 0.000000 1.324000 2.110000 2.111000 2.039000 2.022000 2.016000 2.012000 1.996000 1.998000 2.016000 2.006000 1.988000 1.996000 1.991000 1.975000 1.975000 1.968000 1.963000 1.957000 1.866000 0.000000 0.000000 0.000000 0.000000 0.000000 0.000000 
0.000000 0.000000 0.000000 0.000000 0.000000 0.000000 0.000000 0.000000 0.000000 0.000000 0.000000 0.000000 0.000000 0.000000 1.321000 2.100000 2.076000 2.049000 2.033000 2.100000 2.094000 2.096000 2.089000 2.023000 2.013000 2.079000 2.091000 2.100000 2.059000 1.680000 0.000000 0.000000 0.000000 0.000000 0.000000 0.000000 0.000000 0.000000 0.000000 0.000000 
0.000000 0.000000 0.000000 0.000000 0.000000 0.000000 0.000000 0.000000 0.000000 0.000000 0.000000 0.000000 0.000000 0.000000 1.315000 2.081000 2.074000 2.058000 2.042000 2.058000 2.077000 2.071000 2.078000 2.040000 2.024000 2.058000 2.069000 2.077000 2.078000 1.100000 0.000000 0.000000 0.000000 0.000000 0.000000 0.000000 0.000000 0.000000 0.000000 0.000000 
0.000000 0.000000 0.000000 0.000000 0.000000 0.000000 0.000000 0.000000 0.000000 0.000000 0.000000 0.000000 0.000000 1.021000 2.058000 2.051000 2.052000 2.055000 2.050000 2.044000 2.049000 2.055000 2.052000 2.033000 2.028000 2.031000 2.042000 2.049000 2.054000 1.097000 0.000000 0.000000 0.000000 0.000000 0.000000 0.000000 0.000000 0.000000 0.000000 0.000000 
0.000000 0.000000 0.000000 0.000000 0.000000 0.000000 0.000000 0.000000 0.000000 0.000000 0.000000 0.000000 0.000000 1.015000 2.047000 2.035000 2.039000 2.039000 2.030000 2.037000 2.039000 2.035000 2.030000 2.030000 2.026000 2.026000 2.026000 2.030000 2.033000 2.030000 0.000000 0.000000 0.000000 0.000000 0.000000 0.000000 0.000000 0.000000 0.000000 0.000000 
