<?xml version="1.0"?>
<opencv_storage>
<Depth6438 type_id="opencv-matrix">
  <rows>64</rows>
  <cols>49</cols>
  <dt>w</dt>
  <data>
    2812 2812 2812 2812 2835 2859 2859 2859 2883 3903 3903 3994 3994
    1696 1688 1671 1663 1663 1663 1663 1680 4139 4139 4139 4139 4139
    4139 4139 4139 4190 4241 4241 4241 4241 4241 4295 4295 4295 4295
    4295 4295 4349 4349 4349 4349 4349 4349 4405 4405 2812 2812 2812
    2812 2835 2859 2859 2859 2883 3903 3903 3903 1671 1671 1663 1663
    1663 1663 1663 1663 1671 1680 1680 1680 1680 4139 4139 4139 4139
    4190 4190 4190 4241 4241 4241 4241 4295 4295 4295 4295 4295 4349
    4349 4349 4349 4349 4349 4405 4405 2812 2812 2812 2835 2835 2859
    2859 2859 2883 2883 2883 1688 1688 1663 1663 1655 1655 1655 1663
    1663 1663 1671 1680 1680 1671 1671 1671 4139 4139 4190 4190 4190
    4190 4190 4241 4241 4295 4295 4295 4295 4295 4349 4349 4349 4349
    4349 4349 4405 4405 2812 2812 2812 2835 2835 2835 2859 2859 2883
    2859 1696 1688 1663 1655 1655 1655 1655 1655 1655 1655 1663 1663
    1671 1663 1663 1671 1671 1671 1680 1680 4190 4190 4139 4139 4190
    4241 4295 4295 4295 4295 4295 4349 4349 4349 4349 4349 4349 4405
    4405 2812 2812 2812 2835 2835 2835 2859 2859 2883 1722 1696 1688
    1663 1655 1655 1655 1655 1655 1655 1655 1663 1663 1663 1663 1663
    1663 1671 1671 1680 1680 1688 1688 1688 4139 4190 4241 4241 4190
    4190 4241 4295 4349 4349 4349 4349 4349 4349 4405 4405 2789 2789
    2789 2812 2835 2835 2859 2859 2883 1705 1696 1688 1663 1655 1655
    1655 1655 1655 1655 1655 1663 1663 1663 1663 1663 1663 1671 1671
    1680 1688 1688 1688 1688 1688 1688 4241 4241 4139 4139 4190 4190
    4349 4349 4349 4349 4349 4349 4405 4405 2789 2789 2789 2812 2812
    2835 2835 2859 2859 1705 1696 1688 1655 1655 1655 1655 1655 1655
    1655 1655 1655 1655 1655 1663 1663 1663 1671 1680 1680 1680 1688
    1688 1688 1688 1688 1696 1705 1722 1722 1722 4190 4349 4349 4349
    4349 4405 4405 4405 4405 2789 2789 2789 2789 2812 2835 2789 2789
    1713 1696 1696 1680 1647 1647 1647 1647 1655 1655 1655 1655 1655
    1655 1655 1663 1663 1663 1663 1680 1680 1680 1688 1688 1688 1688
    1696 1696 1705 1713 1722 1713 1713 1722 1722 1722 1731 1731 4405
    4405 4405 2789 2789 2789 2789 2812 2812 2789 2789 1713 1696 1696
    1663 1647 1647 1647 1647 1647 1655 1655 1655 1655 1655 1655 1663
    1663 1663 1663 1680 1680 1680 1688 1696 1696 1696 1696 1696 1696
    1705 1713 1713 1713 1722 1722 1722 1731 1731 1731 1731 4405 2767
    2767 2789 2789 2812 2789 2789 2835 1722 1705 1696 1655 1647 1639
    1639 1647 1647 1655 1655 1655 1655 1655 1655 1663 1663 1671 1671
    1680 1680 1688 1688 1688 1696 1696 1696 1696 1696 1705 1713 1713
    1713 1713 1722 1731 1731 1731 1731 1731 1757 2767 2767 2789 2789
    2789 2789 2789 2789 1713 1696 1688 1655 1639 1639 1632 1632 1647
    1647 1647 1655 1655 1655 1655 1663 1663 1671 1671 1671 1680 1688
    1688 1688 1688 1696 1696 1705 1705 1713 1713 1713 1713 1713 1722
    1731 1731 1731 1731 1731 1757 2789 2789 2789 2789 2789 2789 2789
    2789 1713 1696 1680 1647 1639 1639 1632 1632 1647 1647 1647 1655
    1655 1655 1663 1663 1663 1663 1671 1671 1680 1688 1688 1688 1688
    1688 1696 1696 1705 1705 1705 1713 1713 1722 1722 1722 1722 1731
    1731 1731 1748 2789 2789 2789 2789 2789 2767 2767 1705 1705 1688
    1671 1647 1632 1632 1624 1624 1632 1647 1647 1655 1655 1655 1663
    1663 1663 1663 1671 1671 1680 1680 1688 1688 1688 1688 1696 1696
    1705 1705 1705 1713 1713 1713 1722 1722 1722 1722 1731 1731 1748
    2789 2789 2789 2789 2789 2767 2767 1696 1696 1688 1655 1639 1632
    1632 1624 1624 1632 1639 1639 1647 1655 1655 1663 1663 1663 1663
    1671 1671 1680 1680 1680 1680 1680 1680 1688 1688 1696 1696 1705
    1705 1713 1713 1722 1722 1722 1722 1731 1731 1748 2789 2789 2789
    2789 2789 2744 2744 1696 1696 1680 1647 1639 1632 1632 1632 1632
    1632 1639 1639 1647 1655 1655 1655 1655 1663 1663 1663 1671 1671
    1680 1680 1680 1680 1680 1688 1688 1696 1696 1696 1705 1705 1713
    1722 1722 1722 1731 1731 1731 1731 2767 2767 2767 2767 2767 2723
    2723 1688 1688 1671 1639 1632 1632 1632 1632 1632 1632 1639 1639
    1647 1655 1655 1655 1655 1655 1663 1663 1663 1671 1680 1680 1680
    1680 1680 1688 1688 1696 1696 1696 1705 1705 1713 1722 1722 1722
    1722 1722 1731 1731 2767 2767 2767 2767 2767 2723 2723 1688 1680
    1663 1639 1632 1624 1624 1632 1632 1632 1632 1632 1639 1647 1655
    1655 1655 1655 1655 1663 1663 1671 1671 1680 1680 1680 1680 1688
    1688 1696 1696 1696 1705 1705 1713 1713 1722 1722 1722 1722 1731
    1731 2767 2767 2767 2767 2767 2767 2767 1680 1671 1663 1632 1624
    1624 1624 1624 1632 1632 1632 1632 1639 1647 1647 1647 1655 1655
    1655 1663 1663 1663 1671 1680 1680 1680 1688 1688 1688 1696 1696
    1696 1705 1705 1705 1713 1722 1722 1722 1722 1731 1731 2767 2744
    2744 2744 2744 2767 2767 1663 1663 1647 1632 1616 1616 1624 1624
    1624 1632 1632 1632 1639 1639 1639 1647 1655 1655 1655 1663 1663
    1663 1663 1671 1680 1680 1688 1688 1688 1696 1696 1696 1696 1696
    1705 1713 1722 1722 1722 1722 1722 1722 2744 2744 2744 2744 2744
    1647 1647 1655 1655 1639 1624 1616 1616 1616 1624 1624 1632 1632
    1632 1639 1639 1639 1647 1655 1655 1655 1655 1655 1663 1663 1671
    1680 1680 1688 1688 1688 1696 1696 1696 1696 1696 1705 1713 1713
    1722 1722 1713 1713 1713 2723 2723 2723 2723 2723 1647 1647 1655
    1647 1632 1624 1616 1616 1616 1624 1624 1632 1632 1632 1639 1639
    1647 1647 1655 1655 1655 1655 1655 1663 1671 1671 1680 1680 1680
    1688 1688 1696 1696 1696 1696 1696 1705 1713 1713 1722 1722 1713
    1713 1713 2723 2723 2680 2680 2723 1647 1647 1655 1639 1632 1624
    1616 1616 1624 1624 1624 1632 1632 1632 1639 1639 1647 1647 1647
    1647 1655 1655 1663 1663 1663 1663 1671 1671 1680 1688 1688 1696
    1696 1696 1696 1696 1705 1705 1713 1722 1713 1713 1713 4349 2680
    2680 2680 2680 1696 1680 1671 1647 1639 1632 1624 1616 1616 1616
    1624 1624 1632 1632 1632 1639 1639 1647 1647 1647 1647 1655 1655
    1655 1663 1663 1663 1671 1671 1680 1680 1688 1688 1688 1696 1696
    1696 1696 1705 1713 1713 1713 1705 1705 1705 2680 2680 2680 2680
    1696 1671 1663 1647 1639 1624 1616 1609 1609 1609 1624 1624 1632
    1632 1632 1639 1639 1647 1647 1647 1647 1655 1655 1655 1663 1663
    1663 1671 1671 1680 1680 1688 1688 1688 1688 1696 1696 1696 1696
    1705 1705 1705 1705 1705 1705 2680 2680 2701 2701 1696 1663 1647
    1639 1624 1616 1609 1609 1609 1609 1624 1632 1632 1632 1632 1632
    1639 1639 1639 1647 1647 1655 1655 1655 1663 1663 1663 1663 1671
    1680 1688 1688 1688 1688 1688 1696 1696 1696 1696 1696 1705 1705
    1705 1705 4405 2680 2680 2680 2701 2701 1655 1647 1639 1624 1609
    1601 1601 1609 1616 1624 1624 1624 1632 1632 1632 1632 1639 1639
    1647 1647 1655 1655 1655 1663 1663 1663 1663 1671 1680 1680 1688
    1688 1688 1688 1696 1696 1696 1696 1696 1705 1705 1705 1705 4405
    2680 2680 2680 2701 2701 1655 1647 1639 1624 1609 1601 1601 1609
    1609 1624 1624 1624 1624 1632 1632 1632 1639 1639 1647 1647 1655
    1655 1655 1663 1663 1663 1663 1663 1671 1680 1680 1688 1688 1688
    1696 1696 1696 1696 1696 1705 1705 1705 1705 4405 2659 2680 2680
    2701 1663 1647 1632 1624 1616 1609 1601 1601 1601 1609 1616 1616
    1616 1624 1624 1632 1632 1639 1639 1647 1647 1655 1655 1655 1655
    1663 1663 1663 1663 1671 1671 1680 1680 1688 1688 1688 1696 1696
    1696 1696 1705 1705 1705 4405 4405 2639 2659 2680 2701 1663 1647
    1632 1624 1616 1601 1601 1601 1601 1601 1609 1609 1616 1624 1624
    1632 1632 1632 1639 1639 1647 1647 1655 1655 1655 1655 1663 1663
    1663 1671 1671 1671 1680 1688 1688 1688 1696 1696 1696 1696 1696
    1713 1713 1713 4405 2618 2618 2701 1680 1663 1647 1624 1616 1609
    1601 1601 1601 1601 1601 1609 1609 1609 1624 1624 1624 1632 1632
    1632 1632 1639 1647 1655 1655 1655 1655 1663 1663 1663 1671 1671
    1671 1680 1680 1688 1688 1688 1688 1696 1696 1696 1705 1713 1713
    4349 2618 2618 1671 1671 1647 1639 1624 1616 1609 1601 1601 1601
    1601 1601 1601 1609 1609 1624 1624 1624 1624 1632 1632 1632 1639
    1639 1647 1655 1655 1655 1655 1663 1663 1671 1671 1671 1671 1680
    1688 1688 1688 1688 1696 1696 1696 1705 1705 1705 4295 2618 2618
    1671 1671 1647 1639 1616 1609 1601 1601 1601 1601 1601 1601 1601
    1601 1609 1616 1624 1624 1624 1624 1632 1632 1639 1639 1647 1655
    1655 1655 1655 1655 1663 1663 1671 1671 1671 1680 1680 1688 1688
    1688 1696 1696 1696 1696 1705 1705 4295 2618 2598 2598 1663 1647
    1632 1609 1601 1601 1594 1594 1594 1601 1601 1601 1601 1609 1616
    1624 1624 1624 1624 1632 1632 1639 1639 1647 1655 1655 1655 1655
    1655 1655 1663 1671 1671 1671 1680 1680 1688 1688 1688 1688 1696
    1696 1696 1696 4349 4349 2598 2598 2598 1647 1639 1624 1609 1601
    1594 1594 1594 1594 1601 1601 1601 1601 1609 1616 1616 1616 1624
    1624 1632 1632 1639 1639 1647 1647 1655 1655 1655 1655 1655 1663
    1663 1671 1671 1680 1680 1680 1688 1688 1688 1696 1696 1696 4349
    4349 4349 2598 2618 2618 1647 1639 1616 1601 1601 1594 1594 1594
    1594 1601 1601 1601 1601 1609 1609 1616 1616 1624 1624 1632 1632
    1632 1639 1639 1647 1655 1655 1655 1655 1655 1663 1663 1663 1671
    1671 1671 1671 1680 1688 1688 1688 1688 1688 4349 4349 4349 2579
    2639 1647 1632 1632 1616 1601 1601 1594 1594 1594 1594 1601 1601
    1601 1601 1609 1609 1609 1616 1624 1624 1632 1632 1632 1632 1639
    1647 1647 1647 1647 1655 1655 1663 1663 1663 1663 1671 1671 1671
    1680 1680 1680 1688 1688 1688 4349 4295 4295 2560 2560 1639 1632
    1624 1609 1594 1594 1586 1586 1594 1594 1594 1601 1601 1601 1601
    1609 1609 1616 1624 1624 1632 1632 1632 1632 1632 1639 1647 1647
    1647 1647 1655 1663 1663 1663 1663 1663 1671 1671 1671 1680 1680
    1696 1696 4349 4349 4295 4295 2560 2560 1632 1624 1616 1601 1586
    1586 1586 1586 1594 1594 1594 1594 1601 1601 1601 1609 1609 1616
    1616 1624 1632 1632 1632 1632 1632 1639 1639 1639 1647 1647 1655
    1663 1663 1663 1663 1663 1671 1671 1671 1671 1680 1688 1696 1696
    4349 4295 4295 2541 1647 1632 1624 1616 1601 1586 1586 1586 1586
    1586 1594 1594 1594 1601 1601 1601 1609 1609 1616 1616 1624 1632
    1632 1632 1632 1632 1639 1639 1639 1639 1647 1655 1655 1663 1663
    1663 1663 1663 1671 1671 1671 1680 1688 1696 1696 4295 4295 4295
    2541 1647 1639 1624 1609 1594 1579 1579 1579 1579 1586 1594 1594
    1594 1594 1601 1601 1609 1616 1616 1616 1624 1624 1624 1632 1632
    1632 1639 1639 1639 1639 1639 1655 1655 1663 1663 1663 1663 1663
    1671 1671 1671 1680 1688 1688 1688 4295 4295 4295 1647 1647 1639
    1616 1601 1586 1579 1579 1579 1579 1586 1594 1594 1594 1594 1601
    1601 1609 1616 1616 1616 1616 1624 1624 1632 1632 1632 1632 1632
    1639 1639 1639 1655 1655 1655 1663 1663 1663 1663 1671 1671 1680
    1680 1680 1680 1680 4295 4295 4295 1647 1639 1632 1609 1594 1579
    1572 1572 1579 1579 1594 1594 1594 1594 1594 1601 1601 1609 1609
    1616 1616 1616 1624 1624 1632 1632 1632 1632 1632 1639 1639 1639
    1647 1655 1655 1655 1663 1663 1663 1671 1671 1680 1680 1671 1671
    1671 4295 4295 4295 1647 1639 1624 1601 1586 1579 1572 1572 1579
    1579 1586 1594 1594 1594 1594 1601 1601 1601 1601 1601 1609 1616
    1624 1624 1632 1632 1632 1632 1632 1639 1639 1639 1647 1655 1655
    1655 1663 1663 1663 1671 1671 1680 1680 1671 1671 1671 4349 4295
    4295 1647 1632 1616 1601 1586 1572 1564 1564 1572 1572 1579 1586
    1594 1594 1594 1601 1601 1601 1601 1601 1609 1616 1624 1624 1624
    1632 1632 1632 1632 1632 1639 1647 1655 1655 1655 1655 1655 1663
    1663 1663 1671 1671 1663 1663 1663 4349 4349 4295 4295 1639 1632
    1616 1594 1579 1564 1564 1564 1572 1572 1579 1579 1586 1594 1594
    1601 1601 1601 1601 1601 1609 1616 1624 1624 1624 1624 1632 1632
    1632 1632 1632 1639 1647 1647 1655 1655 1655 1655 1663 1663 1671
    1671 1655 1655 1655 4349 4349 4295 4295 1632 1624 1609 1586 1579
    1564 1564 1564 1572 1572 1579 1579 1586 1594 1594 1594 1601 1601
    1601 1601 1601 1609 1616 1624 1624 1624 1624 1624 1624 1632 1632
    1639 1639 1647 1655 1655 1655 1655 1655 1663 1663 1663 1655 1655
    1655 4349 4349 4295 4295 1632 1616 1601 1586 1579 1564 1564 1564
    1572 1572 1572 1579 1579 1586 1594 1594 1594 1594 1594 1601 1601
    1609 1616 1624 1624 1624 1624 1624 1624 1632 1632 1639 1639 1647
    1655 1655 1655 1655 1655 1655 1663 1663 1655 1655 1655 4241 4241
    4295 4295 1632 1616 1601 1586 1572 1564 1564 1564 1572 1572 1572
    1579 1579 1586 1586 1586 1594 1594 1594 1601 1601 1609 1616 1616
    1624 1624 1624 1632 1632 1632 1632 1639 1639 1647 1655 1655 1655
    1655 1655 1655 1655 1655 1663 1663 1663 4241 4241 4241 4241 1624
    1609 1594 1586 1572 1564 1564 1564 1572 1572 1572 1572 1579 1579
    1586 1586 1586 1594 1594 1594 1601 1609 1616 1616 1624 1624 1624
    1624 1624 1632 1632 1639 1639 1639 1655 1655 1655 1655 1655 1655
    1655 1655 1663 1663 4241 4241 4241 4241 4241 1624 1609 1594 1572
    1557 1557 1564 1564 1572 1572 1572 1572 1572 1579 1579 1586 1586
    1586 1586 1594 1601 1609 1616 1616 1616 1624 1624 1624 1624 1632
    1632 1639 1639 1639 1647 1647 1655 1655 1655 1655 1655 1663 1663
    1663 4241 4241 4241 4241 4241 1616 1609 1586 1572 1557 1557 1557
    1557 1564 1572 1572 1572 1572 1579 1579 1586 1586 1586 1586 1594
    1601 1601 1609 1616 1616 1616 1624 1624 1624 1632 1632 1632 1639
    1639 1647 1647 1655 1655 1655 1655 1655 1655 1663 1663 4241 4241
    4241 4241 4241 1616 1601 1579 1557 1550 1550 1550 1557 1564 1564
    1564 1572 1572 1579 1579 1586 1586 1586 1586 1594 1601 1601 1601
    1609 1609 1616 1616 1616 1624 1632 1632 1632 1632 1639 1647 1647
    1655 1655 1655 1655 1655 1655 1663 1663 4241 4190 4190 4241 4241
    1609 1594 1572 1557 1550 1550 1550 1557 1564 1564 1564 1564 1572
    1572 1579 1579 1579 1579 1586 1594 1601 1601 1601 1601 1609 1609
    1609 1609 1624 1632 1632 1632 1632 1632 1639 1647 1647 1647 1647
    1655 1655 1655 1663 1663 4190 4190 4190 4190 4241 1609 1586 1564
    1543 1543 1543 1543 1550 1564 1564 1564 1564 1572 1572 1579 1579
    1579 1579 1586 1594 1601 1601 1601 1601 1609 1609 1609 1609 1624
    1624 1632 1632 1632 1632 1639 1647 1647 1647 1647 1655 1655 1655
    1655 1655 4241 4241 4190 4190 4241 1579 1579 1557 1543 1543 1543
    1543 1550 1564 1564 1564 1572 1572 1572 1572 1579 1579 1579 1586
    1594 1594 1594 1601 1601 1601 1601 1609 1609 1624 1624 1624 1632
    1632 1632 1632 1639 1647 1647 1647 1647 1655 1655 1655 1655 4241
    4241 4241 4241 4241 1579 1579 1557 1543 1543 1543 1543 1543 1557
    1564 1564 1564 1572 1572 1572 1572 1579 1586 1586 1594 1594 1594
    1601 1601 1601 1601 1609 1609 1616 1624 1624 1624 1624 1632 1632
    1639 1647 1647 1647 1647 1655 1655 1663 1663 4241 4241 4190 4190
    4241 3653 1557 1557 1550 1543 1543 1543 1543 1550 1557 1557 1564
    1572 1572 1572 1572 1579 1579 1579 1586 1594 1594 1594 1601 1601
    1601 1609 1609 1609 1616 1624 1624 1624 1632 1632 1639 1647 1647
    1655 1655 1655 1655 1663 1663 4190 4190 4190 4190 4190 3653 3732
    1557 1550 1550 1543 1543 1543 1550 1557 1557 1564 1572 1572 1572
    1572 1579 1579 1579 1586 1594 1594 1594 1594 1601 1601 1609 1609
    1609 1616 1624 1624 1624 1632 1632 1639 1647 1647 1655 1655 1655
    1655 1655 4190 4190 4190 4190 4190 4190 3653 3692 1564 1550 1550
    1550 1543 1543 1550 1550 1550 1557 1572 1572 1579 1572 1572 1579
    1579 1586 1594 1594 1594 1594 1601 1601 1601 1609 1616 1616 1616
    1624 1624 1632 1632 1632 1647 1647 1655 1655 1655 1655 1655 4190
    4190 4190 4190 4190 4190 3653 3653 3732 3732 1550 1550 1543 1543
    1550 1550 1550 1557 1572 1572 1579 1572 1572 1579 1579 1579 1594
    1594 1594 1594 1594 1601 1601 1609 1616 1616 1616 1624 1624 1624
    1632 1632 1639 1647 1655 1655 1655 1655 1655 4190 4190 4190 4190
    4190 4190 3653 3653 3732 3732 3732 3732 3732 3732 3732 1557 1557
    1557 1557 1586 1586 1579 1579 1579 1579 1579 1594 1594 1594 1594
    1594 1601 1601 1609 1616 1616 1616 1624 1624 1624 1632 1632 1639
    1647 1647 1647 1647 1655 1663 1663 4190 4190 4190 4190 4190 3614
    3653 3692 3732 3732 3732 3732 3732 0 3732 3732 1586 0 1586 1586 1579
    1579 1586 1586 1586 1594 1594 1594 1594 1601 1601 1609 1609 1624
    1616 1616 1624 1624 1624 1632 1632 1639 1639 1647 1647 1647 1655
    1663 1663 4190 4190 4190 4190 4190 3614 3653 3692 3732 3732 3732
    3732 3732 0 0 0 0 0 1579 1579 0 0 0 0 0 0 1601 1601 1601 1601 1609
    1616 1616 1624 1624 3994 3994 1624 1624 1632 1632 1639 1639 1639
    1639 1639 1655 1655 4241 4190 4190 4190 4190 4190 3614 3653 3653
    3732 3732 3732 3732 0 0 1671 1671 1671 1671 1579 1579 1579 1579 0 0
    0 0 0 0 3994 3948 3948 3994 1624 1624 4089 3994 3994 3994 4041 1632
    1632 1639 1632 1632 1632 1632 4089 4089 4190 4190 4190 4190 4190
    4190</data></Depth6438>
</opencv_storage>
