<?xml version="1.0"?>
<opencv_storage>
<Depth9790 type_id="opencv-matrix">
  <rows>71</rows>
  <cols>58</cols>
  <dt>w</dt>
  <data>
    3433 3433 3433 3433 3433 3433 3433 3433 3433 3468 3468 3468 3468
    3433 3433 3433 3433 3468 3468 3503 3468 3468 3468 3468 3468 3468
    3468 3468 3468 3468 3433 3433 3433 3433 3433 3433 3433 1227 1227
    1227 1227 1232 1232 1232 3433 3433 3433 3433 3433 3399 3399 3399
    3399 3399 3433 3433 3433 3433 3433 3433 3433 3433 3433 3433 3433
    3433 3433 3468 3468 3468 3468 3433 3433 3399 3399 3433 3468 3503
    3468 3468 3468 3468 3468 3468 3468 3468 3468 3468 3433 3433 3433
    3433 3433 3433 3433 1241 1241 1236 1232 1232 1232 1232 3399 3399
    3399 3433 3433 3433 3433 3433 3399 3399 3399 3399 3399 3399 3433
    3433 3433 3433 3433 3433 3433 3433 3433 3468 3468 3468 3468 3433
    3399 3399 3399 3399 3433 3468 3468 3468 3468 3468 3468 3468 3468
    3468 3468 3433 3433 3433 3433 3468 3468 3468 1236 1236 1241 1241
    1236 1232 1232 1232 3399 3399 3399 3399 3399 3399 3433 3433 3399
    3399 3399 3399 3399 3399 3433 3433 3433 3433 3433 3433 3433 3433
    3433 3468 3468 3503 3468 3433 3399 3399 3399 3399 3433 3468 3468
    3468 3433 3433 3433 3433 3433 1165 1165 3433 1193 1193 3433 3468
    3468 1219 1219 1236 1241 1241 1236 1236 1236 1236 1236 3433 3433
    3399 3399 3399 3433 3433 3399 3399 3399 3399 3399 3433 3433 3433
    3433 3433 3433 3433 3433 3433 3433 3468 3468 3503 3468 3399 3399
    3399 3399 3433 3468 3468 3468 3468 3433 3433 1145 1145 1149 1157
    1165 1165 1177 1185 1189 1189 1193 1202 1210 1214 1219 1236 1236
    1236 1236 1236 1185 3433 3433 1181 1181 3468 3433 3433 3433 3399
    3399 3365 3365 3399 3433 3433 3433 3433 3433 3433 3433 3433 3433
    3433 3433 3468 3468 3399 3399 3399 3399 3433 3468 3468 3468 1130
    1130 1134 1141 1145 1145 1149 1153 1153 1157 1161 1165 1173 1181
    1193 1193 1197 1202 1202 1241 1236 1236 1236 1185 1185 1181 1181
    1181 1181 1189 3503 1214 1214 1210 1206 1206 3399 3433 3433 3433
    3433 3433 3433 3433 3433 3433 3433 1094 1094 1090 1090 1090 1090
    3399 3433 1119 1119 1119 1119 1126 1134 1138 1138 1138 1138 1145
    1145 1149 1149 1161 1161 1173 1181 1181 1193 1193 1193 1202 1236
    1236 1236 1185 1185 1181 1181 1181 1181 1189 1189 1197 1214 1210
    1206 1206 1206 3433 3433 3433 3433 3433 3433 3433 3433 3433 1073
    1073 1087 1080 1080 1080 1080 1080 1097 1097 1108 1028 1025 1025
    1130 1130 1123 1119 1119 1126 1134 1134 1134 1138 1134 1130 1119
    1119 1193 1130 1130 1134 1138 1141 1145 1145 1145 1149 1161 1177
    1185 1185 1185 1189 1197 1202 1202 1202 1202 3433 3433 3433 1057
    1057 1057 1060 1060 1063 1063 1073 1077 1077 1073 1073 1073 1077
    1097 1097 1108 1028 1025 1025 1028 1119 1115 1108 1108 1115 1123
    1126 1126 1123 1123 1123 1112 1112 1112 1115 1123 1126 1130 1134
    1141 1145 1145 1145 1145 1149 1161 1177 1181 1185 1185 1197 1197
    1197 1202 3433 3433 1063 1057 1057 1057 1060 1060 1060 1063 1063
    1070 1070 1070 1067 1067 1060 1060 1060 1047 1034 1031 1025 1025
    1025 1101 1101 1101 1112 1108 1097 1090 1090 1090 1090 1094 1105
    1105 1112 1119 1123 1126 1130 1134 1138 1138 1141 1145 1145 1153
    1169 1177 1177 1185 1189 1193 1193 1197 3433 3433 1063 1057 1054
    1054 1057 1057 1060 1060 1060 1063 1063 1063 1060 1060 1054 1050
    1050 1047 1031 1028 1025 1025 1025 1025 1101 1101 1080 1080 1084
    1084 1084 1087 1087 1087 1090 1090 1097 1108 1115 1119 1126 1130
    1134 1134 1141 1145 1145 1153 1161 1173 1177 1181 1189 1193 1193
    1197 3433 0 1063 1057 1054 1054 1050 1050 1050 1054 1057 1057 1057
    1060 1060 1057 1050 1050 1047 1044 1031 1028 1025 1025 1022 1019
    1019 1067 1067 1067 1070 1077 1077 1080 1080 1080 1087 1087 1087
    1097 1108 1115 1119 1126 1130 1134 1141 1145 1145 1153 1161 1173
    1177 1181 1193 1193 1197 1197 1060 0 1060 1057 1054 1054 1050 1050
    1050 1050 1050 1050 1047 1041 1041 1047 1047 1047 1038 1028 1025
    1025 1025 1025 1022 1019 1019 1025 1054 1054 1060 1067 1067 1073
    1080 1080 1080 1084 1087 1094 1101 1108 1115 1119 1126 1134 1141
    1145 1149 1153 1161 1169 1177 1181 1189 1193 1193 1193 0 0 1060 1057
    1054 1054 1050 1050 1050 1047 1047 1047 1041 1038 1038 1041 1041
    1038 1025 1022 1022 1022 1022 1022 1022 1022 1022 1025 1041 1047
    1054 1060 1063 1063 1073 1077 1080 1084 1087 1094 1101 1108 1115
    1119 1123 1130 1141 1145 1149 1157 1161 1169 1177 1185 1189 1193
    1193 1193 0 0 1060 1057 1054 1054 1050 1050 1047 1047 1044 1038 1038
    1034 1034 1028 1028 1028 1025 1022 1019 1019 1016 1016 1019 1022
    1022 1025 1034 1041 1047 1050 1057 1060 1063 1073 1077 1084 1087
    1094 1101 1108 1115 1119 1123 1130 1138 1145 1153 1157 1161 1173
    1177 1185 1189 1193 1193 1193 0 0 1060 1057 1054 1054 1050 1050 1047
    1047 1041 1038 1038 1034 1031 1025 1025 1025 1022 1019 1016 1016
    1013 1013 1013 1019 1022 1025 1034 1038 1044 1050 1057 1060 1063
    1073 1077 1084 1090 1097 1105 1112 1115 1119 1123 1130 1138 1145
    1149 1157 1161 1173 1177 1185 1189 1193 1193 1193 0 0 1060 1057 1054
    1050 1050 1047 1047 1044 1041 1038 1038 1034 1028 1025 1022 1022
    1022 1016 1016 1013 1010 1010 1013 1016 1022 1025 1034 1038 1041
    1047 1057 1060 1063 1070 1077 1084 1094 1101 1108 1112 1115 1119
    1123 1130 1138 1145 1149 1153 1161 1173 1177 1185 1193 1193 1197
    1197 0 0 1060 1057 1054 1050 1047 1047 1047 1044 1044 1038 1034 1034
    1028 1025 1022 1022 1022 1016 1013 1013 1010 1010 1013 1016 1022
    1028 1034 1038 1041 1047 1057 1060 1067 1070 1077 1084 1094 1101
    1108 1112 1115 1119 1123 1130 1138 1145 1149 1149 1161 1173 1177
    1185 1193 1193 1197 1197 0 1063 1060 1057 1054 1050 1047 1047 1047
    1044 1044 1038 1034 1034 1028 1025 1022 1022 1022 1016 1013 1013
    1013 1013 1013 1016 1022 1031 1034 1038 1041 1047 1057 1060 1067
    1070 1077 1084 1090 1101 1108 1112 1115 1119 1123 1130 1138 1145
    1149 1149 1157 1169 1181 1185 1193 1193 1197 1197 0 1063 1060 1057
    1054 1050 1047 1047 1047 1044 1044 1038 1034 1034 1028 1025 1022
    1022 1022 1016 1013 1013 1013 1013 1013 1019 1025 1031 1034 1038
    1041 1050 1057 1060 1063 1070 1073 1080 1090 1097 1105 1112 1115
    1119 1123 1130 1141 1145 1149 1149 1157 1169 1181 1185 1193 1193
    1197 1197 1070 1063 1060 1057 1054 1050 1050 1050 1047 1044 1041
    1038 1034 1034 1028 1025 1022 1022 1022 1016 1013 1013 1013 1013
    1013 1019 1025 1031 1034 1038 1041 1050 1057 1060 1063 1070 1073
    1080 1090 1097 1105 1108 1115 1119 1123 1130 1141 1145 1149 1149
    1157 1169 1185 1189 1193 1193 1193 1193 1070 1063 1060 1057 1054
    1054 1050 1050 1047 1044 1041 1038 1034 1034 1028 1025 1025 1022
    1022 1013 1013 1010 1010 1010 1013 1019 1025 1028 1034 1038 1044
    1050 1057 1060 1067 1070 1077 1080 1090 1097 1101 1108 1112 1119
    1123 1130 1141 1149 1149 1153 1161 1169 1185 1189 1193 1193 1193
    1193 0 1063 1060 1057 1054 1054 1050 1047 1047 1044 1041 1038 1034
    1034 1028 1025 1025 1022 1016 1013 1013 1010 1010 1010 1013 1019
    1025 1025 1031 1041 1047 1050 1057 1063 1067 1070 1077 1084 1090
    1097 1101 1108 1112 1119 1123 1130 1141 1149 1153 1157 1161 1169
    1181 1189 1193 1193 1193 1193 0 1063 1060 1057 1054 1054 1050 1047
    1047 1044 1041 1038 1034 1034 1028 1025 1022 1022 1016 1013 1010
    1010 1010 1010 1013 1019 1025 1025 1031 1041 1047 1050 1057 1063
    1067 1073 1077 1084 1090 1097 1101 1108 1112 1119 1126 1130 1141
    1149 1153 1157 1165 1173 1181 1189 1193 1193 1193 0 0 1063 1060 1057
    1054 1050 1050 1047 1047 1044 1041 1038 1034 1034 1031 1025 1022
    1022 1016 1013 1010 1010 1010 1013 1013 1022 1025 1028 1031 1041
    1047 1047 1057 1063 1067 1073 1077 1084 1090 1094 1101 1105 1112
    1119 1126 1130 1141 1149 1149 1157 1161 1177 1181 1189 1193 1193
    1193 3433 0 1060 1060 1057 1054 1050 1050 1047 1047 1041 1038 1038
    1034 1028 1028 1028 1025 1022 1016 1013 1013 1013 1013 1013 1016
    1022 1025 1028 1031 1041 1044 1047 1057 1063 1067 1073 1077 1084
    1090 1094 1101 1105 1112 1119 1126 1134 1141 1149 1149 1157 1161
    1177 1181 1185 1193 1193 1193 3433 0 1060 1060 1057 1054 1054 1050
    1047 1044 1041 1038 1038 1034 1028 1028 1025 1022 1022 1019 1016
    1013 1013 1013 1016 1019 1022 1025 1028 1034 1038 1041 1047 1057
    1063 1067 1073 1077 1084 1090 1097 1101 1105 1112 1115 1126 1138
    1145 1149 1153 1157 1161 1177 1181 1185 1193 1193 1193 3433 1060
    1057 1057 1057 1054 1054 1050 1047 1044 1041 1038 1038 1034 1025
    1025 1022 1022 1019 1019 1016 1013 1013 1013 1013 1013 1019 1025
    1028 1034 1038 1041 1047 1057 1063 1070 1073 1077 1087 1094 1097
    1101 1105 1112 1115 1123 1138 1149 1149 1153 1157 1161 1177 1181
    1185 1193 1193 1193 3433 1060 1057 1057 1057 1054 1054 1050 1047
    1044 1041 1038 1038 1034 1025 1025 1022 1022 1019 1019 1013 1013
    1013 1013 1013 1013 1019 1025 1028 1034 1038 1047 1050 1057 1063
    1070 1073 1077 1087 1094 1101 1105 1108 1115 1119 1123 1138 1149
    1149 1157 1161 1165 1177 1181 1185 1193 1193 1193 3433 0 1060 1057
    1057 1054 1054 1050 1047 1044 1041 1038 1038 1034 1028 1025 1022
    1022 1022 1019 1013 1013 1013 1013 1013 1013 1022 1025 1028 1034
    1041 1047 1054 1057 1063 1070 1073 1077 1084 1094 1101 1105 1108
    1115 1119 1126 1134 1149 1149 1157 1161 1169 1177 1185 1189 1193
    1193 1197 3433 0 1060 1057 1057 1054 1054 1050 1047 1047 1044 1038
    1038 1034 1028 1025 1025 1022 1022 1019 1013 1010 1010 1010 1013
    1013 1022 1028 1028 1034 1041 1047 1054 1057 1063 1070 1073 1077
    1084 1094 1101 1105 1112 1115 1123 1130 1134 1149 1149 1153 1161
    1169 1177 1185 1193 1193 1197 1197 3433 0 1060 1060 1057 1054 1050
    1050 1050 1047 1041 1038 1038 1034 1031 1025 1025 1025 1022 1016
    1013 1010 1010 1010 1010 1013 1022 1028 1028 1034 1038 1047 1054
    1060 1063 1070 1073 1077 1084 1094 1101 1105 1115 1115 1123 1130
    1145 1149 1149 1153 1157 1173 1177 1185 1189 1189 1197 1197 3433 0 0
    1060 1057 1054 1050 1050 1050 1047 1041 1038 1038 1034 1028 1025
    1025 1022 1022 1016 1013 1010 1010 1010 1010 1016 1022 1025 1031
    1034 1038 1047 1054 1060 1063 1070 1073 1077 1087 1094 1101 1108
    1115 1115 1119 1126 1145 1149 1149 1153 1157 1173 1181 1185 1189
    1189 1189 1189 3433 0 1060 1060 1057 1054 1050 1050 1047 1047 1038
    1038 1038 1034 1028 1025 1025 1022 1019 1016 1013 1013 1013 1013
    1013 1016 1022 1025 1031 1034 1038 1047 1054 1060 1063 1070 1073
    1077 1087 1094 1101 1108 1112 1115 1119 1123 1145 1149 1149 1153
    1161 1173 1181 1185 1189 1189 1189 0 3433 0 1060 1060 1057 1050 1050
    1050 1047 1047 1038 1038 1038 1034 1034 1028 1025 1022 1019 1019
    1013 1013 1013 1013 1013 1019 1022 1025 1031 1034 1041 1047 1050
    1060 1063 1070 1073 1080 1087 1094 1101 1112 1112 1115 1119 1123
    1145 1149 1149 1153 1161 1173 1181 1185 1189 1189 1189 0 3468 1060
    1057 1054 1054 1050 1050 1050 1047 1044 1038 1038 1038 1034 1034
    1028 1025 1022 1019 1016 1013 1013 1013 1013 1013 1019 1022 1025
    1031 1038 1044 1047 1050 1057 1063 1070 1073 1080 1087 1094 1097
    1112 1112 1115 1119 1123 1145 1149 1149 1157 1169 1173 1181 1185
    1189 1189 1189 1197 3468 1060 1057 1054 1054 1050 1050 1050 1047
    1044 1038 1038 1038 1034 1028 1025 1025 1022 1016 1016 1013 1013
    1013 1013 1013 1019 1022 1025 1031 1038 1044 1047 1050 1057 1067
    1073 1077 1080 1087 1094 1097 1108 1108 1115 1119 1123 1141 1149
    1149 1157 1169 1177 1181 1189 1193 1193 1197 1197 0 1060 1057 1057
    1054 1050 1050 1047 1044 1044 1041 1038 1038 1034 1028 1025 1025
    1022 1016 1016 1013 1013 1013 1013 1013 1016 1022 1028 1034 1038
    1047 1047 1054 1060 1067 1070 1077 1080 1087 1094 1097 1108 1108
    1115 1119 1141 1141 1149 1149 1157 1173 1177 1181 1189 1193 1193
    1197 1197 0 1060 1057 1057 1054 1050 1050 1047 1044 1044 1041 1038
    1038 1034 1028 1025 1025 1022 1019 1016 1013 1013 1010 1010 1013
    1016 1022 1028 1034 1038 1044 1047 1057 1060 1067 1070 1077 1080
    1087 1094 1101 1108 1112 1115 1123 1141 1145 1149 1149 1157 1173
    1181 1185 1185 1193 1193 1193 1193 0 1060 1057 1057 1057 1054 1050
    1047 1047 1044 1041 1038 1038 1034 1028 1025 1025 1022 1019 1016
    1013 1013 1010 1010 1013 1019 1025 1028 1034 1038 1044 1047 1057
    1063 1067 1070 1077 1080 1087 1094 1108 1108 1112 1115 1123 1141
    1145 1153 1153 1157 1173 1181 1185 1185 1189 1189 1189 0 0 1060 1057
    1057 1057 1054 1050 1047 1047 1044 1041 1038 1038 1034 1028 1025
    1025 1022 1022 1019 1016 1013 1010 1010 1013 1022 1025 1028 1034
    1038 1044 1047 1057 1063 1067 1070 1077 1080 1090 1097 1108 1108
    1112 1115 1123 1141 1145 1149 1153 1161 1169 1181 1185 1185 1189
    1189 1189 0 3433 1050 1060 1057 1057 1050 1050 1050 1047 1044 1041
    1038 1038 1034 1028 1025 1025 1022 1022 1016 1013 1013 1010 1010
    1013 1022 1025 1028 1034 1038 1044 1047 1057 1063 1063 1073 1077
    1080 1090 1097 1108 1108 1112 1115 1123 1141 1149 1149 1153 1161
    1169 1177 1185 1189 1189 1189 1189 0 3433 1050 1060 1057 1057 1050
    1050 1050 1047 1044 1044 1038 1038 1034 1028 1025 1022 1019 1016
    1016 1013 1013 1013 1013 1013 1025 1025 1028 1034 1038 1044 1047
    1057 1063 1063 1073 1077 1084 1090 1097 1108 1108 1112 1115 1130
    1141 1149 1149 1153 1161 1169 1177 1185 1189 1189 1193 1193 0 3433
    1060 1060 1060 1057 1050 1050 1050 1047 1044 1044 1038 1038 1034
    1028 1025 1022 1019 1016 1016 1013 1013 1013 1013 1013 1022 1025
    1031 1034 1038 1044 1050 1057 1063 1070 1073 1077 1087 1090 1097
    1108 1108 1112 1119 1130 1141 1145 1149 1153 1165 1169 1177 1189
    1193 1193 1193 1193 0 3433 1060 1060 1060 1057 1054 1050 1050 1047
    1044 1044 1038 1034 1034 1028 1028 1022 1022 1019 1016 1013 1013
    1013 1013 1019 1022 1025 1031 1034 1038 1041 1050 1057 1060 1067
    1073 1077 1087 1090 1101 1108 1108 1112 1119 1130 1141 1145 1149
    1153 1165 1169 1177 1185 1189 1193 1197 1197 0 3433 1060 1060 1060
    1057 1054 1050 1050 1047 1044 1041 1038 1034 1034 1028 1025 1022
    1022 1019 1016 1013 1013 1013 1013 1013 1019 1025 1031 1034 1038
    1041 1050 1057 1060 1067 1070 1073 1080 1090 1101 1108 1108 1112
    1119 1130 1141 1145 1149 1153 1169 1169 1177 1181 1189 1193 1197
    1197 3333 3399 1060 1060 1057 1054 1050 1050 1047 1047 1044 1041
    1038 1034 1034 1025 1025 1022 1022 1019 1016 1013 1013 1013 1013
    1013 1019 1025 1031 1034 1038 1047 1050 1057 1063 1067 1070 1073
    1080 1094 1101 1108 1108 1115 1119 1134 1145 1149 1149 1161 1165
    1173 1177 1181 1189 1197 1202 1202 3333 3333 1063 1060 1057 1054
    1050 1050 1047 1047 1044 1041 1038 1034 1034 1025 1025 1022 1019
    1016 1016 1013 1013 1013 1013 1013 1019 1025 1031 1034 1041 1047
    1050 1054 1063 1067 1070 1073 1080 1090 1101 1108 1108 1115 1130
    1134 1145 1149 1149 1161 1165 1173 1181 1185 1193 1197 1197 1197
    3300 3300 1060 1057 1057 1057 1050 1050 1047 1047 1044 1041 1038
    1034 1034 1025 1025 1022 1019 1016 1013 1013 1013 1013 1013 1013
    1019 1025 1034 1034 1041 1047 1050 1054 1060 1067 1070 1073 1084
    1090 1105 1112 1112 1115 1130 1134 1145 1149 1149 1161 1165 1173
    1181 1185 1193 1197 1197 0 3300 3300 1060 1057 1057 1057 1050 1050
    1047 1047 1044 1041 1038 1034 1034 1025 1025 1022 1019 1016 1013
    1013 1013 1013 1013 1013 1019 1025 1031 1034 1041 1047 1050 1054
    1060 1070 1073 1077 1087 1097 1105 1112 1112 1115 1130 1138 1145
    1149 1149 1161 1165 1173 1181 1189 1193 1197 1197 0 3333 3333 1063
    1060 1057 1054 1050 1050 1050 1047 1047 1041 1038 1034 1034 1028
    1025 1025 1022 1016 1013 1013 1013 1013 1013 1013 1019 1025 1028
    1034 1041 1047 1050 1057 1063 1070 1073 1080 1087 1097 1105 1108
    1112 1115 1130 1138 1145 1149 1153 1161 1165 1173 1181 1189 1193
    1197 1197 0 3365 3365 1060 1060 1057 1054 1050 1050 1050 1047 1047
    1044 1038 1034 1031 1028 1025 1022 1022 1019 1013 1013 1013 1013
    1013 1013 1019 1025 1028 1034 1044 1050 1054 1057 1070 1070 1073
    1080 1087 1101 1105 1108 1112 1115 1130 1138 1145 1149 1153 1161
    1169 1177 1181 1189 1193 1197 0 0 0 3333 1060 1060 1057 1054 1047
    1047 1050 1047 1047 1044 1038 1034 1031 1031 1025 1022 1019 1019
    1013 1013 1013 1013 1013 1016 1022 1025 1028 1031 1044 1047 1050
    1057 1073 1073 1073 1080 1087 1101 1105 1108 1112 1115 1130 1138
    1141 1149 1153 1161 1169 1177 1181 1189 1193 1197 1197 0 3333 3333
    1060 1057 1057 1054 1047 1047 1050 1047 1047 1044 1038 1034 1031
    1025 1025 1022 1019 1019 1013 1013 1013 1013 1013 1016 1022 1028
    1028 1031 1044 1047 1050 1057 1067 1067 1073 1080 1087 1101 1105
    1108 1112 1119 1126 1138 1141 1149 1153 1161 1169 1177 1185 1189
    1193 1197 1197 0 3300 3300 1060 1057 1057 1054 1050 1050 1050 1047
    1044 1044 1038 1034 1031 1025 1025 1022 1019 1019 1013 1013 1013
    1013 1013 1019 1022 1028 1031 1034 1044 1050 1050 1057 1067 1067
    1073 1080 1097 1101 1105 1112 1112 1119 1126 1134 1141 1145 1153
    1161 1169 1177 1185 1189 1193 1197 0 0 3300 3300 1060 1060 1057 1054
    1050 1050 1050 1047 1044 1041 1038 1034 1031 1028 1025 1022 1019
    1019 1016 1013 1013 1013 1013 1019 1025 1028 1031 1034 1044 1050
    1054 1057 1070 1070 1073 1080 1094 1101 1105 1112 1112 1119 1126
    1134 1141 1145 1153 1161 1169 1177 1185 1185 1193 1197 0 3365 3300
    3300 1060 1057 1057 1054 1050 1050 1047 1047 1044 1041 1038 1031
    1028 1025 1025 1022 1019 1016 1016 1013 1013 1013 1016 1022 1025
    1028 1034 1034 1044 1050 1054 1063 1067 1070 1073 1080 1094 1101
    1105 1112 1112 1119 1126 1138 1145 1149 1153 1161 1169 1177 1181
    1181 1189 1197 0 3365 3365 3333 1060 1057 1057 1054 1050 1050 1047
    1047 1044 1041 1038 1031 1028 1025 1025 1022 1019 1016 1016 1013
    1013 1013 1016 1019 1025 1031 1034 1038 1044 1047 1054 1067 1067
    1070 1073 1080 1094 1101 1105 1112 1112 1119 1130 1145 1145 1149
    1153 1165 1169 1177 1181 1181 1189 1197 0 3365 3365 3333 1060 1057
    1057 1054 1050 1050 1047 1047 1044 1041 1038 1031 1025 1025 1022
    1019 1019 1016 1016 1016 1013 1013 1016 1019 1022 1031 1038 1038
    1041 1047 1054 1063 1067 1073 1077 1080 1094 1101 1105 1108 1115
    1119 1134 1145 1145 1149 1157 1165 1169 1177 1181 1185 1189 1197 0
    1197 3365 3365 1057 1057 1057 1054 1050 1050 1047 1047 1044 1041
    1038 1034 1025 1025 1022 1019 1016 1013 1013 1013 1010 1010 1013
    1019 1022 1031 1034 1038 1041 1047 1054 1063 1070 1073 1077 1080
    1090 1101 1108 1108 1115 1126 1134 1141 1149 1153 1157 1165 1169
    1177 1181 1185 1189 1193 0 0 3365 3365 1057 1057 1057 1054 1050 1050
    1047 1047 1044 1041 1034 1034 1028 1025 1022 1019 1016 1013 1013
    1013 1010 1010 1013 1016 1022 1031 1034 1038 1044 1050 1057 1067
    1067 1073 1077 1087 1090 1101 1108 1108 1115 1126 1134 1141 1149
    1153 1161 1165 1169 1177 1181 1185 1193 1193 1193 0 3365 3365 1057
    1057 1057 1054 1047 1047 1047 1044 1044 1038 1034 1034 1031 1025
    1025 1022 1016 1013 1013 1013 1010 1010 1013 1016 1022 1031 1034
    1038 1044 1050 1060 1067 1067 1073 1077 1087 1090 1101 1108 1108
    1119 1123 1134 1141 1149 1157 1161 1165 1169 1177 1185 1189 1193
    1193 1193 0 3333 3333 1057 1057 1057 1054 1047 1047 1047 1044 1041
    1038 1034 1031 1028 1025 1025 1022 1019 1016 1013 1010 1010 1010
    1013 1022 1025 1031 1034 1038 1044 1050 1060 1067 1067 1073 1073
    1087 1097 1101 1108 1108 1119 1123 1134 1141 1149 1157 1161 1165
    1169 1177 1185 1193 1193 1197 1197 0 3333 3333 1057 1057 1057 1054
    1047 1047 1047 1044 1041 1038 1034 1031 1028 1025 1022 1022 1019
    1016 1013 1010 1010 1010 1013 1022 1025 1034 1034 1038 1044 1050
    1060 1067 1067 1070 1073 1094 1097 1101 1108 1108 1119 1123 1134
    1141 1149 1153 1161 1165 1173 1181 1189 1193 1193 1197 1197 0 3208
    3208 1060 1057 1054 1050 1047 1047 1047 1044 1041 1038 1034 1031
    1025 1025 1022 1022 1019 1016 1016 1010 1010 1013 1019 1019 1025
    1031 1034 1038 1047 1050 1063 1067 1067 1070 1084 1094 1101 1101
    1108 1112 1119 1126 1134 1141 1145 1153 1165 1169 1173 1181 1189
    1193 1197 1197 1197 0 3178 3178 1060 1057 1054 1050 1047 1047 1047
    1044 1041 1038 1034 1034 1025 1025 1022 1022 1022 1016 1016 1013
    1013 1016 1019 1019 1022 1031 1034 1041 1044 1050 1063 1067 1067
    1073 1087 1090 1101 1105 1112 1112 1119 1123 1134 1141 1145 1153
    1165 1173 1173 1181 1189 1193 1197 1197 1197 3238 3178 3178 1060
    1057 1054 1050 1047 1047 1047 1044 1041 1034 1034 1034 1031 1025
    1022 1022 1022 1016 1016 1013 1013 1016 1016 1019 1022 1034 1034
    1041 1044 1057 1063 1067 1067 1073 1084 1087 1097 1105 1112 1115
    1119 1123 1138 1145 1149 1153 1161 1165 1177 1181 1189 1193 1197
    1197 1197 3238 3238 3208 1060 1060 1057 1047 1047 1047 1047 1044
    1041 1034 1034 1034 1028 1025 1025 1022 1022 1019 1016 1013 1013
    1016 1016 1019 1028 1034 1034 1041 1047 1057 1063 1067 1067 1073
    1084 1087 1097 1105 1115 1115 1119 1123 1141 1145 1149 1153 1161
    1165 1177 1181 1189 1193 1202 1202 0 3238 3238 3238 1060 1057 1057
    1047 1044 1044 1047 1044 1041 1034 1034 1031 1028 1025 1022 1022
    1019 1019 1013 1010 1010 1013 1013 1019 1028 1034 1034 1041 1047
    1057 1063 1070 1070 1073 1084 1090 1101 1108 1115 1115 1119 1123
    1141 1149 1153 1157 1161 1165 1177 1181 1189 1193 1202 1202 0 3269
    3269 3269 1057 1057 1057 1050 1044 1044 1044 1044 1041 1034 1034
    1031 1028 1025 1022 1022 1019 1016 1013 1010 1010 1013 1013 1019
    1028 1031 1034 1038 1047 1060 1063 1070 1070 1073 1084 1094 1101
    1108 1115 1115 1119 1126 1141 1145 1149 1157 1161 1165 1177 1181
    1189 1189 1197 0 0 0 3269 3238 1057 1057 1057 1050 1047 1047 1044
    1044 1038 1034 1034 1031 1028 1025 1022 1019 1019 1016 1013 1010
    1010 1013 1016 1022 1031 1031 1034 1038 1047 1060 1063 1070 1070
    1084 1087 1094 1101 1105 1105 1112 1119 1134 1141 1145 1149 1157
    1161 1165 1173 1181 1189 1189 1193 0 0 0 3269 3238</data></Depth9790>
</opencv_storage>
