<?xml version="1.0"?>
<opencv_storage>
<Depth16123 type_id="opencv-matrix">
  <rows>110</rows>
  <cols>81</cols>
  <dt>w</dt>
  <data>
    5374 5291 5291 5291 5291 5291 5291 5291 5291 5291 5291 5291 5291
    5291 5291 5210 5210 5210 5210 5210 5210 5210 5210 5210 5210 5210
    5210 5210 5210 5210 5210 5210 5132 5132 5210 5210 5210 5210 5210
    5132 5056 5056 4983 4983 5056 5056 5056 5056 4983 4983 5056 5056
    5132 5132 5210 975 975 978 978 987 981 981 978 973 970 970 970 973 0
    973 975 4911 0 4911 4911 4911 4911 4911 4911 4911 4911 5291 5291
    5291 5291 5291 5291 5291 5291 5291 5291 5291 915 915 915 5291 5210
    5210 5210 5210 5210 5210 5210 5210 5210 5210 5210 5210 5210 5210
    5132 5132 5132 5132 5210 5210 5210 5210 5210 5210 5132 948 948 948
    948 4983 5132 962 962 962 962 962 962 962 973 973 975 975 978 978
    981 981 981 981 975 973 973 973 973 973 0 0 0 0 0 4911 4911 4911
    4983 4983 4983 4911 5210 5210 5210 5210 5374 5291 920 915 915 915
    913 913 913 910 910 908 908 908 5210 5210 5210 845 845 843 843 5210
    5210 5291 5291 5132 5132 5132 5132 5132 5132 5291 5291 5291 5291
    5210 948 948 946 943 943 946 956 956 959 959 959 959 959 962 964 964
    970 978 978 978 981 981 978 975 973 973 973 973 975 0 0 0 0 0 4911
    4911 4911 4911 4983 4983 4983 5210 5210 5210 5210 5374 923 920 915
    915 910 908 908 908 906 903 896 891 891 898 898 845 845 845 843 843
    843 843 843 843 0 5132 5132 5132 5132 5132 5291 5291 5291 5291 951
    951 951 938 938 938 940 948 954 956 959 959 956 956 959 962 962 964
    964 964 962 962 964 964 967 967 967 975 975 975 975 975 0 0 4911
    4911 4911 4911 4911 4983 4983 4983 0 0 0 0 0 923 920 915 913 908 903
    901 901 903 898 891 889 887 887 887 845 845 845 843 843 843 843 843
    0 0 862 0 0 0 860 856 0 0 0 0 933 933 933 935 935 938 940 943 943
    943 943 956 956 956 959 959 962 964 962 959 959 962 962 962 962 962
    975 978 975 975 0 0 0 0 0 4911 4911 4983 4983 4983 4983 0 0 0 0 0
    928 920 915 913 906 901 898 896 894 894 889 885 878 875 875 847 847
    847 843 843 843 843 843 0 0 0 0 0 0 0 0 0 880 880 880 928 928 928
    928 935 938 940 943 938 938 943 956 956 956 959 959 962 956 956 951
    901 901 901 901 962 962 981 978 975 975 0 0 0 0 0 4911 4911 4911
    4983 4983 4983 0 0 0 0 0 928 920 915 913 903 898 894 891 878 878 889
    885 871 871 869 851 847 847 845 843 843 843 843 862 862 0 0 0 0 860
    856 854 880 880 880 880 928 928 925 925 885 885 889 889 889 891 891
    901 901 901 901 903 956 903 903 901 901 901 901 898 898 901 906 978
    978 978 918 915 901 901 901 4911 4911 4983 4983 4983 0 0 0 0 0 930
    920 918 913 903 898 891 878 873 871 867 864 864 864 869 869 839 839
    843 843 847 847 862 862 0 0 0 0 0 860 856 854 854 854 873 873 871
    871 875 880 882 885 885 887 887 889 889 896 898 898 898 901 901 898
    898 898 901 901 901 898 898 901 906 910 918 918 918 915 906 901 901
    901 901 906 906 906 0 0 0 0 0 930 923 918 913 906 898 889 875 871
    869 864 860 854 854 839 837 837 837 839 839 839 839 839 839 843 845
    849 851 851 851 851 851 851 854 854 858 862 864 864 867 867 867 880
    882 887 887 889 891 891 891 889 885 885 891 891 891 891 891 896 898
    898 894 894 903 910 906 906 908 906 901 901 901 906 910 906 906 0 0
    0 0 938 928 923 918 913 906 906 889 873 871 867 862 858 851 843 837
    837 835 835 837 837 837 837 839 839 843 845 845 847 847 849 851 851
    851 854 854 856 860 862 864 864 864 864 867 869 871 871 875 880 880
    882 882 882 882 882 885 889 889 889 889 889 891 891 891 894 898 901
    901 903 903 901 901 903 906 908 906 906 0 0 0 0 933 928 925 920 913
    908 908 889 873 871 867 862 858 849 843 837 837 835 835 835 835 837
    837 839 841 843 845 845 845 847 847 851 851 851 854 854 856 860 860
    862 862 864 864 867 869 871 871 873 875 878 880 880 880 882 882 885
    887 887 887 889 889 891 891 891 894 898 901 901 901 903 903 906 908
    908 908 908 906 0 0 0 0 930 928 925 920 913 908 908 889 873 871 867
    862 858 847 843 839 837 835 835 835 835 837 837 839 841 843 845 845
    845 847 847 851 851 851 854 854 856 858 860 862 862 864 864 867 869
    871 871 873 875 878 880 880 880 882 882 882 885 887 887 887 889 891
    891 891 894 898 901 901 901 903 903 906 908 908 908 908 906 0 0 0 0
    930 928 925 920 913 908 901 889 875 871 867 862 858 847 843 839 837
    835 835 835 835 837 839 839 841 843 845 845 845 847 849 851 851 851
    854 854 856 858 860 862 864 864 867 869 869 871 873 873 875 880 880
    880 882 882 882 882 885 887 887 887 889 891 891 894 896 898 901 901
    901 903 906 906 908 908 908 908 906 0 0 0 0 0 928 925 923 915 908
    898 891 875 871 867 862 858 847 843 837 835 835 835 835 837 837 839
    841 843 843 845 845 845 847 849 851 851 854 854 856 856 860 860 864
    864 864 867 869 871 871 873 873 878 880 880 880 882 882 882 885 887
    889 889 889 891 894 896 896 896 898 901 903 903 906 906 908 908 910
    908 908 906 0 0 0 0 0 925 925 920 915 906 898 891 878 871 867 862
    858 847 841 837 835 835 835 835 837 839 841 841 843 845 845 847 847
    847 849 851 854 854 856 856 858 860 860 864 864 864 869 871 871 873
    873 875 878 880 880 880 882 882 882 885 887 889 889 891 891 894 896
    896 898 898 901 903 906 906 906 908 908 910 910 908 906 0 0 0 0 0
    925 925 920 915 906 898 894 878 871 867 862 858 847 841 837 837 835
    835 837 837 839 843 843 845 845 845 847 847 849 849 851 854 854 858
    858 860 860 862 864 867 867 869 871 873 873 875 878 878 880 880 880
    882 882 885 887 889 889 889 891 894 894 896 898 898 901 903 903 906
    906 906 908 908 910 910 908 906 0 0 0 0 0 925 923 920 913 906 898
    891 887 873 867 860 856 847 843 837 837 837 837 837 839 841 843 843
    845 845 847 847 847 849 851 851 854 858 860 860 860 860 862 867 867
    867 871 871 873 873 875 878 878 880 882 882 882 885 885 887 889 891
    891 894 894 896 896 898 901 901 903 903 906 906 906 908 908 910 910
    910 908 0 0 0 0 0 928 923 920 913 906 898 891 887 873 864 860 856
    847 843 837 837 837 837 837 839 841 843 845 845 845 847 847 849 851
    851 854 854 856 860 860 860 860 862 867 867 869 871 873 873 873 875
    878 880 880 882 882 882 885 887 889 889 891 891 894 896 896 898 898
    901 903 903 906 906 906 908 908 908 910 910 910 910 0 0 0 0 933 928
    925 920 913 906 898 894 887 871 864 860 856 849 843 839 837 837 837
    839 841 843 843 845 845 845 847 849 849 851 854 854 854 856 860 860
    860 862 862 869 869 871 871 873 873 873 875 878 880 882 882 882 882
    885 887 889 889 891 894 894 898 898 898 901 901 903 906 906 906 908
    908 908 910 910 910 910 910 0 0 0 0 933 928 925 920 913 903 898 894
    875 869 864 860 856 849 843 839 837 837 837 839 841 843 843 845 847
    847 849 851 851 854 854 856 856 858 860 860 862 862 862 869 869 873
    873 873 873 873 875 878 880 882 882 882 882 885 887 891 891 894 894
    896 898 898 898 901 903 903 906 906 906 908 908 910 910 910 910 910
    910 0 0 0 0 933 928 928 923 913 901 898 894 875 869 864 860 856 849
    843 839 837 837 837 839 841 843 845 845 847 847 849 851 851 854 854
    856 856 858 860 860 862 862 864 871 871 873 873 875 875 875 878 880
    882 882 882 885 885 887 889 891 891 894 894 896 898 898 901 901 903
    906 906 908 908 908 910 910 910 910 910 910 910 0 0 0 0 933 930 928
    923 913 901 898 896 873 869 867 860 856 849 845 841 839 839 839 841
    843 845 845 845 847 849 851 851 851 854 856 856 858 860 860 862 862
    864 867 871 871 873 873 875 875 878 880 880 882 885 885 887 887 889
    889 891 894 896 896 896 898 898 901 901 903 906 906 908 908 910 910
    910 910 910 910 910 910 0 0 0 0 933 933 928 923 910 901 898 896 873
    869 867 862 856 851 845 843 841 839 839 843 843 845 845 847 847 849
    851 851 854 854 856 858 860 860 860 862 862 864 867 871 871 873 873
    875 875 880 880 882 882 885 887 887 889 889 891 894 894 896 896 896
    898 898 901 903 903 906 906 908 908 910 910 910 908 908 910 910 910
    0 0 0 0 933 933 928 923 910 901 898 894 878 871 867 862 856 851 845
    843 843 843 845 845 845 845 845 847 849 849 851 851 854 854 856 858
    860 860 860 862 864 864 867 869 871 873 873 875 875 880 880 882 882
    885 887 887 889 889 891 894 894 896 896 898 898 898 901 903 906 906
    906 908 908 910 910 910 908 908 910 903 903 0 0 0 0 935 933 928 923
    915 906 898 894 878 871 867 862 856 851 845 843 843 843 845 845 845
    847 849 849 849 851 851 854 854 856 858 858 860 860 862 864 864 867
    867 869 873 873 873 875 878 880 882 882 885 885 887 887 889 891 891
    894 896 896 898 898 901 901 901 903 906 906 908 908 908 910 910 910
    910 910 910 903 903 0 0 0 0 935 928 925 920 915 906 898 891 878 873
    869 862 856 849 845 843 843 843 845 847 847 849 851 851 851 851 851
    854 856 856 858 860 860 860 862 864 864 867 867 869 873 873 875 878
    880 880 882 882 885 885 887 889 889 891 894 896 898 898 898 898 901
    901 901 906 906 908 908 908 910 910 910 910 910 913 913 913 913 0 0
    0 0 935 928 925 920 915 906 898 885 878 873 869 862 854 849 845 845
    843 843 845 847 847 849 851 851 851 851 854 854 858 860 860 860 860
    862 864 867 867 867 869 871 875 878 878 880 880 882 882 882 885 887
    889 889 889 891 894 896 898 898 898 898 901 901 903 906 906 908 908
    908 910 913 913 915 915 918 915 915 915 0 0 0 0 935 930 928 920 913
    906 898 885 878 873 869 860 854 849 845 845 843 843 845 847 847 849
    851 854 854 854 854 856 858 860 860 860 862 862 864 867 867 869 869
    873 878 878 878 880 880 882 882 882 887 889 889 889 889 891 894 898
    898 898 898 901 901 903 906 906 908 908 908 910 910 913 913 918 918
    918 915 915 915 0 0 0 0 935 933 928 918 913 906 898 887 880 873 869
    860 854 849 847 845 845 845 847 849 849 851 851 854 854 854 856 858
    860 860 860 862 862 864 867 869 869 869 871 873 878 880 880 880 882
    882 885 885 887 889 889 891 891 891 894 898 898 898 898 901 901 903
    906 906 908 908 908 910 910 913 913 918 918 918 915 915 0 0 0 0 0
    938 935 928 918 913 906 898 887 880 873 869 860 854 849 845 845 845
    845 847 849 849 851 851 854 854 856 858 860 860 860 862 862 862 864
    867 869 869 869 871 875 880 880 880 880 882 882 885 887 889 889 889
    891 891 894 894 898 898 898 898 901 901 903 908 908 908 910 910 910
    910 913 913 915 918 918 915 915 0 0 0 0 940 938 935 928 918 913 906
    898 889 880 873 869 860 854 849 845 845 845 847 849 849 851 851 854
    854 856 856 858 860 860 862 862 862 862 864 867 869 869 869 871 880
    880 880 880 880 882 885 887 887 889 891 891 891 894 896 898 898 898
    901 901 901 903 906 908 908 910 910 910 913 913 913 913 915 918 918
    915 915 0 0 0 0 940 938 935 928 918 913 908 898 887 880 873 869 860
    854 849 847 845 845 849 849 851 851 854 854 854 856 858 860 860 860
    862 862 862 864 867 869 869 871 871 871 880 880 880 880 880 885 885
    887 889 891 891 891 891 894 896 898 898 898 901 901 903 906 908 908
    908 910 910 910 913 915 913 913 915 918 918 918 918 0 0 0 0 943 940
    935 928 920 913 908 894 887 880 873 869 862 856 849 847 847 847 849
    851 851 851 854 854 854 856 858 860 860 862 862 862 864 867 867 869
    869 871 871 873 880 880 880 880 882 885 885 887 889 891 891 891 894
    894 896 898 898 898 901 901 906 906 908 908 910 910 913 915 915 915
    915 918 918 918 920 920 920 0 0 0 0 943 940 935 930 920 913 908 894
    887 880 873 867 862 856 849 847 847 847 849 851 851 854 854 856 856
    856 858 860 860 862 862 864 867 869 869 869 871 871 871 873 880 880
    880 880 882 885 887 889 889 891 891 891 894 896 898 898 898 901 901
    901 906 906 908 908 910 910 913 915 918 918 918 918 920 920 920 920
    920 930 0 0 0 946 940 933 928 920 915 908 894 887 880 875 867 862
    856 851 849 849 849 851 851 854 854 854 856 856 858 858 860 860 862
    862 864 867 869 869 871 871 871 871 873 880 880 880 880 882 885 887
    889 889 891 891 891 894 896 898 901 901 901 901 903 906 906 908 908
    910 910 913 915 918 918 918 918 920 920 920 920 925 930 0 0 0 948
    943 933 928 920 915 906 891 887 880 875 867 862 856 851 849 849 849
    851 851 854 854 856 856 856 858 860 860 862 862 864 864 869 869 869
    871 871 871 873 875 880 880 882 882 882 885 887 889 891 891 891 894
    894 896 898 901 903 903 903 906 906 908 908 908 910 910 913 915 918
    918 918 920 920 920 923 923 928 933 0 0 0 948 943 933 928 920 913
    906 891 882 880 875 867 860 856 851 849 849 849 851 854 854 854 856
    856 858 860 860 862 862 864 864 867 869 869 871 871 871 873 873 878
    880 880 882 882 885 887 889 889 891 891 891 894 894 896 901 901 903
    903 903 906 906 908 908 910 910 910 913 918 918 918 918 918 920 920
    923 923 925 933 0 0 956 951 943 935 928 920 913 901 894 882 878 873
    867 860 856 851 849 849 849 851 854 854 854 856 856 858 860 862 862
    864 864 867 869 869 869 871 871 873 873 873 880 880 882 882 885 885
    887 889 889 891 894 894 896 896 898 901 901 903 903 906 906 908 908
    910 910 910 913 915 918 918 918 918 918 920 923 923 923 923 0 0 0
    956 951 946 935 928 920 910 901 896 885 878 873 869 862 856 851 849
    849 849 851 854 854 856 856 858 860 860 862 862 864 864 867 869 869
    871 871 871 873 875 875 882 882 882 885 885 885 887 889 891 894 894
    894 896 896 898 901 901 903 903 906 908 908 910 910 913 913 915 918
    918 918 918 918 920 923 923 920 920 920 0 0 959 956 951 943 935 928
    920 910 903 896 887 878 873 869 862 856 851 851 851 851 854 854 856
    858 858 858 860 860 862 862 864 864 867 869 869 871 871 873 873 875
    878 880 882 882 885 887 887 887 889 891 891 894 894 896 898 898 901
    903 903 903 906 908 908 910 910 913 915 915 918 918 918 918 920 925
    925 923 920 920 920 0 0 959 954 951 943 935 928 925 910 901 894 887
    880 873 869 862 856 851 851 851 851 854 854 856 858 858 860 860 862
    862 862 864 867 869 869 869 871 871 873 873 875 878 880 882 885 887
    887 889 889 889 891 891 894 896 898 898 901 903 903 906 906 906 908
    908 910 910 913 915 915 918 918 920 920 920 925 925 925 920 920 0 0
    0 0 951 948 940 935 930 925 910 898 894 887 880 875 869 862 856 854
    851 851 854 854 854 858 858 860 860 860 862 862 864 864 867 869 869
    871 871 871 875 875 878 880 880 885 885 887 889 889 889 891 891 894
    896 896 898 898 901 903 906 906 908 908 908 910 910 913 913 915 915
    918 920 920 920 923 923 925 925 908 908 0 0 0 0 951 943 938 933 930
    925 915 898 894 887 880 878 871 862 856 854 854 854 854 854 856 858
    860 860 860 862 862 864 867 869 869 871 871 871 873 873 875 878 878
    880 880 885 887 887 889 889 891 891 894 894 896 898 898 901 901 903
    906 908 908 908 910 910 913 913 913 915 918 918 920 920 920 923 923
    925 925 908 908 0 0 0 0 0 943 938 933 928 923 918 898 891 887 880
    878 869 860 856 854 854 854 854 854 856 860 860 862 862 862 862 864
    869 869 871 871 871 873 875 875 878 878 878 880 880 885 887 887 889
    891 891 891 894 896 898 898 898 901 903 906 906 908 908 908 910 910
    913 913 913 915 918 920 920 920 920 923 923 925 925 925 0 0 0 0 0 0
    943 938 933 928 923 918 898 891 887 882 878 869 860 856 854 854 854
    854 856 858 860 862 862 862 862 862 867 869 869 871 871 871 873 875
    875 878 878 878 880 880 887 887 889 889 891 891 894 896 898 898 898
    901 903 906 906 908 908 908 910 910 910 913 915 915 918 918 920 923
    920 920 923 923 928 925 925 0 0 0 0 0 0 943 938 933 925 920 918 901
    891 887 882 878 871 862 856 854 854 854 856 856 858 860 862 862 862
    862 864 867 869 871 871 871 871 875 878 878 878 878 878 880 885 889
    889 889 891 891 891 894 896 898 898 898 901 906 906 908 908 908 908
    910 910 910 913 915 915 918 918 920 923 923 923 923 923 928 925 925
    0 0 0 0 0 0 946 940 935 925 920 915 898 891 885 880 875 869 862 856
    854 854 854 856 858 860 860 862 862 864 864 867 869 869 871 873 873
    873 875 878 878 878 878 880 882 885 889 889 889 891 891 894 896 898
    898 898 901 901 906 906 908 908 908 910 910 910 913 915 918 918 918
    920 920 923 923 923 925 925 928 925 920 920 0 0 0 0 0 948 943 935
    925 918 915 898 891 885 880 875 869 862 858 856 856 856 856 858 860
    860 862 864 864 867 869 869 871 871 873 873 873 875 878 878 878 880
    880 885 885 889 889 891 891 894 896 898 898 898 898 901 906 908 908
    910 908 908 910 910 913 913 915 918 918 918 920 923 923 925 925 928
    928 928 925 920 920 920 0 0 0 954 948 946 938 925 918 915 901 894
    885 880 873 869 862 860 858 858 858 858 860 860 862 862 864 867 867
    869 871 871 873 873 873 875 878 878 878 878 880 882 882 885 887 889
    891 894 896 898 898 898 898 898 901 906 908 908 910 910 910 910 910
    913 913 915 918 918 920 920 923 923 925 925 928 928 928 925 920 920
    920 0 0 956 951 948 946 938 925 920 915 901 894 885 878 873 869 862
    860 858 858 860 860 860 862 862 862 864 867 869 869 871 871 873 875
    875 878 878 878 878 880 880 882 882 885 887 889 894 896 898 898 898
    898 898 898 901 906 908 910 910 910 910 913 913 913 915 915 918 920
    920 920 923 923 925 928 930 928 928 925 920 920 0 0 0 956 951 951
    946 938 925 920 915 901 894 885 878 873 869 864 860 858 858 860 860
    860 862 862 864 867 867 869 869 871 873 873 875 875 878 878 878 880
    880 882 882 882 887 889 889 894 896 898 901 901 901 901 901 903 908
    910 910 910 910 910 913 913 913 915 915 918 920 923 923 923 925 925
    930 930 928 928 925 920 920 0 0 0 959 954 951 946 938 925 920 915
    901 894 887 878 873 869 862 860 858 858 860 860 860 862 864 864 867
    869 869 871 871 873 875 875 878 878 878 880 880 880 885 885 885 887
    889 891 896 898 898 901 901 901 901 901 903 908 908 910 910 910 913
    913 915 915 915 918 918 920 923 923 925 925 925 930 930 928 928 925
    925 930 0 0 0 959 956 954 946 938 928 920 913 901 894 889 880 873
    869 862 860 860 860 860 860 860 862 864 867 867 869 869 871 871 873
    875 878 878 878 878 880 880 882 885 885 885 887 891 894 896 896 898
    898 901 901 903 903 906 908 908 910 910 913 913 913 915 915 918 918
    920 920 923 925 925 925 928 930 930 930 928 928 930 930 0 0 0 0 956
    954 946 938 928 920 913 901 894 889 882 875 869 862 860 860 860 860
    860 862 864 864 867 869 869 869 871 873 873 875 878 880 880 880 880
    880 882 885 887 887 889 891 894 896 896 898 898 901 903 903 906 906
    908 908 910 910 913 913 913 915 915 918 920 920 923 925 925 928 928
    928 930 930 930 930 930 928 928 0 0 0 0 959 954 943 935 928 923 913
    901 891 889 885 878 867 862 862 860 860 862 862 862 867 867 867 869
    869 869 871 871 873 878 878 880 880 880 880 880 882 885 887 889 889
    891 894 896 896 898 901 901 903 906 906 906 908 908 910 910 913 913
    915 918 918 918 920 923 923 925 928 928 928 928 930 930 930 930 930
    928 928 0 0 0 0 959 954 943 935 928 923 913 898 891 889 885 878 867
    862 862 860 860 862 862 862 867 869 869 869 869 869 871 871 873 878
    880 880 880 880 880 880 882 885 889 889 889 894 894 896 896 898 898
    901 903 906 906 906 908 908 910 913 913 913 915 918 920 920 923 923
    923 925 928 928 928 928 930 930 930 930 930 930 0 0 0 0 0 962 956
    946 935 930 923 913 898 891 887 882 873 867 862 862 860 860 862 862
    867 869 869 869 871 871 871 871 873 875 878 880 880 882 882 882 885
    887 887 889 891 891 894 896 896 896 898 898 901 903 906 908 908 910
    910 913 913 913 913 915 918 920 920 923 923 923 928 928 928 928 928
    930 930 930 930 930 0 0 0 0 0 0 962 956 946 938 930 923 913 898 891
    887 880 873 867 862 862 862 862 862 862 867 869 871 871 871 871 871
    873 873 875 878 880 880 882 885 885 885 887 887 889 891 891 896 898
    898 898 898 901 903 906 906 908 908 910 910 913 913 915 915 918 920
    920 923 923 923 925 928 928 930 930 930 930 930 930 928 928 0 0 0 0
    0 0 959 956 946 938 930 923 915 898 894 887 880 873 867 864 862 862
    862 864 864 869 869 871 871 871 873 873 875 875 875 878 880 880 882
    885 887 887 887 887 889 891 894 896 898 898 898 898 901 903 906 908
    908 910 910 910 915 915 918 918 920 920 920 923 923 923 928 928 928
    930 930 933 933 933 930 923 920 920 0 0 0 0 962 959 956 946 938 928
    923 915 901 894 887 882 873 867 864 862 862 864 864 867 869 869 871
    871 873 875 875 878 878 878 880 880 882 882 885 887 887 887 887 889
    891 894 898 898 898 898 898 901 903 906 908 908 910 910 910 915 915
    918 918 920 920 920 923 925 925 928 928 930 930 930 933 933 933 930
    923 920 918 918 0 0 0 962 954 954 946 938 928 923 915 903 894 889
    882 878 869 864 864 864 864 867 867 869 871 871 871 873 875 878 878
    878 880 880 882 882 885 885 887 887 887 887 889 894 896 901 901 901
    901 901 903 903 908 908 908 910 910 913 915 918 918 918 920 920 920
    923 925 928 928 928 930 930 930 933 935 935 930 925 923 915 915 0 0
    0 959 954 951 946 938 928 923 915 901 894 889 885 878 869 864 864
    864 867 867 869 869 871 871 873 875 875 878 878 880 880 880 882 885
    885 887 887 887 887 889 889 894 896 901 901 901 901 901 903 903 908
    908 908 910 910 913 915 918 918 918 920 920 920 925 928 928 930 930
    930 930 930 933 935 935 930 925 925 915 915 0 0 0 959 956 951 943
    938 930 923 915 901 896 889 880 875 869 864 864 864 867 867 869 871
    871 873 873 875 878 878 880 880 880 882 885 887 887 887 887 887 887
    889 891 896 896 901 901 901 901 903 906 906 908 908 910 910 910 913
    915 918 918 918 920 920 923 925 928 928 930 930 930 930 930 935 935
    935 933 928 928 0 0 0 0 0 959 956 951 943 938 930 923 915 901 896
    889 880 873 871 867 867 867 869 869 871 871 871 873 873 878 878 880
    880 880 882 882 885 887 887 887 889 889 889 891 894 896 896 901 901
    901 903 906 906 906 908 910 910 910 910 913 915 918 920 920 920 920
    923 928 928 930 930 930 930 930 933 935 935 935 933 933 0 0 0 0 0 0
    962 956 951 946 938 930 923 915 901 896 889 880 873 871 869 869 869
    869 869 871 871 871 873 875 878 878 880 880 882 882 885 887 887 889
    889 889 889 889 894 896 896 898 901 903 903 903 906 906 908 908 910
    910 910 913 915 918 918 920 920 923 923 925 928 928 930 930 930 930
    933 933 938 938 938 935 935 0 0 0 0 0 0 962 956 951 946 938 928 923
    915 898 896 891 880 873 869 869 869 869 869 869 871 871 873 875 875
    878 880 880 882 885 885 887 887 887 889 889 889 889 889 896 896 896
    901 903 903 906 906 906 908 908 908 910 910 913 918 918 920 920 920
    923 925 925 928 928 928 930 930 930 933 935 935 938 938 938 938 938
    0 0 0 0 0 0 964 959 951 946 935 928 923 915 898 896 889 880 873 869
    869 869 869 869 871 871 871 873 875 878 878 880 882 882 885 885 887
    887 889 889 889 889 891 894 896 896 896 901 903 903 906 906 908 908
    910 910 910 910 918 918 918 920 920 923 925 928 928 928 928 928 930
    930 933 933 935 935 938 938 938 935 935 0 0 0 0 0 0 967 962 954 946
    935 928 923 915 898 894 889 880 873 869 869 869 869 869 871 871 873
    875 878 878 880 880 882 885 885 887 887 889 889 891 891 894 894 894
    896 896 898 903 906 906 906 908 908 910 910 910 913 913 918 918 920
    920 920 923 925 928 928 928 930 930 933 933 935 935 935 935 938 938
    938 935 935 0 0 0 0 0 0 967 962 954 946 935 928 923 918 898 891 887
    880 875 871 869 869 869 871 871 873 873 878 878 880 880 882 882 885
    887 887 887 889 889 891 894 894 894 894 896 896 898 903 906 906 906
    908 908 910 910 910 913 913 918 918 920 920 920 923 925 928 928 928
    930 930 933 935 935 938 935 935 938 938 938 935 935 0 0 0 0 0 970
    967 962 954 946 938 928 923 918 898 891 887 880 875 871 871 869 869
    871 873 875 875 878 878 880 880 882 885 885 887 887 889 889 889 891
    896 896 896 896 896 896 898 903 906 906 906 908 908 910 910 913 918
    918 918 920 920 920 923 923 925 928 928 928 930 930 935 935 938 938
    938 938 938 938 938 935 935 0 0 0 0 0 970 964 956 951 946 938 930
    923 918 898 891 887 880 878 873 871 871 871 873 873 875 878 878 880
    880 882 885 885 887 887 887 889 889 889 891 894 896 896 896 896 898
    901 906 906 908 908 908 910 910 913 915 918 918 920 920 920 923 923
    923 928 928 928 930 930 930 935 935 938 938 938 938 938 938 938 938
    938 0 0 0 0 0 0 962 956 951 946 940 930 923 908 898 891 887 880 878
    875 871 871 871 873 875 875 878 878 880 880 882 885 885 887 889 889
    889 889 889 891 894 896 896 898 898 898 901 906 906 908 908 910 910
    913 915 915 918 918 920 920 920 925 925 925 928 928 928 930 930 935
    935 935 938 938 938 940 940 940 938 938 940 0 0 0 0 0 0 962 956 951
    946 940 933 925 908 901 894 887 880 878 873 871 871 873 873 875 875
    878 878 880 880 882 885 885 887 889 889 889 889 891 894 896 896 896
    898 898 901 901 906 906 908 910 910 910 913 915 915 918 920 920 923
    923 925 925 928 928 928 930 930 933 935 938 938 938 938 938 940 940
    940 940 940 943 0 0 0 0 0 0 962 956 951 946 940 933 925 908 901 896
    887 880 873 873 871 871 873 873 878 878 878 880 880 880 882 885 885
    887 889 889 889 891 891 894 896 896 898 898 901 901 903 906 908 908
    910 910 913 913 915 915 918 923 923 923 925 925 925 928 928 928 930
    933 935 938 938 938 938 938 940 940 940 943 943 943 948 0 0 0 0 0 0
    962 959 954 946 938 933 925 908 903 896 887 880 873 873 871 871 873
    878 878 878 878 880 880 882 885 885 887 889 889 889 891 891 894 894
    896 896 898 901 903 903 906 906 908 910 910 913 913 915 915 915 918
    923 923 925 925 925 928 928 928 930 930 933 935 938 938 938 940 940
    940 940 940 943 943 943 0 0 0 0 0 0 0 962 959 954 946 938 930 925
    908 903 896 887 880 873 873 871 871 873 878 878 878 880 880 882 885
    885 887 887 889 889 889 891 894 896 896 898 898 898 903 906 906 906
    906 908 910 910 913 915 915 918 918 920 923 923 925 925 925 928 928
    930 930 933 935 935 938 938 938 940 940 940 940 940 943 943 943 0 0
    0 0 0 0 967 964 962 959 948 938 930 920 910 901 896 889 880 873 873
    871 871 873 878 880 880 880 880 885 885 887 887 887 889 889 889 891
    896 896 896 898 898 898 903 906 906 906 906 908 910 910 913 915 915
    918 918 920 923 925 928 925 925 928 928 930 930 933 938 938 938 938
    940 940 943 943 943 943 943 943 946 0 0 0 0 0 0 967 967 962 959 948
    938 928 918 910 901 896 889 882 878 873 873 873 875 880 880 880 880
    882 885 887 887 889 889 889 891 891 894 896 896 898 898 898 901 903
    906 906 906 906 908 910 913 913 918 918 918 920 920 923 925 928 928
    930 930 930 933 933 938 938 938 940 940 940 943 943 946 943 943 940
    940 940 0 0 0 0 0 0 970 967 964 959 951 940 928 918 908 901 896 891
    882 878 875 875 875 878 880 880 880 880 885 887 887 889 889 889 891
    894 894 896 896 896 898 898 898 901 903 906 906 906 906 908 910 915
    918 918 918 920 920 920 925 928 928 928 930 930 930 933 933 935 938
    938 940 940 943 943 943 946 946 946 940 940 940 0 0 0 0 0 0 973 970
    964 956 951 943 928 915 908 901 896 891 882 878 878 878 878 878 880
    880 880 880 885 887 889 889 889 891 894 894 896 896 898 898 901 901
    901 901 906 906 908 908 908 910 913 915 918 918 920 920 920 920 925
    928 928 930 930 930 933 933 935 935 938 940 940 943 943 943 943 946
    946 946 940 940 940 0 0 0 0 0 0 975 970 962 956 951 943 930 915 908
    901 896 889 882 880 878 878 878 880 880 880 880 882 887 887 889 889
    891 894 894 894 896 896 898 898 901 903 903 906 906 908 908 908 908
    910 915 918 918 918 920 920 920 923 925 928 928 930 930 933 933 933
    935 938 938 940 940 943 943 946 946 948 948 948 946 940 940 0 0 0 0
    0 0 975 970 959 956 951 940 928 915 908 903 896 889 882 880 878 878
    880 880 882 882 882 885 887 889 889 891 891 894 894 894 896 896 898
    898 903 903 906 906 906 908 908 908 908 913 915 918 918 918 920 923
    925 925 928 928 928 930 930 933 933 935 935 938 938 940 940 940 943
    946 946 948 948 948 946 946 948 0 0 0 0 0 0 978 973 959 954 951 940
    928 915 908 906 896 889 882 880 878 878 880 880 882 885 885 887 887
    889 889 894 894 896 894 894 896 896 898 898 903 906 906 906 906 908
    908 908 908 913 918 918 918 918 920 923 925 928 928 928 928 930 930
    933 935 935 938 938 938 940 940 940 943 946 948 948 948 948 946 946
    951 0 0 0 0 0 0 978 973 959 954 948 940 920 915 908 903 898 889 882
    880 878 878 880 880 885 887 887 887 889 889 891 894 894 896 894 894
    896 896 898 901 903 906 906 906 908 908 908 910 910 915 918 918 918
    918 920 925 928 930 930 928 928 930 930 933 935 935 938 938 938 940
    940 940 943 946 946 948 948 948 948 951 951 0 0 0 0 0 0 978 973 962
    951 948 938 920 915 908 903 898 891 882 880 880 880 880 880 885 887
    887 889 889 889 891 894 894 896 896 896 896 898 901 903 906 906 906
    908 908 908 910 913 913 915 918 918 918 920 920 925 930 930 930 930
    930 930 930 933 938 938 938 938 938 940 943 943 946 946 946 948 948
    948 948 948 0 0 0 0 0 0 0 978 973 962 951 948 938 920 915 908 903
    898 891 882 880 880 880 880 882 885 887 889 889 889 889 891 894 894
    896 896 896 898 901 903 906 906 906 906 908 908 910 910 913 913 915
    918 920 920 920 920 925 930 930 930 930 930 930 930 933 938 938 938
    938 940 940 943 943 946 946 948 948 948 946 946 946 0 0 0 0 0 0 0
    978 973 962 951 948 938 923 915 908 903 898 891 885 880 880 880 882
    882 885 887 889 889 891 891 894 894 894 896 898 898 898 901 903 906
    906 906 906 908 910 910 913 913 913 918 920 920 920 923 923 928 928
    930 930 930 930 933 933 935 938 938 938 940 940 943 946 946 946 948
    948 951 948 946 946 946 0 0 0 0 0 0 0 978 973 962 951 946 938 923
    915 908 903 898 889 885 882 882 882 882 885 887 887 889 889 891 891
    894 894 896 896 898 898 901 903 903 903 906 906 906 908 910 913 913
    913 915 918 920 923 923 925 925 928 928 930 930 933 933 935 935 938
    938 938 938 940 940 943 946 946 946 948 951 951 948 946 946 946 0 0
    0 0 0 2256 2256 978 973 962 954 946 938 925 915 908 906 898 889 885
    882 882 882 885 885 887 887 889 891 891 891 894 894 896 898 898 901
    901 903 903 903 906 906 908 910 913 913 913 915 915 920 923 923 923
    925 928 928 928 930 933 933 935 935 935 938 938 938 940 940 943 943
    948 948 948 948 948 951 951 946 946 946 0 0 0 0 0 2256 2256 973 970
    962 954 946 930 925 915 908 903 896 887 885 885 885 885 885 887 887
    889 889 891 894 894 894 896 898 898 898 901 901 903 903 903 906 908
    908 910 913 913 915 915 918 920 923 923 925 925 928 928 930 930 933
    933 935 935 938 938 940 940 940 943 943 948 948 948 948 948 948 951
    951 948 948 948 0 0 0 0 2241 2241 2241 970 967 964 954 940 930 920
    915 908 903 894 887 885 885 885 885 887 887 887 889 891 894 894 894
    896 896 898 898 898 901 903 903 906 906 906 908 910 913 915 915 915
    915 918 920 923 925 925 928 928 930 930 930 933 933 935 935 938 940
    940 940 943 943 946 948 948 948 948 948 948 951 951 951 948 948 0 0
    0 0 2212 2212 2212 970 967 964 956 940 928 920 913 908 906 894 889
    887 885 885 887 887 887 889 889 894 894 894 894 896 896 898 901 903
    903 903 906 906 906 908 908 910 913 915 915 915 915 918 923 925 925
    928 928 928 930 930 930 933 933 935 935 938 940 940 943 943 946 946
    948 948 948 948 948 951 951 951 951 951 0 0 0 0 0 2212 2198 2198 970
    967 962 954 940 928 920 913 908 906 894 889 887 887 887 887 887 887
    889 891 894 896 896 896 896 898 898 901 903 906 906 906 906 908 908
    908 910 913 915 915 915 915 918 925 925 928 928 928 930 930 933 933
    933 933 935 935 940 940 940 943 946 946 946 948 948 948 951 951 951
    954 954 954 959 0 0 0 0 0 2184 2184 2184 973 967 959 954 943 925 920
    915 910 903 894 889 887 887 887 887 887 889 889 891 894 896 896 896
    896 898 898 901 903 906 906 906 906 908 908 908 910 913 915 915 915
    918 918 925 925 928 928 928 930 933 933 933 935 935 938 938 940 940
    940 943 946 946 948 948 948 948 951 954 954 956 956 956 959 0 0 0 0
    2198 2184 2184 2184 970 967 959 951 946 925 920 915 910 901 894 889
    887 887 887 887 889 889 889 891 896 896 896 898 898 898 898 901 903
    906 908 908 908 908 908 910 913 915 915 915 915 918 918 925 925 925
    925 928 930 933 933 935 935 935 938 938 940 940 943 946 946 946 948
    948 948 948 951 956 956 956 956 956 959 0 0 0 2143 2143 2143 2143
    2198 970 967 959 951 946 925 918 915 908 901 894 889 889 887 887 889
    889 889 889 891 896 896 896 898 898 898 898 901 903 906 908 908 908
    908 910 910 913 915 915 915 918 918 925 925 925 925 925 928 930 933
    935 938 938 938 940 940 940 940 940 943 946 948 948 948 948 948 951
    956 956 959 954 954 0 0 0 0 2143 2129 2129 2129 2170 970 964 959 951
    946 925 918 915 908 898 894 889 889 887 887 889 889 889 889 894 896
    898 898 898 898 898 901 901 903 906 908 908 910 910 913 913 913 915
    918 918 918 918 920 923 925 925 925 928 930 933 938 938 938 938 940
    940 940 940 940 943 946 948 951 948 948 948 951 956 956 956 954 954
    0 0 0 2129 2129 2129 2129 2129 2143 0 964 959 954 946 925 918 915
    908 898 894 889 889 889 889 889 889 891 891 896 896 898 898 898 901
    903 903 906 906 906 908 908 910 910 913 913 915 915 918 918 918 918
    920 923 925 928 928 928 930 933 938 938 938 938 940 940 940 940 943
    943 946 948 951 951 951 951 954 959 959 956 956 956 956 0 2090 2090
    2090 2116 2116 2116 2129 0 967 959 951 943 928 920 915 908 898 894
    889 889 889 889 889 891 891 894 896 896 898 898 898 903 903 906 906
    906 908 908 910 913 913 913 915 915 918 918 920 920 920 923 925 928
    928 928 930 933 935 938 938 938 940 940 940 943 943 943 946 948 951
    951 951 951 956 959 962 959 959 959 959 964 0 2090 2090 2090 2090
    2116 2116 2129 0 0 959 951 943 928 920 915 908 898 894 891 891 891
    891 891 894 894 894 896 898 898 898 898 903 903 906 908 908 908 910
    910 913 913 913 915 918 918 920 920 923 923 925 925 928 930 930 933
    935 938 938 938 938 940 940 943 946 946 946 948 951 951 951 951 954
    959 959 962 959 959 959 964 0 0 0 2078 2065 2065 2129 2129 2103 0 0
    0 943 938 928 918 913 906 898 896 891 891 894 894 894 896 896 896
    896 898 898 898 898 903 903 906 908 908 908 910 910 913 915 915 915
    918 918 923 923 923 923 925 928 928 930 933 935 938 938 938 938 940
    940 943 946 946 948 948 948 951 951 951 951 954 959 959 959 959 959
    962 964 964 2065 2065 2065 2053 2053 2065 2065 2065 0 0 0 943 933
    925 918 913 906 898 896 894 894 894 894 896 896 896 896 896 898 898
    898 901 903 906 906 908 908 910 913 913 913 915 915 915 918 918 923
    923 925 925 930 930 930 930 933 938 938 938 938 938 940 940 943 946
    946 948 948 951 951 951 951 954 954 956 956 956 956 956 959 973 973
    2065 2065 2065 2053 2053 2053 2053 2053 0 0 0 928 928 920 915 913
    906 898 896 894 894 894 894 896 896 896 896 896 898 898 901 903 903
    906 906 908 910 910 913 915 915 915 918 918 918 920 923 925 925 928
    930 930 933 933 935 935 935 938 938 938 940 940 943 943 943 946 948
    948 951 951 954 954 956 956 956 956 954 954 959 959 959 2065 2065
    2053 2053 2053 2053 2040 2040 0 0 0 928 928 920 915 913 906 898 896
    894 894 894 894 896 896 896 896 896 898 898 901 903 906 906 908 910
    910 913 915 915 915 918 918 918 920 923 925 925 925 928 930 933 933
    933 935 935 935 938 938 938 940 940 943 943 943 946 946 946 951 954
    954 956 956 956 956 954 954 954 954 2040 2040 2040 2053 2053 2053
    2053 2053 2040 2040 0 0 0 0 928 918 915 910 906 898 896 894 894 894
    894 896 896 896 896 898 898 901 903 906 906 908 908 910 910 913 915
    915 918 918 918 920 923 923 925 925 925 928 930 933 935 935 938 935
    935 933 933 933 943 943 946 943 943 943 943 946 951 954 956 956 959
    956 956 954 954 954 2040 2040 2040 2040 2053 2090 2053 2053 2053
    2028 2028 0 0 0 0 0 918 918 908 903 901 896 894 894 894 894 896 896
    896 896 898 901 903 903 906 906 908 908 910 910 913 915 915 918 918
    918 918 920 920 923 920 920 928 933 933 935 935 940 938 935 930 930
    933 943 943 946 946 1970 943 943 943 2005 2005 1981 1981 1981 1993
    1993 2016 2016 2028 2028 2028 2028 2028 2028 2028 2028 2028 2028
    2028 2028 0 0 0 0 0 0 0 908 901 901 896 896 896 894 894 896 896 896
    898 898 901 906 906 906 906 908 908 910 910 913 915 918 918 918 918
    918 920 920 923 920 920 0 933 933 935 935 940 938 938 930 930 930
    1970 1970 1970 1970 1970 1970 1981 1981 1981 1970 1970 1970 1981
    1993 1993 1993 1993 1993 1993 1993 1993 2005 2016 2016 2016 0 2028
    2028 2028 0 0 0 0 0 0 0 908 901 901 896 896 896 896 896 898 898 898
    898 901 903 906 906 906 906 906 908 910 913 915 918 918 918 0 918
    918 0 0 0 0 0 0 0 0 0 0 0 0 0 0 0 1947 1947 1947 1959 1959 1981 1981
    1981 1981 1981 1970 1970 1970 1981 1981 1981 1993 1993 1993 1981
    1981 1981 1993 2005 2016 2016 1993 2028 2028 2028 0 0 0 0 0 0 0 0
    896 896 898 896 896 896 896 898 898 898 898 901 903 906 903 901 901
    906 908 910 915 918 923 943 0 0 0 0 0 0 0 0 0 0 0 0 0 0 0 0 0 0 0
    1947 1947 1947 1959 1959 1981 1970 1970 1981 1981 1970 1959 1959
    1970 1970 1981 1981 1981 1970 1970 1981 1981 1993 1993 2005 1993
    1993 0 0 0 0 0 0 0 0 0 0 0 896 896 898 896 896 898 898 898 898 898
    898 901 903 906 903 901 901 0 0 940 940 943 943 943 0 0 0 0 0 0 0 0
    0 0 0 0 0 0 0 0 0 0 0 0 0 0 0 0 0 1936 1936 1970 1970 1959 1959 1959
    1959 1959 1970 1970 1970 1970 1970 1981 1981 1981 1993 2005 1970
    1970 0 0 0</data></Depth16123>
</opencv_storage>
