<?xml version="1.0"?>
<opencv_storage>
<Depth7705 type_id="opencv-matrix">
  <rows>50</rows>
  <cols>44</cols>
  <dt>w</dt>
  <data>
    3333 3269 3269 3269 3269 3300 3300 3333 4190 4139 4139 4139 4139
    4041 4041 4041 3994 3994 3994 3994 3994 3994 3994 3994 3994 3948
    3948 3948 1766 1766 1757 1748 1739 1731 1731 1739 1748 1748 1748
    1739 3859 3859 3859 3859 3333 3269 3269 3269 3269 1722 1722 4190
    4190 4190 4139 4089 3994 1748 1748 1748 1748 1748 3994 3994 4041
    4041 4041 1705 1705 1713 1722 1731 1748 1748 1757 1748 1739 1731
    1731 1731 1739 1739 1739 1739 3903 3903 3859 3859 3333 3300 3269
    3269 1722 1722 1722 1722 1731 1748 1748 1748 1739 1739 1731 1731
    1731 1731 1722 1713 1705 1705 1696 1696 1705 1705 1713 1713 1748
    1748 1757 1748 1731 1722 1722 1722 1731 1739 1739 1739 1739 3903
    3859 3859 1696 1696 1722 1722 1705 1705 1705 1705 1705 1722 1722
    1705 1705 1722 1722 1722 1722 1722 1722 1705 1696 1696 1696 1688
    1688 1696 1696 1671 1663 1663 1671 1671 1671 1680 1680 1671 1671
    1739 1731 1731 1731 3903 3903 3859 1696 1696 1696 1705 1705 1696
    1696 1696 1696 1696 1696 1688 1688 1688 1696 1705 1705 1696 1696
    1696 1688 1688 1688 1680 1680 1680 1680 1663 1663 1663 1671 1671
    1671 1671 1671 1663 1663 1680 1713 1731 1731 3948 3903 3859 1696
    1696 1696 1705 1696 1696 1696 1696 1696 1696 1696 1688 1688 1688
    1680 1680 1688 1680 1680 1680 1680 1671 1671 1671 1671 1680 1671
    1663 1663 1663 1671 1671 1671 1671 1663 1663 1663 1671 1705 1705
    3948 3948 3903 3859 1705 1705 1705 1705 1696 1696 1696 1696 1696
    1696 1696 1688 1688 1688 1680 1680 1688 1680 1680 1680 1671 1671
    1671 1671 1671 1671 1671 1663 1663 1663 1671 1671 1671 1663 1663
    1663 1671 1671 1696 1713 1713 3948 3859 3859 1705 1705 1705 1705
    1696 1696 1696 1696 1696 1696 1696 1688 1688 1688 1688 1688 1680
    1680 1680 1671 1671 1663 1663 1663 1671 1663 1663 1663 1663 1663
    1663 1663 1663 1663 1663 1663 1671 1680 1696 1713 1713 3816 3816
    3816 1705 1705 1705 1705 1705 1696 1696 1696 1696 1696 1696 1688
    1688 1688 1688 1688 1680 1680 1671 1671 1671 1663 1663 1663 1663
    1663 1663 1663 1663 1663 1663 1663 1663 1663 1663 1663 1671 1671
    1696 1713 1713 3816 3816 3816 1713 1713 1705 1705 1705 1696 1696
    1696 1696 1696 1688 1688 1688 1688 1688 1688 1680 1680 1671 1671
    1671 1671 1671 1671 1663 1663 1663 1663 1663 1663 1663 1663 1663
    1663 1663 1663 1663 1671 1680 1722 1722 3816 3816 3816 1713 1713
    1705 1705 1705 1696 1696 1696 1696 1696 1688 1688 1688 1688 1688
    1688 1680 1680 1680 1680 1671 1671 1671 1671 1671 1663 1663 1663
    1663 1663 1663 1663 1671 1663 1663 1663 1663 1671 1680 1722 1722
    3816 3816 3816 1713 1713 1705 1705 1696 1696 1696 1688 1688 1688
    1688 1688 1688 1688 1688 1688 1680 1680 1680 1671 1671 1671 1671
    1671 1671 1663 1663 1663 1663 1663 1671 1671 1671 1663 1663 1663
    1663 1671 1680 1713 1713 3859 3859 3816 1696 1696 1696 1696 1696
    1696 1696 1688 1688 1688 1688 1688 1688 1688 1688 1688 1680 1680
    1680 1671 1671 1663 1663 1663 1671 1663 1663 1663 1663 1663 1671
    1663 1663 1663 1663 1663 1663 1671 1688 1713 1713 3859 3859 3859
    1688 1696 1696 1696 1696 1696 1688 1688 1688 1688 1688 1688 1688
    1680 1680 1680 1680 1680 1671 1671 1671 1663 1663 1663 1663 1663
    1663 1663 1663 1663 1671 1663 1663 1663 1663 1663 1663 1671 1680
    1713 1739 1739 3859 3816 1688 1696 1696 1696 1696 1696 1688 1688
    1688 1688 1688 1688 1688 1680 1680 1680 1680 1680 1671 1671 1663
    1663 1663 1663 1663 1663 1663 1663 1663 1663 1671 1663 1663 1663
    1663 1663 1663 1671 1680 1705 1739 1739 3816 3816 1688 1696 1696
    1696 1696 1696 1696 1688 1688 1688 1688 1688 1688 1680 1680 1680
    1680 1671 1671 1671 1663 1663 1663 1663 1663 1663 1663 1663 1663
    1663 1663 1663 1663 1663 1663 1663 1663 1671 1680 1680 1680 3816
    3816 3816 1696 1696 1696 1696 1696 1696 1696 1688 1688 1688 1688
    1688 1688 1680 1680 1680 1680 1671 1671 1671 1663 1663 1663 1663
    1663 1663 1663 1663 1663 1663 1663 1663 1663 1663 1663 1663 1663
    1671 1671 1680 1705 1705 3859 3859 1696 1696 1696 1696 1696 1696
    1696 1688 1688 1688 1688 1688 1688 1680 1680 1688 1680 1671 1671
    1663 1663 1663 1663 1663 1663 1663 1663 1663 1663 1663 1663 1663
    1663 1663 1663 1663 1663 1663 1671 1680 1705 1705 3859 3859 1705
    1696 1696 1696 1696 1696 1696 1688 1688 1688 1688 1688 1688 1680
    1680 1680 1680 1671 1671 1663 1663 1663 1663 1663 1663 1663 1663
    1663 1663 1663 1663 1663 1663 1663 1663 1663 1663 1663 1671 1688
    1713 1713 3859 3859 1705 1705 1696 1696 1696 1696 1696 1688 1688
    1688 1688 1688 1680 1680 1680 1680 1680 1671 1671 1671 1663 1663
    1663 1663 1663 1663 1663 1663 1663 1663 1671 1671 1663 1663 1663
    1663 1663 1663 1671 1688 1713 1713 3859 3859 1705 1705 1696 1696
    1696 1696 1688 1688 1688 1688 1688 1680 1680 1680 1680 1671 1671
    1671 1671 1671 1663 1663 1663 1663 1663 1663 1663 1663 1663 1663
    1671 1671 1663 1663 1663 1663 1663 1663 1671 1696 1722 1722 3859
    3859 1696 1696 1696 1696 1696 1688 1688 1688 1688 1688 1688 1680
    1680 1680 1680 1671 1671 1671 1671 1671 1663 1663 1663 1663 1663
    1663 1663 1663 1663 1663 1671 1671 1671 1663 1663 1663 1663 1663
    1671 1680 1705 1705 3859 3859 1696 1696 1696 1696 1696 1688 1688
    1688 1688 1688 1688 1680 1680 1671 1671 1671 1671 1671 1671 1671
    1671 1663 1663 1663 1663 1663 1663 1663 1663 1663 1671 1671 1671
    1663 1663 1663 1663 1663 1671 1680 1705 1705 3859 3859 1696 1696
    1696 1696 1696 1688 1688 1688 1688 1688 1680 1680 1680 1671 1671
    1671 1671 1671 1671 1671 1671 1663 1663 1663 1663 1663 1663 1663
    1663 1663 1671 1663 1663 1663 1663 1663 1663 1663 1671 1680 1696
    1696 3859 3859 1696 1696 1696 1696 1696 1688 1688 1688 1688 1688
    1680 1680 1680 1671 1671 1671 1671 1671 1671 1671 1663 1663 1663
    1663 1663 1663 1663 1663 1663 1663 1671 1663 1663 1663 1663 1663
    1663 1663 1663 1680 1696 1696 1696 3859 1696 1696 1696 1696 1696
    1688 1688 1688 1688 1688 1680 1680 1680 1680 1680 1671 1671 1671
    1671 1671 1663 1663 1663 1663 1663 1663 1663 1663 1663 1663 1671
    1663 1663 1663 1663 1663 1663 1663 1663 1680 1688 1688 1688 3859
    1696 1696 1696 1696 1696 1688 1688 1688 1688 1688 1688 1680 1680
    1680 1680 1680 1671 1671 1671 1671 1663 1663 1663 1663 1663 1663
    1663 1663 1663 1663 1663 1663 1663 1663 1663 1663 1663 1663 1663
    1680 1688 1688 1688 3859 1696 1696 1696 1696 1696 1688 1688 1688
    1688 1688 1688 1680 1680 1680 1680 1680 1680 1671 1671 1671 1671
    1671 1663 1663 1663 1663 1663 1663 1655 1655 1663 1663 1663 1663
    1663 1663 1663 1663 1663 1671 1680 1696 1696 3859 1705 1705 1696
    1696 1696 1696 1696 1688 1688 1688 1688 1680 1680 1680 1680 1680
    1671 1671 1671 1671 1671 1671 1671 1663 1663 1663 1663 1663 1655
    1655 1663 1663 1663 1655 1655 1655 1663 1663 1663 1671 1680 1696
    3859 3859 1688 1688 1688 1688 1688 1688 1688 1688 1688 1688 1688
    1688 1680 1680 1680 1680 1671 1671 1671 1680 1680 1671 1671 1663
    1663 1663 1663 1663 1655 1655 1663 1663 1655 1655 1647 1647 1647
    1655 1663 1671 1680 1680 3859 3859 1688 1688 1688 1688 1688 1688
    1688 1688 1688 1688 1688 1688 1680 1680 1680 1680 1671 1671 1671
    1680 1671 1671 1663 1663 1663 1663 1663 1663 1655 1655 1663 1663
    1655 1647 1647 1647 1639 1639 1655 1671 1688 1688 3903 3859 1688
    1688 1688 1688 1688 1688 1688 1688 1688 1688 1688 1688 1680 1680
    1680 1680 1671 1671 1671 1671 1671 1671 1663 1663 1663 1663 1663
    1655 1655 1655 1663 1663 1655 1647 1647 1647 1639 1639 1655 1663
    1680 1680 3948 3859 1696 1688 1688 1688 1688 1688 1688 1688 1680
    1680 1680 1680 1680 1680 1680 1680 1680 1680 1680 1671 1671 1663
    1663 1663 1663 1655 1655 1655 1655 1655 1655 1655 1655 1647 1647
    1647 1639 1639 1647 1655 1680 1705 3948 3859 1696 1696 1696 1688
    1688 1688 1688 1680 1680 1680 1680 1671 1671 1671 1680 1680 1680
    1680 1680 1671 1663 1663 1663 1663 1663 1655 1655 1655 1655 1655
    1655 1655 1655 1647 1647 1647 1639 1639 1647 1655 1671 1696 1696
    3859 1696 1696 1696 1688 1688 1688 1688 1680 1680 1671 1671 1671
    1671 1671 1680 1680 1680 1680 1680 1671 1663 1663 1663 1663 1663
    1655 1655 1655 1655 1655 1655 1655 1655 1647 1647 1647 1647 1647
    1647 1663 1671 1688 1688 3859 1696 1696 1696 1688 1688 1688 1688
    1680 1680 1671 1671 1671 1671 1671 1671 1671 1680 1671 1671 1663
    1663 1663 1663 1663 1663 1655 1655 1655 1655 1655 1655 1655 1655
    1647 1647 1647 1647 1647 1647 1663 1671 1688 1696 3903 1696 1696
    1696 1688 1688 1688 1688 1688 1680 1680 1671 1671 1671 1671 1671
    1671 1671 1663 1663 1663 1663 1663 1663 1663 1663 1655 1655 1655
    1655 1655 1655 1655 1655 1655 1655 1655 1647 1647 1647 1663 1671
    1680 1688 1688 1696 1696 1696 1696 1688 1688 1688 1688 1680 1680
    1671 1671 1671 1671 1663 1663 1663 1663 1663 1663 1663 1663 1663
    1663 1663 1655 1655 1655 1655 1655 1655 1655 1663 1655 1655 1655
    1647 1647 1655 1663 1671 1671 1688 3948 3333 1696 1696 1696 1688
    1688 1688 1688 1688 1680 1680 1671 1663 1663 1663 1663 1663 1663
    1663 1663 1663 1663 1655 1655 1655 1655 1655 1647 1647 1655 1655
    1655 1663 1663 1663 1655 1647 1647 1655 1655 1671 1671 1688 3948
    3333 1696 1696 1688 1688 1688 1688 1688 1688 1680 1680 1671 1663
    1663 1663 1663 1663 1663 1663 1663 1663 1663 1655 1655 1655 1655
    1655 1647 1647 1655 1655 1655 1655 1655 1655 1655 1647 1647 1647
    1655 1663 1671 1680 1680 3300 1688 1688 1688 1688 1688 1688 1688
    1688 1680 1680 1671 1671 1663 1663 1663 1663 1663 1663 1663 1663
    1663 1655 1655 1647 1647 1647 1647 1647 1655 1655 1655 1655 1655
    1655 1655 1655 1647 1647 1655 1663 1671 1680 1680 3300 1688 1688
    1688 1680 1680 1680 1680 1680 1688 1680 1671 1671 1663 1663 1663
    1663 1663 1663 1663 1663 1663 1655 1655 1647 1647 1647 1647 1647
    1655 1655 1655 1655 1655 1655 1655 1655 1647 1647 1655 1663 1680
    1688 1722 1688 1688 1688 1688 1680 1680 1680 1680 1680 1680 1680
    1671 1671 1671 1671 1671 1671 1671 1663 1663 1663 1663 1663 1655
    1655 1655 1647 1647 1647 1655 1655 1655 1655 1655 1655 1655 1655
    1647 1647 1655 1663 1680 1688 1722 3238 1688 1688 1688 1688 1680
    1680 1671 1671 1680 1680 1680 1671 1671 1680 1671 1671 1663 1663
    1663 1663 1655 1655 1655 1655 1647 1647 1647 1647 1655 1655 1655
    1655 1655 1655 1655 1655 1647 1647 1647 1655 1671 1680 1680 3238
    1696 1696 1688 1688 1680 1680 1671 1671 1671 1671 1671 1671 1671
    1680 1671 1671 1663 1663 1663 1663 1655 1655 1655 1655 1647 1647
    1647 1647 1655 1655 1655 1655 1655 1663 1655 1655 1647 1647 1647
    1655 1671 1680 1680 3238 1688 1688 1688 1688 1688 1680 1671 1671
    1671 1671 1671 1671 1671 1671 1671 1671 1671 1663 1663 1663 1663
    1655 1655 1655 1655 1655 1647 1647 1655 1655 1655 1655 1655 1655
    1655 1655 1647 1647 1647 1655 1671 1680 1680 3238 1671 1671 1671
    1680 1680 1680 1671 1671 1671 1671 1671 1671 1671 1671 1671 1663
    1663 1671 1663 1663 1663 1655 1655 1655 1655 1647 1647 1647 1655
    1655 1655 1655 1655 1655 1655 1655 1647 1647 1647 1647 1663 1680
    1696 3238 3238 1671 1671 1680 1680 1688 1680 1680 1671 1671 1663
    1663 1663 1663 1663 1663 1663 1663 1663 1663 1663 1655 1655 1655
    1655 1647 1647 1647 1647 1647 1655 1655 1655 1655 1655 1655 1647
    1647 1647 1647 1663 1688 1696 3238 3238 1671 1671 1680 1688 1688
    1680 1680 1671 1671 1663 1663 1663 1663 1663 1663 1663 1663 1663
    1663 1663 1655 1655 1655 1655 1647 1647 1647 1647 1647 1655 1655
    1655 1655 1655 1647 1647 1639 1639 1647 1663 1688 1705 3208 0 1680
    1680 1688 1688 1688 1680 1680 1671 1671 1663 1663 1663 1663 1663
    1663 1663 1663 1663 1655 1655 1655 1655 1655 1655 1655 1655 1655
    1655 1655 1655 1655 1655 1655 1655 1647 1647 1639 1639 1647 1655
    1680 1696</data></Depth7705>
</opencv_storage>
