<?xml version="1.0"?>
<opencv_storage>
<Depth5457 type_id="opencv-matrix">
  <rows>85</rows>
  <cols>55</cols>
  <dt>w</dt>
  <data>
    2744 2767 2789 2789 2789 2789 4041 4089 4089 4089 4139 4139 4139
    4139 4139 1268 1268 4190 4241 4295 4295 1268 1268 1268 1268 1268
    1273 1273 1273 1288 4522 4522 4522 4463 4463 4405 4405 4405 4463
    4463 4582 4522 4522 4582 4582 4582 4645 4645 4708 4774 4774 4774
    4774 4774 4774 2744 2767 2789 2789 2789 2789 4089 4089 4089 4089
    4139 4139 4139 4139 1278 1268 1268 1273 1268 1268 1268 1268 1264
    1264 1264 1264 1268 1268 1283 1288 1288 4582 4582 4463 4405 4405
    4405 4405 4463 4463 4522 4582 4582 4582 4582 4582 4645 4645 4708
    4774 4774 4774 4708 4708 4708 2744 2767 2789 2789 2789 2789 4089
    4089 4089 4089 4139 4139 4139 4139 1278 1278 1273 1273 1268 1268
    1264 1264 1259 1259 1259 1259 1259 1268 1278 1283 1283 1283 4463
    4463 4405 4405 4405 4405 4463 4522 4522 4582 4582 4645 4645 4645
    4645 4645 4708 4774 4774 4708 4708 4708 4708 2767 2767 2767 2789
    2767 2767 4139 4139 1288 1288 1288 1288 1283 1278 1278 1278 1278
    1278 1268 1268 1264 1264 1259 1259 1255 1255 1259 1264 1278 1278
    1278 1278 1278 4463 4463 4295 4295 4463 4522 4522 4522 4582 4582
    4645 4645 4645 4645 4645 4645 4708 4708 4708 4708 4708 4708 2767
    2767 2767 2767 2767 2767 2767 1292 1288 1288 1283 1283 1283 1278
    1278 1278 1278 1273 1268 1268 1264 1264 1255 1255 1255 1255 1259
    1259 1278 1278 1278 1278 1288 1288 4295 4295 4295 4463 4463 4463
    4522 4522 4582 4582 4645 4645 4645 4645 4645 4645 4645 4645 4708
    4708 4708 2767 2767 2767 2767 2789 2789 1292 1292 1288 1288 1283
    1283 1283 1278 1278 1278 1273 1268 1268 1264 1264 1264 1255 1255
    1255 1255 1255 1259 1278 1283 1283 1283 1288 1302 1302 1302 4463
    4463 4463 1387 1387 4522 4582 4582 4645 4645 4645 4645 4645 4645
    4645 4645 4708 4708 4708 2767 2767 2767 2789 2789 2789 2789 1288
    1288 1283 1283 1278 1278 1278 1273 1273 1273 1268 1264 1264 1264
    1259 1259 1255 1255 1255 1255 1259 1273 1283 1283 1288 1292 1302
    1302 1317 1328 1338 1343 1370 1370 1370 1370 4645 4645 4645 4645
    4645 4645 4645 4645 4645 4708 4708 4708 2767 2789 2789 2789 2812
    2812 1292 1283 1283 1283 1278 1278 1278 1278 1273 1268 1268 1264
    1264 1264 1259 1259 1255 1255 1255 1255 1255 1259 1273 1283 1283
    1288 1297 1302 1302 1317 1328 1338 1343 1359 1359 1365 1365 4708
    4708 4645 4645 4645 4645 4645 4645 4645 4708 4708 4708 2767 2789
    2789 2789 2789 2789 0 1292 1283 1278 1278 1278 1273 1273 1268 1268
    1268 1264 1264 1259 1255 1255 1255 1255 1255 1255 1255 1259 1273
    1283 1283 1288 1297 1302 1302 1312 1322 1338 1349 1359 1359 1365
    1365 4708 4708 4645 4582 4582 4582 4645 4645 4708 4708 4708 4708
    2767 2767 2767 2789 0 0 0 1292 1283 1278 1278 1273 1273 1268 1268
    1264 1264 1264 1264 1259 1255 1255 1250 1250 1250 1250 1255 1259
    1268 1278 1278 1288 1297 1302 1302 1312 1322 1333 1349 1354 1359
    1359 1359 1359 4645 4645 4582 4582 4582 4645 4645 4645 4645 4645
    4708 2744 2767 2767 0 0 0 0 1283 1283 1278 1273 1273 1268 1264 1264
    1264 1264 1264 1264 1259 1259 1250 1250 1250 1250 1250 1255 1259
    1268 1273 1278 1288 1297 1297 1307 1307 1328 1333 1349 1354 1359
    1359 1359 1376 1387 1404 1410 4582 4582 4645 4645 4645 4645 4645
    4708 2744 2767 0 0 0 0 0 1278 1278 1273 1268 1268 1264 1264 1264
    1264 1264 1259 1259 1259 1250 1250 1250 1245 1245 1250 1250 1259
    1268 1268 1273 1283 1297 1297 1307 1307 1322 1343 1349 1354 1359
    1359 1370 1376 1387 1392 1410 1410 1415 1415 4645 4645 4645 4645
    4708 2789 0 0 0 0 0 0 1278 1278 1273 1268 1268 1259 1259 1264 1259
    1259 1259 1255 1250 1250 1250 1245 1245 1245 1250 1250 1259 1268
    1268 1273 1283 1297 1297 1302 1307 1322 1338 1349 1354 1359 1359
    1370 1376 1387 1392 1410 1410 1415 1439 1445 1445 4708 4708 4708
    2789 0 0 0 0 0 0 1273 1273 1273 1273 1268 1259 1259 1259 1259 1259
    1259 1255 1250 1250 1245 1245 1245 1245 1250 1250 1259 1268 1268
    1273 1283 1297 1297 1302 1307 1317 1338 1349 1349 1359 1359 1365
    1376 1387 1392 1410 1415 1421 1439 1445 1452 1452 1452 4708 0 0 0 0
    0 0 0 1268 1268 1268 1268 1264 1259 1259 1255 1255 1255 1255 1250
    1245 1245 1241 1241 1245 1245 1250 1250 1255 1264 1268 1273 1283
    1302 1302 1307 1307 1317 1333 1343 1349 1359 1359 1365 1376 1392
    1392 1404 1415 1421 1433 1439 1445 1452 1452 1464 0 0 0 0 0 0 1250
    1250 1264 1264 1264 1264 1259 1259 1255 1255 1255 1250 1250 1241
    1241 1241 1236 1236 1241 1241 1245 1250 1259 1268 1273 1283 1297
    1297 1302 1307 1317 1333 1343 1349 1359 1359 1365 1376 1392 1398
    1404 1410 1421 1427 1439 1445 1452 1464 1464 0 0 0 0 0 0 1250 1250
    1264 1264 1264 1259 1259 1259 1255 1255 1255 1250 1245 1241 1241
    1236 1236 1236 1236 1241 1245 1250 1259 1268 1268 1283 1292 1297
    1302 1307 1322 1333 1343 1349 1354 1354 1365 1376 1392 1398 1404
    1410 1421 1421 1439 1445 1452 1464 1464 0 0 0 0 0 0 1264 1264 1264
    1264 1264 1259 1255 1255 1255 1250 1250 1250 1245 1245 1241 1236
    1232 1232 1232 1236 1245 1250 1259 1264 1268 1283 1292 1297 1302
    1307 1322 1333 1343 1349 1354 1354 1359 1370 1392 1392 1404 1410
    1421 1421 1439 1445 1458 1458 1458 0 0 0 0 0 0 1268 1264 1264 1264
    1259 1259 1255 1255 1250 1250 1250 1245 1245 1241 1236 1236 1232
    1232 1232 1236 1250 1250 1259 1264 1268 1283 1288 1297 1297 1307
    1322 1328 1343 1349 1354 1354 1359 1370 1387 1392 1398 1410 1415
    1421 1433 1439 1452 1458 1458 2883 0 0 0 0 0 1268 1264 1264 1264
    1259 1255 1250 1250 1250 1245 1245 1245 1241 1241 1236 1232 1232
    1232 1232 1236 1245 1245 1259 1264 1268 1283 1288 1292 1297 1307
    1322 1328 1338 1349 1349 1354 1359 1370 1387 1392 1398 1410 1415
    1421 1433 1439 1439 1439 1439 2883 0 0 0 0 1278 1268 1264 1264 1264
    1259 1255 1245 1245 1250 1245 1245 1245 1241 1241 1232 1232 1232
    1232 1232 1236 1245 1245 1255 1264 1268 1283 1288 1292 1302 1307
    1322 1328 1338 1343 1349 1354 1359 1370 1387 1392 1398 1410 1415
    1421 1433 1439 1439 1439 1439 2883 0 0 0 0 1273 1264 1264 1264 1259
    1255 1250 1245 1245 1250 1245 1245 1245 1241 1236 1232 1227 1227
    1232 1232 1236 1245 1245 1250 1264 1268 1283 1288 1292 1297 1307
    1317 1328 1333 1343 1349 1349 1354 1370 1387 1392 1392 1410 1415
    1421 1433 1439 1433 1433 1433 2859 0 0 0 0 1273 1264 1264 1264 1259
    1255 1250 1245 1245 1245 1245 1245 1245 1241 1236 1232 1227 1227
    1232 1232 1236 1245 1245 1250 1259 1273 1283 1288 1292 1297 1302
    1312 1322 1333 1343 1349 1349 1354 1365 1381 1387 1392 1404 1415
    1415 1427 1433 1433 1433 1433 2859 0 0 0 0 1264 1264 1264 1259 1259
    1255 1250 1245 1245 1245 1245 1241 1241 1241 1232 1232 1227 1227
    1232 1232 1236 1245 1245 1250 1259 1268 1278 1288 1292 1297 1302
    1307 1317 1333 1338 1349 1354 1359 1365 1376 1387 1392 1404 1410
    1415 1427 1427 1421 1421 1421 2835 0 0 0 0 1264 1264 1264 1259 1259
    1250 1245 1245 1245 1245 1245 1241 1241 1232 1232 1232 1227 1227
    1227 1232 1241 1245 1245 1250 1255 1268 1278 1283 1288 1297 1302
    1307 1317 1328 1338 1343 1349 1359 1365 1376 1381 1392 1398 1410
    1415 1421 1427 1415 1415 1415 2789 0 0 0 0 1264 1264 1264 1259 1259
    1250 1245 1245 1245 1245 1241 1236 1236 1232 1227 1227 1227 1227
    1227 1232 1236 1245 1245 1250 1255 1268 1273 1283 1288 1297 1302
    1307 1317 1328 1338 1343 1349 1359 1370 1370 1381 1392 1398 1410
    1415 1415 1427 1415 1415 1415 2789 0 0 0 0 1264 1264 1264 1259 1250
    1245 1245 1241 1241 1245 1241 1236 1232 1232 1227 1227 1227 1227
    1227 1227 1236 1241 1245 1250 1255 1268 1273 1283 1288 1292 1302
    1307 1317 1328 1333 1343 1349 1365 1370 1370 1376 1392 1398 1404
    1415 1415 1427 1427 1427 1427 2744 0 0 0 0 1264 1259 1259 1255 1245
    1245 1245 1241 1241 1241 1241 1232 1232 1227 1227 1227 1227 1227
    1227 1227 1236 1241 1245 1245 1259 1264 1273 1278 1283 1288 1302
    1307 1317 1328 1333 1338 1343 1359 1370 1370 1376 1387 1392 1404
    1415 1415 1427 1433 1439 1439 2744 0 0 0 1259 0 1259 1255 1250 1245
    1245 1241 1241 1241 1241 1236 1232 1227 1227 1227 1227 1223 1223
    1223 1232 1236 1241 1245 1245 1259 1264 1268 1273 1278 1288 1297
    1307 1317 1322 1328 1333 1343 1354 1370 1370 1376 1387 1392 1404
    1415 1415 1421 1427 1433 1439 2701 0 0 0 0 0 1250 1250 1245 1241
    1241 1241 1236 1236 1241 1236 1232 1227 1227 1223 1223 1223 1223
    1223 1232 1236 1241 1245 1245 1255 1264 1268 1273 1278 1283 1292
    1307 1317 1322 1322 1328 1338 1349 1359 1370 1370 1381 1387 1404
    1415 1415 1421 1427 1433 1439 2701 0 2701 0 1245 0 1245 1245 1245
    1241 1241 1241 1236 1236 1232 1232 1232 1227 1227 1223 1219 1219
    1219 1219 1232 1236 1236 1245 1245 1255 1264 1268 1268 1278 1278
    1292 1307 1312 1317 1322 1328 1333 1349 1359 1370 1370 1381 1387
    1398 1410 1415 1421 1427 1421 1421 2701 2701 2701 1241 1245 1245
    1245 1245 1241 1241 1236 1236 1232 1232 1232 1227 1227 1223 1223
    1223 1219 1219 1219 1219 1227 1236 1236 1245 1245 1255 1264 1268
    1268 1278 1278 1292 1307 1312 1317 1322 1322 1333 1349 1365 1370
    1370 1381 1387 1398 1410 1415 1421 1433 1421 1421 2701 2701 0 0 1241
    1241 1241 1245 1241 1241 1236 1236 1232 1232 1232 1227 1227 1223
    1223 1223 1219 1214 1214 1214 1219 1227 1236 1245 1245 1255 1259
    1264 1273 1278 1278 1292 1307 1312 1317 1322 1322 1343 1349 1365
    1370 1370 1381 1387 1398 1410 1415 1421 1433 1433 1433 2767 2789
    2789 0 1241 1241 1241 1241 1241 1236 1232 1232 1227 1227 1227 1223
    1223 1219 1219 1219 1214 1214 1214 1214 1219 1227 1236 1241 1250
    1250 1255 1264 1268 1278 1278 1297 1307 1317 1317 1322 1328 1338
    1349 1365 1370 1370 1381 1387 1392 1404 1410 1415 1427 1433 1433
    2767 2767 1264 1250 1250 1241 1241 1236 1236 1232 1227 1227 1227
    1227 1227 1223 1219 1219 1219 1214 1214 1214 1214 1214 1223 1227
    1232 1241 1250 1250 1255 1264 1264 1273 1278 1297 1307 1317 1317
    1322 1328 1338 1349 1354 1365 1370 1381 1387 1392 1404 1410 1415
    1415 1427 1427 2767 2767 1264 1264 1250 1241 1241 1236 1236 1232
    1227 1227 1227 1227 1227 1223 1219 1214 1214 1214 1214 1214 1214
    1214 1219 1227 1232 1241 1250 1250 1255 1264 1264 1273 1278 1307
    1307 1317 1317 1322 1322 1328 1349 1354 1359 1370 1381 1387 1392
    1404 1410 1415 1415 1421 1421 2767 2767 1264 1264 1264 1241 1241
    1236 1232 1227 1227 1227 1227 1227 1223 1223 1219 1214 1214 1210
    1210 1210 1210 1214 1219 1227 1232 1241 1250 1250 1259 1264 1268
    1273 1278 1297 1307 1312 1317 1322 1322 1328 1343 1354 1359 1370
    1381 1387 1392 1398 1404 1410 1415 1421 1421 2767 2767 2767 1241
    1241 1241 1241 1236 1232 1227 1227 1223 1223 1223 1223 1219 1214
    1214 1210 1210 1210 1210 1210 1214 1223 1227 1232 1236 1245 1250
    1255 1264 1268 1273 1283 1288 1302 1307 1312 1317 1328 1333 1343
    1349 1359 1370 1381 1387 1392 1398 1404 1410 1415 1421 1421 2767
    2767 0 1241 1241 1241 1241 1236 1232 1227 1227 1223 1223 1223 1223
    1219 1214 1214 1210 1210 1210 1210 1214 1219 1223 1227 1232 1236
    1241 1245 1250 1264 1268 1273 1283 1288 1302 1307 1312 1317 1328
    1333 1343 1349 1354 1359 1381 1387 1392 1392 1404 1410 1415 1415
    4645 2789 2789 1236 1241 1241 1236 1236 1236 1232 1227 1227 1223
    1223 1219 1214 1214 1214 1214 1210 1210 1210 1210 1210 1214 1223
    1227 1232 1236 1241 1245 1250 1264 1268 1268 1278 1288 1297 1302
    1307 1322 1328 1333 1338 1354 1354 1354 1376 1387 1392 1392 1404
    1410 1415 1415 4645 2789 2789 0 1236 1236 1236 1236 1232 1227 1227
    1223 1219 1219 1219 1214 1214 1214 1210 1210 1206 1206 1206 1210
    1214 1219 1227 1232 1236 1241 1245 1250 1264 1268 1268 1278 1288
    1297 1302 1307 1317 1322 1328 1338 1354 1354 1354 1370 1387 1392
    1392 1404 1410 1410 1410 1410 2812 0 1236 1236 1236 1236 1236 1232
    1227 1223 1223 1219 1219 1214 1214 1214 1210 1210 1210 1206 1202
    1202 1210 1214 1219 1223 1227 1236 1241 1245 1250 1255 1264 1264
    1278 1288 1297 1302 1307 1317 1322 1328 1343 1354 1354 1365 1370
    1381 1387 1392 1392 1410 1410 1410 1410 2789 0 1236 1236 1236 1236
    1232 1227 1223 1223 1223 1219 1214 1214 1214 1214 1210 1206 1206
    1202 1202 1202 1206 1210 1219 1223 1227 1236 1241 1245 1250 1255
    1259 1264 1273 1283 1292 1302 1307 1312 1317 1322 1328 1343 1359
    1365 1370 1376 1381 1392 1392 1404 1404 1415 1415 2812 0 1241 1241
    1236 1227 1227 1227 1223 1223 1219 1219 1214 1214 1214 1210 1210
    1206 1202 1197 1197 1197 1197 1206 1214 1219 1227 1232 1241 1245
    1250 1255 1259 1264 1268 1283 1292 1302 1307 1312 1317 1322 1328
    1343 1359 1359 1365 1376 1381 1392 1392 1398 1404 1404 4582 2812
    1236 1227 1227 1227 1227 1227 1223 1223 1223 1219 1214 1214 1214
    1214 1210 1206 1202 1197 1197 1197 1197 1197 1202 1210 1219 1223
    1232 1241 1245 1250 1255 1259 1264 1264 1278 1292 1302 1307 1307
    1317 1322 1328 1343 1354 1359 1365 1370 1381 1392 1392 1398 1404
    1404 4708 2744 1236 1236 1227 1227 1227 1227 1223 1219 1219 1214
    1210 1210 1210 1214 1210 1206 1202 1197 1193 1193 1197 1197 1202
    1210 1214 1223 1227 1236 1245 1250 1255 1259 1264 1264 1278 1288
    1302 1307 1307 1312 1322 1328 1338 1349 1354 1365 1370 1376 1387
    1387 1398 1398 4645 4645 0 1223 1223 1223 1227 1227 1227 1223 1219
    1219 1214 1210 1210 1210 1210 1210 1206 1202 1197 1193 1193 1197
    1197 1197 1206 1210 1219 1227 1236 1245 1250 1255 1259 1264 1268
    1278 1288 1297 1302 1307 1312 1317 1328 1338 1349 1354 1365 1370
    1376 1381 1387 1404 1404 4645 4645 0 1223 1223 1223 1227 1227 1223
    1214 1214 1210 1210 1210 1210 1210 1210 1210 1206 1197 1193 1193
    1193 1197 1197 1197 1202 1210 1219 1227 1232 1245 1245 1250 1259
    1259 1268 1283 1288 1292 1302 1307 1307 1317 1328 1343 1349 1349
    1359 1370 1376 1376 1387 1404 1404 4645 4645 1223 1223 1223 1223
    1223 1227 1223 1214 1210 1210 1210 1206 1206 1206 1210 1206 1202
    1197 1193 1193 1197 1197 1197 1197 1202 1214 1219 1223 1232 1245
    1245 1250 1259 1259 1268 1283 1288 1292 1302 1307 1307 1312 1322
    1343 1343 1349 1359 1370 1370 1376 1392 1398 1398 4582 4582 1223
    1223 1223 1223 1223 1223 1223 1214 1210 1210 1206 1206 1206 1206
    1206 1206 1202 1197 1193 1193 1193 1193 1197 1197 1206 1214 1219
    1223 1232 1236 1245 1250 1255 1259 1273 1283 1288 1292 1302 1307
    1307 1312 1322 1343 1343 1349 1359 1365 1370 1376 1392 1398 1398
    4582 4582 1223 1223 1223 1223 1223 1223 1219 1214 1210 1210 1206
    1206 1206 1202 1202 1202 1197 1197 1193 1189 1189 1193 1193 1197
    1206 1210 1214 1223 1227 1232 1241 1250 1255 1259 1268 1278 1288
    1292 1297 1302 1307 1317 1322 1343 1343 1349 1359 1365 1370 1376
    1392 1392 1392 1392 4582 1223 1223 1223 1227 1227 1223 1219 1210
    1210 1206 1206 1206 1206 1202 1202 1197 1197 1193 1193 1189 1189
    1193 1193 1197 1202 1210 1210 1223 1227 1232 1241 1250 1255 1259
    1259 1264 1288 1292 1297 1302 1302 1317 1328 1343 1343 1349 1359
    1365 1370 1381 1387 1392 1392 0 4582 1227 1227 1227 1223 1223 1223
    1219 1210 1210 1206 1206 1206 1197 1197 1197 1197 1193 1189 1189
    1189 1189 1189 1193 1197 1202 1206 1210 1219 1223 1232 1241 1250
    1255 1259 1259 1264 1283 1292 1292 1297 1302 1317 1328 1338 1343
    1349 1359 1365 1370 1376 1387 1392 1392 0 4582 2639 1227 1227 1223
    1223 1214 1210 1210 1210 1206 1202 1202 1197 1197 1197 1193 1193
    1189 1189 1189 1189 1189 1193 1197 1197 1202 1210 1219 1219 1227
    1241 1250 1255 1259 1264 1264 1283 1288 1292 1297 1302 1307 1317
    1328 1343 1349 1359 1365 1370 1376 1381 1398 1398 0 4645 0 1223 1223
    1219 1219 1214 1210 1210 1206 1206 1202 1202 1197 1197 1197 1193
    1189 1189 1185 1185 1185 1185 1193 1197 1197 1202 1210 1214 1219
    1227 1241 1250 1250 1259 1264 1264 1283 1288 1292 1292 1302 1307
    1307 1328 1343 1349 1359 1359 1370 1370 1376 1398 1398 4645 4582
    1227 1223 1223 1219 1219 1210 1210 1206 1206 1202 1197 1193 1193
    1193 1193 1193 1185 1185 1181 1181 1181 1181 1185 1193 1197 1202
    1210 1214 1223 1227 1241 1245 1245 1255 1264 1268 1283 1288 1292
    1292 1297 1302 1307 1322 1343 1349 1359 1359 1370 1370 1376 1376
    1376 4645 4645 1227 1227 1223 1219 1210 1210 1206 1206 1202 1202
    1193 1193 1193 1193 1189 1189 1185 1181 1181 1177 1177 1181 1185
    1193 1197 1206 1210 1214 1219 1227 1236 1241 1245 1255 1259 1268
    1278 1288 1292 1292 1297 1302 1307 1322 1333 1343 1365 1365 1370
    1370 1376 1376 0 4582 4582 1227 1227 1223 1219 1210 1206 1206 1202
    1197 1193 1193 1193 1193 1193 1189 1185 1185 1181 1181 1177 1177
    1181 1185 1193 1197 1202 1206 1214 1219 1227 1236 1241 1245 1255
    1259 1268 1278 1288 1288 1292 1302 1307 1312 1322 1328 1343 1359
    1359 1365 1370 1370 1370 0 4582 4582 1219 1219 1219 1219 1210 1206
    1206 1202 1197 1193 1193 1193 1193 1193 1189 1185 1181 1177 1177
    1177 1177 1177 1181 1193 1197 1202 1202 1214 1219 1227 1232 1236
    1241 1255 1259 1268 1278 1283 1288 1292 1302 1307 1317 1322 1328
    1343 1359 1359 1365 1370 1370 1370 0 4582 4582 1219 1219 1210 1210
    1206 1206 1206 1202 1197 1193 1193 1189 1189 1193 1189 1185 1181
    1177 1173 1173 1177 1177 1181 1189 1197 1197 1202 1214 1219 1223
    1227 1232 1241 1250 1259 1264 1268 1283 1288 1288 1297 1307 1317
    1322 1328 1343 1354 1359 1359 1370 1370 1370 0 4522 4522 1219 1219
    1210 1210 1206 1206 1206 1202 1197 1193 1193 1189 1189 1185 1185
    1181 1177 1177 1173 1173 1177 1177 1181 1185 1197 1197 1206 1210
    1214 1223 1227 1232 1245 1250 1259 1264 1268 1283 1288 1288 1297
    1307 1322 1328 1328 1343 1354 1359 1359 1365 1370 1370 0 4463 4463
    1223 1219 1214 1210 1206 1206 1206 1197 1193 1193 1189 1185 1185
    1181 1181 1181 1177 1177 1177 1177 1177 1177 1181 1185 1197 1197
    1206 1210 1214 1219 1232 1232 1232 1245 1255 1264 1268 1273 1283
    1283 1302 1302 1322 1328 1328 1343 1354 1359 1359 1365 1365 1365
    1370 4463 4463 1223 1210 1206 1202 1197 1197 1197 1193 1193 1189
    1185 1185 1185 1181 1181 1181 1177 1177 1177 1177 1177 1177 1181
    1185 1197 1197 1206 1210 1214 1219 1232 1232 1232 1245 1250 1264
    1268 1273 1278 1283 1297 1297 1307 1322 1328 1343 1354 1359 1359
    1365 1365 1370 1370 0 4463 1214 1210 1206 1197 1193 1193 1193 1193
    1189 1189 1185 1185 1185 1181 1181 1181 1177 1177 1173 1173 1177
    1177 1181 1189 1193 1193 1202 1210 1214 1219 1227 1232 1236 1245
    1250 1264 1268 1268 1278 1283 1297 1297 1307 1322 1328 1338 1349
    1359 1359 1365 1370 1370 1370 0 4463 1210 1202 1202 1197 1193 1193
    1189 1189 1189 1189 1185 1181 1181 1181 1181 1177 1177 1173 1173
    1169 1169 1173 1181 1185 1189 1193 1197 1206 1214 1219 1223 1232
    1236 1245 1255 1264 1264 1268 1278 1283 1297 1297 1307 1317 1328
    1338 1343 1349 1365 1365 1370 1370 1370 0 4522 1206 1202 1202 1197
    1193 1193 1189 1189 1185 1185 1181 1177 1177 1177 1177 1177 1173
    1169 1169 1169 1169 1169 1177 1185 1189 1193 1197 1206 1214 1219
    1223 1232 1236 1245 1255 1264 1264 1268 1278 1283 1297 1297 1307
    1317 1328 1338 1343 1349 1354 1365 1370 1370 1370 0 4463 1206 1206
    1202 1193 1193 1193 1189 1189 1185 1181 1177 1177 1177 1177 1177
    1169 1169 1165 1165 1165 1165 1169 1177 1181 1189 1193 1197 1202
    1210 1214 1227 1232 1232 1245 1250 1259 1264 1268 1273 1283 1292
    1297 1307 1317 1322 1338 1343 1349 1349 1359 1365 1365 1365 4463
    4463 1202 1193 1193 1193 1193 1193 1193 1189 1181 1177 1173 1173
    1173 1177 1173 1165 1165 1165 1161 1161 1165 1165 1177 1181 1185
    1193 1197 1202 1210 1214 1227 1227 1227 1236 1250 1259 1264 1268
    1273 1283 1292 1297 1307 1317 1322 1338 1343 1349 1349 1359 1365
    1365 0 4463 4463 1202 1193 1193 1189 1189 1189 1193 1189 1181 1177
    1173 1173 1173 1173 1169 1165 1165 1161 1161 1161 1161 1165 1177
    1181 1185 1193 1197 1206 1210 1214 1219 1223 1227 1232 1245 1255
    1264 1264 1268 1283 1297 1297 1307 1307 1322 1338 1343 1349 1349
    1359 1365 1365 0 4463 4463 1189 1189 1193 1189 1189 1185 1185 1185
    1181 1173 1173 1169 1169 1173 1169 1165 1165 1161 1161 1161 1161
    1165 1169 1181 1185 1189 1197 1210 1210 1214 1219 1223 1227 1232
    1245 1250 1264 1264 1268 1278 1297 1297 1307 1307 1328 1333 1343
    1349 1349 1359 1365 1365 0 4463 4463 1189 1189 1189 1189 1185 1185
    1185 1181 1177 1173 1173 1169 1169 1173 1169 1165 1161 1161 1161
    1161 1161 1161 1169 1177 1181 1189 1193 1206 1210 1214 1214 1219
    1227 1232 1245 1250 1268 1268 1268 1278 1297 1297 1302 1307 1328
    1333 1343 1349 1349 1359 1365 0 0 0 4463 1189 1189 1185 1185 1185
    1185 1181 1177 1177 1173 1173 1173 1173 1173 1169 1165 1161 1161
    1161 1161 1161 1161 1169 1177 1181 1189 1193 1202 1210 1214 1214
    1219 1227 1241 1241 1250 1250 1264 1268 1268 1283 1297 1302 1307
    1322 1328 1338 1343 1349 1354 1365 0 0 0 4463 1189 1189 1185 1185
    1185 1181 1181 1177 1173 1173 1173 1173 1173 1173 1165 1165 1161
    1161 1161 1161 1161 1161 1169 1173 1185 1189 1193 1197 1202 1214
    1219 1223 1227 1241 1241 1245 1245 1255 1268 1268 1283 1292 1302
    1307 1322 1328 1338 1343 1343 1343 1349 0 0 0 4405 1189 1189 1185
    1185 1185 1181 1181 1177 1173 1173 1173 1173 1173 1165 1165 1161
    1157 1157 1157 1157 1161 1161 1169 1173 1181 1185 1193 1197 1202
    1210 1214 1223 1227 1241 1241 1245 1245 1255 1264 1273 1288 1292
    1302 1307 1317 1328 1338 1343 1343 1343 1349 0 0 0 4405 1189 1185
    1185 1185 1185 1181 1181 1177 1173 1173 1169 1165 1165 1165 1165
    1161 1157 1157 1157 1157 1161 1161 1169 1169 1177 1185 1189 1193
    1197 1210 1214 1223 1227 1236 1241 1245 1245 1255 1264 1268 1283
    1288 1297 1302 1317 1322 1328 1343 1343 1343 1343 0 0 0 4349 1189
    1185 1185 1185 1185 1177 1177 1177 1177 1173 1161 1161 1165 1165
    1165 1161 1157 1157 1157 1157 1161 1165 1169 1169 1177 1185 1189
    1193 1197 1210 1214 1219 1227 1236 1241 1245 1250 1264 1264 1268
    1283 1288 1297 1302 1317 1322 1328 1338 1343 1343 1343 1343 0 4349
    4349 1189 1185 1185 1185 1181 1177 1177 1177 1173 1173 1161 1161
    1165 1161 1161 1161 1157 1157 1161 1161 1161 1169 1169 1173 1181
    1185 1189 1193 1197 1210 1214 1219 1232 1241 1245 1245 1250 1264
    1264 1268 1278 1288 1297 1302 1312 1317 1322 1338 1349 1349 1349
    1349 0 4349 4349 1189 1189 1189 1189 1181 1181 1177 1177 1173 1173
    1169 1165 1165 1161 1161 1161 1161 1161 1165 1165 1165 1169 1169
    1177 1181 1185 1193 1197 1210 1210 1214 1219 1232 1241 1245 1245
    1255 1264 1264 1273 1278 1283 1302 1307 1312 1317 1322 1338 1349
    1354 1354 1354 0 4405 4405 1189 1189 1189 1189 1189 1193 1193 0 0 0
    0 0 0 0 0 3903 3948 3948 3903 3903 3903 3903 1193 1193 1193 1193
    1206 1214 1214 1214 1214 1214 1223 1245 1245 1250 1264 1268 1268
    1278 1278 1283 1302 1307 1307 1312 1328 1338 1349 1354 1354 1354
    4295 4463 4463 2680 2680 2680 1210 1210 1219 1223 0 0 0 0 0 0 3903
    3903 3903 3948 3948 3903 3903 3903 0 3903 3903 1219 1219 1214 1214
    1214 1210 1210 1210 1202 1202 1202 1273 1273 1268 1268 1278 1278
    1312 1312 1307 1307 1312 1359 1354 1354 1359 1359 4295 4295 4349
    4349 2680 2680 0 0 1227 1223 1223 0 0 0 0 0 0 3903 3903 3903 3903
    3903 3903 3903 3903 3948 3903 3903 3903 1210 1210 1214 1210 1210
    1210 1210 1202 1202 4190 1278 1278 1278 1278 4139 4190 1317 1317
    4241 4241 4295 4349 1359 1359 1359 4190 4295 4295 4349 4349 1245
    2680 0 0 0 0 0 0 0 0 0 0 3859 3859 3859 3859 3903 3903 3948 3948
    3948 3948 3903 3903 3903 1210 1210 1210 1210 1210 1210 1210 4190
    4190 4190 1278 1278 4089 4139 4139 4190 4190 4190 4241 4241 4295
    4295 4241 4190 4190 4241 4295 4295 4349 4349 1236 2680 0 0 0 0 0 0 0
    0 0 0 3859 3859 3859 3859 3903 3903 3948 3948 3948 4041 4041 3994
    3948 3903 1210 1210 1210 1210 1210 0 4139 4139 4139 4139 4139 4139
    4089 4089 4190 4190 4190 4241 4241 4295 4295 4295 4241 4241 4241
    4295 4295 4349 4349 1236 0 0 0 0 0 0 0 0 0 0 0 0 3859 3859 3859 3859
    3859 3948 3994 3994 4041 3994 3994 3994 3948 1214 1214 1214 1214
    1214 0 4139 4139 4139 4139 4139 4089 4089 4089 4089 4190 4190 4241
    4241 4295 4295 4241 4241 4241 4241 4241 4295 4295 4349 1232 0 0 0 0
    0 0 0 0 0 0 0 0 4041 3816 3816 3816 3816 3859 3859 3948 3948 3994
    3994 3994 3948 1214 1214 1214 1214 1214 0 4139 4139 4139 4139 4139
    4089 4089 4089 4089 4190 4190 4190 4241 4241 4295 4241 4241 4241
    4241 4241 4295 4295 4349</data></Depth5457>
</opencv_storage>
