<?xml version="1.0"?>
<opencv_storage>
<Depth17199 type_id="opencv-matrix">
  <rows>101</rows>
  <cols>33</cols>
  <dt>w</dt>
  <data>
    3903 3903 3903 3859 3859 3859 1214 1214 1219 0 0 0 0 0 0 0 0 0 0
    1202 1197 1197 1197 1197 1202 1206 1206 1206 1206 1206 0 0 3816 3903
    3903 3948 3948 1210 1210 1210 1214 1214 1214 1214 1227 1232 1232
    1232 0 0 0 0 1202 1197 1197 1197 1202 1202 1202 1202 1206 1206 0
    1202 0 3816 3948 3948 1197 1193 1193 1197 1202 1210 1210 1210 1210
    1219 1219 1214 1202 1202 1206 1210 1206 1202 1197 1197 1202 1202
    1202 1202 1202 1202 1202 1202 0 0 0 3994 1193 1193 1193 1193 1197
    1197 1197 1197 1202 1206 1210 1206 1202 1197 1197 1197 1202 1202
    1202 1197 1197 1197 1197 1197 1202 1202 1202 1202 1202 1202 0 0 1197
    1193 1193 1193 1193 1197 1197 1197 1197 1202 1202 1197 1197 1197
    1197 1197 1197 1197 1197 1202 1197 1193 1193 1197 1197 1197 1197
    1197 1197 1193 1193 1193 3816 1197 1193 1193 1193 1193 1197 1197
    1197 1197 1197 1197 1197 1197 1197 1197 1197 1193 1193 1193 1197
    1197 1193 1193 1193 1197 1193 1193 1197 1193 1193 1193 1193 0 3948
    1193 1193 1193 1193 1197 1202 1202 1202 1197 1197 1197 1197 1197
    1197 1193 1193 1193 1193 1197 1197 1193 1193 1193 1193 1193 1193
    1197 1193 1193 1197 1197 0 3948 1197 1197 1197 1197 1197 1202 1202
    1197 1197 1197 1197 1197 1197 1197 1193 1193 1193 1193 1197 1197
    1197 1193 1193 1193 1193 1193 1197 1197 1197 1197 1197 3816 3948
    1197 1197 1197 1197 1197 1202 1202 1197 1197 1197 1197 1202 1197
    1197 1197 1193 1193 1193 1197 1202 1197 1197 1193 1193 1193 1193
    1197 1197 1197 1202 1202 3816 3948 1197 1197 1197 1197 1197 1202
    1202 1197 1197 1197 1197 1197 1197 1197 1197 1197 1193 1193 1197
    1202 1197 1197 1197 1193 1193 1197 1197 1197 1197 1197 0 3816 3816
    1202 1197 1197 1202 1202 1202 1202 1197 1197 1197 1197 1197 1197
    1197 1197 1197 1193 1193 1197 1197 1197 1197 1197 1197 1197 1197
    1197 1197 1197 1197 0 3816 3816 1202 1197 1197 1202 1202 1202 1202
    1197 1197 1197 1197 1197 1197 1197 1197 1197 1197 1197 1197 1197
    1197 1197 1197 1197 1197 1197 1197 1197 1193 1193 0 3859 3903 1197
    1197 1197 1202 1202 1202 1202 1197 1197 1197 1197 1197 1197 1197
    1197 1197 1197 1197 1197 1197 1197 1197 1197 1197 1197 1197 1197
    1197 1193 1193 1193 1193 3903 1197 1197 1197 1202 1202 1202 1202
    1197 1197 1197 1197 1197 1197 1197 1197 1197 1197 1197 1197 1202
    1197 1197 1197 1197 1197 1197 1197 1197 1197 1197 1197 0 3903 1193
    1193 1197 1202 1202 1202 1197 1197 1197 1197 1197 1202 1197 1197
    1197 1197 1197 1197 1197 1202 1202 1197 1197 1197 1197 1197 1202
    1197 1197 1197 1197 0 3994 1193 1193 1197 1202 1202 1202 1197 1197
    1202 1197 1197 1202 1197 1197 1197 1197 1197 1197 1197 1202 1202
    1202 1202 1202 1202 1202 1202 1202 1202 1202 1202 0 1197 1197 1197
    1202 1202 1202 1202 1202 1202 1202 1197 1197 1202 1197 1197 1202
    1197 1197 1197 1197 1202 1202 1202 1202 1202 1202 1202 1202 1202
    1202 1202 1202 0 1197 1197 1202 1202 1202 1202 1202 1202 1197 1197
    1202 1202 1202 1197 1197 1202 1197 1197 1197 1197 1202 1202 1202
    1202 1202 1202 1202 1202 1202 1202 1202 1202 0 1206 1206 1206 1206
    1206 1206 1202 1202 1197 1197 1202 1202 1202 1197 1197 1202 1202
    1202 1197 1197 1202 1202 1202 1202 1202 1202 1202 1202 1202 1202
    1202 1202 0 1206 1206 1206 1206 1206 1206 1206 1202 1202 1202 1202
    1202 1202 1202 1202 1202 1202 1202 1202 1202 1202 1202 1202 1202
    1202 1202 1202 1202 1202 1202 1206 1206 2933 1206 1206 1206 1206
    1206 1210 1206 1206 1202 1202 1206 1206 1206 1202 1202 1206 1206
    1202 1202 1206 1202 1202 1202 1202 1202 1202 1202 1202 1202 1202
    1206 0 2933 1206 1206 1206 1206 1210 1210 1210 1206 1202 1202 1206
    1206 1206 1206 1206 1206 1206 1202 1202 1206 1206 1202 1202 1202
    1202 1202 1202 1202 1202 1206 1210 1210 2933 1219 1210 1206 1206
    1210 1210 1210 1206 1206 1206 1206 1210 1210 1206 1206 1206 1206
    1202 1202 1206 1206 1206 1202 1202 1202 1202 1202 1202 1202 1206
    1210 1210 2933 1214 1210 1210 1210 1210 1210 1210 1210 1206 1206
    1206 1210 1210 1206 1206 1206 1206 1202 1202 1206 1206 1206 1202
    1202 1202 1206 1206 1206 1206 1206 1206 1206 2958 1210 1210 1210
    1210 1210 1210 1210 1210 1206 1206 1206 1210 1210 1210 1210 1210
    1206 1202 1202 1206 1206 1206 1206 1206 1206 1206 1206 1206 1206
    1206 1206 1206 1210 1210 1210 1210 1210 1210 1210 1210 1210 1210
    1210 1210 1210 1210 1210 1210 1210 1206 1202 1202 1206 1206 1206
    1206 1206 1206 1206 1206 1206 1206 1206 1206 1210 1210 1210 1210
    1210 1210 1210 1210 1210 1210 1210 1210 1210 1210 1206 1206 1206
    1210 1206 1206 1206 1206 1206 1210 1210 1210 1210 1210 1206 1206
    1206 1206 1206 1210 1210 1206 1206 1210 1210 1210 1210 1210 1210
    1210 1210 1210 1210 1206 1206 1206 1206 1206 1206 1206 1206 1206
    1210 1210 1210 1210 1210 1210 1210 1210 1210 1210 1214 1214 1206
    1206 1210 1210 1210 1214 1214 1214 1210 1210 1210 1210 1210 1210
    1206 1206 1206 1206 1206 1210 1210 1210 1210 1210 1210 1210 1210
    1210 1210 1210 1210 1210 2958 1210 1210 1210 1210 1214 1214 1214
    1214 1210 1210 1210 1210 1210 1210 1206 1206 1206 1206 1210 1210
    1210 1210 1210 1210 1210 1210 1210 1210 1210 1210 1210 1210 3010
    1210 1210 1210 1210 1214 1214 1214 1214 1210 1210 1210 1210 1210
    1210 1210 1206 1206 1206 1210 1214 1214 1214 1214 1214 1214 1210
    1210 1210 1210 1210 1210 1210 3010 1214 1214 1214 1214 1214 1214
    1214 1214 1210 1210 1210 1210 1210 1210 1210 1210 1206 1206 1210
    1214 1214 1214 1214 1214 1214 1210 1210 1210 1210 1210 1210 1210
    2984 1214 1214 1214 1214 1214 1214 1214 1214 1210 1210 1210 1210
    1210 1210 1210 1210 1210 1210 1210 1214 1214 1214 1214 1214 1214
    1214 1210 1210 1210 1202 1202 1202 2984 1214 1214 1214 1214 1214
    1214 1214 1214 1214 1214 1214 1214 1214 1210 1210 1210 1210 1210
    1210 1214 1214 1214 1214 1214 1214 1214 1214 1214 1210 1202 1202
    1202 2958 1214 1214 1214 1214 1214 1214 1214 1214 1214 1214 1214
    1214 1214 1210 1210 1210 1210 1210 1210 1214 1214 1214 1214 1214
    1214 1214 1214 1214 1214 1214 1214 2958 2958 1214 1214 1214 1214
    1214 1214 1214 1214 1214 1214 1214 1214 1214 1214 1210 1210 1210
    1210 1210 1214 1214 1214 1214 1214 1214 1214 1214 1214 1214 1206
    1206 1206 2984 1219 1214 1214 1214 1214 1214 1214 1214 1214 1214
    1214 1214 1214 1214 1210 1210 1210 1210 1210 1214 1214 1214 1214
    1214 1214 1214 1214 1214 1214 1206 1206 1206 2984 1214 1214 1214
    1214 1214 1214 1214 1214 1214 1214 1214 1214 1214 1214 1210 1210
    1210 1210 1210 1214 1214 1214 1214 1214 1214 1214 1214 1214 1214
    1210 1210 1210 3010 1214 1214 1214 1214 1214 1214 1214 1214 1214
    1214 1214 1214 1214 1214 1210 1210 1210 1210 1210 1214 1214 1214
    1214 1214 1214 1214 1214 1214 1214 1210 1210 1210 3010 1214 1214
    1214 1214 1214 1214 1214 1214 1214 1214 1214 1214 1214 1214 1214
    1210 1210 1210 1210 1219 1214 1214 1214 1214 1214 1214 1214 1214
    1214 1214 1214 1214 3037 1214 1214 1214 1214 1214 1214 1214 1214
    1219 1219 1219 1219 1214 1214 1214 1214 1210 1210 1210 1219 1214
    1214 1214 1214 1214 1214 1214 1214 1214 1214 1214 3037 3037 1214
    1214 1214 1214 1214 1214 1214 1219 1219 1219 1219 1219 1214 1214
    1214 1214 1214 1210 1210 1214 1214 1214 1214 1214 1214 1214 1214
    1214 1219 1219 1219 1219 3037 1214 1214 1219 1219 1219 1214 1214
    1219 1219 1219 1214 1214 1214 1214 1214 1214 1214 1210 1210 1214
    1214 1214 1214 1214 1214 1214 1214 1214 1219 1219 1219 1219 3010
    1214 1214 1219 1219 1219 1219 1219 1219 1219 1219 1214 1214 1219
    1214 1214 1214 1214 1214 1214 1214 1219 1219 1219 1214 1214 1214
    1214 1214 1219 1219 1219 2984 2984 1219 1219 1219 1219 1219 1219
    1219 1219 1219 1219 1219 1214 1214 1214 1214 1214 1214 1214 1214
    1214 1219 1219 1219 1214 1214 1214 1214 1214 1219 1219 1219 2984
    2984 1219 1219 1219 1219 1219 1219 1219 1219 1219 1219 1219 1214
    1214 1214 1214 1214 1214 1214 1214 1219 1219 1219 1219 1219 1214
    1214 1219 1219 1219 1223 1223 2984 2984 1219 1219 1219 1219 1219
    1219 1219 1219 1219 1219 1219 1214 1214 1214 1219 1214 1214 1214
    1214 1219 1219 1219 1219 1219 1219 1219 1219 1219 1219 1223 1223
    2984 2984 1219 1219 1219 1219 1219 1219 1219 1219 1219 1219 1219
    1214 1214 1214 1219 1214 1214 1214 1214 1219 1219 1219 1219 1219
    1219 1219 1219 1219 1219 1223 1223 2984 2984 1219 1219 1219 1219
    1219 1219 1219 1219 1219 1219 1219 1214 1214 1219 1219 1214 1214
    1214 1214 1219 1219 1219 1219 1219 1219 1219 1219 1219 1219 1223
    1223 2984 2984 1219 1219 1223 1219 1219 1223 1219 1219 1219 1219
    1219 1219 1219 1223 1219 1214 1214 1214 1214 1219 1219 1219 1219
    1219 1219 1219 1219 1219 1223 1223 1223 1223 3010 1219 1219 1223
    1223 1223 1223 1219 1219 1219 1219 1219 1219 1219 1223 1219 1219
    1214 1214 1214 1219 1219 1219 1219 1219 1219 1219 1219 1219 1223
    1223 1223 1227 3010 1219 1219 1223 1223 1223 1227 1223 1223 1223
    1223 1223 1223 1223 1223 1219 1219 1214 1214 1214 1219 1219 1219
    1219 1219 1219 1219 1219 1219 1223 1223 1227 1227 3010 1223 1223
    1223 1223 1223 1227 1223 1223 1223 1223 1219 1219 1223 1223 1219
    1219 1214 1214 1214 1219 1223 1223 1223 1219 1219 1219 1219 1223
    1227 1227 1227 1227 3037 1223 1223 1223 1223 1227 1227 1227 1223
    1223 1223 1219 1219 1223 1223 1219 1219 1219 1214 1214 1223 1223
    1223 1223 1219 1219 1219 1219 1223 1227 1227 1227 1227 3037 1227
    1223 1223 1223 1223 1227 1227 1227 1223 1223 1223 1223 1223 1223
    1219 1219 1219 1214 1214 1223 1223 1223 1223 1219 1219 1219 1219
    1223 1227 1227 1227 3037 3037 1227 1223 1223 1223 1223 1227 1227
    1227 1223 1223 1223 1223 1223 1223 1223 1219 1219 1214 1214 1223
    1223 1227 1223 1219 1219 1219 1219 1223 1227 1232 1232 3010 3010
    1227 1227 1227 1227 1227 1223 1223 1223 1223 1223 1223 1227 1227
    1223 1223 1219 1219 1219 1219 1227 1227 1227 1223 1219 1219 1219
    1219 1227 1227 1232 1232 3010 3010 1227 1227 1227 1227 1227 1223
    1223 1223 1223 1223 1227 1227 1227 1223 1223 1219 1219 1219 1219
    1227 1227 1227 1223 1223 1223 1223 1223 1227 1227 1232 1232 3010
    3010 1227 1227 1227 1227 1227 1227 1223 1223 1223 1227 1227 1227
    1227 1223 1223 1219 1219 1223 1223 1232 1227 1227 1227 1223 1223
    1223 1223 1223 1227 1232 1232 3037 3037 2812 1223 1223 1227 1227
    1227 1223 1223 1223 1227 1227 1227 1227 1223 1223 1223 1223 1223
    1227 1232 1232 1227 1227 1223 1223 1223 1223 1223 1227 1236 1236
    2835 2933 2812 1223 1223 1227 1227 1227 1227 1223 1223 1227 1227
    1227 1227 1223 1223 1223 1223 1227 1227 1232 1227 1227 1227 1223
    1223 1223 1223 1227 1232 1236 1236 2835 2835 2835 1223 1223 1227
    1227 1227 1227 1227 1227 1227 1227 1227 1227 1223 1223 1227 1227
    1227 1227 1232 1227 1227 1227 1227 1223 1223 1227 1227 1232 1236
    1236 2835 2835 1223 1223 1227 1227 1227 1227 1227 1227 1227 1227
    1227 1227 1227 1227 1227 1227 1227 1227 1227 1232 1227 1227 1227
    1227 1227 1227 1232 1232 1232 1232 1232 2812 2812 1223 1223 1227
    1227 1227 1227 1227 1227 1227 1227 1227 1227 1227 1227 1227 1227
    1227 1227 1227 1232 1232 1232 1232 1232 1232 1232 1232 1232 1232
    1232 0 2812 2812 1223 1223 1227 1227 1227 1232 1227 1227 1227 1227
    1227 1227 1227 1227 1227 1227 1227 1227 1227 1232 1232 1232 1232
    1232 1232 1232 1232 1232 1236 1236 0 2835 2835 1223 1223 1227 1227
    1232 1227 1227 1227 1227 1227 1227 1227 1227 1227 1227 1227 1227
    1227 1227 1232 1232 1232 1232 1232 1232 1232 1232 1232 1232 1232 0
    2835 2835 1223 1223 1227 1227 1227 1227 1227 1227 1227 1227 1227
    1232 1227 1227 1227 1227 1227 1227 1227 1236 1236 1232 1232 1232
    1232 1232 1232 1232 1232 1232 2835 2859 2859 1223 1223 1227 1227
    1227 1227 1232 1227 1227 1232 1232 1232 1232 1232 1227 1227 1227
    1227 1227 1232 1232 1232 1232 1232 1232 1232 1232 1232 1232 1232
    2835 2835 2835 1227 1227 1227 1232 1232 1232 1232 1232 1232 1232
    1232 1232 1232 1232 1232 1232 1232 1227 1227 1232 1232 1232 1232
    1232 1232 1232 1232 1232 1232 1232 2835 2835 2835 1232 1232 1232
    1232 1232 1232 1232 1232 1232 1232 1232 1232 1232 1232 1232 1232
    1232 1232 1232 1232 1232 1232 1232 1232 1232 1232 1232 1232 1232 0
    2835 2835 2835 1232 1232 1232 1232 1232 1232 1232 1232 1232 1232
    1232 1232 1232 1232 1232 1232 1232 1227 1227 1232 1232 1232 1232
    1232 1232 1232 1232 1236 1236 1241 2835 2835 2812 1232 1232 1232
    1232 1232 1232 1232 1232 1232 1232 1232 1232 1232 1232 1232 1232
    1227 1227 1227 1232 1232 1232 1232 1232 1232 1232 1236 1236 1241
    1241 2835 2835 2812 1232 1232 1232 1232 1232 1232 1232 1232 1232
    1232 1232 1232 1232 1232 1232 1232 1227 1227 1227 1232 1232 1232
    1232 1232 1232 1232 1236 1236 1241 1245 1250 1250 2812 1232 1232
    1232 1236 1232 1232 1236 1236 1236 1236 1236 1236 1236 1232 1232
    1232 1227 1227 1227 1232 1232 1232 1232 1232 1232 1232 1236 1236
    1236 1245 1250 1250 1250 1232 1232 1232 1232 1232 1236 1236 1236
    1236 1241 1236 1236 1236 1232 1232 1232 1227 1227 1227 1232 1232
    1232 1232 1236 1232 1232 1236 1236 1236 1241 1250 1250 1415 1232
    1232 1232 1232 1232 1232 1232 1232 1232 1236 1241 1241 1236 1232
    1232 1232 1232 1227 1227 1232 1232 1236 1236 1236 1236 1236 1236
    1236 1236 1241 1404 1404 1415 0 1236 1232 1232 1232 1232 1232 1232
    1232 1236 1232 1232 1232 1232 1232 1232 1232 1232 1232 1232 1236
    1232 1232 1236 1236 1236 1236 1241 1241 1250 1398 1398 1398 0 0 1236
    1236 1381 1236 1236 1236 1236 1236 1232 1232 1232 1232 1232 1232
    1232 1232 1232 1236 1236 1232 1232 1232 1232 1232 1236 1241 1250
    1250 1392 1398 1398 0 0 0 1370 1370 1376 1370 1365 1365 1359 1359
    1359 1359 1359 1236 1232 1232 1232 1232 1236 1236 1232 1232 1232
    1232 1232 1241 1245 1381 1381 1387 1387 1387 0 0 0 1365 1365 1365
    1359 1354 1354 1354 1349 1349 1359 1359 1365 1365 1365 1365 1365
    1365 1236 1236 1236 1232 1232 1232 1245 1245 1370 1376 1376 1381
    1381 0 0 1349 1349 1354 1354 1349 1349 1349 1343 1343 1343 1343 1349
    1359 1354 1354 1349 1349 1354 1354 1349 1343 1343 1343 1343 1343
    1349 1354 1354 1365 1365 1365 0 0 1343 1343 1349 1343 1343 1343 1343
    1343 1338 1338 1343 1349 1349 1343 1343 1343 1343 1349 1343 1338
    1338 1338 1338 1338 1338 1338 1338 1338 1338 1349 1354 0 1328 1328
    1333 1333 1333 1333 1333 1328 1328 1328 1328 1328 1333 1338 1333
    1328 1328 1333 1333 1333 1333 1333 1333 1333 1333 1333 1333 1333
    1333 1333 1333 1333 1307 1312 1317 1317 1322 1328 1322 1322 1317
    1317 1317 1317 1322 1322 1328 1328 1322 1322 1322 1322 1322 1322
    1322 1322 1312 1312 1322 1328 1328 1328 1322 1322 1322 1307 1307
    1307 1307 1307 1312 1312 1312 1312 1312 1312 1307 1307 1312 1312
    1312 1312 1307 1307 1312 1312 1312 1312 1312 1312 1312 1312 1317
    1317 1317 1312 1312 1312 1302 1302 1302 1302 1302 1307 1307 1312
    1307 1307 1307 1307 1307 1302 1302 1307 1307 1302 1302 1307 1307
    1307 1302 1302 1302 1302 1307 1307 1307 1307 1307 1307 1307 1297
    1297 1297 1302 1302 1302 1307 1307 1302 1302 1302 1302 1302 1302
    1302 1302 1302 1302 1302 1302 1302 1302 1302 1302 1297 1297 1302
    1302 1307 1307 1307 1307 1307 1297 1297 1297 1302 1302 1302 1307
    1302 1302 1302 1302 1302 1302 1302 1302 1302 1302 1302 1302 1302
    1302 1302 1302 1297 1297 1297 1302 1302 1302 1302 1307 1307 1307
    1297 1297 1297 1302 1302 1302 1302 1302 1302 1302 1302 1302 1302
    1302 1302 1302 1302 1302 1302 1302 1302 1302 1302 1297 1297 1297
    1302 1302 1302 1302 1307 1302 1302 1302 1302 1302 1302 1302 1302
    1302 1302 1302 1302 1302 1302 1302 1302 1302 1302 1302 1302 1302
    1297 1297 1302 1302 1297 1297 1302 1302 1302 1307 1307 1307 1302
    1302 1302 1302 1302 1302 1302 1302 1302 1302 1307 1302 1302 1302
    1302 1302 1302 1302 1302 1292 1292 1297 1297 1297 1302 1302 1302
    1302 1302 1302 1302 1302 1292 1292 1302 1302 1307 1307 1302 1302
    1302 1302 1302 1307 1302 1302 1302 1302 1302 1302 1302 1302 1292
    1292 1297 1297 1297 1302 1302 1302 1302 1302 1302 1297 1297 1292
    1292 1713 1302 1307 1307 1302 1302 1302 1302 1302 1307 1302 1302
    1302 1302 1302 1302 1302 1302 1297 1297 1297 1297 1297 1297 1297
    1302 1302 1302 1302 1297 1297 1302 1307 1705 1307 1307 1307 1307
    1307 1307 1307 1307 1307 1307 1307 1307 1302 1302 1302 1302 1302
    1297 1297 1302 1302 1302 1297 1297 1297 1297 1297 1297 1302 1302
    1307 1307 1696 1696 1696 1307 1307 1307 1307 1307 1307 1307 1312
    1312 1307 1307 1302 1302 1302 1302 1302 1302 1307 1307 1307 1297
    1297 1297 1297 1297 1297 1302 1302 1307 1696 1696 1688 1696 1696
    1688 1688 1696 1696 1328 1328 1322 1317 1312 1307 1302 1302 1302
    1307 1307 1307 1312 1317 1317 1312 1302 1297 1292 1292 1297 1302
    1696 1696 1696 1696 1688 1688 1688 1688 1688 1688 1688 1688 1338
    1328 1322 1317 1312 1302 1302 1307 1307 1312 1317 1317 1322 1322
    1322 1307 1297 1292 1292 1696 1696 1696 1696 1696 1696 1680 1680
    1688 1688 1688 1688 1688 1688 1696 1696 1328 1322 1322 1307 1307
    1307 1312 1317 1322 1322 1328 1328 1328 1322 1317 1317 1705 1688
    1688 1680 1680 1688 1688 1671 1671 1688 1688 1688 1696 0 0 0 0 0
    1328 1322 1322 1322 1317 1317 1322 1322 1328 1328 1328 1328 1333
    1333 1333 1705 1688 1688 1680 1680 1680 1688 1671 1671 1688 1696
    1696 0 0 0 0 0 0 1328 1328 1322 1322 1322 1322 1322 1322 1328 1328
    1328 1328 1328 1333 1333 1663 1663 1671 1671 1671 1680 1671 1671
    1671 1688 0 0 0 0 0 0 0 0 1328 1322 1322 1322 1322 1322 1322 1322
    1328 1328 1328 1328 1328 1333 1333 1655 1655 1655 1655 1663 1655
    1655</data></Depth17199>
</opencv_storage>
