<?xml version="1.0"?>
<opencv_storage>
<Depth6869 type_id="opencv-matrix">
  <rows>90</rows>
  <cols>39</cols>
  <dt>w</dt>
  <data>
    4139 4089 4089 4041 4041 4041 4041 4041 4041 4041 4041 3994 1219
    1219 1219 1219 1219 1219 1214 1214 1214 1219 1219 1223 1223 1223
    1223 1227 1227 1227 1227 1232 1236 1227 1227 3859 3859 3903 3903
    4139 4089 4089 4089 4089 4041 4041 4041 4041 0 1223 1223 1219 1219
    1214 1214 1214 1214 1214 1214 1214 1219 1219 1223 1223 1223 1223
    1227 1227 1227 1227 1232 1227 1227 1227 1223 1223 1223 3903 4089
    4089 4041 4041 4041 4089 4089 4089 0 0 1236 1223 1219 1219 1214 1214
    1210 1210 1210 1210 1214 1219 1219 1219 1219 1219 1223 1223 1223
    1223 1223 1227 1223 1223 1227 1223 1223 1223 1223 4089 4089 4041
    4041 4041 0 0 0 0 0 1236 1232 1223 1214 1210 1210 1206 1206 1206
    1210 1210 1219 1219 1219 1219 1219 1219 1219 1219 1219 1219 1219
    1223 1223 1223 1223 1227 1227 3816 4089 4089 4041 4041 4041 0 0 0 0
    1241 1241 1232 1219 1210 1206 1206 1206 1202 1202 1206 1206 1214
    1214 1214 1214 1214 1214 1214 1214 1219 1219 1219 1219 1223 1223
    1223 1227 1227 3816 4089 4089 4041 4041 0 0 0 0 0 0 1241 1232 1219
    1206 1206 1202 1202 1202 1202 1202 1206 1210 1210 1210 1210 1210
    1210 1210 1210 1214 1214 1214 1219 1219 1219 1223 1223 1223 3816
    4041 4041 4041 4041 0 0 0 0 0 0 1236 1227 1219 1206 1206 1202 1202
    1202 1202 1202 1206 1210 1210 1210 1210 1210 1210 1210 1210 1214
    1214 1214 1214 1219 1219 1219 1219 0 3816 3994 3994 4041 4089 0 0 0
    0 0 0 1236 1223 1214 1206 1202 1202 1202 1202 1202 1202 1202 1206
    1206 1206 1206 1206 1206 1206 1210 1214 1214 1214 1214 1214 1214
    1214 1214 0 3816 3994 3994 4041 0 0 0 1292 1292 1283 1255 1236 1223
    1214 1206 1202 1202 1202 1202 1202 1202 1202 1206 1206 1206 1206
    1206 1206 1206 1210 1210 1214 1210 1210 1214 1214 1214 1214 1210
    3816 4041 4041 4041 0 0 1297 1292 1288 1268 1255 1236 1219 1210 1202
    1197 1197 1197 1197 1197 1197 1197 1206 1206 1206 1206 1206 1206
    1206 1206 1206 1210 1210 1210 1214 1210 1210 1210 1210 3859 4041
    4041 4041 0 0 1297 1292 1283 1268 1255 1236 1219 1210 1202 1197 1193
    1193 1193 1193 1193 1193 1202 1202 1202 1202 1202 1202 1206 1206
    1206 1206 1206 1206 1210 1210 1210 1210 1210 1210 4041 4041 0 0 0
    1297 1292 1283 1268 1255 1236 1219 1210 1202 1193 1189 1189 1189
    1193 1193 1193 1202 1202 1202 1202 1202 1202 1202 1202 1202 1206
    1206 1206 1206 1206 1206 1206 1206 0 4089 0 4089 0 1349 1307 1307
    1278 1273 1250 1232 1219 1210 1189 1189 1189 1189 1189 1189 1189
    1193 1197 1197 1197 1197 1202 1202 1202 1202 1202 1202 1202 1202
    1202 1202 1206 1206 1206 0 0 0 0 1349 1349 1343 1317 1278 1273 1241
    1227 1219 1206 1189 1189 1185 1185 1185 1189 1189 1189 1197 1197
    1197 1197 1197 1197 1197 1197 1202 1202 1202 1202 1202 1202 1202
    1206 1206 0 0 0 0 1349 1349 1343 1317 1292 1288 1241 1227 1219 1202
    1189 1189 1185 1185 1185 1185 1185 1189 1193 1193 1193 1197 1197
    1197 1193 1193 1197 1197 1197 1197 1197 1197 1197 1206 0 0 4041 0
    1370 1370 1370 1333 1317 1288 1283 1236 1223 1214 1197 1189 1189
    1185 1185 1185 1185 1185 1185 1189 1189 1189 1189 1189 1193 1193
    1193 1197 1197 1197 1197 1197 1197 1197 1197 0 0 3994 0 1370 1370
    1370 1333 1312 1288 1278 1236 1223 1214 1189 1185 1185 1185 1185
    1185 1185 1185 1185 1189 1189 1189 1189 1189 1189 1193 1193 1193
    1193 1193 1193 1197 1197 1193 1193 0 0 1404 1404 1398 1387 1328 1328
    1312 1283 1273 1236 1223 1214 1189 1185 1185 1185 1185 1185 1185
    1185 1185 1189 1189 1189 1189 1189 1189 1189 1189 1193 1193 1193
    1193 1193 1193 1193 1193 0 0 1404 1404 1398 1387 1349 1328 1312 1283
    1273 1236 1223 1214 1185 1181 1181 1181 1181 1181 1181 1181 1181
    1185 1185 1189 1189 1189 1189 1189 1189 1189 1193 1193 1193 1193
    1193 1193 1193 0 0 1421 1404 1398 1387 1349 1322 1307 1288 1273 1236
    1223 1214 1181 1177 1177 1177 1181 1181 1181 1177 1177 1181 1185
    1185 1189 1189 1189 1189 1189 1189 1189 1189 1189 1189 1189 1189
    1189 0 0 1421 1392 1392 1381 1349 1322 1307 1283 1268 1236 1219 1189
    1181 1173 1173 1177 1181 1181 1177 1173 1173 1181 1181 1185 1189
    1189 1189 1189 1189 1189 1189 1189 1189 1189 1189 1189 1189 0 0 1404
    1392 1387 1370 1349 1333 1292 1283 1264 1232 1214 1189 1181 1173
    1173 1173 1177 1177 1173 1173 1173 1177 1181 1181 1185 1185 1185
    1189 1185 1185 1189 1189 1189 1189 1185 1185 1185 0 0 1404 1398 1387
    1365 1349 1333 1292 1273 1264 1232 1214 1206 1177 1173 1173 1173
    1173 1177 1173 1173 1173 1177 1177 1181 1181 1181 1181 1185 1185
    1185 1185 1185 1185 1185 1185 1185 1185 0 0 1404 1398 1387 1359 1349
    1328 1292 1273 1264 1227 1210 1189 1177 1173 1173 1173 1173 1173
    1173 1173 1173 1177 1177 1181 1181 1181 1181 1181 1185 1185 1185
    1185 1185 1185 1185 1185 1185 0 0 1410 1398 1387 1359 1349 1322 1292
    1283 1264 1227 1210 1189 1177 1173 1169 1169 1169 1173 1169 1169
    1173 1177 1177 1177 1177 1177 1177 1181 1181 1181 1181 1181 1185
    1185 1181 1181 1185 0 0 1404 1398 1387 1365 1349 1322 1292 1283 1268
    1219 1210 1189 1177 1173 1169 1169 1169 1169 1169 1169 1169 1173
    1177 1177 1177 1177 1177 1177 1177 1177 1181 1181 1181 1181 1181
    1181 1185 0 0 1404 1392 1387 1381 1338 1322 1292 1283 1268 1219 1210
    1181 1173 1169 1165 1165 1165 1165 1165 1165 1169 1173 1173 1173
    1173 1173 1177 1177 1177 1177 1177 1177 1181 1181 1181 1181 1181 0 0
    1392 1392 1381 1376 1333 1317 1292 1278 1264 1219 1210 1181 1169
    1165 1165 1165 1165 1165 1165 1165 1165 1169 1169 1169 1169 1173
    1173 1173 1173 1173 1177 1177 1177 1177 1177 1177 1177 0 0 1387 1387
    1376 1370 1333 1292 1288 1278 1250 1223 1189 1177 1169 1165 1161
    1161 1161 1161 1161 1165 1165 1169 1169 1169 1169 1169 1173 1173
    1173 1173 1173 1173 1173 1173 1173 1173 1173 0 0 1381 1381 1370 1365
    1338 1292 1288 1273 1250 1227 1189 1173 1169 1161 1157 1157 1157
    1161 1161 1165 1165 1169 1169 1169 1169 1169 1169 1169 1169 1173
    1173 1173 1173 1173 1173 1173 1173 0 0 1381 1381 1370 1365 1343 1292
    1283 1264 1245 1227 1189 1169 1165 1161 1157 1157 1157 1157 1161
    1161 1161 1165 1165 1169 1169 1169 1169 1169 1169 1169 1169 1173
    1173 1173 1173 1173 1173 0 0 1370 1370 1370 1365 1343 1292 1283 1264
    1236 1232 1185 1169 1165 1157 1153 1153 1153 1157 1161 1161 1161
    1165 1165 1165 1169 1169 1169 1165 1165 1169 1169 1173 1173 1173
    1173 1173 1173 1173 0 0 1365 1365 1354 1343 1292 1283 1283 1236 1219
    1185 1169 1165 1157 1153 1153 1153 1153 1157 1161 1161 1161 1161
    1165 1165 1169 1169 1165 1165 1169 1169 1169 1169 1173 1173 1173
    1173 1173 0 0 1365 1365 1354 1338 1297 1288 1288 1236 1219 1210 1177
    1161 1157 1153 1153 1153 1153 1157 1157 1157 1161 1161 1161 1165
    1165 1161 1161 1165 1165 1169 1169 1169 1169 1169 1173 1173 1173 0
    1370 1359 1359 1349 1338 1297 1297 1241 1232 1214 1185 1177 1161
    1153 1153 1153 1149 1149 1153 1157 1157 1157 1157 1157 1157 1165
    1161 1161 1161 1165 1165 1165 1169 1169 1169 1169 1169 1169 1165
    1370 1370 1354 1349 1333 1302 1302 1241 1227 1214 1185 1173 1161
    1153 1149 1149 1149 1149 1153 1153 1153 1157 1157 1157 1157 1157
    1161 1161 1161 1161 1165 1165 1165 1165 1165 1165 1165 1165 1165
    1392 1359 1349 1343 1328 1307 1307 1241 1227 1214 1181 1169 1161
    1153 1149 1149 1149 1149 1149 1149 1153 1157 1157 1157 1157 1157
    1157 1157 1157 1161 1161 1161 1161 1161 1161 1161 1157 1157 1157
    1392 1354 1343 1338 1328 1307 1259 1245 1223 1189 1181 1169 1161
    1149 1149 1149 1145 1145 1149 1149 1149 1153 1153 1153 1153 1157
    1157 1157 1157 1157 1157 1157 1157 1157 1157 1157 1157 1157 1157
    1354 1354 1343 1338 1322 1288 1259 1250 1223 1189 1181 1169 1157
    1149 1145 1145 1145 1145 1149 1149 1149 1153 1153 1153 1153 1153
    1153 1153 1157 1157 1157 1157 1157 1157 1153 1153 1157 1157 1157
    1354 1354 1343 1338 1307 1278 1259 1250 1223 1189 1181 1169 1153
    1149 1145 1145 1145 1145 1149 1149 1149 1149 1149 1153 1153 1153
    1153 1153 1153 1153 1157 1153 1153 1157 1153 1153 1157 1157 0 1354
    1354 1343 1333 1297 1278 1264 1250 1219 1206 1181 1165 1153 1149
    1145 1145 1145 1145 1145 1145 1145 1149 1149 1153 1153 1153 1153
    1153 1153 1153 1153 1153 1153 1153 1153 1153 1157 1157 1153 1359
    1359 1349 1333 1292 1273 1259 1245 1219 1206 1181 1165 1153 1149
    1145 1141 1141 1138 1138 1138 1138 1145 1153 1153 1149 1149 1149
    1149 1153 1153 1153 1153 1153 1153 1153 1153 1153 1153 1153 0 0 1338
    1328 1292 1273 1259 1245 1232 1206 1181 1157 1145 1141 1138 1138
    1138 1138 1138 1138 1138 1145 1145 1149 1145 1145 1145 1145 1153
    1153 1153 1153 1153 1153 1153 1153 1153 1153 1153 0 1333 1333 1322
    1297 1273 1259 1241 1227 1206 1181 1157 1145 1138 1138 1134 1134
    1134 1134 1138 1138 1141 1145 1145 1145 1145 1145 1145 1149 1153
    1153 1153 1153 1153 1153 1153 1153 1153 1153 0 1349 1333 1307 1297
    1278 1259 1241 1223 1206 1169 1157 1145 1138 1134 1134 1134 1134
    1134 1134 1134 1138 1138 1141 1141 1141 1141 1141 1141 1149 1153
    1153 1153 1153 1153 1153 1153 1153 1153 0 1343 1333 1307 1292 1283
    1283 1236 1223 1185 1169 1157 1149 1138 1134 1134 1134 1134 1134
    1134 1134 1138 1138 1141 1141 1141 1141 1141 1141 1145 1149 1153
    1153 1153 1149 1149 1153 1153 1153 0 1343 1333 1307 1288 1283 1283
    1232 1219 1181 1165 1157 1145 1138 1134 1134 1134 1134 1134 1134
    1134 1138 1138 1138 1138 1138 1141 1141 1141 1141 1145 1145 1145
    1145 1145 1145 1149 1149 1149 0 1333 1333 1297 1288 1283 1283 1232
    1219 1181 1165 1153 1141 1138 1134 1130 1130 1130 1130 1130 1134
    1138 1138 1138 1138 1138 1138 1141 1141 1141 1141 1145 1145 1145
    1145 1145 1145 1145 1145 0 0 1333 1297 1288 1273 1255 1232 1219 1181
    1165 1149 1138 1134 1130 1130 1130 1130 1130 1130 1134 1138 1138
    1138 1138 1138 1138 1141 1141 1138 1138 1138 1141 1141 1141 1141
    1141 1141 1141 0 1333 1333 1292 1288 1268 1250 1223 1219 1181 1165
    1141 1134 1130 1126 1126 1126 1130 1130 1130 1130 1138 1138 1138
    1138 1138 1138 1138 1138 1138 1138 1138 1141 1141 1141 1141 1141
    1138 1138 0 0 1297 1292 1283 1268 1250 1223 1214 1181 1165 1138 1134
    1130 1123 1123 1123 1126 1126 1126 1126 1130 1134 1134 1134 1134
    1138 1138 1138 1138 1138 1138 1138 1138 1138 1138 1138 1138 1138
    1328 0 1297 1292 1283 1259 1250 1223 1210 1177 1161 1138 1134 1126
    1123 1123 1123 1123 1123 1123 1123 1126 1126 1130 1130 1130 1130
    1138 1138 1138 1138 1134 1134 1134 1138 1138 1138 1138 1138 1328
    1328 1302 1292 1283 1255 1250 1223 1210 1173 1161 1141 1134 1126
    1123 1123 1123 1123 1123 1123 1123 1126 1126 1126 1130 1130 1130
    1130 1134 1134 1130 1130 1134 1134 1138 1134 1134 1138 1138 1333
    1328 1312 1297 1283 1255 1245 1227 1189 1173 1161 1141 1134 1126
    1123 1123 1123 1123 1119 1119 1123 1126 1126 1126 1126 1126 1126
    1126 1126 1126 1130 1130 1134 1134 1130 1130 1130 1138 1138 1333
    1328 1312 1302 1283 1250 1241 1232 1185 1173 1161 1141 1134 1123
    1123 1119 1119 1119 1119 1119 1123 1123 1123 1126 1126 1126 1126
    1126 1126 1126 1126 1130 1130 1130 1130 1126 1126 1134 1134 1328
    1328 1307 1302 1283 1250 1236 1227 1181 1169 1161 1141 1130 1123
    1119 1119 1119 1119 1119 1119 1123 1123 1123 1126 1126 1126 1126
    1126 1126 1126 1126 1130 1130 1130 1126 1126 1126 1126 1126 1328
    1312 1302 1297 1273 1250 1236 1189 1181 1169 1161 1141 1130 1123
    1119 1119 1115 1115 1115 1119 1123 1123 1123 1123 1123 1123 1123
    1123 1126 1126 1126 1126 1126 1126 1126 1126 1126 1126 1126 1328
    1312 1297 1288 1273 1250 1232 1189 1177 1169 1153 1141 1130 1123
    1115 1112 1112 1112 1112 1115 1119 1123 1123 1123 1123 1123 1123
    1123 1123 1123 1126 1126 1126 1126 1126 1126 1126 1130 1130 1328
    1312 1288 1278 1268 1250 1232 1189 1177 1169 1153 1138 1126 1119
    1112 1112 1112 1112 1112 1112 1119 1119 1119 1123 1123 1123 1123
    1123 1123 1123 1123 1123 1123 1126 1126 1126 1126 1126 0 1333 1317
    1288 1278 1268 1255 1232 1210 1177 1169 1149 1134 1123 1115 1108
    1108 1108 1108 1108 1112 1119 1115 1115 1119 1119 1119 1123 1123
    1123 1123 1123 1123 1123 1123 1123 1123 1123 1126 0 1333 1317 1302
    1278 1264 1255 1236 1219 1181 1165 1149 1134 1119 1112 1108 1105
    1105 1108 1108 1108 1112 1115 1115 1119 1119 1119 1119 1119 1123
    1123 1123 1123 1123 1123 1123 1123 1123 1123 0 1333 1312 1307 1278
    1264 1255 1245 1185 1173 1165 1145 1134 1119 1112 1105 1105 1105
    1105 1108 1108 1112 1112 1112 1115 1115 1115 1115 1115 1119 1119
    1119 1119 1119 1123 1123 1123 1123 1123 1123 1328 1312 1307 1278
    1264 1250 1223 1185 1173 1165 1145 1134 1119 1112 1105 1105 1105
    1105 1105 1105 1108 1112 1112 1112 1112 1112 1112 1112 1115 1115
    1115 1115 1115 1119 1123 1119 1119 1126 1126 1322 1312 1307 1278
    1264 1245 1219 1185 1173 1165 1149 1138 1126 1105 1105 1105 1105
    1101 1101 1101 1108 1112 1112 1112 1112 1112 1112 1112 1112 1112
    1112 1112 1112 1112 1119 1119 1119 1119 1119 1322 1312 1307 1278
    1264 1236 1219 1185 1177 1165 1145 1134 1119 1105 1105 1105 1101
    1101 1101 1101 1108 1108 1108 1108 1108 1112 1112 1112 1108 1108
    1108 1112 1112 1112 1112 1115 1115 1115 1115 1322 1312 1302 1273
    1255 1236 1219 1189 1177 1161 1141 1130 1119 1105 1101 1101 1101
    1097 1097 1097 1105 1105 1108 1108 1108 1108 1108 1112 1108 1108
    1108 1112 1112 1112 1112 1112 1112 1108 1108 1322 1312 1302 1268
    1255 1236 1227 1189 1173 1149 1138 1126 1119 1105 1101 1101 1097
    1097 1097 1097 1105 1105 1108 1108 1108 1108 1108 1108 1108 1108
    1108 1108 1108 1108 1108 1112 1108 1108 1108 1317 1307 1292 1268
    1255 1236 1223 1189 1165 1145 1138 1126 1119 1101 1101 1101 1097
    1097 1097 1097 1101 1101 1105 1105 1108 1108 1108 1108 1108 1108
    1108 1108 1108 1108 1108 1108 1108 1108 1108 1312 1302 1288 1268
    1255 1236 1223 1181 1165 1145 1134 1123 1101 1097 1094 1094 1097
    1094 1094 1097 1101 1101 1101 1101 1105 1105 1105 1105 1105 1108
    1108 1108 1108 1108 1108 1108 1108 1108 1108 1312 1302 1288 1268
    1255 1236 1219 1181 1165 1149 1134 1123 1101 1094 1094 1094 1094
    1094 1094 1097 1097 1097 1097 1101 1101 1101 1101 1101 1101 1101
    1105 1105 1105 1108 1108 1108 1108 1108 1108 1307 1292 1283 1268
    1255 1236 1219 1181 1169 1161 1134 1105 1097 1094 1090 1090 1094
    1094 1094 1094 1097 1097 1097 1097 1097 1097 1097 1097 1097 1101
    1101 1105 1105 1105 1105 1108 1108 1108 1108 1302 1292 1283 1268
    1255 1236 1214 1185 1169 1165 1130 1101 1094 1090 1090 1090 1090
    1090 1090 1094 1097 1097 1097 1097 1097 1097 1097 1097 1097 1097
    1101 1101 1101 1101 1105 1105 1108 1108 1108 1302 1292 1278 1264
    1250 1232 1214 1181 1173 1153 1130 1094 1094 1090 1090 1090 1090
    1090 1090 1090 1094 1094 1094 1094 1094 1094 1094 1097 1097 1097
    1097 1097 1097 1097 1101 1105 1105 1105 1105 1302 1292 1273 1259
    1250 1232 1189 1181 1169 1145 1126 1094 1094 1087 1087 1087 1087
    1087 1090 1090 1094 1094 1094 1094 1094 1094 1094 1097 1097 1097
    1097 1097 1097 1097 1097 1101 1097 1097 1097 1302 1288 1273 1259
    1250 1223 1185 1177 1165 1145 1119 1097 1094 1087 1087 1084 1084
    1084 1084 1084 1090 1090 1094 1094 1094 1094 1094 1094 1097 1097
    1097 1097 1097 1097 1097 1097 1097 1097 1097 1302 1288 1273 1259
    1250 1223 1181 1177 1165 1165 1119 1101 1094 1080 1080 1084 1084
    1084 1084 1084 1087 1090 1094 1094 1094 1094 1094 1094 1094 1094
    1094 1097 1097 1097 1097 1097 1094 1094 1094 1302 1292 1273 1259
    1250 1219 1181 1173 1161 1149 1119 1105 1094 1080 1077 1077 1084
    1084 1084 1084 1087 1090 1094 1094 1094 1094 1094 1094 1094 1094
    1094 1097 1097 1097 1097 1097 1094 1094 1090 1297 1292 1283 1278
    1278 1219 1173 1173 1161 1149 1119 1112 1094 1080 1077 1077 1084
    1084 1087 1087 1094 1094 1097 1094 1094 1094 1094 1094 1094 1097
    1097 1097 1097 1097 1097 1097 1094 1094 1090 1297 1292 1283 1283
    1283 1173 1173 1173 1165 1153 1153 1153 1105 1105 1126 1126 1141
    1149 1145 1097 1097 1112 1101 1097 1094 1094 1094 1094 1097 1097
    1097 1097 1097 1097 1097 1097 1094 1094 1094 1288 1283 1264 1250
    1250 1250 1185 1181 1165 1165 1165 1165 1193 1126 1126 1126 1141
    1149 1145 1145 1123 1123 1119 1119 1165 1094 1094 1094 1094 1115
    1115 1141 1141 1138 1138 3503 2744 2744 2744 1283 1278 1264 1250
    1250 1214 1197 1189 1177 1173 1173 1193 1193 1193 1165 0 1165 1165
    1161 1153 1153 0 1169 1169 1165 1165 1157 1157 1149 1130 1130 1138
    1138 1138 1138 3503 3503 2701 2701 1283 1278 1268 1250 1236 1214
    1210 1210 1210 1206 1193 1193 1193 0 0 0 0 1181 1173 1173 0 0 0 1173
    1165 1165 1157 1157 1149 1145 1145 1134 1134 1138 3503 3503 3503
    2680 2659 1288 1278 1273 1259 1236 1219 1219 1219 1219 1214 1210
    1210 1210 0 0 0 0 0 0 0 0 0 0 1173 1169 1165 1165 1161 1157 1149
    1149 1134 1134 1141 3503 3468 3433 2659 2639 3614 1278 1278 1268
    1268 1273 1223 1219 1214 1214 1214 1214 1149 1149 0 0 0 0 0 0 0 0 0
    1165 0 1165 1165 1161 1157 1157 1157 3399 3503 3503 3468 3468 3433
    2659 2639 3614 3614 1278 1278 1278 1283 1283 1214 1214 1214 1214
    1214 1145 1145 0 0 0 0 0 0 0 0 0 0 1165 1165 1165 1165 1165 3433
    3399 3399 3433 3433 3468 3433 3433 3433 3399 3614 3614 3614 3614
    3614 3614 1210 1210 1210 1210 1214 1214 1145 1145 0 0 0 0 0 0 0 0 0
    0 0 1165 1165 1165 1165 3433 3399 3399 3433 3433 3468 3433 3433 3433
    3399 3614 3614 3614 3614 3614 3576 1210 1210 1206 1206 1206 1214
    1145 1145 0 0 0 0 0 0 0 0 0 0 0 3539 1165 1165 1165 1169 3433 3433
    3468 3468 3503 3433 3433 3433 3433 3614 3614 3653 3653 3653 3576
    3576 1210 1206 1206 1206 3539 1149 1149 1153 0 0 0 0 0 0 3576 3503
    3503 3503 3539 3539 1161 1161 1165 3468 3468 3468 3503 3468 3433
    3433 3433 3433 3614 3614 3653 3653 3576 3576 3576 1214 1210 1210
    1210 3539 1153 1153 1153 1153 0 0 0 0 0 3539 3468 3468 3503 3503
    1153 1153 1153 1157 3468 3468 3433 3433 3433 3433 3433 3433 3433
    3576 3576 3576 3576 3576 3576 3539 1210 1202 1202 1202 3539 1149
    1149 1149 1149 0 0 0 0 0 3539 3468 3468 3503 3503 1153 1153 1153
    1157 3468 3468 3433 3433 3433 3433 3433 3399 3399</data></Depth6869>
</opencv_storage>
