<?xml version="1.0"?>
<opencv_storage>
<Depth19800 type_id="opencv-matrix">
  <rows>59</rows>
  <cols>35</cols>
  <dt>w</dt>
  <data>
    0 0 0 0 0 0 0 2184 2184 2198 2212 0 0 0 0 0 2078 2053 2053 2053 2040
    2040 2040 2040 2040 2053 2053 2053 2053 2053 0 0 0 0 0 2226 2226
    2212 2198 2184 2170 2170 2170 2170 2170 2116 2116 2103 2103 2103
    2078 2078 2053 2053 2040 2040 2040 2040 2040 2040 2053 2053 2053
    2040 2040 2040 2040 0 9870 9870 2241 2226 2212 2198 2184 2170 2170
    2156 2143 2143 2116 2116 2103 2103 2103 2078 2065 2053 2040 2040
    2028 2028 2040 2040 2040 2040 2053 2053 2040 2040 2040 2040 9870
    9870 9870 2241 2226 2212 2198 2184 2184 2170 2156 2143 2143 2129
    2129 2116 2103 2090 2078 2065 2053 2040 2040 2028 2028 2028 2028
    2040 2040 2040 2040 2040 2040 2040 2040 9870 9870 9870 2241 2226
    2212 2198 2184 2184 2170 2156 2143 2143 2143 2129 2116 2103 2090
    2078 2053 2053 2040 2040 2028 2028 2028 2028 2040 2040 2040 2040
    2040 2040 2040 2040 9870 9870 9870 2241 2226 2212 2198 2198 2184
    2184 2170 2143 2143 2143 2129 2103 2103 2078 2065 2053 2053 2040
    2040 2028 2016 2016 2028 2028 2040 2040 2040 2040 2040 2053 2053 0 0
    9870 2226 2226 2212 2198 2184 2184 2184 2156 2143 2143 2129 2116
    2103 2090 2078 2065 2053 2053 2040 2040 2028 2016 2016 2028 2028
    2040 2040 2040 2040 2040 2053 2053 2053 0 9870 2226 2212 2198 2198
    2184 2184 2170 2156 2143 2143 2129 2116 2103 2090 2078 2065 2053
    2053 2040 2040 2028 2016 2016 2028 2028 2040 2040 2040 2040 2040
    2053 2053 2053 9870 9870 2226 2212 2198 2198 2184 2184 2170 2156
    2143 2143 2129 2116 2103 2090 2078 2065 2053 2053 2040 2040 2028
    2016 2016 2028 2028 2028 2028 2028 2040 2040 2040 2053 2053 9870
    9870 2226 2212 2198 2198 2184 2184 2170 2143 2143 2143 2129 2116
    2103 2090 2078 2065 2053 2053 2040 2028 2028 2028 2028 2028 2028
    2028 2028 2028 2040 2040 2040 2040 2040 9870 9870 2226 2212 2198
    2184 2184 2170 2156 2143 2143 2143 2129 2116 2103 2090 2078 2065
    2053 2040 2040 2028 2028 2028 2028 2028 2028 2028 2028 2028 2040
    2040 2040 2040 2040 9593 9593 2226 2212 2198 2184 2184 2170 2156
    2143 2129 2129 2129 2116 2103 2090 2078 2065 2053 2040 2040 2028
    2028 2028 2028 2028 2028 2028 2028 2028 2028 2040 2040 2040 2040
    9593 9593 2212 2212 2198 2184 2184 2156 2156 2143 2129 2129 2129
    2116 2103 2090 2078 2053 2053 2040 2040 2028 2028 2028 2028 2028
    2028 2028 2028 2028 2028 2040 2028 2005 2005 2005 9593 2212 2212
    2212 2184 2184 2156 2156 2143 2129 2129 2129 2103 2103 2090 2078
    2053 2040 2040 2040 2028 2028 2016 2016 2028 2028 2028 2028 2028
    2028 2028 2028 2005 2005 2005 9870 2212 2212 2198 2198 2184 2156
    2156 2143 2129 2116 2116 2103 2103 2103 2065 2053 2040 2040 2028
    2028 2028 2016 2016 2016 2028 2028 2028 2028 2028 2028 2016 2016
    2016 9870 9870 2212 2212 2198 2184 2184 2156 2156 2143 2143 2116
    2103 2103 2103 2090 2065 2053 2040 2040 2028 2016 2016 2016 2016
    2016 2028 2028 2028 2016 2016 2016 2016 2016 2016 0 0 2226 2212 2198
    2184 2184 2156 2156 2143 2129 2116 2103 2103 2090 2078 2065 2053
    2040 2040 2028 2016 2016 2005 2005 2016 2016 2016 2016 2016 2016
    2016 2016 2016 2016 9870 9870 2226 2212 2198 2184 2184 2170 2156
    2143 2129 2116 2103 2103 2090 2078 2053 2053 2053 2040 2040 2016
    2016 2005 2005 2005 2005 2005 2016 2016 2016 2016 2016 2016 2040
    2040 9870 2226 2212 2198 2184 2184 2170 2143 2143 2129 2116 2116
    2103 2090 2065 2053 2053 2053 2040 2040 2028 2028 2005 2005 2005
    2005 2005 2005 2016 2005 2005 2005 2005 2028 2028 9593 2226 2212
    2198 2198 2184 2156 2143 2143 2129 2116 2116 2103 2090 2065 2053
    2053 2053 2040 2040 2028 2016 2005 2005 2005 2005 2005 2005 2016
    2005 2005 2005 2005 2016 2016 9593 2226 2212 2198 2198 2184 2156
    2143 2129 2129 2129 2116 2103 2090 2065 2053 2053 2053 2040 2040
    2028 2005 2005 2005 2005 2005 2005 2005 2005 2016 2005 2005 2016
    2016 2016 9593 2226 2212 2198 2184 2184 2170 2143 2129 2129 2129
    2103 2103 2090 2065 2053 2053 2053 2040 2040 2028 2005 2005 2005
    2005 2005 2005 2005 2005 2005 2005 2005 2016 2016 2016 9593 2226
    2198 2198 2184 2184 2170 2156 2129 2129 2129 2103 2103 2090 2078
    2053 2053 2040 2040 2028 2016 2005 2005 2005 2005 2005 2005 2005
    2005 2005 2005 2005 2016 2016 2016 9593 3269 2198 2184 2184 2170
    2170 2156 2129 2129 2129 2116 2103 2090 2078 2065 2053 2040 2040
    2028 2016 2005 2005 2005 2005 2005 2005 2005 2005 2005 2005 2005
    2016 2016 2016 9593 3269 2198 2184 2184 2170 2156 2143 2129 2129
    2129 2116 2103 2090 2078 2065 2053 2040 2040 2016 2005 2005 2005
    2005 2005 2005 2005 2005 2005 2005 2005 2005 2005 1959 1959 1959
    3238 2198 2184 2184 2170 2156 2143 2129 2129 2129 2116 2103 2090
    2090 2065 2053 2040 2028 2016 2005 2005 2005 2005 2005 2005 2005
    2005 2005 2005 2005 2005 2005 1959 1959 1959 3178 2198 2198 2184
    2184 2156 2143 2129 2129 2116 2103 2103 2090 2078 2065 2053 2040
    2028 2016 2005 1993 1993 1993 2005 2005 2005 2005 2005 2005 2005
    2005 2005 2005 2016 2016 3178 2198 2198 2198 2184 2156 2143 2129
    2129 2116 2103 2090 2090 2078 2065 2053 2040 2028 2016 2005 1981
    1981 1993 1993 2005 2005 2005 1993 1993 1993 2005 2005 2005 2040 0
    3149 2198 2198 2184 2184 2156 2143 2129 2116 2103 2103 2090 2090
    2078 2065 2053 2040 2040 2016 2005 1981 1981 1993 1993 2005 1993
    1993 1993 1993 1993 2005 2005 2005 2040 2040 3092 2198 2198 2184
    2170 2156 2129 2116 2116 2103 2103 2090 2090 2078 2065 2053 2040
    2040 2028 2005 1981 1981 1993 1993 1993 1993 1993 1993 2005 2005
    2005 2005 2005 2005 0 3092 2184 2184 2184 2170 2156 2129 2116 2116
    2103 2103 2090 2078 2065 2065 2053 2040 2040 2028 2016 1993 1993
    1993 1993 1993 1993 1993 1993 2005 2005 2005 2005 2005 2005 0 3092
    2170 2156 2156 2156 2143 2129 2116 2116 2103 2103 2090 2078 2065
    2053 2040 2040 2040 2028 2005 1993 1993 1993 1993 1993 1993 1993
    1993 2005 2005 2005 2005 2005 2005 0 3092 2170 2156 2156 2156 2143
    2129 2116 2116 2103 2103 2090 2078 2078 2053 2040 2040 2040 2016
    2005 1993 1993 1993 1993 1993 1993 1993 1993 1993 2005 2005 1993
    1993 1993 1993 3149 2184 2170 2170 2156 2143 2129 2116 2116 2103
    2103 2090 2078 2065 2053 2040 2040 2028 2016 1993 1993 1993 1981
    1981 1981 1981 1981 1993 1993 1993 1993 1993 1993 1993 1993 3149
    2184 2170 2156 2156 2129 2129 2129 2129 2103 2103 2090 2078 2065
    2053 2040 2040 2028 2016 1993 1993 1981 1970 1970 1981 1981 1981
    1993 1993 1993 1993 1993 1993 2005 2005 2184 2184 2170 2156 2156
    2129 2129 2116 2116 2103 2090 2090 2078 2065 2053 2040 2028 2016
    2005 1993 1993 1981 1970 1970 1981 1981 1981 1993 1993 1993 1993
    1993 1993 2005 2005 3269 2170 2170 2170 2143 2129 2129 2116 2116
    2103 2090 2078 2065 2053 2053 2040 2028 2016 2005 1993 1993 1970
    1970 1970 1981 1981 1981 1993 1993 1993 1993 1993 2005 2005 2005
    3269 2170 2170 2156 2143 2129 2116 2103 2103 2103 2090 2078 2065
    2053 2053 2040 2028 2016 2005 1993 1993 1970 1970 1970 1970 1981
    1981 1981 1981 1981 1993 1993 1993 1993 2005 0 2156 2156 2156 2143
    2129 2116 2103 2103 2103 2090 2090 2078 2065 2053 2040 2028 2016
    2005 1993 1993 1970 1970 1970 1970 1970 1981 1981 1981 1981 1993
    1993 1993 1981 1981 0 2156 2143 2143 2143 2129 2116 2103 2103 2103
    2090 2090 2078 2065 2053 2040 2028 2016 2005 1993 1981 1970 1970
    1970 1970 1970 1981 1981 1981 1993 1993 1993 1993 1970 1970 0 2156
    2143 2143 2129 2129 2116 2103 2103 2090 2090 2090 2078 2065 2053
    2040 2028 2016 2005 1993 1981 1970 1970 1970 1970 1970 1981 1981
    1981 1993 1993 1993 1993 1970 1970 0 2184 2156 2143 2129 2129 2116
    2090 2090 2090 2090 2090 2065 2065 2053 2040 2028 2016 2005 1993
    1981 1970 1970 1970 1970 1970 1981 1981 1981 1993 1993 1993 1981
    1970 1970 0 0 2156 2156 2143 2129 2116 2090 2090 2090 2090 2078 2053
    2053 2053 2040 2028 2016 1993 1993 1981 1970 1970 1970 1970 1970
    1981 1981 1993 1993 1993 1993 1981 1981 1981 0 0 2156 2143 2129 2129
    2116 2090 2090 2090 2090 2078 2053 2053 2040 2040 2028 2016 1993
    1993 1981 1970 1959 1959 1970 1970 1981 1981 1993 1993 1993 1981
    1981 1981 1981 0 0 2156 2143 2129 2129 2103 2090 2090 2090 2090 2065
    2053 2053 2040 2040 2028 2005 1993 1993 1970 1959 1959 1959 1970
    1970 1981 1993 1993 1993 1993 1981 1981 1981 1993 0 0 2156 2143 2129
    2129 2090 2090 2090 2090 2090 2065 2053 2053 2040 2040 2028 2005
    1993 1993 1970 1959 1959 1959 1970 1970 1981 1993 1993 1993 1993
    1981 1981 1993 1993 0 0 3333 3300 3300 2090 2090 2090 2090 2090 2090
    2065 2053 2053 2040 2040 2028 2005 1993 1981 1970 1959 1959 1959
    1959 1970 1981 1981 1993 1993 1981 1981 1981 1993 1993 3333 3333
    3333 3300 3300 3300 3365 3365 2090 2078 2078 2065 2053 2053 2040
    2040 2040 2005 1993 1981 1970 1959 1959 1959 1959 1970 1970 1981
    1981 1981 1981 1970 1970 1993 1993 3333 3333 3333 3333 3300 3300
    3365 3365 2078 2078 2078 2065 2065 2040 2040 2040 2040 2005 1993
    1981 1970 1959 1959 1959 1959 1959 1970 1970 1970 1970 1959 1959
    1970 1970 5640 3300 3300 3300 3300 3300 3300 3300 3300 2053 2053
    2053 2065 2065 2040 2040 2040 2040 2016 2005 1981 1970 1959 1959
    1959 1959 1959 1970 1959 1959 1970 1959 1959 1981 5548 5640 3269
    3269 3300 3300 3269 3269 3300 3300 3300 2053 2053 2065 2065 2065
    2065 2053 2053 2028 2016 1993 1959 1959 1959 1959 1959 1959 1970
    1959 1959 5640 5640 5548 5548 5460 5460 3269 3269 3300 3300 3269
    3238 3238 3269 3269 2065 2065 2053 2053 2065 2065 2053 2053 2040
    2028 2028 1959 1959 1959 1959 1959 1959 5548 5460 5460 5548 5548
    5548 5548 5460 5460 3269 3269 3365 3300 3269 3238 3238 3238 3238
    3238 2065 2053 2053 2065 2065 2053 2053 2040 2040 2040 2040 2040
    5640 5640 5640 5548 5548 5460 5460 5548 5548 5548 5460 5460 5460 0 0
    3365 3269 3269 3238 3238 3238 3238 3300 3300 2065 2065 2065 2090
    2090 2053 2053 2053 2065 2065 2090 2090 5640 5640 5460 5460 5460
    5460 5460 5460 5460 5460 5374 5291 0 0 0 3269 3269 3269 2090 2090
    2103 3300 3300 2090 2078 2103 2103 2090 2053 2053 2053 2143 2143
    2090 2090 2090 2090 5460 5460 5291 5291 5374 5374 5460 5460 5374
    5291 0 0 0 0 0 3300 2090 2090 2090 2090 2090 2090 2078 2078 2078
    2078 2053 2053 2053 2116 2103 2090 2090 2065 2065 2065 5291 5291
    5210 5210 5210 5291 5374 5374 5291 0 0 0 0 0 2090 2078 2078 2078
    2090 2078 2065 2065 2065 2065 2053 2053 2053 2053 2090 2078 2065
    2065 2053 2040 2040 2040 2040 5210 5210 5210 5210 5291 5291 5210 0 0
    0 0 0 2078 2078 2078 2078 2078 2078 2065 2053 2053 2053 2028 2028
    2028 2040 2040 2040 2028 2016 2016 2016 2016 2028 2028 2028 5291
    5210 5210 5210 5210 5210 0 0 0 0 0 2078 2078 2078 2078 2065 2065
    2053 2053 2040 2040 2005 2005 2005 2005 2005 2016 2005 2005 2005
    2016 2016 2016 2028 2028 2040 5210 5210 5210 5132 5132</data></Depth19800>
</opencv_storage>
