<?xml version="1.0"?>
<opencv_storage>
<Depth9698 type_id="opencv-matrix">
  <rows>40</rows>
  <cols>79</cols>
  <dt>w</dt>
  <data>
    3994 1445 1445 1445 1445 1445 1439 1433 1433 1433 1427 1427 1421
    1421 1421 1421 1427 1427 1427 1427 3859 3859 3903 3903 3903 3903
    3903 3903 3903 3859 3816 3816 3816 3859 3859 3859 3816 3816 3816
    3774 3774 3774 3774 3774 3774 3774 3774 3774 3774 3774 3774 3774
    3774 3774 3774 3732 3732 3732 3692 3653 3653 3653 3614 3614 3653
    3653 3732 3774 3774 3774 3774 3732 3692 3692 2933 2933 2908 2883
    2883 1445 1439 1439 1439 1433 1433 1433 1427 1427 1427 1427 1427
    1421 1421 1421 1421 1421 1415 1415 1410 1410 1410 1410 1410 1410
    1410 1404 1404 1404 1404 1404 1404 1404 1404 1398 1398 1398 1398
    3816 3774 3774 3774 3774 3774 3774 3774 3774 3774 3774 3774 3774
    3774 3774 3774 3774 3732 3732 3732 3692 3653 3653 3653 3614 3614
    3614 3653 3732 3732 3732 3732 3732 3692 3692 3653 2933 2933 2908
    2883 2883 1445 1439 1439 1433 1433 1427 1427 1421 1421 1421 1421
    1421 1421 1421 1421 1421 1415 1415 1415 1410 1410 1410 1410 1410
    1410 1410 1404 1404 1404 1404 1404 1404 1404 1398 1398 1392 1392
    1392 1398 1392 1392 3774 3774 3774 1381 1381 1381 3774 3774 3774
    3732 3732 3774 3774 3774 3732 3732 3732 3692 3653 3653 3653 3614
    3614 3614 3653 3653 3653 3732 3732 3732 3692 3692 3653 3653 2958
    2908 2908 2883 1445 1445 1439 1427 1427 1421 1421 1415 1415 1415
    1415 1415 1415 1415 1415 1410 1410 1404 1404 1410 1410 1410 1404
    1404 1404 1404 1404 1404 1398 1398 1398 1398 1398 1398 1392 1392
    1392 1392 1392 1392 1392 1387 1387 1387 1381 1381 1381 1387 1381
    1381 1381 3653 1387 1381 1381 1381 3732 3732 3692 3653 3653 3653
    3614 3614 3614 3614 3653 3653 3653 3653 3732 3732 3653 3653 3692
    2958 2908 2908 2883 1445 1439 1433 1427 1421 1421 1415 1410 1404
    1404 1404 1404 1404 1404 1404 1404 1404 1404 1404 1404 1404 1404
    1404 1404 1398 1398 1398 1398 1392 1392 1392 1392 1398 1392 1392
    1387 1387 1387 1387 1387 1387 1387 1387 1387 1381 1381 1381 1381
    1376 1376 1376 1376 1376 1376 1376 1376 1376 1376 1376 1381 1381
    1381 1381 1387 1387 3614 1392 1392 3653 3653 3692 1370 1370 3653
    3692 2933 2908 2908 2883 1439 1433 1427 1421 1421 1415 1410 1404
    1404 1404 1398 1398 1398 1398 1398 1398 1398 1398 1398 1398 1398
    1398 1398 1398 1392 1392 1392 1387 1387 1387 1387 1387 1387 1387
    1387 1387 1387 1381 1381 1381 1381 1381 1376 1376 1376 1376 1376
    1376 1370 1370 1370 1370 1370 1376 1370 1370 1370 1370 1370 1376
    1370 1370 1376 1370 1370 1370 1376 1376 1370 1370 1376 1370 1370
    1370 3692 2933 2883 2883 2835 1439 1433 1427 1421 1415 1410 1404
    1398 1398 1398 1398 1398 1392 1392 1392 1392 1392 1392 1392 1392
    1392 1387 1387 1387 1387 1381 1381 1381 1381 1381 1381 1381 1381
    1381 1381 1376 1376 1376 1376 1376 1376 1376 1370 1370 1370 1370
    1370 1365 1365 1365 1365 1365 1365 1370 1365 1365 1365 1365 1365
    1365 1365 1365 1370 1370 1370 1370 1376 1376 1370 1370 1370 1370
    1370 1365 1365 1365 2883 2883 2812 1433 1427 1421 1415 1404 1404
    1398 1392 1392 1392 1392 1392 1387 1387 1387 1381 1381 1381 1381
    1387 1387 1381 1381 1381 1376 1370 1370 1376 1376 1376 1376 1376
    1376 1376 1370 1370 1365 1365 1365 1370 1365 1365 1365 1365 1365
    1365 1365 1365 1359 1359 1359 1359 1359 1365 1359 1359 1359 1359
    1359 1359 1359 1359 1359 1359 1359 1365 1370 1370 1370 1370 1365
    1365 1365 1359 1359 1359 1359 2812 2812 1433 1427 1415 1404 1392
    1387 1387 1387 1387 1387 1381 1381 1381 1381 1381 1376 1376 1376
    1376 1381 1381 1381 1381 1376 1370 1370 1370 1370 1370 1370 1370
    1370 1370 1370 1365 1365 1365 1365 1365 1365 1365 1365 1359 1359
    1359 1359 1359 1359 1359 1359 1359 1354 1354 1354 1354 1349 1349
    1354 1354 1354 1354 1354 1359 1359 1359 1354 1354 1354 1359 1359
    1359 1359 1354 1354 1354 1354 1354 2812 2812 3859 1392 1392 1387
    1381 1381 1376 1376 1376 1376 1376 1381 1376 1376 1376 1370 1370
    1370 1370 1370 1370 1376 1370 1370 1365 1365 1365 1365 1365 1365
    1365 1365 1365 1365 1365 1359 1359 1359 1359 1359 1354 1354 1354
    1354 1359 1359 1354 1354 1354 1354 1354 1349 1349 1349 1349 1343
    1343 1343 1343 1343 1343 1343 1349 1354 1354 1349 1349 1349 1349
    1349 1349 1349 1349 1349 1349 1354 1359 1359 2835 3859 1381 1381
    1381 1376 1376 1370 1370 1370 1370 1370 1376 1370 1370 1365 1365
    1365 1359 1359 1370 1370 1370 1365 1365 1359 1359 1359 1359 1359
    1359 1359 1359 1359 1359 1359 1354 1354 1354 1354 1354 1349 1349
    1354 1354 1354 1349 1349 1343 1343 1343 1343 1343 1343 1343 1343
    1343 1343 1343 1343 1343 1343 1343 1343 1349 1343 1343 1343 1343
    1343 1343 1343 1343 1338 1338 1343 1349 1359 1359 2835 3948 1381
    1381 1365 1365 1365 1359 1359 1359 1359 1359 1359 1359 1359 1359
    1359 1359 1359 1359 1365 1365 1365 1359 1359 1359 1359 1359 1359
    1359 1359 1354 1354 1354 1349 1349 1349 1349 1349 1343 1343 1343
    1343 1349 1349 1349 1343 1343 1343 1343 1343 1343 1343 1343 1343
    1343 1343 1338 1338 1338 1338 1338 1338 1343 1343 1343 1343 1338
    1338 1338 1333 1333 1333 1328 1328 1328 1328 1328 2812 2812 0 1381
    1381 1365 1359 1354 1354 1354 1349 1349 1349 1359 1354 1354 1354
    1354 1354 1354 1354 1365 1359 1359 1359 1359 1359 1359 1354 1354
    1354 1354 1349 1343 1343 1343 1343 1343 1343 1343 1338 1338 1343
    1343 1343 1343 1343 1343 1338 1338 1338 1338 1338 1338 1338 1338
    1338 1338 1333 1333 1333 1333 1333 1333 1338 1338 1333 1333 1333
    1333 1333 1328 1328 1328 1328 1328 1328 1328 1328 2789 2789 0 1354
    1354 1354 1354 1354 1349 1349 1349 1343 1343 1343 1343 1343 1343
    1349 1349 1349 1349 1349 1349 1349 1349 1349 1349 1349 1349 1349
    1343 1343 1338 1338 1338 1338 1338 1338 1338 1338 1338 1338 1338
    1338 1338 1338 1338 1338 1333 1333 1333 1333 1333 1333 1333 1333
    1333 1328 1328 1322 1322 1328 1322 1322 1328 1328 1328 1322 1322
    1328 1328 1328 1322 1322 1322 1322 1322 1322 1322 1322 2789 0 1338
    1343 1343 1343 1343 1343 1343 1338 1338 1338 1338 1338 1338 1338
    1338 1338 1338 1338 1343 1338 1338 1343 1343 1343 1343 1343 1338
    1338 1338 1333 1333 1333 1328 1328 1333 1333 1333 1328 1328 1333
    1333 1333 1328 1328 1328 1328 1328 1328 1328 1328 1328 1328 1328
    1328 1322 1322 1317 1317 1322 1322 1322 1322 1322 1322 1322 1322
    1322 1322 1322 1322 1317 1317 1317 1317 1317 1317 1317 2812 3859
    1338 1338 1338 1338 1343 1338 1338 1333 1333 1333 1333 1333 1333
    1333 1333 1333 1333 1333 1333 1328 1328 1338 1338 1333 1333 1333
    1333 1333 1333 1328 1328 1322 1322 1322 1322 1322 1322 1322 1322
    1322 1322 1322 1322 1322 1322 1322 1322 1322 1322 1322 1322 1317
    1317 1317 1322 1317 1317 1317 1317 1317 1317 1312 1312 1317 1317
    1317 1317 1312 1312 1317 1312 1312 1312 1307 1307 1307 1307 2789
    3859 1333 1333 1338 1338 1333 1333 1328 1328 1328 1322 1322 1322
    1322 1322 1322 1322 1322 1322 1322 1322 1322 1322 1322 1322 1322
    1322 1322 1322 1322 1322 1322 1322 1317 1317 1317 1317 1317 1317
    1317 1317 1317 1317 1317 1317 1317 1317 1317 1317 1317 1317 1317
    1312 1312 1312 1312 1312 1307 1307 1307 1307 1312 1307 1307 1307
    1307 1307 1307 1307 1307 1312 1307 1307 1307 1302 1302 1302 1302
    1302 3859 1333 1333 1333 1333 1328 1322 1317 1317 1317 1317 1317
    1317 1317 1317 1317 1317 1317 1317 1322 1317 1317 1317 1317 1317
    1317 1317 1317 1312 1312 1317 1317 1317 1317 1317 1317 1317 1317
    1317 1317 1317 1317 1317 1312 1312 1312 1312 1312 1312 1312 1312
    1312 1302 1302 1307 1302 1302 1302 1302 1307 1307 1307 1307 1307
    1307 1307 1307 1302 1302 1302 1307 1307 1307 1302 1297 1292 1292
    1302 1302 1338 1333 1328 1322 1317 1317 1312 1312 1312 1312 1317
    1317 1317 1317 1317 1317 1317 1317 1317 1317 1317 1317 1317 1312
    1312 1312 1312 1312 1307 1307 1302 1302 1307 1307 1312 1312 1312
    1312 1312 1312 1312 1307 1307 1302 1302 1302 1302 1302 1307 1307
    1307 1307 1302 1302 1302 1297 1297 1297 1297 1297 1297 1302 1302
    1302 1302 1302 1297 1297 1297 1297 1302 1297 1292 1292 1292 1288
    1288 1288 1283 1338 1328 1328 1317 1317 1312 1312 1312 1307 1307
    1312 1312 1312 1312 1312 1312 1312 1312 1312 1312 1312 1312 1307
    1307 1302 1302 1302 1302 1302 1302 1297 1297 1302 1302 1302 1302
    1302 1307 1307 1307 1302 1302 1302 1302 1302 1302 1302 1302 1302
    1302 1297 1297 1297 1297 1297 1297 1297 1297 1297 1297 1297 1297
    1302 1302 1297 1297 1292 1292 1292 1292 1292 1292 1288 1283 1283
    1283 1283 1283 1283 1338 1328 1322 1312 1312 1307 1307 1307 1307
    1307 1307 1302 1302 1302 1302 1302 1302 1302 1302 1307 1302 1302
    1302 1302 1302 1302 1297 1297 1297 1297 1297 1297 1297 1297 1297
    1297 1297 1297 1297 1297 1302 1297 1297 1297 1297 1297 1297 1292
    1292 1292 1292 1292 1292 1292 1292 1292 1292 1292 1292 1292 1292
    1292 1292 1292 1292 1292 1292 1292 1292 1288 1288 1283 1283 1278
    1278 1278 1278 1278 1283 1338 1328 1322 1312 1307 1297 1297 1297
    1302 1302 1302 1297 1297 1297 1297 1297 1297 1297 1297 1297 1297
    1297 1297 1297 1297 1297 1292 1292 1297 1292 1292 1292 1292 1292
    1292 1292 1288 1288 1288 1288 1288 1283 1283 1288 1297 1297 1297
    1292 1288 1288 1288 1288 1288 1288 1288 1288 1288 1283 1283 1283
    1283 1283 1288 1288 1288 1288 1288 1288 1288 1288 1288 1278 1278
    1268 1268 1268 1273 1273 1278 1333 1322 1317 1307 1302 1297 1292
    1292 1297 1297 1297 1292 1292 1292 1292 1292 1292 1292 1297 1292
    1292 1292 1292 1292 1292 1288 1288 1288 1288 1288 1288 1292 1288
    1288 1283 1283 1283 1283 1283 1283 1278 1278 1278 1278 1283 1283
    1283 1288 1283 1283 1283 1283 1283 1283 1283 1283 1283 1283 1283
    1283 1283 1283 1283 1283 1288 1283 1283 1278 1278 1278 1278 1268
    1268 1268 1268 1268 1273 1273 1278 1333 1312 1312 1302 1297 1292
    1292 1288 1288 1292 1292 1292 1292 1288 1288 1288 1288 1288 1292
    1288 1288 1288 1288 1283 1283 1283 1283 1283 1283 1283 1283 1283
    1283 1283 1278 1278 1278 1278 1278 1273 1273 1273 1273 1278 1278
    1278 1278 1278 1278 1278 1278 1278 1278 1278 1278 1278 1273 1273
    1278 1278 1273 1273 1278 1283 1283 1283 1278 1273 1273 1268 1268
    1264 1264 1264 1264 1264 1268 1268 1268 1302 1302 1302 1297 1292
    1292 1288 1283 1283 1288 1288 1288 1288 1278 1278 1283 1283 1283
    1283 1283 1283 1283 1283 1283 1283 1283 1283 1278 1278 1278 1278
    1278 1278 1278 1278 1278 1273 1273 1268 1268 1268 1268 1268 1273
    1273 1268 1268 1268 1273 1273 1268 1268 1268 1273 1273 1268 1268
    1268 1268 1264 1264 1264 1273 1273 1278 1273 1268 1268 1268 1268
    1268 1264 1264 1259 1259 1259 1259 1255 1255 1297 1297 1297 1292
    1292 1288 1278 1278 1278 1278 1278 1278 1278 1273 1273 1278 1273
    1273 1283 1278 1278 1278 1278 1278 1278 1278 1278 1278 1278 1273
    1273 1273 1273 1273 1268 1268 1264 1264 1264 1264 1264 1264 1264
    1268 1264 1264 1264 1264 1264 1264 1264 1264 1264 1259 1259 1259
    1264 1264 1264 1264 1264 1264 1268 1268 1268 1264 1264 1264 1264
    1264 1264 1264 1259 1259 1250 1250 1250 1245 1245 1288 1288 1292
    1288 1283 1278 1273 1273 1273 1273 1273 1273 1273 1273 1273 1273
    1273 1273 1273 1273 1273 1273 1278 1278 1278 1278 1273 1273 1273
    1268 1268 1268 1268 1264 1264 1264 1259 1259 1259 1259 1259 1259
    1259 1264 1264 1264 1264 1264 1264 1259 1259 1255 1255 1259 1259
    1259 1259 1255 1255 1255 1259 1259 1259 1259 1264 1259 1259 1255
    1255 1255 1259 1259 1250 1250 1245 1245 1245 1245 1241 1283 1283
    1288 1278 1273 1268 1268 1264 1264 1268 1268 1268 1264 1264 1264
    1268 1264 1264 1268 1264 1264 1268 1268 1268 1268 1268 1268 1264
    1264 1264 1264 1259 1259 1259 1259 1259 1259 1259 1259 1255 1255
    1259 1259 1259 1259 1259 1259 1255 1255 1255 1255 1255 1255 1255
    1255 1255 1255 1250 1250 1245 1245 1250 1255 1259 1259 1255 1250
    1250 1250 1250 1250 1250 1250 1245 1241 1241 1245 1241 1241 1278
    1278 1278 1273 1264 1259 1259 1259 1259 1264 1264 1264 1264 1264
    1264 1259 1259 1259 1259 1259 1259 1259 1264 1264 1259 1259 1264
    1259 1259 1259 1259 1259 1255 1255 1255 1255 1255 1255 1255 1255
    1255 1255 1255 1259 1255 1250 1250 1250 1250 1250 1250 1250 1250
    1250 1245 1245 1245 1245 1245 1245 1245 1245 1250 1250 1250 1250
    1245 1245 1245 1245 1245 1241 1241 1241 1236 1236 1241 1236 1232
    1278 1273 1268 1268 1264 1259 1259 1255 1255 1259 1259 1259 1259
    1259 1259 1259 1255 1255 1259 1255 1255 1259 1259 1255 1255 1255
    1255 1255 1255 1255 1250 1250 1255 1255 1250 1250 1250 1250 1250
    1250 1250 1250 1250 1250 1245 1245 1245 1245 1245 1245 1241 1241
    1245 1245 1245 1241 1241 1241 1241 1241 1241 1241 1245 1241 1241
    1245 1245 1245 1241 1241 1236 1236 1236 1236 1236 1232 1232 1227
    1227 1264 1264 1264 1264 1259 1259 1255 1255 1255 1255 1255 1255
    1255 1255 1255 1255 1255 1255 1250 1250 1250 1255 1255 1250 1250
    1250 1250 1250 1250 1245 1245 1245 1245 1245 1245 1245 1245 1245
    1245 1245 1245 1241 1241 1241 1241 1245 1245 1241 1241 1241 1241
    1241 1241 1241 1241 1236 1236 1236 1236 1236 1236 1236 1236 1236
    1236 1236 1236 1232 1232 1232 1232 1232 1232 1227 1227 1227 1223
    1223 1219 1264 1264 1259 1259 1259 1255 1255 1250 1250 1250 1250
    1250 1250 1250 1250 1250 1245 1245 1245 1245 1245 1250 1250 1250
    1245 1245 1245 1245 1245 1245 1245 1245 1245 1245 1245 1245 1241
    1241 1241 1241 1241 1236 1236 1236 1236 1241 1241 1236 1236 1232
    1232 1232 1232 1232 1232 1232 1232 1232 1232 1232 1232 1232 1232
    1232 1232 1232 1232 1232 1227 1227 1227 1227 1223 1223 1219 1219
    1219 1219 1219 1264 1259 1259 1259 1255 1255 1250 1245 1245 1245
    1245 1245 1245 1245 1245 1245 1241 1241 1245 1245 1245 1241 1241
    1245 1241 1241 1241 1241 1241 1241 1241 1241 1241 1241 1241 1241
    1241 1241 1236 1236 1232 1232 1232 1232 1232 1236 1236 1236 1227
    1227 1227 1227 1227 1227 1227 1232 1232 1223 1223 1227 1227 1227
    1232 1227 1227 1219 1219 1223 1223 1223 1219 1219 1219 1214 1214
    1214 1214 1214 1214 1264 1259 1259 1259 1255 1255 1245 1241 1241
    1241 1241 1241 1241 1241 1241 1241 1241 1241 1241 1241 1241 1236
    1236 1236 1241 1241 1241 1236 1236 1236 1236 1236 1236 1236 1236
    1236 1236 1232 1232 1227 1227 1227 1227 1227 1227 1227 1223 1223
    1227 1227 1227 1223 1223 1223 1223 1223 1223 1223 1223 1223 1223
    1223 1227 1223 1219 1214 1214 1219 1219 1219 1214 1214 1214 1214
    1210 1210 1210 1206 1202 1264 1259 1259 1255 1255 1250 1245 1241
    1241 1241 1241 1241 1241 1236 1236 1236 1236 1236 1241 1236 1236
    1232 1232 1236 1236 1236 1232 1232 1232 1232 1232 1232 1232 1232
    1227 1227 1232 1232 1227 1227 1227 1227 1227 1227 1223 1223 1219
    1219 1219 1223 1219 1219 1219 1214 1214 1219 1214 1214 1214 1214
    1219 1219 1223 1219 1214 1214 1214 1219 1219 1214 1210 1210 1210
    1210 1210 1210 1202 1197 1197 1264 1255 1255 1255 1255 1250 1245
    1241 1241 1241 1241 1241 1241 1236 1236 1236 1236 1236 1241 1236
    1232 1232 1232 1232 1232 1232 1232 1227 1227 1227 1227 1227 1227
    1227 1223 1223 1223 1223 1223 1223 1223 1223 1223 1223 1223 1223
    1219 1214 1214 1219 1214 1214 1214 1210 1210 1214 1210 1210 1210
    1210 1210 1214 1219 1214 1214 1214 1214 1214 1214 1210 1210 1206
    1206 1206 1206 1206 1197 1197 1193 1255 1255 1255 1255 1255 1255
    1250 1250 1241 1241 1241 1241 1241 1236 1236 1236 1236 1236 1241
    1236 1232 1232 1232 1232 1232 1232 1227 1227 1227 1227 1227 1227
    1227 1223 1223 1223 1219 1219 1214 1214 1214 1219 1223 1223 1219
    1214 1214 1210 1210 1210 1210 1210 1210 1210 1210 1210 1210 1210
    1210 1210 1210 1210 1214 1210 1210 1210 1210 1210 1210 1206 1206
    1202 1202 1197 1193 1193 1189 1189 1193 0 0 1255 1255 1255 1255 1255
    1255 1255 1250 1250 1241 1241 1241 1236 1236 1236 1236 1241 1236
    1232 1232 1232 1232 1232 1232 1227 1227 1227 1227 1227 1227 1227
    1223 1223 1223 1219 1219 1214 1214 1214 1214 1219 1219 1214 1214
    1210 1210 1210 1210 1210 1210 1210 1206 1206 1206 1210 1206 1206
    1206 1202 1202 1206 1206 1206 1202 1202 1202 1197 1197 1197 1197
    1197 1189 1189 1189 1185 1185 1189 0 0 0 1259 1259 1255 1255 1255
    1255 1255 1250 1245 1241 1241 1241 1241 1241 1241 1241 1241 1236
    1236 1236 1232 1232 1232 1232 1232 1232 1227 1227 1227 1227 1223
    1223 1223 1219 1219 1219 1214 1214 1214 1219 1219 1214 1214 1210
    1210 1210 1210 1206 1206 1206 1206 1206 1206 1206 1206 1206 1197
    1193 1193 1202 1202 1202 1202 1197 1197 1193 1193 1193 1189 1189
    1185 1185 1181 1181 1181 1185 0 0 0 1264 1259 1259 1259 1259 1259
    1255 1255 1250 1245 1245 1241 1241 1241 1241 1245 1241 1241 1241
    1241 1236 1236 1232 1232 1232 1232 1227 1227 1227 1227 1223 1223
    1223 1223 1223 1223 1219 1219 1219 1219 1214 1214 1214 1210 1210
    1206 1206 1206 1206 1206 1206 1206 1206 1206 1202 1202 1197 1193
    1193 1197 1197 1197 1197 1197 1197 1189 1189 1185 1185 1185 1181
    1181 1181 1181 1181 1181</data></Depth9698>
</opencv_storage>
