<?xml version="1.0"?>
<opencv_storage>
<Depth14201 type_id="opencv-matrix">
  <rows>62</rows>
  <cols>56</cols>
  <dt>w</dt>
  <data>
    5832 5734 5734 5734 5734 5734 5734 5734 5640 5640 5548 5460 5460
    5460 5460 5374 5374 5291 5291 5291 5291 5291 5291 5291 5291 5291
    5210 1671 1671 1671 1663 1663 1663 1663 4842 4842 4774 4774 4842
    4774 4774 4774 4774 4774 4645 4645 4582 4582 4582 4582 4582 4522
    4522 4522 4463 4405 5933 5832 5734 5734 5734 5734 5640 5640 5640
    5640 5640 5548 5460 5374 5374 5374 5374 5291 5291 5291 5210 5210
    5210 1663 1663 1655 1655 1655 1655 1663 1663 1663 1663 1663 1671
    1671 4774 4774 4774 4774 4842 4774 4774 4774 4708 4645 4645 4645
    4582 4582 4582 4522 4522 4522 4463 4463 5933 5832 5734 5734 5734
    5734 5640 5640 5640 5640 5640 5548 5460 5374 5374 5374 5374 5374
    5291 5291 5210 5210 1655 1655 1655 1647 1647 1647 1647 1655 1655
    1663 1663 1663 1655 1655 1655 4774 4774 4774 4842 4774 4774 4774
    4708 4708 4708 4645 4582 4582 4582 4522 4522 4522 4463 4405 5933
    5832 5734 5734 5734 5734 5734 5734 5640 5640 5640 5548 5460 5374
    5374 5374 5374 5374 5460 5460 1655 1655 1647 1647 1647 1647 1647
    1647 1647 1655 1655 1655 1655 1663 1655 1647 1647 1647 4774 4774
    4842 4774 4774 4774 4708 4708 4708 4645 4582 4582 4582 4522 4522
    4522 4463 4405 5832 5832 5832 5734 5734 5734 5734 5640 5640 5640
    5640 5548 5374 5374 5291 5291 1680 1671 1671 1671 1655 1647 1647
    1639 1639 1639 1639 1639 1647 1655 1655 1655 1655 1655 1655 1647
    1647 1647 4911 4911 4911 4842 4774 4774 4708 4708 4708 4645 4645
    4582 4582 4522 4522 4522 4463 4463 5832 5832 5832 5734 5734 5734
    5734 5640 5640 5640 5548 5548 5291 5291 1688 1688 1680 1671 1671
    1671 1655 1647 1639 1639 1639 1639 1639 1639 1647 1647 1655 1655
    1655 1655 1663 1655 1655 1655 4983 4983 4911 4842 4842 4774 4708
    4708 4708 4645 4645 4582 4582 4582 4522 4522 4522 4463 5933 5933
    5832 5734 5734 5734 5734 5734 5640 5640 5548 5548 5291 1705 1688
    1688 1680 1671 1671 1680 1663 1647 1639 1639 1639 1639 1639 1647
    1647 1647 1655 1655 1655 1655 1663 1655 1655 1655 1655 4983 4911
    4842 4842 4774 4708 4708 4708 4645 4582 4582 4582 4582 4582 4522
    4522 4522 5933 5933 5832 5734 5734 5640 5640 5734 5734 5640 5548
    1705 1705 1705 1696 1688 1680 1680 1680 1680 1671 1655 1639 1639
    1639 1639 1639 1647 1647 1655 1655 1655 1655 1655 1663 1655 1655
    1655 1655 1655 4911 4842 4842 4774 4774 4708 4645 4645 4582 4582
    4582 4582 4582 4582 4522 4522 5933 5933 5832 5734 5734 5640 5640
    5734 5734 5734 5548 1705 1705 1705 1696 1688 1680 1680 1680 1680
    1671 1655 1647 1639 1639 1647 1647 1647 1647 1647 1647 1647 1655
    1655 1663 1655 1655 1655 1655 1655 4842 4842 4842 4774 4774 4708
    4645 4645 4582 4582 4582 4582 4582 4582 4522 4522 5933 5933 5832
    5734 5640 5640 5640 5734 1748 1739 1731 1713 1705 1705 1696 1688
    1680 1680 1680 1680 1680 1663 1647 1647 1647 1647 1647 1647 1647
    1647 1647 1647 1655 1655 1655 1655 1655 1663 1663 1663 4842 4842
    4842 4774 4774 4708 4645 4645 4645 4582 4582 4582 4582 4582 4522
    4522 5933 5933 5832 5734 5640 5640 1785 1776 1748 1739 1731 1722
    1713 1705 1705 1696 1688 1680 1680 1680 1680 1663 1655 1647 1647
    1647 1647 1647 1647 1647 1647 1647 1655 1655 1655 1655 1655 1655
    1663 1663 4774 4774 4774 4774 4774 4774 4645 4645 4645 4582 4582
    4582 4582 4582 4522 4522 6038 6038 6038 6038 1785 1785 1776 1766
    1748 1739 1739 1722 1713 1705 1705 1696 1688 1680 1680 1680 1680
    1663 1663 1647 1647 1639 1639 1639 1639 1639 1647 1647 1647 1655
    1655 1655 1655 1655 1663 1663 4774 4774 4774 4774 4774 4774 4708
    4708 4708 4645 4645 4582 4582 4582 4582 4522 6038 1843 1823 1785
    1785 1785 1776 1766 1748 1748 1739 1731 1713 1713 1705 1705 1696
    1688 1688 1688 1680 1671 1663 1647 1647 1639 1639 1639 1632 1632
    1639 1639 1647 1647 1647 1647 1647 1655 1663 1663 1663 4774 4774
    4774 4774 4774 4708 4708 4708 4645 4645 4582 4582 4582 4582 4582
    1853 1843 1823 1804 1785 1785 1776 1776 1766 1748 1739 1731 1722
    1713 1713 1705 1696 1696 1688 1688 1680 1671 1663 1655 1647 1639
    1632 1632 1632 1632 1639 1639 1647 1647 1647 1647 1647 1655 1663
    1663 1663 1663 4774 4774 4842 4774 4708 4708 4708 4645 4645 4582
    4582 4582 4582 4582 1843 1833 1813 1804 1794 1785 1785 1776 1766
    1748 1739 1731 1731 1722 1713 1705 1705 1696 1696 1688 1680 1680
    1671 1655 1647 1639 1632 1624 1624 1632 1639 1639 1647 1647 1647
    1647 1655 1655 1655 1655 1663 1663 4842 4842 4842 4774 4774 4774
    4708 4708 4645 4645 4582 4582 4582 4522 1833 1823 1813 1813 1804
    1794 1785 1776 1766 1748 1739 1739 1731 1731 1713 1713 1705 1705
    1705 1688 1688 1680 1671 1663 1655 1647 1632 1624 1624 1632 1639
    1639 1647 1647 1647 1647 1647 1655 1655 1655 1655 1655 4842 4842
    4842 4774 4708 4708 4708 4708 4645 4645 4582 4582 4582 4522 1833
    1823 1813 1813 1813 1804 1794 1776 1776 1766 1748 1748 1739 1731
    1722 1722 1713 1705 1705 1696 1688 1688 1680 1663 1663 1647 1632
    1624 1624 1632 1639 1639 1647 1647 1647 1647 1647 1655 1655 1655
    1655 1663 4842 4842 4842 4774 4708 4708 4708 4708 4708 4708 4645
    4582 4582 4522 1833 1833 1823 1823 1813 1804 1794 1785 1776 1766
    1748 1748 1739 1739 1722 1713 1713 1713 1713 1705 1696 1688 1680
    1671 1655 1647 1639 1632 1632 1639 1639 1639 1647 1647 1647 1647
    1655 1655 1655 1655 1655 1663 1663 4842 4842 4774 4774 4708 4708
    4708 4708 4708 4708 4582 4582 4522 1833 1833 1823 1823 1813 1813
    1804 1785 1785 1776 1766 1748 1739 1739 1722 1713 1713 1713 1713
    1705 1696 1688 1680 1671 1655 1647 1639 1632 1632 1639 1639 1639
    1639 1647 1647 1647 1655 1655 1655 1655 1655 1655 1655 1655 4842
    4774 4774 4708 4708 4708 4708 4708 4708 4645 4582 4582 1843 1843
    1833 1823 1813 1813 1804 1785 1785 1776 1766 1748 1739 1739 1731
    1722 1713 1713 1713 1705 1696 1688 1680 1680 1655 1647 1647 1647
    1639 1639 1632 1632 1639 1639 1647 1647 1647 1647 1655 1655 1655
    1655 1655 1655 1655 4842 4774 4708 4708 4708 4708 4708 4708 4708
    4582 4582 1863 1863 1853 1823 1813 1813 1804 1785 1785 1776 1776
    1748 1748 1739 1731 1722 1713 1713 1713 1705 1696 1688 1680 1680
    1663 1655 1647 1647 1639 1632 1632 1632 1632 1639 1639 1639 1647
    1647 1647 1647 1647 1647 1647 1655 1655 4842 4774 4774 4774 4708
    4708 4708 4708 4645 4582 4582 0 1823 0 1823 1813 1813 1804 1794 1785
    1785 1776 1757 1748 1739 1739 1731 1722 1713 1713 1713 1705 1696
    1688 1680 1663 1655 1655 1647 1639 1632 1632 1632 1632 1632 1632
    1639 1647 1647 1647 1647 1647 1647 1647 1655 1655 4842 4842 4774
    4774 4774 4708 4708 4645 4582 4582 4582 0 0 0 1853 1823 1813 1804
    1794 1785 1785 1776 1766 1748 1748 1739 1739 1722 1722 1722 1713
    1705 1705 1688 1688 1671 1663 1655 1647 1639 1639 1632 1632 1632
    1632 1632 1632 1639 1639 1647 1647 1647 1655 1655 1655 1655 4911
    4842 4842 4774 4774 4708 4708 4645 4582 4582 4582 0 0 0 0 1823 1813
    1813 1804 1794 1785 1776 1766 1748 1748 1748 1739 1722 1722 1722
    1722 1713 1705 1688 1680 1671 1663 1655 1647 1639 1639 1632 1632
    1632 1632 1632 1632 1639 1639 1639 1639 1647 1647 1655 1655 1655
    4842 4842 4774 4774 4774 4774 4774 4708 4645 4645 4582 0 0 0 0 1833
    1813 1813 1804 1794 1794 1776 1766 1757 1748 1748 1739 1731 1722
    1722 1722 1713 1713 1696 1680 1671 1671 1655 1647 1647 1639 1632
    1632 1632 1624 1624 1632 1639 1639 1639 1639 1647 1647 1655 1655
    1663 1663 4842 4774 4774 4774 4774 4774 4708 4708 4645 4645 0 0 0 0
    1853 1823 1813 1804 1794 1794 1776 1766 1757 1748 1748 1739 1731
    1731 1731 1722 1713 1713 1696 1680 1671 1671 1655 1655 1647 1639
    1639 1632 1632 1624 1624 1624 1632 1632 1639 1639 1647 1647 1655
    1655 1663 1663 4842 4842 4842 4842 4842 4774 4708 4708 4708 4645 0 0
    0 0 1863 1823 1813 1813 1804 1794 1776 1766 1757 1748 1748 1739 1739
    1731 1731 1722 1722 1713 1696 1680 1680 1671 1663 1655 1647 1647
    1639 1624 1624 1624 1624 1624 1632 1632 1639 1639 1639 1647 1655
    1655 1655 1655 1655 4842 4842 4774 4774 4774 4708 4708 4708 4645 0
    6146 0 0 0 1823 1823 1813 1804 1794 1776 1776 1766 1748 1748 1739
    1739 1731 1731 1722 1722 1713 1705 1688 1680 1680 1663 1655 1655
    1647 1639 1624 1624 1624 1624 1624 1632 1632 1639 1639 1639 1647
    1647 1647 1647 1647 1647 4842 4842 4774 4774 4774 4774 4708 4708
    4645 6146 0 6038 0 0 1823 1823 1813 1804 1785 1785 1776 1766 1757
    1748 1739 1739 1739 1731 1731 1722 1713 1705 1688 1680 1680 1671
    1663 1655 1647 1639 1632 1624 1624 1624 1624 1632 1632 1632 1639
    1647 1647 1647 1647 1647 1647 1647 1647 4842 4774 4774 4774 4708
    4708 4708 4645 6038 6038 6038 0 0 1823 1823 1813 1804 1785 1785 1776
    1766 1757 1748 1739 1739 1739 1739 1731 1722 1722 1696 1688 1688
    1680 1671 1671 1655 1647 1647 1639 1632 1624 1624 1624 1624 1624
    1632 1632 1639 1647 1647 1647 1647 1647 1647 1647 4774 4774 4774
    4774 4708 4708 4708 4645 6038 6038 6146 6146 1823 1823 1823 1813
    1813 1785 1785 1776 1776 1766 1757 1748 1739 1739 1739 1731 1722
    1722 1696 1696 1688 1688 1680 1671 1663 1647 1647 1639 1632 1624
    1624 1624 1624 1624 1632 1632 1639 1639 1647 1647 1647 1647 1647
    1655 1655 4774 4774 4774 4708 4645 4645 4645 6146 6146 6146 6146 0
    1823 1823 1823 1813 1794 1785 1785 1776 1766 1757 1748 1739 1739
    1739 1731 1722 1722 1705 1696 1696 1688 1680 1671 1663 1655 1647
    1647 1639 1632 1624 1616 1616 1624 1624 1624 1632 1632 1639 1647
    1647 1647 1647 1655 1655 1655 4774 4774 4708 4645 4645 4645 6146
    6146 6146 6146 6146 6146 1823 1823 1813 1804 1794 1785 1776 1776
    1766 1748 1739 1739 1739 1739 1731 1731 1705 1705 1696 1688 1680
    1680 1671 1655 1647 1647 1639 1632 1624 1616 1616 1624 1624 1624
    1632 1632 1639 1647 1647 1647 1647 1647 1647 1647 4774 4774 4774
    4708 4708 4645 6146 6146 6146 6146 6146 6497 1823 1823 1813 1804
    1804 1785 1785 1776 1766 1757 1748 1739 1739 1739 1731 1731 1713
    1705 1696 1696 1688 1680 1680 1663 1655 1647 1639 1632 1632 1624
    1624 1624 1624 1624 1624 1624 1639 1647 1647 1647 1647 1647 1647
    1647 4774 4774 4774 4708 4708 4708 6146 6259 6259 6259 6497 6497
    6497 1813 1813 1804 1804 1785 1785 1776 1766 1757 1757 1739 1739
    1739 1731 1722 1713 1713 1696 1696 1688 1680 1680 1663 1655 1647
    1639 1632 1632 1624 1624 1624 1624 1624 1624 1624 1639 1639 1647
    1647 1647 1647 1639 1639 1639 4774 4774 4774 4774 4708 6259 6259
    6259 6259 6497 6497 0 1813 1813 1813 1813 1804 1794 1785 1766 1766
    1757 1748 1748 1748 1748 1722 1713 1713 1705 1696 1688 1680 1680
    1663 1655 1647 1639 1639 1632 1624 1624 1624 1624 1632 1632 1632
    1639 1639 1647 1647 1647 1647 1639 1639 1639 4774 4774 4774 4774
    4774 6259 6259 6259 6259 6259 6259 0 1823 1823 1813 1813 1804 1804
    1785 1776 1766 1766 1757 1757 1757 1748 1722 1713 1713 1713 1705
    1696 1688 1680 1663 1655 1647 1647 1639 1632 1624 1624 1624 1624
    1624 1632 1632 1639 1639 1647 1647 1647 1647 1639 1639 1639 1639
    4842 4774 4774 4774 6259 6259 6146 6146 6146 6146 0 1823 1823 1813
    1813 1813 1804 1794 1785 1776 1766 1757 1757 1757 1748 1722 1722
    1713 1713 1705 1696 1688 1680 1671 1655 1655 1647 1647 1632 1624
    1624 1624 1624 1624 1624 1624 1632 1632 1639 1639 1639 1647 1647
    1639 1639 1639 4582 4582 4774 4774 6375 6259 6146 6146 6146 6146
    6146 1823 1823 1823 1823 1813 1813 1804 1785 1776 1776 1766 1766
    1748 1748 1722 1722 1713 1713 1705 1696 1688 1688 1680 1671 1655
    1655 1647 1632 1624 1624 1624 1624 1624 1624 1624 1624 1632 1639
    1639 1639 1639 1639 1647 1647 1647 4582 4582 4774 4774 6259 6259
    6146 6146 6146 6146 6146 6146 1823 1823 1823 1813 1804 1794 1785
    1776 1776 1776 1766 1748 1748 1731 1722 1722 1713 1713 1705 1696
    1688 1680 1671 1663 1655 1647 1632 1632 1624 1624 1624 1624 1624
    1624 1624 1632 1632 1639 1639 1639 1639 1647 1647 1655 4774 4774
    4774 4774 6259 6259 6146 6146 6146 6146 6146 6146 1823 1823 1823
    1813 1804 1794 1785 1776 1776 1776 1766 1757 1748 1739 1731 1722
    1713 1713 1705 1696 1688 1680 1680 1671 1655 1655 1639 1632 1624
    1624 1624 1624 1624 1624 1624 1632 1632 1639 1639 1639 1647 1647
    1647 1647 1647 4774 4774 4774 6375 6375 6259 6259 6146 6146 6146
    6146 1823 1823 1823 1813 1804 1794 1785 1785 1776 1776 1766 1757
    1748 1748 1731 1722 1722 1713 1713 1696 1688 1688 1680 1680 1671
    1655 1647 1632 1624 1624 1624 1624 1624 1624 1624 1632 1632 1632
    1639 1639 1639 1647 1647 1647 1655 1655 4774 4774 6259 6259 6259
    6259 6259 6146 6146 6146 1823 1823 1823 1823 1813 1804 1794 1785
    1785 1776 1766 1757 1748 1748 1748 1722 1722 1713 1705 1696 1688
    1688 1680 1680 1671 1655 1647 1639 1624 1624 1624 1624 1624 1624
    1624 1624 1624 1632 1632 1639 1639 1647 1647 1647 1647 1647 1647
    4774 6259 6259 6259 6259 6259 6259 6146 6146 6146 1833 1833 1833
    1823 1813 1804 1794 1785 1776 1776 1766 1757 1757 1748 1731 1722
    1713 1705 1705 1696 1688 1688 1680 1671 1655 1647 1639 1624 1624
    1624 1624 1624 1624 1624 1624 1624 1632 1632 1639 1639 1647 1647
    1647 1647 1647 1647 4774 6259 6259 6259 6259 6259 6259 6146 6146
    6146 6259 1843 1843 1823 1813 1804 1794 1785 1776 1776 1766 1766
    1757 1748 1739 1731 1722 1713 1705 1696 1688 1688 1680 1671 1663
    1655 1647 1632 1624 1624 1616 1616 1624 1624 1624 1624 1632 1632
    1639 1639 1647 1647 1647 1647 1647 1647 4774 6375 6259 6259 6259
    6259 6375 6259 6259 6259 6259 1843 1843 1823 1813 1804 1794 1785
    1776 1776 1776 1766 1748 1748 1739 1731 1722 1722 1713 1696 1688
    1688 1680 1671 1663 1655 1647 1632 1624 1624 1616 1616 1624 1624
    1624 1624 1632 1632 1639 1639 1639 1639 1639 1647 1647 1647 4645
    6375 6259 6259 6259 6259 6375 6259 6259 6146 6146 6146 1823 1823
    1813 1804 1794 1785 1776 1776 1785 1776 1748 1748 1748 1731 1731
    1722 1713 1705 1688 1688 1680 1680 1671 1655 1647 1639 1632 1624
    1616 1616 1624 1624 1624 1624 1624 1624 1639 1632 1632 1639 1639
    1647 1647 1647 4708 6497 6375 6375 6375 6375 6375 6259 6146 6146
    6146 6146 1823 1823 1813 1804 1794 1794 1785 1785 1785 1776 1748
    1748 1748 1739 1731 1722 1713 1705 1696 1688 1688 1680 1671 1655
    1647 1647 1639 1624 1616 1616 1616 1616 1624 1624 1624 1624 1624
    1632 1632 1639 1639 1639 1639 1639 4708 6497 6497 6375 6375 6375
    6375 6259 6146 6146 6146 6146 6146 1823 1823 1813 1804 1804 1785
    1785 1785 1776 1766 1748 1748 1739 1731 1722 1713 1705 1705 1688
    1688 1680 1680 1663 1655 1647 1647 1632 1624 1616 1616 1616 1624
    1624 1624 1624 1624 1624 1624 1632 1632 1639 1639 1639 4774 6622
    6497 6497 6497 6375 6375 6259 6146 6146 6146 6146 6146 1823 1823
    1823 1804 1804 1794 1794 1785 1776 1766 1748 1748 1739 1731 1722
    1713 1705 1705 1688 1688 1680 1680 1663 1655 1647 1647 1639 1624
    1616 1616 1616 1616 1624 1624 1624 1624 1624 1624 1624 1632 1639
    1647 1647 1655 6622 6497 6497 6497 6375 6259 6259 6146 6146 6146
    6146 6146 1853 1823 1823 1813 1813 1804 1794 1785 1785 1776 1757
    1748 1739 1731 1722 1713 1713 1705 1688 1688 1680 1680 1671 1655
    1647 1647 1639 1624 1616 1616 1616 1616 1616 1624 1624 1624 1624
    1624 1624 1632 1639 1647 1647 1655 6497 6497 6497 6375 6259 6259
    6259 6146 6146 6146 6146 6146 1843 1843 1823 1823 1813 1804 1804
    1794 1785 1776 1766 1748 1748 1731 1722 1722 1713 1705 1688 1688
    1680 1680 1671 1663 1655 1647 1639 1624 1624 1616 1616 1616 1616
    1616 1616 1624 1624 1624 1624 1632 1632 1639 1647 1655 6497 6497
    6497 6375 6259 6259 6146 6146 6146 6146 6146 0 1843 1843 1823 1823
    1813 1804 1804 1794 1794 1785 1776 1757 1748 1739 1722 1722 1713
    1705 1696 1688 1680 1680 1671 1663 1655 1647 1639 1632 1624 1616
    1616 1616 1616 1616 1616 1616 1616 1624 1624 1624 1632 1639 1639
    1655 6497 6497 6497 6375 6259 6259 6146 6146 6146 6146 6146 6146
    6146 1823 1823 1823 1813 1813 1813 1804 1794 1785 1785 1757 1748
    1739 1731 1731 1713 1713 1705 1696 1688 1680 1680 1671 1663 1647
    1647 1639 1624 1616 1616 1616 1616 1616 1616 1616 1616 1616 1624
    1624 1624 1639 1639 4842 6497 6497 6497 6375 6375 6259 6259 6259
    6146 6146 6146 6146 0 1833 1833 1823 1813 1813 1813 1813 1794 1785
    1785 1766 1757 1748 1739 1731 1722 1713 1713 1705 1696 1688 1680
    1671 1663 1655 1647 1639 1632 1624 1616 1616 1616 1609 1609 1609
    1616 1616 1616 1624 1624 1624 4842 4842 6497 6497 6497 6497 6375
    6259 6259 6259 6146 6146 6146 6146 0 1823 1823 1823 1823 1823 1823
    1813 1804 1794 1785 1757 1757 1748 1739 1731 1731 1722 1713 1705
    1696 1688 1688 1680 1663 1663 1647 1639 1632 1624 1624 1616 1616
    1609 1609 1609 1609 1616 1616 1624 4842 4842 4842 4842 6497 6497
    6497 6497 6497 6375 6259 6259 6146 6146 6146 6146 6146 6146 1833 0
    1833 1833 1833 1823 1804 1794 1785 1757 1757 1748 1748 1731 1722
    1722 1713 1713 1705 1688 1688 1680 1663 1663 1647 1647 1639 1632
    1632 1616 1616 1609 1609 1609 1609 4911 4911 4842 4842 4842 4911
    4842 6497 6497 6497 6497 6497 6259 6259 6146 6146 6146 6146 6146
    6146 6146 0 1833 1833 1833 1833 1823 1804 1794 1785 1766 1757 1757
    1748 1731 1722 1722 1713 1713 1705 1688 1688 1680 1663 1663 1655
    1647 1639 1639 1639 1655 1713 1713 1713 3774 3774 3774 3774 4842
    4842 3903 3859 3774 6622 6622 6497 6497 6497 6259 6259 6146 6146
    6259 6259 6146 6146 6146 0 1843 1843 1833 1833 1813 1794 1785 1785
    1776 1757 1757 1748 1739 1731 1722 1713 1713 1705 1696 1680 1680
    1671 1671 1655 1647 1639 1639 1705 1705 1705 1705 1713 1713 3774
    3774 3774 3903 3903 3903 3859 3774 6622 6622 6497 6497 6497 6146
    6146 6038 6038 6146 6259 6146 6146 6146 5933 5933 1833 1833 1823
    1813 1794 1785 1785 1776 1766 1757 1748 1748 1731 1722 1722 1713
    1705 1688 1680 1680 1671 1671 1671 1671 1671 1713 1713 1713 1705
    1705 1713 1713 1713 3903 3903 3903 3903 3903 3859 3816 6622 6622
    6497 6497 6375 6146 6146 6038 6038 6038 6146 6146 6038 5933 5933
    5933 6038 1823 1823 1813 1794 1785 1785 1785 1776 1766 1766 1748
    1739 1739 1739 1713 1713 1688 1688 1688 1688 1688 1688 0 1705 0 0
    1696 1688 0 1696 1696 3948 3948 3948 3903 3903 3903 3859 3816 6622
    6622 6497 6497 6375 6259 6146 6038 6038 6038 6146 6146 6038 5933
    5933 6038 6038 5933 5933 1823 1794 1785 1785 1785 1785 1785 1785
    1748 1748 1748 1748 1748 0 1748 1748 1696 0 1705 1705 1705 1705 1696
    0 0 0 0 1696 1696 1696 3948 3948 3903 3903 3903 3859 3816</data></Depth14201>
</opencv_storage>
