<?xml version="1.0"?>
<opencv_storage>
<Depth5381 type_id="opencv-matrix">
  <rows>68</rows>
  <cols>52</cols>
  <dt>w</dt>
  <data>
    4774 4774 4774 4774 4842 4911 4911 4911 4983 5056 5132 4983 1477
    1477 1477 1477 1464 1464 1477 1483 1483 1496 1496 5374 5460 5548
    5460 5460 5460 5374 5374 5460 5460 5374 5374 5374 5374 5374 5374
    5291 5291 5291 5210 5210 5210 5210 5210 5132 5132 5132 5056 5056
    4774 4774 4774 4774 4842 4911 4911 4911 4983 4983 1483 1483 1477
    1470 1470 1470 1464 1464 1477 1483 1483 1496 1496 1536 1536 5548
    5460 5460 5291 5291 5374 5460 5374 5374 5374 5374 5374 5374 5374
    5291 5291 5291 5291 5291 5291 5291 5210 5210 5132 5132 5056 5056
    4774 4774 4774 4842 4842 4911 4911 4911 4911 1489 1489 1470 1470
    1464 1464 1464 1458 1458 1470 1477 1496 1496 1509 1516 1529 1536
    1543 1543 5291 5291 5374 5374 5374 5374 5374 5374 5374 5374 5374
    5291 5291 5291 5291 5291 5291 5210 5210 5210 5132 5132 5056 5056
    4774 4774 4774 4774 4842 4911 4911 1470 1483 1483 1470 1464 1464
    1458 1458 1458 1458 1458 1464 1477 1496 1496 1509 1516 1523 1536
    1543 1543 1594 1594 1601 5374 5460 5374 5374 5460 5460 5460 5460
    5374 5374 5374 5291 5291 5210 5210 5132 5132 5132 5132 5056 5056
    4774 4774 4774 4774 4842 1477 1470 1470 1470 1470 1470 1464 1464
    1458 1458 1458 1458 1458 1464 1477 1489 1496 1509 1509 1516 1529
    1543 1550 1579 1594 1601 1601 1601 5460 1632 1632 1632 5548 5460
    5374 5374 5291 5291 5291 5210 5210 5132 5132 5132 5132 5056 5056
    1470 1470 1477 1483 1489 1477 1470 1470 1464 1464 1464 1458 1458
    1458 1458 1458 1458 1458 1464 1470 1483 1489 1503 1509 1509 1523
    1536 1550 1572 1586 1594 1594 1601 1609 1624 1632 1632 5548 5548
    5374 5374 5291 5291 5210 5210 5210 5210 5210 5132 5132 5056 5056
    1470 1470 1477 1483 1483 1477 1470 1470 1464 1464 1458 1458 1458
    1458 1458 1458 1458 1458 1458 1464 1477 1489 1496 1503 1509 1516
    1536 1550 1564 1572 1586 1594 1601 1609 1624 1639 1655 1663 1671
    1671 5374 5291 5291 5210 5210 5210 5210 5210 5132 5132 5056 5056
    1477 1477 1477 1483 1477 1477 1470 1470 1464 1464 1458 1458 1458
    1458 1458 1458 1458 1452 1452 1458 1464 1483 1489 1503 1509 1516
    1536 1550 1564 1572 1586 1594 1601 1609 1624 1639 1655 1663 1663
    1663 5374 5374 5374 5291 5210 5210 5210 5210 5132 5132 5056 5056
    1483 1483 1483 1483 1477 1470 1470 1464 1464 1458 1458 1458 1458
    1458 1458 1458 1458 1452 1452 1458 1458 1477 1489 1503 1503 1516
    1536 1550 1564 1572 1579 1586 1601 1601 1624 1632 1655 1655 1663
    1663 5374 5374 5374 5291 5210 5210 5210 5210 5210 5132 5132 5056
    1483 1483 1477 1477 1470 1470 1464 1464 1464 1458 1458 1458 1458
    1458 1458 1458 1452 1452 1452 1458 1458 1470 1483 1496 1503 1509
    1523 1550 1557 1572 1579 1579 1594 1601 1624 1632 1647 1655 1663
    1663 1663 5374 5374 5291 5210 5210 5210 5210 5210 5132 5132 5132
    1477 1477 1477 1477 1470 1470 1464 1464 1464 1458 1458 1458 1458
    1458 1458 1458 1452 1452 1452 1452 1458 1470 1483 1489 1503 1509
    1523 1529 1557 1564 1572 1572 1594 1601 1624 1624 1639 1647 1663
    1663 1663 5291 5291 5291 5291 5210 5210 5210 5210 5132 5132 5132
    1477 1477 1477 1477 1470 1464 1464 1464 1464 1464 1458 1458 1458
    1458 1458 1458 1452 1452 1452 1452 1458 1470 1483 1489 1496 1503
    1516 1523 1543 1557 1572 1572 1579 1601 1616 1624 1632 1647 1663
    1663 1663 5291 5291 5291 5291 5210 5210 5210 5210 5132 5132 5132
    1483 1483 1477 1477 1470 1464 1464 1458 1458 1458 1458 1458 1458
    1458 1458 1458 1452 1452 1452 1458 1464 1470 1483 1483 1489 1496
    1509 1523 1543 1550 1564 1564 1579 1586 1616 1624 1632 1647 1655
    1655 1655 1655 5291 5291 5291 5210 5210 5210 5210 5132 5132 5132
    1483 1483 1477 1477 1477 1470 1464 1458 1458 1458 1458 1458 1458
    1458 1458 1458 1452 1452 1452 1458 1464 1470 1477 1483 1489 1496
    1503 1516 1536 1550 1564 1564 1572 1586 1609 1624 1624 1639 1655
    1655 1655 1655 5374 5374 5291 5291 5210 5210 5210 5132 5132 5056 0
    1477 1477 1477 1477 1477 1470 1458 1458 1458 1458 1458 1458 1458
    1458 1458 1458 1458 1458 1458 1464 1470 1477 1477 1483 1489 1503
    1509 1536 1543 1550 1564 1572 1579 1601 1616 1624 1639 1647 1655
    1655 1655 5374 5374 5291 5291 5210 5210 5210 5132 5132 5056 0 1477
    1477 1464 1464 1470 1470 1458 1458 1458 1458 1458 1458 1458 1458
    1458 1458 1458 1458 1458 1458 1464 1470 1477 1483 1489 1496 1509
    1529 1543 1550 1564 1572 1572 1601 1616 1624 1632 1639 1655 1655
    1655 5374 5374 5374 5291 5291 5291 5210 5132 5132 5056 0 1477 1477
    1464 1464 1464 1464 1464 1464 1458 1458 1458 1458 1458 1458 1458
    1452 1452 1452 1452 1452 1458 1464 1464 1477 1489 1496 1509 1516
    1536 1543 1564 1564 1572 1601 1616 1616 1624 1639 1655 1655 1655
    5210 5210 5210 5374 5291 5210 5210 5132 5132 5056 0 1477 1477 1464
    1464 1464 1464 1464 1464 1458 1458 1458 1458 1452 1452 1458 1452
    1452 1445 1445 1445 1458 1458 1464 1470 1483 1496 1503 1509 1516
    1536 1564 1564 1564 1579 1609 1616 1624 1639 1655 1655 1655 5210
    5210 5210 5374 5291 5210 5210 5210 5132 5132 4349 1464 1464 1464
    1464 1464 1464 1458 1458 1458 1458 1458 1452 1452 1452 1452 1452
    1445 1445 1445 1445 1458 1458 1464 1470 1477 1489 1503 1509 1516
    1536 1550 1557 1564 1579 1594 1601 1616 1632 1655 1655 1655 1655
    5374 5374 5291 5291 5210 5210 5210 5132 5132 4349 0 1464 1464 1464
    1464 1464 1458 1458 1458 1458 1452 1452 1452 1452 1452 1452 1445
    1445 1445 1445 1452 1458 1464 1470 1477 1483 1489 1509 1516 1529
    1543 1550 1557 1572 1594 1601 1609 1624 1632 1639 1655 1655 1655
    5210 5210 5210 5210 5210 5210 5132 5132 4349 0 1477 1477 1470 1470
    1464 1458 1458 1458 1452 1452 1452 1452 1452 1452 1452 1452 1452
    1445 1445 1445 1452 1458 1470 1470 1477 1489 1509 1516 1523 1536
    1543 1557 1572 1594 1601 1609 1616 1624 1632 1655 1655 1655 5210
    5132 5132 5210 5210 5210 5132 5132 4582 4463 1503 1477 1477 1470
    1464 1458 1458 1458 1452 1452 1452 1452 1452 1452 1452 1445 1445
    1439 1439 1439 1445 1458 1464 1470 1477 1489 1509 1516 1516 1529
    1536 1543 1572 1594 1594 1601 1609 1624 1632 1655 1655 1655 5056
    5056 5056 5210 5210 5210 5132 5132 4463 4463 0 1503 1483 1470 1464
    1458 1458 1458 1452 1452 1452 1452 1452 1452 1452 1445 1445 1439
    1433 1433 1445 1452 1458 1464 1470 1483 1503 1509 1516 1523 1529
    1543 1564 1594 1594 1601 1609 1616 1632 1655 1655 1663 1663 5056
    5056 5210 5210 5210 5132 5132 4463 4463 0 1503 1483 1470 1464 1458
    1452 1452 1452 1452 1452 1452 1452 1452 1445 1445 1439 1439 1433
    1433 1445 1452 1458 1464 1464 1477 1503 1509 1516 1523 1529 1536
    1550 1586 1594 1594 1601 1609 1632 1647 1655 1655 1655 5210 5210
    5210 5210 5210 5132 5132 4463 4463 0 1483 1483 1470 1464 1458 1452
    1452 1452 1452 1452 1452 1452 1452 1445 1445 1439 1439 1433 1433
    1439 1445 1452 1458 1464 1470 1489 1509 1509 1516 1529 1536 1543
    1572 1594 1594 1601 1609 1632 1639 1647 1655 1655 5291 5291 5210
    5210 5210 5132 5132 4463 4463 0 1483 1483 1464 1458 1458 1458 1452
    1452 1452 1452 1452 1452 1452 1439 1439 1439 1439 1433 1433 1433
    1439 1445 1458 1464 1470 1483 1503 1509 1516 1523 1536 1543 1572
    1586 1594 1601 1609 1632 1639 1647 1655 1655 1655 5291 5210 5210
    5210 5132 5132 4463 4463 4463 4463 1458 1458 1458 1458 1458 1452
    1452 1452 1452 1452 1458 1445 1439 1439 1439 1439 1439 1433 1433
    1439 1439 1452 1458 1470 1483 1496 1509 1509 1523 1536 1543 1572
    1572 1586 1601 1609 1632 1632 1639 1647 1655 1655 5291 5210 5210
    5210 5132 5132 4463 4463 4463 0 1458 1458 1458 1458 1458 1458 1452
    1452 1452 1452 1452 1445 1439 1439 1439 1439 1439 1439 1439 1439
    1439 1445 1458 1464 1477 1483 1496 1509 1523 1536 1543 1564 1572
    1572 1594 1609 1624 1632 1639 1647 1647 5374 5374 5291 5210 5210
    5132 5132 4582 4582 4582 0 1458 1458 1458 1458 1458 1458 1452 1452
    1452 1452 1452 1445 1439 1439 1433 1433 1433 1433 1439 1439 1439
    1439 1458 1464 1477 1483 1496 1509 1516 1536 1543 1557 1572 1572
    1594 1609 1624 1632 1632 1647 1663 1663 5374 5291 5210 5210 5210
    5132 4522 4582 4582 4463 0 1458 1458 1458 1458 1458 1452 1452 1452
    1452 1452 1445 1439 1439 1433 1433 1433 1433 1439 1439 1439 1439
    1445 1458 1477 1483 1503 1503 1516 1529 1543 1550 1564 1572 1594
    1609 1624 1624 1632 1647 1663 1663 5210 5210 5210 5210 5210 5132
    4522 4463 4463 4463 0 1458 1458 1458 1458 1458 1452 1452 1452 1452
    1452 1445 1439 1439 1439 1439 1433 1433 1439 1439 1439 1439 1445
    1458 1470 1477 1496 1496 1509 1529 1536 1543 1550 1579 1579 1609
    1616 1624 1632 1647 1671 1671 5210 5210 5210 5210 5210 5132 4522
    4463 4463 4463 0 1458 1458 1452 1452 1452 1452 1445 1445 1445 1452
    1445 1445 1445 1439 1439 1439 1439 1439 1439 1439 1439 1445 1458
    1470 1477 1489 1496 1509 1516 1536 1543 1550 1550 1579 1609 1616
    1624 1632 1647 1655 1655 5132 5132 5132 5210 5210 5132 4463 4405
    4405 0 0 0 1458 1452 1452 1452 1445 1445 1445 1445 1452 1445 1439
    1439 1439 1439 1439 1439 1439 1439 1433 1433 1439 1452 1464 1470
    1489 1496 1503 1509 1543 1543 1550 1550 1586 1601 1616 1616 1624
    1632 1647 1647 5132 5132 5132 5132 5132 5132 4463 4405 4405 0 0 0
    1464 1458 1458 1452 1445 1445 1445 1445 1452 1445 1439 1439 1439
    1439 1439 1439 1439 1433 1433 1433 1433 1445 1458 1470 1483 1496
    1496 1509 1529 1543 1543 1550 1572 1594 1609 1616 1624 1632 1639
    1639 5132 5132 5132 5132 5132 5132 4463 4405 4405 0 0 0 1464 1464
    1458 1452 1445 1445 1445 1445 1445 1445 1439 1439 1439 1439 1433
    1433 1433 1427 1427 1427 1427 1433 1452 1470 1483 1489 1496 1503
    1529 1543 1543 1550 1572 1586 1609 1616 1616 1632 1632 1639 1639
    5210 5210 5132 5132 5132 4522 4522 4522 0 0 0 1464 1464 1458 1452
    1445 1445 1445 1445 1445 1445 1439 1439 1439 1439 1433 1433 1433
    1427 1427 1427 1427 1433 1452 1470 1477 1483 1496 1496 1529 1529
    1536 1550 1564 1579 1601 1609 1616 1624 1632 1632 1632 1632 5210
    5210 5132 5132 4522 4522 4522 0 4582 0 1470 1470 1458 1445 1445 1445
    1445 1445 1445 1445 1439 1439 1439 1439 1433 1433 1433 1427 1427
    1427 1427 1433 1445 1470 1470 1483 1489 1496 1523 1529 1536 1543
    1557 1564 1594 1601 1609 1624 1624 1624 1632 1632 5210 5210 5132
    5132 4522 4522 4582 4582 4582 0 1458 0 1458 1445 1445 1445 1445 1445
    1445 1445 1439 1439 1439 1439 1433 1433 1433 1427 1427 1427 1427
    1427 1445 1464 1464 1477 1489 1503 1516 1529 1536 1543 1550 1557
    1594 1601 1609 1616 1624 1624 1639 1639 5132 5132 5210 5132 4522
    4522 4582 4582 4582 0 0 0 1458 1445 1445 1445 1445 1445 1445 1439
    1439 1439 1439 1439 1433 1433 1433 1427 1427 1427 1427 1427 1445
    1458 1464 1477 1489 1503 1516 1523 1529 1536 1543 1557 1586 1594
    1601 1616 1624 1632 1639 1639 5132 5132 5210 5210 4522 4522 4582
    4582 4582 0 0 0 1452 1445 1445 1445 1439 1439 1445 1439 1439 1439
    1433 1433 1433 1433 1433 1433 1433 1427 1427 1427 1439 1445 1458
    1477 1489 1489 1503 1516 1523 1529 1543 1557 1579 1586 1601 1609
    1624 1632 1639 1639 1639 5291 5210 5210 4522 4522 4582 4582 4582 0 0
    0 1452 1452 1452 1445 1439 1439 1445 1439 1439 1439 1433 1433 1433
    1433 1433 1433 1433 1427 1427 1427 1439 1445 1458 1464 1483 1489
    1503 1509 1516 1529 1536 1557 1572 1586 1594 1609 1624 1624 1632
    1632 1632 5210 5210 5210 4522 4582 4522 4522 4582 0 0 0 1452 1452
    1452 1445 1445 1445 1445 1439 1439 1439 1433 1433 1433 1433 1433
    1433 1427 1427 1427 1427 1439 1445 1458 1464 1477 1483 1496 1509
    1516 1529 1536 1550 1572 1586 1594 1594 1616 1624 1632 1632 1632
    5210 5210 5210 4582 4582 4463 4463 4463 0 0 0 1445 1445 1445 1445
    1439 1439 1445 1439 1439 1439 1439 1433 1433 1433 1433 1427 1427
    1427 1427 1427 1433 1439 1458 1458 1470 1477 1489 1503 1516 1536
    1543 1543 1572 1586 1594 1594 1601 1624 1632 1632 1632 1632 5210
    5210 4522 4582 4463 4463 4463 0 0 1445 1445 1445 1445 1445 1439 1439
    1445 1439 1439 1439 1439 1433 1433 1433 1433 1427 1427 1427 1427
    1427 1433 1439 1445 1458 1470 1477 1483 1496 1516 1529 1536 1543
    1543 1586 1594 1601 1601 1616 1624 1632 1632 1632 5210 5210 4522
    4582 4522 4522 4522 0 0 1452 1452 1452 1445 1445 1439 1439 1439 1439
    1439 1439 1439 1433 1433 1433 1433 1427 1427 1427 1427 1433 1433
    1433 1439 1458 1470 1477 1483 1489 1509 1523 1536 1543 1543 1557
    1594 1594 1594 1601 1609 1632 1632 1632 5210 5210 4522 4522 4522
    4522 4522 0 0 0 1452 1452 1445 1445 1439 1439 1439 1439 1439 1433
    1433 1433 1433 1433 1427 1421 1421 1421 1421 1427 1427 1433 1439
    1458 1470 1477 1483 1489 1489 1516 1536 1536 1543 1557 1586 1594
    1594 1601 1609 1624 1624 5132 5132 5132 4522 4522 4522 4522 4522
    4522 4405 0 1452 1452 1445 1445 1439 1439 1439 1433 1433 1433 1433
    1433 1433 1433 1427 1421 1421 1421 1421 1421 1427 1433 1439 1452
    1464 1470 1483 1489 1489 1509 1529 1536 1543 1550 1572 1586 1594
    1594 1609 1624 1624 5132 5132 5132 4405 4463 4522 4522 4405 4405
    4405 0 0 1452 1445 1445 1445 1445 1439 1433 1433 1433 1433 1433 1433
    1433 1433 1421 1421 1421 1421 1421 1427 1427 1439 1452 1458 1470
    1477 1483 1489 1496 1523 1529 1543 1550 1564 1572 1594 1594 1609
    1624 1639 1655 5132 5132 4405 4463 4522 4522 4405 4405 4405 0 1452
    1452 1439 1433 1433 1439 1439 1439 1433 1433 1433 1433 1433 1433
    1427 1421 1415 1415 1415 1415 1427 1427 1439 1445 1452 1458 1470
    1483 1489 1496 1509 1529 1536 1550 1564 1572 1586 1601 1609 1624
    1632 1647 1647 5210 4405 4463 4522 4522 4463 4463 4463 0 1439 1439
    1439 1433 1433 1439 1439 1439 1433 1433 1433 1433 1433 1433 1427
    1421 1415 1415 1415 1415 1421 1433 1433 1445 1452 1458 1464 1483
    1483 1489 1509 1529 1536 1543 1550 1572 1586 1594 1601 1616 1632
    1639 1639 5210 4405 4463 4522 4522 4463 4463 4463 0 0 0 1439 1433
    1433 1433 1433 1433 1439 1433 1433 1433 1427 1427 1427 1421 1415
    1415 1415 1415 1415 1427 1433 1439 1445 1458 1464 1483 1483 1489
    1516 1529 1536 1543 1543 1564 1586 1594 1601 1616 1624 1632 1632
    5210 4405 4463 4522 4522 4522 4463 4463 4463 0 1427 1427 1427 1427
    1433 1433 1433 1439 1433 1433 1427 1427 1427 1427 1421 1415 1415
    1415 1415 1415 1421 1421 1433 1445 1458 1458 1477 1477 1483 1516
    1523 1529 1536 1543 1564 1572 1594 1601 1616 1624 1632 1632 1632
    4463 4463 4522 4522 4522 4463 4463 4463 0 1427 1427 1427 1427 1433
    1439 1439 1439 1433 1433 1427 1427 1433 1427 1421 1415 1415 1415
    1415 1415 1421 1421 1433 1433 1439 1445 1464 1477 1483 1509 1516
    1523 1536 1536 1550 1564 1586 1601 1616 1616 1624 1624 1624 4463
    4522 4522 4522 4522 4463 4463 0 0 0 1427 1427 1427 1433 1439 1439
    1439 1433 1433 1433 1427 1427 1427 1421 1421 1421 1415 1415 1415
    1421 1427 1427 1433 1439 1445 1464 1464 1477 1483 1496 1516 1523
    1536 1543 1564 1586 1594 1601 1616 1624 1624 1624 4463 4522 4522
    4522 4522 4522 4522 4522 0 1427 1427 1427 1427 1427 1439 1439 1439
    1433 1433 1433 1427 1427 1427 1421 1421 1415 1415 1410 1410 1410
    1427 1427 1433 1439 1439 1464 1464 1477 1483 1496 1503 1516 1523
    1536 1564 1572 1579 1594 1609 1624 1624 1624 4463 4522 4522 4522
    4522 4522 4522 0 0 0 1427 1427 1427 1427 1439 1439 1439 1433 1433
    1433 1433 1433 1427 1421 1421 1415 1410 1410 1410 1410 1415 1427
    1433 1433 1439 1464 1464 1477 1483 1489 1503 1509 1523 1529 1543
    1572 1579 1586 1601 1616 1616 1616 4463 4463 4522 4522 4522 4522
    4522 4522 4405 0 1433 1433 1433 1433 1439 1439 1433 1433 1433 1433
    1433 1427 1421 1421 1421 1415 1410 1410 1410 1410 1410 1415 1427
    1433 1439 1458 1464 1470 1483 1489 1503 1509 1516 1529 1543 1564
    1572 1586 1594 1616 1616 1624 4463 4463 4522 4522 4522 4522 4405
    4405 4405 4295 4295 1433 1433 1433 1439 1439 1433 1433 1433 1433
    1433 1427 1421 1421 1421 1415 1410 1410 1410 1410 1410 1415 1415
    1433 1439 1439 1458 1470 1477 1483 1496 1503 1516 1523 1543 1557
    1564 1579 1594 1609 1616 1624 4463 4463 4522 4522 4522 4522 4405
    4349 4295 4295 4295 0 1452 1439 1439 1433 1433 1433 1433 1427 1427
    1427 1427 1421 1421 1421 1415 1415 1410 1410 1410 1415 1415 1415
    1433 1439 1452 1464 1470 1477 1489 1503 1509 1516 1536 1550 1564
    1572 1594 1601 1609 1624 4463 4522 4522 4522 4522 4522 4463 4349
    4295 4139 4139 4139 1445 1439 1439 1433 1433 1433 1433 1427 1427
    1427 1421 1415 1415 1415 1415 1415 1410 1410 1410 1415 1415 1415
    1427 1439 1452 1458 1464 1477 1489 1496 1509 1516 1536 1550 1564
    1572 1594 1601 1609 1624 4463 4463 4522 4522 4522 4522 4522 4405
    4295 4139 4139 4139 1445 1439 1439 1433 1433 1433 1433 1427 1427
    1433 1415 1415 1415 1415 1415 1415 1410 1410 1410 1410 1410 1415
    1421 1439 1445 1458 1464 1477 1483 1483 1503 1523 1536 1550 1572
    1572 1594 1601 1601 5374 4463 4463 4522 4522 4522 4522 4522 4405
    4349 4349 4349 1445 1445 1439 1439 1439 1433 1433 1433 1427 1427
    1433 1415 1415 1415 1415 1415 1415 1415 1410 1410 1410 1410 1410
    1415 1433 1439 1452 1458 1464 1477 1483 1503 1503 1503 1579 1579
    1579 1601 1601 1601 5210 4405 4463 4522 4522 4522 4522 4522 4405
    4405 4405 4405 1445 1445 1439 1433 1433 1433 1427 1427 1427 1427
    1427 1415 1415 1415 1415 1415 1415 1415 1410 1404 1404 1404 1410
    1415 1433 1433 1452 1458 1464 1477 0 0 0 0 5132 5460 5460 5460 5374
    5210 5210 4349 4405 4463 4522 4522 4522 4522 4463 4463 4463 4463
    4463 1433 1433 1433 1433 1433 1427 1427 1427 1421 1421 1415 1415
    1415 1415 1415 1415 1415 1404 1404 1404 1404 1410 1433 1433 1433 0 0
    0 0 0 0 0 5132 5132 5210 5291 5291 5291 5210 5210 4349 4405 4463
    4463 4463 4463 4522 4463 4463 4463 4463 4405 1433 1433 1433 1433
    1433 1427 1427 1427 1421 1421 1421 1415 1415 1415 1415 1415 1415
    1404 1404 1404 1404 0 0 0 0 0 0 0 0 0 0 5210 5132 5132 5210 5210
    5210 5210 5210 5210 4349 4349 4405 4405 4405 4463 4463 4522 4522
    4463 4405 4405 4405 1439 1439 1433 1433 1427 1427 1427 1427 1421
    1421 1410 1404 1404 1415 1415 0 0 0 0 0 0 0 0 0 0 0 0 0 0 0 5210
    5132 5132 5132 5132 5132 5210 5210 5210 4349 4349 4405 4405 4405
    4463 4463 4522 4522 4463 4405 4405 4522 4522 1439 1433 1433 1433
    1427 1427 1427 1421 1421 1410 1404 1404 0 0 0 0 0 0 0 0 0 0 0 0 0 0
    0 0 0 5132 5132 5132 5056 5056 5132 5210 5210 5210 4349 4349 4349
    4349 4405 4405 4463 4463 4522 4522 4522 4522 4522 4522 4522 1433
    1433 1433 1427 1427 1427 1427 1433 0 0 0 0 0 0 0 0 0 0 0 0 0 0 0 0 0
    0 0 0 5132 5132 5132 5056 5056 5132 5210 5210 5210</data></Depth5381>
</opencv_storage>
