<?xml version="1.0"?>
<opencv_storage>
<Depth10066 type_id="opencv-matrix">
  <rows>17</rows>
  <cols>66</cols>
  <dt>w</dt>
  <data>
    1245 1245 1245 1250 1255 1259 1259 1259 1259 1259 1259 1268 1268
    1268 1268 1268 1268 1273 1273 1273 1278 1288 1288 1288 1288 1288
    1292 1292 1292 1292 1292 2349 2349 2349 2349 2349 1415 1415 1415
    1415 1415 1415 1415 1421 1415 1415 1415 2271 2271 2271 2271 2271
    2271 2271 2271 2271 2271 2271 2271 1496 1496 1496 1489 1483 1452
    1452 1255 1250 1250 1250 2365 2333 2333 2333 2333 2333 2365 1278
    1268 1268 1273 1268 1268 1273 1273 1273 1278 1288 1288 1288 1283
    1283 1292 1292 1292 2349 2349 2349 2333 2333 2333 2333 1415 1398
    1398 1404 1410 1410 1410 1410 1415 1415 2301 2286 2286 2286 2286
    2286 2286 2286 2271 2271 2271 2271 2271 2286 2286 2286 1489 1489
    1483 1470 1264 1264 1264 1264 2365 2333 2333 2333 2333 2333 2365
    2365 2333 2333 2349 2333 2301 2301 2301 2317 2333 2333 2333 2333
    1283 1283 2333 2333 2349 2349 2349 2333 2333 2333 2333 2333 2333
    1398 1398 1404 1410 1410 1410 1410 2301 2301 2301 2286 2286 2286
    2286 2286 2286 2271 2271 2271 2271 2271 2271 2286 2286 2286 1489
    1489 1483 1477 1264 1264 1264 2381 2365 2349 2349 2349 2349 2349
    2365 2365 2349 2349 2349 2333 2333 2333 2333 2333 2333 2333 2333
    2333 2349 2349 2333 2333 2333 2333 2333 2333 2333 2333 2333 2333
    2333 2317 2317 2317 2301 2301 2301 2286 2286 2301 2301 2301 2286
    2286 2271 2271 2271 2271 2271 2271 2271 2271 2271 2271 2271 2271
    2271 1489 1483 1483 1268 1268 2365 2365 2381 2365 2365 2349 2349
    2349 2365 2365 2349 2349 2349 2349 2349 2349 2349 2333 2333 2333
    2333 2333 2349 2349 2333 2333 2333 2333 2333 2333 2333 2317 2317
    2317 2317 2317 2317 2317 2301 2301 2301 2286 2286 2286 2286 2286
    2286 2271 2271 2271 2271 2271 2271 2271 2271 2271 2271 2271 2271
    2271 2271 2241 1489 1483 1278 2381 2365 2365 2381 2365 2365 2365
    2365 2365 2365 2365 2365 2349 2349 2349 2349 2349 2349 2333 2333
    2333 2333 2333 2349 2349 2333 2333 2333 2333 2333 2333 2333 2317
    2317 2317 2317 2317 2317 2317 2317 2301 2301 2286 2286 2286 2286
    2286 2271 2271 2271 2271 2271 2271 2271 2271 2271 2271 2271 2271
    2256 2256 2256 2241 1489 1483 1283 2381 2381 2381 2381 2365 2365
    2365 2365 2365 2365 2349 2349 2349 2349 2349 2349 2349 2333 2333
    2333 2333 2333 2333 2349 2349 2333 2333 2333 2333 2333 2333 2333
    2317 2317 2317 2317 2317 2317 2317 2317 2301 2286 2286 2286 2286
    2286 2286 2271 2271 2271 2271 2271 2271 2256 2256 2256 2256 2256
    2271 2256 2256 2241 2241 2241 1489 2381 2381 2381 2365 2365 2365
    2365 2365 2365 2365 2365 2349 2349 2349 2349 2333 2333 2333 2333
    2333 2333 2333 2333 2333 2349 2349 2333 2333 2333 2333 2333 2333
    2333 2317 2317 2317 2301 2301 2317 2301 2301 2301 2286 2286 2286
    2286 2286 2286 2271 2271 2271 2271 2271 2256 2256 2241 2241 2241
    2241 2256 2256 2241 2241 2241 2241 2226 2381 2365 2365 2365 2365
    2365 2365 2365 2365 2365 2349 2349 2349 2349 2349 2333 2333 2333
    2333 2333 2333 2333 2333 2333 2333 2333 2333 2333 2333 2333 2317
    2317 2317 2317 2301 2301 2286 2286 2286 2286 2286 2286 2286 2286
    2271 2271 2271 2271 2271 2271 2271 2271 2271 2256 2256 2241 2241
    2241 2241 2241 2241 2241 2241 2241 2241 2241 2381 2365 2365 2349
    2349 2349 2349 2365 2365 2365 2349 2349 2333 2333 2333 2333 2333
    2333 2333 2317 2317 2317 2317 2317 2333 2333 2333 2333 2333 2333
    2317 2317 2317 2317 2301 2301 2286 2286 2286 2286 2286 2286 2271
    2271 2271 2271 2271 2271 2271 2271 2271 2256 2256 2241 2241 2241
    2241 2241 2241 2241 2241 2241 2241 2241 2241 2241 2381 2381 2349
    2349 2349 2349 2349 2349 2349 2349 2333 2333 2333 2333 2333 2333
    2333 2333 2317 2317 2317 2317 2317 2317 2317 2317 2317 2333 2317
    2317 2317 2301 2301 2301 2286 2286 2286 2286 2286 2286 2286 2286
    2271 2271 2271 2271 2271 2271 2271 2271 2271 2256 2256 2241 2241
    2241 2241 2241 2241 2241 2241 2241 2241 2241 2241 2241 2349 2349
    2349 2333 2333 2333 2333 2333 2333 2333 2333 2333 2333 2333 2333
    2333 2333 2317 2317 2317 2317 2317 2301 2301 2317 2317 2317 2317
    2317 2317 2301 2301 2286 2286 2286 2286 2286 2286 2286 2286 2286
    2286 2271 2271 2271 2271 2271 2271 2271 2271 2271 2271 2271 2256
    2256 2256 2256 2256 2256 2271 2256 2256 2241 2241 2241 2241 2349
    2349 2333 2333 2333 2333 2333 2333 2333 2333 2333 2333 2333 2333
    2333 2333 2317 2317 2317 2317 2317 2317 2301 2301 2317 2317 2317
    2317 2317 2317 2301 2301 2286 2286 2286 2286 2286 2286 2301 2301
    2301 2301 2286 2286 2286 2271 2271 2286 2286 2286 2286 2286 2286
    2271 2271 2286 2286 2286 2286 2286 2286 2286 2286 2286 2286 2286
    2349 2349 2333 2333 2333 2333 2333 2333 2333 2333 2333 2333 2333
    2333 2333 2333 2317 2317 2317 2317 2317 2317 2301 2301 2333 2333
    2333 2333 2317 2317 2301 2301 2301 2301 2301 2317 2333 2333 2333
    2317 2317 2317 2301 2301 2301 2301 2301 2301 2301 2301 2301 2301
    2301 2301 2317 2317 2317 2301 2301 2317 2317 2317 2317 2301 2301
    2301 2349 2349 2349 2349 2349 2349 2349 2349 2349 2349 2333 2333
    2333 2349 2333 2333 2333 2333 2333 2333 2333 2333 2333 2333 2349
    2349 2349 2349 2333 2333 2317 2317 2333 2333 2333 2333 2349 2349
    2365 2349 2349 2333 2333 2333 2317 2317 2317 2317 2333 2333 2317
    2317 2317 2333 2333 2333 2333 2317 2317 2333 2333 2333 2333 2317
    2317 2317 2381 2381 2381 2365 2365 2365 2365 2381 2398 2381 2381
    2398 2398 2398 2398 2333 2333 2349 2349 2349 2349 2349 2349 2365
    2381 2381 2398 2398 2398 2381 2381 2365 2365 2365 2365 2365 2381
    2381 2381 2349 2349 2349 2333 2333 2333 2349 2349 2333 2333 2333
    2333 2333 2333 2349 2349 3238 2365 2365 2365 2349 2333 2333 2333
    2333 2333 2333 2415 2415 2415 2398 2381 2381 2381 2398 2398 2398
    2398 2398 2398 2398 2415 2415 2398 2381 2381 2381 2398 2381 2381
    2381 2398 2398 2415 2415 2415 2398 2398 2398 2398 2398 2398 2398
    2415 2398 2398 2398 2349 2349 2349 2333 2333 3365 3365 3365 3365
    3365 3365 3333 3333 3333 3333 3333 3333 3333 3300 3300 3269 3269 0
    3269 3269 1063</data></Depth10066>
</opencv_storage>
