<?xml version="1.0"?>
<opencv_storage>
<Depth3800 type_id="opencv-matrix">
  <rows>66</rows>
  <cols>50</cols>
  <dt>w</dt>
  <data>
    4582 4582 4645 4708 4708 4774 4708 4708 4774 4774 4774 4774 4774
    4774 4911 4582 4582 4582 0 0 0 0 0 0 0 1671 1671 1671 4774 4645 4582
    4582 4645 4645 4708 4842 4911 4911 4842 4842 4842 4842 4842 4842
    4911 4911 4911 4911 4842 4842 4582 4582 4582 4645 4708 4842 4842
    4842 4774 4774 4774 4774 4774 4842 4911 4842 4582 4582 0 0 0 0 0
    1601 1601 1680 1680 1680 4708 4708 4645 4645 4645 4645 4708 4842
    4911 4911 4911 4842 4842 4842 4842 4842 4911 4911 4911 4911 4842
    4842 4582 4582 4582 4645 4708 4774 4774 4842 4911 4911 4842 4842
    4842 4842 4911 4842 4582 4582 0 0 0 0 0 1601 1601 1609 1616 1616
    1616 4645 4645 4645 4645 4645 4708 4842 4911 4911 4911 4842 4842
    4842 4911 4911 4911 4911 4911 4911 4842 4842 4522 4582 4582 4645
    4708 4774 4774 4842 4911 5056 4911 4842 4842 4842 1624 1624 4842
    4842 0 0 0 1601 1601 1609 1609 1609 1616 1616 1609 4774 4774 4708
    4708 4708 1609 1609 1609 4911 4911 4911 4911 4911 4911 4911 4911
    4911 4911 4911 4842 4842 4522 4582 4582 4645 4708 4774 4842 4842
    4911 4983 4911 4842 4842 4842 1609 1609 1601 1601 1609 1601 1601
    1601 1601 1609 1609 1609 1609 1616 1609 1609 1601 1601 1616 1609
    1609 1609 1609 1609 1609 1609 4911 4911 4911 4911 4911 4911 4911
    4911 4911 4911 4582 4582 4645 4645 4708 4774 4774 4774 4911 4983
    4911 4911 4911 1624 1609 1601 1601 1601 1601 1601 1601 1601 1601
    1609 1609 1609 1609 1609 1609 1609 1601 1601 1609 1609 1609 1609
    1609 1609 1609 1609 1609 4983 4983 4842 4842 4911 4911 4911 4911
    4911 4463 4582 4645 1586 1586 1586 1594 1594 1601 1601 1601 1601
    1601 1609 1601 1601 1601 1601 1601 1601 1609 1601 1601 1601 1609
    1601 1601 1601 1601 1601 1609 1609 1609 1609 1609 1609 1609 1609
    1609 1616 1632 1671 4983 4842 4842 4842 4842 4911 4911 4911 4463
    1601 1594 1586 1586 1586 1594 1594 1594 1594 1601 1601 1601 1609
    1601 1601 1601 1601 1601 1601 1609 1601 1601 1601 1609 1601 1601
    1601 1601 1601 1601 1601 1609 1609 1609 1609 1616 1609 1609 1616
    1632 1655 1671 4842 4842 4842 4842 4911 4911 4911 1594 1594 1594
    1594 1594 1594 1594 1594 1594 1594 1601 1601 1601 1601 1601 1601
    1601 1601 1601 1601 1609 1601 1601 1601 1609 1609 1609 1601 1601
    1601 1601 1601 1609 1609 1616 1616 1616 1616 1616 1616 1632 1655
    1663 1663 4911 4911 4911 4911 4911 4911 1594 1594 1594 1594 1594
    1594 1601 1601 1594 1594 1601 1601 1601 1601 1601 1601 1601 1601
    1601 1601 1601 1601 1601 1601 1609 1609 1601 1601 1601 1601 1601
    1601 1609 1609 1609 1616 1616 1616 1616 1616 1632 1655 1663 1663
    4911 4911 4911 4911 4911 4911 1594 1601 1594 1594 1594 1594 1601
    1601 1594 1594 1601 1601 1601 1601 1601 1601 1601 1601 1601 1601
    1601 1601 1601 1601 1609 1609 1601 1601 1601 1601 1601 1601 1609
    1609 1609 1609 1609 1609 1616 1616 1632 1655 1663 1663 4911 4911
    4911 4911 4911 4911 1594 1601 1601 1594 1594 1594 1601 1601 1594
    1594 1601 1601 1601 1601 1601 1601 1601 1601 1601 1601 1601 1601
    1601 1609 1609 1609 1609 1601 1601 1601 1601 1601 1601 1609 1609
    1609 1609 1609 1616 1624 1632 1663 1663 1663 4911 4911 4911 4911
    4911 4911 1594 1594 1594 1594 1601 1601 1601 1601 1594 1594 1601
    1601 1601 1601 1601 1601 1601 1601 1601 1601 1601 1601 1601 1609
    1609 1609 1609 1601 1601 1601 1601 1601 1601 1601 1609 1609 1616
    1616 1616 1624 1647 1663 1663 1663 4842 4842 4911 4911 4911 4911
    1594 1594 1594 1594 1601 1601 1601 1601 1601 1601 1601 1601 1601
    1601 1601 1601 1601 1601 1601 1601 1601 1601 1601 1601 1601 1609
    1609 1609 1609 1609 1609 1601 1601 1601 1609 1609 1616 1609 1609
    1624 1639 1663 1663 1663 4842 4842 4911 4911 4911 4911 1594 1594
    1594 1594 1601 1601 1609 1601 1601 1601 1601 1601 1601 1601 1601
    1601 1601 1601 1601 1601 1601 1601 1601 1601 1601 1609 1609 1609
    1609 1609 1609 1601 1601 1601 1609 1609 1616 1601 1601 1609 1632
    1663 1663 1671 4842 4842 4842 4842 4842 4842 1601 1594 1594 1594
    1601 1601 1609 1601 1601 1601 1601 1601 1601 1601 1601 1601 1601
    1601 1601 1601 1601 1601 1601 1601 1601 1601 1609 1609 1609 1616
    1609 1609 1601 1601 1609 1609 1609 1601 1601 1609 1624 1663 1663
    1663 1663 4842 4842 4842 4842 4842 1601 1594 1594 1594 1601 1601
    1601 1601 1601 1601 1601 1601 1601 1601 1601 1601 1601 1601 1601
    1601 1601 1601 1601 1601 1601 1601 1609 1616 1616 1609 1609 1609
    1609 1609 1609 1609 1609 1609 1609 1609 1624 1655 1655 1663 1663
    4842 4842 4842 4842 4842 1609 1601 1601 1601 1601 1601 1601 1601
    1601 1601 1601 1601 1601 1601 1601 1601 1601 1609 1609 1601 1601
    1601 1601 1601 1601 1609 1609 1609 1616 1609 1609 1609 1609 1609
    1616 1616 1616 1609 1609 1616 1624 1655 1655 1663 1663 4842 4842
    4842 4842 4842 1601 1601 1601 1601 1601 1601 1601 1601 1601 1601
    1601 1601 1601 1601 1601 1601 1601 1601 1609 1601 1601 1601 1601
    1601 1601 1609 1609 1609 1609 1609 1609 1609 1609 1609 1616 1616
    1616 1609 1609 1616 1632 1655 1655 1663 1663 4842 4842 4842 4842
    4842 1601 1601 1601 1609 1609 1601 1601 1601 1601 1601 1601 1601
    1601 1601 1601 1601 1601 1601 1601 1601 1601 1601 1601 1601 1601
    1609 1601 1601 1609 1609 1609 1609 1609 1616 1616 1616 1616 1616
    1616 1624 1632 1647 1655 1663 1663 4842 4842 4842 4842 4911 1609
    1609 1609 1609 1609 1601 1601 1601 1601 1601 1601 1601 1601 1601
    1601 1601 1601 1601 1601 1601 1601 1601 1609 1609 1609 1609 1601
    1601 1616 1616 1616 1616 1616 1609 1609 1616 1616 1616 1616 1624
    1632 1639 1663 1663 1663 4842 4842 4842 4842 4911 1601 1601 1601
    1601 1601 1601 1601 1601 1601 1601 1601 1601 1601 1601 1601 1601
    1601 1609 1609 1609 1601 1601 1609 1609 1609 1609 1609 1609 1616
    1616 1616 1616 1616 1609 1609 1624 1616 1616 1616 1624 1632 1639
    1663 1663 1663 4842 4842 4842 4842 4911 1601 1601 1601 1601 1601
    1601 1601 1601 1601 1601 1601 1601 1601 1601 1601 1601 1609 1609
    1609 1609 1609 1609 1609 1609 1609 1609 1609 1609 1616 1616 1616
    1616 1616 1616 1616 1616 1609 1609 1624 1624 1624 1639 1647 1663
    1671 1671 4911 4911 4911 4911 1594 1594 1594 1594 1601 1601 1601
    1601 1609 1601 1601 1601 1601 1601 1601 1601 1609 1609 1609 1601
    1601 1609 1601 1601 1601 1601 1609 1609 1616 1616 1616 1609 1609
    1616 1616 1616 1609 1609 1624 1624 1624 1632 1647 1663 1671 1671
    4911 4911 4911 4911 1594 1594 1594 1594 1594 1601 1601 1609 1601
    1601 1601 1601 1601 1601 1601 1601 1609 1609 1601 1601 1601 1601
    1601 1601 1601 1601 1609 1609 1616 1616 1616 1609 1609 1616 1616
    1616 1616 1616 1616 1616 1624 1632 1639 1663 1671 1671 4911 4911
    4911 4911 1594 1594 1594 1594 1594 1601 1601 1609 1601 1601 1601
    1601 1601 1601 1609 1609 1609 1609 1601 1601 1601 1601 1601 1601
    1601 1601 1609 1609 1609 1609 1609 1609 1609 1616 1616 1616 1616
    1616 1616 1616 1624 1624 1632 1663 1671 1671 4911 4842 4842 4911
    1601 1601 1594 1594 1594 1594 1601 1601 1601 1601 1601 1601 1601
    1601 1609 1609 1609 1609 1601 1601 1601 1601 1601 1601 1609 1609
    1609 1601 1601 1609 1609 1609 1609 1616 1616 1616 1616 1616 1616
    1616 1624 1624 1632 1655 1655 4911 4911 4842 4842 4911 1601 1601
    1601 1601 1594 1594 1601 1601 1601 1601 1601 1601 1601 1609 1609
    1601 1601 1609 1609 1601 1601 1601 1601 1601 1609 1609 1609 1601
    1601 1609 1609 1609 1609 1616 1616 1616 1616 1616 1616 1616 1624
    1632 1632 1647 1647 4911 4911 4842 4842 4911 1609 1609 1601 1601
    1594 1594 1601 1601 1601 1601 1601 1601 1601 1601 1601 1601 1601
    1601 1609 1609 1609 1601 1601 1609 1609 1609 1609 1609 1609 1609
    1609 1616 1616 1624 1624 1616 1616 1616 1616 1616 1624 1624 1632
    1647 1671 1671 4983 4774 4774 4842 1609 1609 1601 1601 1601 1601
    1601 1601 1601 1601 1601 1601 1601 1601 1601 1601 1601 1601 1609
    1616 1609 1601 1601 1609 1609 1609 1609 1609 1609 1616 1616 1616
    1616 1624 1624 1616 1616 1616 1616 1616 1624 1624 1632 1639 1671
    1688 1688 4774 4774 4842 1609 1609 1601 1601 1601 1601 1601 1601
    1601 1601 1601 1601 1601 1601 1601 1601 1601 1601 1601 1616 1616
    1601 1601 1609 1609 1616 1609 1609 1616 1616 1616 1616 1616 1624
    1624 1624 1616 1616 1616 1624 1624 1624 1632 1639 1671 1680 1688
    1688 4911 4911 4241 1609 1609 1601 1601 1601 1601 1601 1601 1601
    1601 1601 1601 1601 1601 1601 1601 1601 1601 1616 1609 1601 1601
    1609 1609 1616 1624 1624 1624 1616 1616 1616 1616 1624 1624 1616
    1616 1616 1616 1624 1624 1624 1632 1639 1663 1671 1688 1688 4911
    4911 4241 1609 1609 1601 1601 1601 1601 1601 1601 1601 1601 1609
    1601 1601 1601 1601 1601 1601 1601 1616 1609 1601 1601 1609 1609
    1624 1624 1624 1624 1624 1624 1624 1624 1616 1616 1616 1616 1616
    1616 1624 1624 1624 1632 1639 1655 1671 1688 1688 4911 4911 4089
    1609 1609 1601 1601 1601 1601 1601 1601 1601 1601 1601 1601 1601
    1601 1601 1601 1601 1609 1609 1609 1601 1601 1609 1609 1609 1609
    1624 1624 1624 1624 1624 1624 1616 1616 1616 1616 1616 1616 1624
    1624 1624 1632 1639 1655 1671 1688 1713 1713 4983 4089 1609 1609
    1601 1601 1601 1601 1601 1594 1594 1601 1601 1601 1601 1601 1601
    1601 1601 1609 1609 1609 1609 1609 1609 1609 1609 1609 1609 1609
    1609 1616 1624 1624 1616 1616 1616 1616 1616 1616 1624 1624 1624
    1632 1639 1655 1680 1688 1713 1713 4983 4041 4041 1616 1609 1609
    1601 1601 1601 1594 1594 1601 1601 1601 1601 1601 1601 1601 1601
    1601 1601 1609 1609 1609 1609 1609 1609 1609 1609 1609 1609 1616
    1616 1616 1616 1616 1624 1616 1616 1616 1616 1624 1624 1624 1639
    1663 1680 1688 1705 1705 4911 4041 4041 1594 1594 1601 1609 1609
    1609 1601 1601 1601 1601 1609 1601 1601 1601 1609 1609 1601 1601
    1609 1609 1609 1609 1609 1616 1609 1609 1609 1609 1616 1616 1616
    1616 1616 1624 1616 1616 1616 1616 1624 1624 1624 1639 1655 1671
    1680 1688 1688 4911 4041 4041 1594 1594 1594 1601 1609 1609 1601
    1601 1601 1601 1609 1609 1609 1609 1609 1609 1601 1601 1609 1609
    1609 1609 1609 1616 1609 1609 1616 1616 1616 1624 1616 1616 1616
    1624 1616 1616 1616 1616 1624 1624 1632 1639 1655 1671 1680 1688
    1688 4911 4139 4139 1594 1594 1594 1601 1601 1601 1609 1601 1601
    1609 1609 1609 1609 1609 1609 1609 1609 1609 1609 1616 1609 1609
    1609 1616 1609 1609 1616 1616 1616 1624 1616 1616 1624 1624 1624
    1624 1616 1616 1624 1624 1624 1639 1647 1671 1671 1696 1696 5210
    4349 4349 1594 1594 1594 1601 1601 1601 1609 1609 1609 1609 1609
    1609 1609 1609 1609 1609 1609 1616 1616 1616 1609 1609 1609 1616
    1616 1616 1624 1624 1624 1624 1624 1624 1624 1624 1624 1616 1616
    1624 1624 1624 1624 1632 1632 1671 1671 1671 5210 5210 4405 4405
    4405 1601 1601 1601 1609 1609 1609 1609 1609 1609 1609 1609 1609
    1609 1609 1609 1609 1616 1616 1616 1616 1609 1609 1616 1616 1616
    1616 1616 1616 1624 1624 1624 1624 1624 1624 1616 1616 1616 1624
    1624 1624 1624 1624 1655 1671 1696 1696 5291 4349 4405 4405 1601
    1601 1601 1609 1609 1609 1609 1609 1609 1609 1609 1609 1609 1609
    1609 1609 1616 1616 1616 1616 1609 1609 1616 1624 1624 1616 1616
    1616 1624 1624 1624 1624 1624 1624 1616 1616 1616 1624 1624 1624
    1624 1624 1639 1671 1671 1671 1671 4349 4349 4349 1616 1616 1609
    1609 1609 1609 1609 1609 1609 1609 1609 1609 1609 1609 1609 1609
    1616 1616 1616 1609 1609 1609 1616 1624 1624 1616 1616 1616 1624
    1624 1624 1624 1624 1624 1616 1616 1616 1624 1624 1624 1624 1632
    1639 1671 1671 1671 1671 4349 4349 0 1624 1624 1616 1616 1609 1609
    1609 1609 1609 1609 1609 1609 1609 1609 1609 1609 1616 1616 1616
    1609 1609 1609 1616 1624 1616 1616 1616 1616 1624 1624 1624 1624
    1624 1624 1624 1616 1616 1624 1624 1624 1624 1632 1639 1663 1663
    1663 1663 4349 4349 0 1624 1624 1616 1616 1609 1609 1609 1609 1609
    1609 1609 1609 1609 1609 1609 1609 1616 1616 1616 1609 1609 1609
    1616 1616 1616 1616 1616 1616 1624 1624 1624 1624 1624 1624 1624
    1616 1616 1624 1624 1624 1624 1632 1639 1663 1663 1663 1663 4349
    4349 0 1632 1632 1624 1616 1609 1609 1609 1609 1609 1609 1616 1616
    1616 1609 1609 1616 1616 1624 1624 1616 1609 1609 1616 1616 1616
    1616 1616 1616 1624 1624 1624 1624 1624 1624 1624 1624 1624 1624
    1624 1624 1624 1632 1647 1663 1663 1671 1671 4349 0 0 1632 1632 1616
    1616 1609 1609 1609 1609 1609 1616 1616 1616 1616 1609 1609 1616
    1616 1624 1624 1624 1616 1616 1616 1616 1616 1616 1616 1616 1624
    1624 1624 1624 1624 1624 1624 1624 1624 1624 1624 1624 1624 1632
    1647 1663 1671 1671 1671 4349 4349 0 0 1632 1632 1624 1609 1609 1616
    1616 1616 1616 1616 1616 1616 1616 1616 1609 1609 1624 1624 1624
    1616 1616 1616 1616 1616 1616 1616 1616 1624 1624 1624 1624 1624
    1624 1624 1632 1632 1632 1624 1624 1632 1632 1639 1655 1680 1680
    1680 4349 0 0 0 1624 1624 1624 1616 1616 1616 1616 1616 1616 1609
    1609 1616 1616 1616 1609 1609 1616 1624 1624 1616 1616 1616 1616
    1616 1616 1624 1624 1624 1632 1632 1632 1632 1632 1632 1632 1632
    1632 1632 1632 1632 1632 1639 1647 1680 1680 1680 4349 4349 4405 0
    1624 1624 1624 1616 1616 1616 1616 1616 1616 1609 1609 1616 1616
    1624 1616 1616 1616 1616 1616 1624 1624 1624 1624 1624 1624 1624
    1624 1624 1632 1632 1632 1632 1632 1632 1624 1624 1624 1624 1624
    1624 1624 1639 1647 1680 1688 1688 4405 4405 4405 0 1632 1632 1624
    1616 1616 1616 1616 1616 1616 1609 1609 1616 1624 1624 1616 1616
    1616 1616 1616 1624 1624 1624 1624 1624 1624 1624 1624 1624 1624
    1624 1624 1624 1632 1632 1624 1624 1624 1624 1624 1624 1624 1639
    1647 1671 1671 1671 4405 4405 4405 0 1632 1632 1616 1616 1616 1616
    1616 1616 1616 1609 1609 1616 1624 1624 1624 1616 1616 1624 1624
    1624 1624 1624 1624 1624 1624 1616 1616 1624 1624 1624 1624 1624
    1624 1624 1632 1632 1624 1624 1624 1632 1632 1639 1647 1671 1671
    1671 4349 4405 4405 4463 1624 1616 1616 1616 1624 1624 1616 1616
    1616 1616 1616 1616 1624 1624 1624 1624 1624 1624 1624 1624 1624
    1624 1624 1624 1616 1616 1616 1616 1624 1624 1624 1624 1624 1624
    1624 1624 1624 1624 1624 1624 1632 1639 1655 1671 1680 1688 4349
    4405 4463 4463 1624 1624 1616 1616 1624 1624 1624 1616 1616 1616
    1616 1624 1616 1616 1624 1616 1616 1624 1624 1624 1624 1624 1624
    1616 1616 1616 1616 1616 1624 1624 1624 1624 1624 1624 1624 1624
    1624 1624 1624 1624 1624 1632 1647 1671 1688 1688 4405 4349 4349
    4349 1624 1624 1616 1616 1624 1616 1616 1616 1616 1624 1624 1624
    1616 1616 1616 1616 1616 1616 1624 1624 1624 1624 1624 1616 1616
    1624 1624 1624 1632 1632 1624 1624 1624 1624 1624 1624 1632 1624
    1624 1624 1624 1632 1639 1663 1688 1688 4405 4349 4349 4349 1632
    1632 1624 1624 1616 1616 1616 1616 1616 1616 1624 1624 1624 1616
    1616 1616 1616 1616 1624 1624 1624 1616 1616 1624 1624 1624 1624
    1624 1632 1632 1624 1624 1624 1624 1624 1624 1632 1632 1624 1624
    1624 1624 1632 1663 1688 1696 4405 4349 4349 4349 1632 1632 1616
    1616 1616 1616 1616 1616 1616 1616 1624 1624 1624 1616 1616 1616
    1616 1624 1624 1624 1624 1616 1616 1624 1624 1624 1624 1632 1632
    1632 1632 1624 1624 1624 1624 1624 1632 1632 1632 1624 1624 1624
    1632 1639 1639 1639 4405 4405 4405 4463 4463 1616 1616 1616 1624
    1616 1616 1616 1616 1624 1624 1624 1624 1624 1616 1616 1624 1624
    1624 1624 1624 1624 1624 1624 1624 1624 1624 1624 1624 1624 1624
    1624 1624 1624 1632 1632 1632 1632 1632 1632 1624 1624 1632 1632
    1632 1632 4405 4405 4405 4463 4463 1616 1616 1616 1624 1616 1616
    1616 1616 1624 1624 1624 1624 1624 1624 1624 1624 1624 1624 1624
    1624 1624 1624 1624 1624 1624 1624 1624 1624 1624 1624 1624 1624
    1624 1632 1632 1632 1632 1624 1624 1624 1624 1632 1632 1632 1632
    4405 4405 4405 4463 4522 4522 1624 1624 1624 1616 1616 1616 1616
    1624 1624 1624 1624 1624 1624 1624 1624 1624 1624 1624 1624 1624
    1624 1624 1624 1632 1632 1624 1624 1624 1624 1624 1624 1624 1624
    1632 1632 1632 1624 1624 1624 1624 1632 1632 1632 1632 4405 4405
    4405 4463 4463 4463 1632 1632 1624 1616 1616 1616 1616 1624 1624
    1624 1624 1624 1624 1624 1624 1624 1624 1624 1624 1624 1624 1624
    1624 1632 1632 1624 1624 1624 1624 1624 1624 1624 1624 1624 1624
    1624 1624 1624 1624 1632 1632 1632 1632 5132 4405 4405 4405 4463
    4463 4463 1632 1632 1624 1616 1616 1616 1616 1624 1624 1624 1624
    1632 1632 1624 1624 1624 1624 1624 1624 1624 1624 1624 1624 1632
    1632 1632 1632 1624 1624 1632 1624 1624 1624 1624 1624 1624 1624
    1624 1624 1632 1632 1632 4911 5132 4522 4405 4405 4463 4463 4463
    1639 1639 1624 1624 1616 1616 1624 1624 1624 1624 1632 1632 1632
    1632 1632 1624 1624 1632 1624 1624 1624 1624 1624 1632 1632 1632
    1632 1632 1632 1632 1632 1632 1632 1624 1624 5056 4983 4983 1639
    1639 1639 1639 4911 4911 4463 4463 4463 4463 4463 4463 1647 1647
    1624 1624 1624 1624 1624 1624 1624 1624 1632 1632 1632 1632 1624
    1624 1624 1632 1624 1624 1624 1624 1624 1624 1632 1632 1632 1632
    1632 1632 5132 5132 5056 5056 5056 5056 4983 4983 1647 1647 1647
    4983 4911 4911 4463 4463 4463 4463 4463 4582 4582 1647 1632 1632
    1624 1616 1616 1616 1616 1632 1632 1632 1624 1624 1624 1624 1624
    1632 1624 1624 1624 1624 1624 1624 5210 5132 5132 5210 5132 5132
    5132 5132 5056 5056 5056 5056 5056 5056 5056 5056 5056 4983 4911
    4911 4405 4463 4463 4463 4522 4522 4582 1647 1632 1632 1616 1616
    1616 1616 1616 1632 1632 1632 1624 1624 1624 1624 5132 5132 5132
    5132 5132 5132 5132 5132 5132 5132 5132 5132 5132 5132 5132 5132
    5056 5056 5056 5056 5056 5056 5056 5132 5132 5056 4983 4983</data></Depth3800>
</opencv_storage>
