<?xml version="1.0"?>
<opencv_storage>
<Depth14864 type_id="opencv-matrix">
  <rows>17</rows>
  <cols>35</cols>
  <dt>w</dt>
  <data>
    3614 3614 3614 3614 3614 3614 3614 3692 3732 3732 3732 3692 3692
    3692 3692 3653 3653 3614 3614 3614 2767 2767 2767 3614 2789 2789
    3614 2723 2723 2723 2744 2744 2744 2723 2701 3692 3692 3732 3692
    3692 3692 3732 3732 3774 3732 3732 3692 3692 3692 3692 2859 2859
    2859 2789 2767 2744 2744 2744 2767 2767 2744 2701 2701 2701 2701
    2723 2723 2723 2701 2701 3732 2958 2933 2908 2908 2908 2984 3732
    3774 3732 3732 3732 3732 2835 2835 2835 2859 2812 2789 2767 2723
    2723 2744 2744 2767 2723 2701 2701 2701 2701 2723 2723 2723 2680
    2659 2958 2933 2933 2908 2883 2883 2883 2883 2859 2859 2835 2835
    2835 2812 2812 2789 2789 2789 2789 2744 2701 2701 2701 2723 2723
    2723 2701 2701 2701 2701 2723 2723 2723 2680 2659 2933 2908 2908
    2883 2859 2859 2859 2859 2835 2835 2835 2835 2835 2812 2789 2767
    2767 2767 2767 2744 2701 2701 2701 2723 2723 2723 2701 2701 2701
    2701 2723 2723 2701 2680 2680 2908 2883 2883 2859 2835 2835 2859
    2859 2835 2835 2835 2812 2812 2789 2789 2767 2767 2767 2767 2767
    2723 2723 2723 2723 2723 2723 2701 2701 2701 2701 2723 2723 2701
    2680 2680 2883 2883 2883 2859 2835 2835 2859 2859 2835 2835 2835
    2812 2812 2789 2789 2789 2789 2767 2767 2767 2767 2767 2744 2723
    2723 2701 2701 2701 2701 2701 2723 2701 2701 2680 2680 2883 2883
    2883 2859 2859 2859 2859 2859 2859 2859 2835 2812 2812 2789 2789
    2789 2789 2789 2767 2767 2767 2767 2767 2744 2723 2701 2701 2701
    2701 2701 2723 2701 2701 2701 2701 2883 2883 2883 2859 2859 2859
    2859 2859 2859 2859 2835 2812 2812 2812 2789 2789 2789 2789 2767
    2767 2767 2767 2767 2744 2723 2701 2701 2701 2701 2701 2701 2701
    2701 2701 2701 2883 2883 2883 2859 2859 2859 2859 2859 2859 2859
    2835 2835 2812 2812 2812 2812 2789 2789 2767 2767 2744 2744 2767
    2767 2744 2723 2701 2701 2701 2701 2701 2701 2701 2701 2723 2883
    2883 2883 2883 2859 2859 2859 2859 2859 2859 2835 2835 2812 2812
    2812 2812 2789 2789 2767 2767 2744 2744 2767 2767 2744 2723 2701
    2701 2701 2701 2680 2680 2680 2680 2701 2859 2859 2883 2883 2883
    2883 2859 2859 2859 2859 2835 2835 2835 2835 2812 2812 2789 2789
    2789 2767 2744 2744 2744 2744 2744 2723 2701 2701 2701 2701 2639
    2639 2639 2659 2701 2859 2859 2883 2883 2883 2883 2883 2859 2859
    2859 2835 2835 2835 2835 2812 2789 2789 2789 2789 2767 2744 2744
    2744 2744 2723 2723 2723 0 0 0 2639 2639 2639 2659 2701 2859 2859
    2859 2859 2859 2883 2883 2883 2859 2859 2835 2835 2835 2835 2835
    2789 2789 2789 2789 2767 2744 2744 2767 2744 2723 2723 2723 0 0 0 0
    2639 2639 2680 2701 1001 2859 2859 2859 2859 2883 2883 2883 2859
    2859 2812 2812 2812 2812 2812 2835 2812 2789 2789 2767 2767 0 0 0 0
    0 0 0 0 0 0 2639 2639 0 0 1001 0 2859 2859 2859 2859 2859 2859 2883
    2859 2812 2812 2812 2812 2812 2812 2812 2789 2789 2789 0 0 0 0 0 0 0
    0 0 0 0 0 0 0 0 1007 0 0 0 2859 2835 2835 2812 2789 2789 2789 2789
    2835 2812 2812 2812 2812 2789 2789 0 0 0 0 0 0 0 0 0 0 0 0 0 0 0 0</data></Depth14864>
</opencv_storage>
