<?xml version="1.0"?>
<opencv_storage>
<Depth10610 type_id="opencv-matrix">
  <rows>109</rows>
  <cols>43</cols>
  <dt>w</dt>
  <data>
    2503 2522 2503 2503 2522 2522 2522 2522 2522 2541 2541 2541 2522
    2522 2541 2541 2560 2560 2560 2579 2680 2723 2744 2744 1041 1041
    1041 1041 2680 2680 2680 3576 3576 3576 3576 3614 3576 3576 3576
    3576 3576 3576 3576 2503 2522 2503 2503 2503 2522 2522 2522 2541
    2560 2560 2560 2522 2522 2541 2541 2560 2560 2579 2598 2680 2744
    2744 1041 1041 1041 1041 1041 1041 1041 3576 3576 3576 3614 3614
    3614 3576 3576 3576 3576 3576 3576 3576 2503 2503 2503 2503 2503
    2522 2522 2522 2541 2560 2560 2560 2560 1041 0 0 1038 1038 1044 2744
    2744 2744 1041 1041 1041 1041 1041 1041 1031 1031 1031 3653 3653
    3576 3576 3576 3576 3576 3576 3576 3576 3576 3576 2503 2503 2503
    2503 2522 2522 2522 2522 2541 2579 2579 0 0 0 0 0 0 0 0 1044 1041
    1041 1041 1041 1034 1034 1034 1031 1031 1031 1031 1031 3576 3576
    3576 3576 3576 3576 3576 3576 3576 3576 3576 2503 2522 2522 2541
    2541 2522 2522 2522 2541 2541 1044 1044 1041 1041 0 0 1038 1038 1038
    1044 1044 1041 1041 1034 1034 1031 1031 1028 1028 1028 1028 0 3576
    3576 3576 3576 3576 3576 3576 3576 3576 3614 3614 2503 2522 2522
    1044 1044 1044 1044 1044 1044 1044 1044 1044 1041 1041 1038 1038
    1038 1038 1038 1038 1041 1041 1041 1031 1031 1031 1031 1028 1028
    1028 1028 0 0 3576 3576 3576 3576 3576 3576 3576 3576 3614 3614 1050
    1050 1047 1044 1044 1044 1044 1044 1044 1044 1044 1044 1041 1041
    1038 1038 1038 1038 1038 1038 1038 1034 1034 1031 1031 1031 1028
    1028 1028 1028 1028 0 0 0 3576 3576 3576 3576 3576 3576 3576 3576
    3614 1050 1050 1047 1047 1044 1044 1044 1044 1044 1044 1044 1044
    1044 1041 1041 1038 1038 1038 1038 1038 1034 1034 1031 1031 1031
    1031 1028 1025 1025 1025 0 0 0 3576 3576 3576 3576 3576 3576 3576
    3576 3576 3614 1054 1050 1050 1047 1044 1044 1044 1047 1044 1044
    1044 1044 1044 1041 1041 1038 1038 1038 1038 1038 1034 1034 1031
    1031 1031 1031 1028 1025 1025 1025 0 0 0 0 3614 3614 3576 3576 3576
    3576 3576 3576 3576 1054 1054 1050 1047 1047 1044 1044 1047 1047
    1044 1044 1044 1044 1044 1041 1041 1041 1038 1038 1038 1038 1034
    1034 1031 1031 1031 1031 1028 1028 1028 0 0 0 0 3614 3614 3614 3576
    3576 3576 3576 3576 3576 1057 1054 1054 1050 1047 1047 1047 1047
    1047 1047 1044 1044 1044 1044 1041 1041 1041 1038 1038 1038 1038
    1038 1034 1031 1031 1031 1031 1028 1028 1028 1028 0 0 0 3653 3614
    3614 3576 3576 3576 3576 3576 3576 1057 1054 1054 1050 1047 1047
    1047 1047 1047 1047 1047 1044 1044 1041 1041 1041 1041 1041 1041
    1038 1038 1038 1034 1031 1031 1031 1031 1028 1028 1028 1028 0 0 0 0
    3614 3576 3576 3576 3576 3576 3576 3576 1057 1054 1054 1050 1050
    1050 1050 1050 1050 1047 1044 1044 1044 1041 1041 1041 1041 1041
    1041 1041 1038 1038 1034 1031 1031 1031 1031 1031 1028 1028 1028 0 0
    0 0 3576 3576 3576 3576 3576 3576 3576 3576 1054 1054 1054 1054 1050
    1050 1050 1050 1047 1047 1044 1044 1044 1044 1041 1041 1041 1041
    1041 1041 1038 1038 1034 1031 1031 1031 1031 1031 1028 1025 1025 0 0
    0 0 3576 3576 3576 3576 3576 3576 3576 3576 1054 1054 1054 1054 1050
    1050 1050 1047 1047 1044 1044 1044 1044 1044 1044 1041 1041 1041
    1041 1041 1038 1038 1038 1031 1031 1034 1031 1031 1028 1025 1025
    1025 0 0 3576 3576 3576 3576 3576 3576 3576 3576 3576 1054 1054 1054
    1054 1050 1047 1047 1047 1044 1044 1044 1044 1044 1044 1044 1044
    1044 1041 1041 1041 1038 1034 1034 1031 1031 1031 1031 1031 1028
    1028 1028 0 0 0 0 3576 3576 3576 3576 3576 3576 3576 3576 1054 1054
    1054 1054 1050 1047 1047 1047 1044 1044 1044 1044 1044 1044 1044
    1041 1041 1041 1041 1041 1038 1034 1034 1031 1031 1031 1031 1031
    1031 1031 1031 0 0 0 0 3576 3576 3576 3576 3576 3576 3576 3576 1054
    1054 1054 1054 1050 1050 1047 1047 1044 1044 1044 1044 1044 1044
    1041 1041 1041 1041 1041 1041 1038 1034 1034 1031 1031 1031 1031
    1031 1031 1031 1031 0 0 0 0 3576 3576 3576 3576 3576 3576 3576 3576
    1054 1054 1054 1054 1050 1050 1050 1047 1044 1044 1044 1044 1044
    1044 1041 1041 1041 1041 1041 1041 1038 1034 1034 1031 1031 1031
    1031 1031 1031 1031 1028 1028 0 0 0 3576 3576 3576 3576 3576 3576
    3576 3576 1054 0 1054 1054 1050 1050 1050 1050 1047 1044 1044 1044
    1044 1044 1041 1041 1041 1041 1041 1041 1041 1038 1034 1034 1031
    1031 1031 1031 1031 1028 1025 1025 0 0 0 0 3576 3576 3576 3576 3576
    3576 3576 0 1054 1054 1054 1054 1054 1050 1050 1047 1044 1044 1044
    1044 1044 1041 1041 1041 1041 1041 1041 1041 1041 1038 1038 1034
    1034 1031 1031 1031 1028 1025 1025 0 0 0 0 3576 3576 3576 3576 3576
    3576 3576 0 0 1054 1054 1050 1050 1050 1050 1050 1047 1047 1044 1041
    1041 1041 1041 1041 1041 1041 1041 1041 1041 1038 1038 1034 1034
    1031 1031 1031 1028 1025 1025 0 0 0 0 3576 3576 3576 3576 3576 3576
    3576 0 0 1054 1054 1050 1050 1050 1050 1050 1047 1047 1044 1041 1041
    1041 1041 1041 1041 1041 1041 1041 1038 1034 1034 1034 1031 1031
    1031 1031 1028 1025 1025 0 0 0 3576 3576 3576 3576 3576 3576 3576
    3576 0 0 1054 1054 1050 1050 1050 1050 1050 1047 1047 1044 1044 1044
    1041 1041 1041 1041 1041 1041 1038 1034 1034 1034 1031 1031 1031
    1031 1031 1028 1025 1025 0 0 0 0 3539 3539 3576 3576 3539 3539 3576
    0 0 1057 1054 1050 1050 1050 1050 1050 1047 1047 1044 1044 1044 1044
    1041 1041 1041 1038 1038 1038 1034 1034 1034 1031 1031 1031 1031
    1031 1028 1025 1025 1025 0 0 0 3539 3539 3576 3576 3539 3539 3539 0
    0 1057 1054 1054 1050 1050 1047 1047 1047 1047 1047 1044 1044 1044
    1044 1041 1041 1038 1038 1038 1034 1034 1034 1031 1031 1031 1031
    1028 1028 1025 1025 0 0 0 0 3576 3576 3576 3576 3576 3539 3539 0 0 0
    1054 1054 1050 1050 1047 1047 1047 1047 1044 1044 1044 1044 1044
    1041 1041 1041 1038 1038 1034 1034 1034 1031 1031 1031 1028 1028
    1028 1025 1025 0 0 0 0 3576 3576 3576 3576 3576 3539 3539 0 0 0 1054
    1054 1050 1050 1050 1047 1047 1047 1044 1044 1044 1044 1044 1041
    1041 1041 1038 1038 1038 1034 1034 1034 1031 1031 1028 1028 1028
    1025 1025 0 0 0 0 3576 3576 3576 3576 3576 3576 3576 0 0 0 1054 1054
    1050 1050 1047 1047 1047 1047 1044 1044 1044 1041 1041 1041 1041
    1041 1038 1038 1038 1034 1034 1031 1031 1031 1028 1028 1028 1025
    1022 1022 0 0 0 3653 3576 3576 3576 3576 3576 3576 0 0 0 1054 1054
    1050 1050 1047 1047 1044 1044 1044 1044 1041 1041 1041 1041 1041
    1041 1041 1041 1038 1034 1031 1031 1031 1031 1031 1028 1028 1025
    1022 1022 0 0 0 0 3576 3576 3576 3576 3576 3576 0 0 0 1054 1054 1050
    1050 1047 1047 1044 1044 1044 1044 1041 1041 1041 1041 1041 1041
    1041 1038 1038 1034 1031 1031 1031 1031 1031 1028 1028 1028 1022
    1022 0 0 0 0 3576 3576 3539 3539 3576 3576 0 1057 0 1054 1054 1050
    1050 1047 1047 1047 1044 1044 1044 1041 1041 1041 1041 1041 1041
    1041 1038 1038 1034 1031 1031 1031 1031 1031 1028 1028 1028 1022
    1022 0 0 0 0 3576 3576 3539 3539 3576 3576 0 0 1057 1057 1054 1050
    1050 1050 1047 1047 1044 1044 1044 1041 1041 1041 1041 1041 1041
    1038 1034 1034 1034 1031 1031 1031 1031 1031 1028 1028 1028 1022
    1022 0 0 0 3576 3576 3576 3576 3576 3576 3576 0 1057 1057 1057 1054
    1050 1050 1050 1047 1047 1044 1044 1044 1041 1041 1041 1041 1041
    1041 1038 1034 1034 1034 1034 1031 1031 1031 1031 1031 1028 1028
    1022 1022 0 0 0 0 3576 3576 3576 3576 3576 3576 2522 1057 1057 1057
    1054 1054 1050 1050 1047 1047 1047 1044 1044 1044 1041 1041 1041
    1041 1041 1038 1034 1034 1034 1034 1034 1034 1031 1031 1031 1031
    1028 1025 1025 1025 0 0 0 3576 3576 3576 3576 3539 3539 2522 2522
    1057 1057 1054 1054 1050 1050 1047 1047 1047 1044 1044 1044 1044
    1041 1041 1041 1041 1041 1038 1038 1034 1034 1034 1034 1031 1031
    1031 1031 1028 1025 1025 0 0 0 0 3576 3576 3576 3576 3539 3539 2522
    2522 1057 1057 1054 1054 1050 1050 1047 1047 1044 1044 1044 1044
    1044 1041 1041 1041 1041 1041 1038 1038 1038 1038 1034 1034 1031
    1031 1031 1031 1028 1028 1028 0 0 0 0 3576 3576 3576 3576 3576 3539
    2522 2522 1057 1057 1054 1054 1050 1050 1047 1047 1044 1044 1044
    1044 1044 1041 1041 1041 1041 1041 1038 1038 1038 1034 1034 1031
    1031 1031 1031 1031 1028 1028 1028 0 0 0 0 3576 3576 3576 3576 3576
    3576 2522 2522 1057 1057 1054 1054 1050 1050 1047 1047 1044 1044
    1044 1044 1041 1041 1041 1041 1041 1041 1038 1038 1034 1034 1031
    1031 1031 1028 1028 1028 1028 1028 1025 1025 0 0 0 3576 3576 3576
    3576 3576 3576 2503 1057 1057 1057 1054 1054 1050 1050 1047 1047
    1047 1044 1044 1044 1041 1041 1041 1041 1041 1041 1038 1038 1034
    1034 1031 1031 1031 1028 1028 1028 1028 1028 1025 1025 0 0 0 0 3614
    3576 3576 3576 3576 2522 1057 1057 1054 1054 1054 1050 1047 1047
    1047 1047 1044 1044 1044 1044 1041 1041 1041 1041 1041 1038 1038
    1034 1034 1031 1031 1031 1031 1028 1028 1031 1028 1025 1025 0 0 0 0
    3614 3576 3576 3576 3539 2503 1054 1054 1054 1054 1054 1050 1047
    1047 1050 1047 1044 1044 1044 1044 1044 1044 1041 1041 1041 1041
    1038 1034 1034 1031 1031 1031 1031 1031 1031 1028 1028 1025 1025 0 0
    0 0 3614 3576 3576 3576 3539 2503 0 1054 1054 1054 1054 1054 1054
    1050 1047 1047 1047 1044 1044 1044 1044 1044 1041 1041 1041 1041
    1038 1034 1034 1031 1031 1031 1031 1031 1031 1028 1028 1025 1025 0 0
    0 3576 3576 3576 3576 3576 3539 2485 0 1054 1054 1054 1054 1054 1050
    1050 1047 1047 1047 1044 1041 1041 1044 1041 1041 1041 1041 1038
    1038 1038 1034 1034 1031 1031 1031 1031 1031 1028 1028 1028 1028 0 0
    0 0 3576 3539 3539 3539 3539 2485 0 0 1050 1050 1050 1054 1050 1050
    1047 1047 1047 1044 1041 1041 1044 1041 1041 1041 1041 1038 1038
    1038 1034 1031 1031 1031 1031 1031 1031 1028 1028 1028 1028 0 0 0 0
    3539 3539 3539 3539 3539 2503 0 0 1047 1047 1047 1054 1054 1054 1050
    1047 1047 1044 1041 1041 1044 1041 1041 1041 1041 1041 1038 1038
    1034 1031 1031 1031 1031 1031 1028 1028 1028 1028 1028 0 0 0 0 3539
    3539 3539 3576 3576 2485 0 1050 1047 1047 1047 1054 1054 1050 1050
    1047 1047 1044 1044 1044 1044 1041 1041 1041 1041 1041 1038 1038
    1038 1034 1031 1031 1031 1031 1028 1028 1025 1025 1025 0 0 0 0 3539
    3539 3539 3539 3539 2485 0 0 1050 1050 1050 1054 1054 1050 1050 1047
    1047 1047 1047 1044 1044 1044 1041 1038 1038 1041 1041 1041 1034
    1034 1031 1031 1031 1028 1028 1028 1025 1025 1025 0 0 0 0 0 3576
    3576 3539 3539 2503 0 1050 1050 1050 1050 1054 1050 1050 1047 1047
    1047 1047 1047 1047 1044 1044 1041 1038 1038 1041 1041 1038 1034
    1034 1031 1031 1031 1028 1028 1028 1025 1025 1025 0 0 0 0 3576 3576
    3576 3539 3539 2522 0 1054 1054 1054 1054 1054 1050 1050 1047 1047
    1047 1047 1047 1047 1044 1044 1041 1038 1038 1038 1038 1038 1034
    1034 1031 1031 1031 1028 1028 1025 1025 1022 1022 0 0 0 0 3576 3539
    3539 3539 3539 2522 0 2522 1054 1054 1054 1054 1050 1050 1050 1047
    1047 1047 1044 1044 1044 1044 1041 1041 1041 1038 1038 1034 1034
    1034 1031 1031 1031 1028 1028 1025 1025 1022 1022 0 0 0 0 0 3539
    3539 3539 3539 2541 2522 0 1054 1054 1054 1054 1054 1050 1050 1047
    1047 1047 1044 1044 1044 1044 1041 1041 1041 1038 1038 1034 1034
    1034 1031 1031 1031 1028 1028 1025 1025 1025 1025 1025 0 0 0 0 3576
    3539 3539 3576 2522 2522 0 1057 1057 1054 1054 1054 1050 1050 1047
    1047 1047 1044 1044 1044 1044 1041 1041 1041 1038 1038 1038 1034
    1031 1031 1031 1031 1028 1028 1028 1028 1025 1025 1025 0 0 0 0 0
    3576 3576 3576 2522 2522 0 1057 1057 1054 1054 1054 1054 1050 1047
    1047 1044 1044 1044 1044 1041 1041 1041 1041 1041 1038 1038 1034
    1031 1031 1028 1028 1028 1028 1028 1028 1028 1025 1025 0 0 0 0 0
    3576 3576 3576 2503 2503 2503 1054 1054 1054 1054 1054 1050 1047
    1047 1047 1044 1044 1044 1044 1041 1041 1041 1038 1038 1038 1038
    1034 1031 1031 1028 1028 1028 1028 1028 1028 1028 1028 1028 0 0 0 0
    0 3576 3576 3576 2503 2503 0 1054 1054 1054 1054 1054 1050 1047 1047
    1047 1044 1044 1044 1044 1041 1041 1041 1038 1038 1038 1038 1034
    1031 1031 1031 1031 1028 1028 1028 1025 1025 1025 1025 0 0 0 0 0
    3576 3576 3576 2503 2503 2503 2503 1054 1054 1050 1050 1050 1050
    1047 1047 1044 1044 1044 1041 1041 1041 1041 1041 1041 1038 1038
    1034 1031 1031 1031 1031 1028 1028 1028 1025 1025 1025 1022 1022 0 0
    0 0 3576 3576 3576 2503 2503 2503 0 1054 1054 1050 1050 1050 1050
    1047 1047 1044 1044 1044 1041 1041 1041 1041 1041 1041 1038 1038
    1034 1034 1031 1031 1031 1028 1028 1028 1028 1028 1025 1022 1022 0 0
    0 0 3576 3576 3576 2541 2579 2579 0 1054 1054 1054 1050 1050 1050
    1047 1047 1044 1044 1044 1041 1041 1041 1041 1041 1041 1038 1038
    1034 1034 1034 1031 1031 1031 1028 1028 1028 1028 1025 1025 1025 0 0
    0 3576 3576 3539 3539 2560 2579 2579 0 1054 1054 1054 1050 1050 1050
    1047 1047 1047 1044 1041 1041 1041 1041 1041 1041 1041 1038 1038
    1034 1034 1034 1031 1031 1031 1028 1028 1028 1025 1022 1022 0 0 0 0
    3539 3539 3539 3539 2560 2579 2579 0 1057 1057 1050 1050 1050 1050
    1047 1047 1047 1044 1041 1041 1041 1041 1041 1041 1041 1038 1038
    1034 1034 1034 1031 1031 1031 1031 1028 1028 1025 1022 1022 0 1022 0
    3503 3503 3503 3503 3503 2560 2560 2560 0 1050 1050 1050 1050 1054
    1050 1047 1047 1047 1044 1041 1041 1041 1041 1041 1041 1041 1038
    1038 1038 1034 1034 1031 1031 1031 1028 1028 1028 1028 1022 1022
    1022 0 0 0 3503 3503 3503 3503 2560 2560 2560 2560 0 1054 1054 1054
    1054 1054 1050 1047 1047 1044 1044 1044 1044 1041 1041 1041 1041
    1038 1038 1038 1034 1034 1031 1031 1031 1028 1028 1028 1028 1022
    1019 1019 0 0 0 3468 3468 3468 3468 2560 2560 2560 2560 0 1054 1054
    1054 1054 1054 1050 1050 1047 1044 1044 1044 1044 1044 1041 1041
    1041 1041 1038 1038 1034 1034 1031 1031 1028 1028 1028 1028 1028
    1022 1019 1019 0 0 0 0 3433 3433 3468 2560 2560 2560 2560 0 1054
    1054 1054 1054 1050 1050 1044 1044 1047 1044 1044 1044 1044 1041
    1041 1041 1041 1041 1038 1038 1034 1034 1034 1028 1028 1028 1028
    1028 1025 1022 1022 1022 0 0 0 3433 3433 3468 2560 2560 2560 0 0 0
    1057 1054 1054 1050 1050 1044 1044 1047 1044 1041 1041 1041 1041
    1041 1041 1041 1041 1038 1038 1038 1034 1034 1028 1028 1028 1028
    1028 1025 1025 1022 1022 1022 0 3503 0 3503 3468 2560 2579 2579 0 0
    0 1057 1057 1054 1050 1050 1047 1047 1047 1044 1041 1041 1041 1041
    1041 1038 1038 1041 1038 1038 1038 1034 1034 1031 1028 1028 1028
    1028 1028 1025 1025 1025 0 0 0 0 3503 3468 2560 2579 2579 2579 0
    1060 1060 1057 1054 1054 1050 1047 1044 1044 1044 1044 1044 1041
    1041 1041 1038 1038 1038 1038 1038 1034 1034 1034 1031 1028 1028
    1028 1028 1028 1028 1028 1028 0 0 0 0 3539 3539 2560 2579 2579 2579
    0 1057 1057 1054 1054 1054 1050 1047 1044 1044 1047 1044 1041 1041
    1041 1041 1038 1038 1038 1038 1038 1034 1034 1034 1031 1028 1028
    1028 1028 1028 1028 1022 1022 0 0 0 3539 3539 3539 2579 2579 2579
    2579 0 1057 1057 1054 1054 1054 1050 1050 1047 1047 1047 1044 1041
    1041 1041 1038 1038 1038 1038 1038 1034 1034 1034 1031 1031 1028
    1028 1028 1028 1028 1028 1022 1022 1022 0 0 0 3539 3539 2579 2579
    2579 2579 2598 1057 1057 1054 1054 1054 1050 1050 1047 1047 1047
    1044 1044 1041 1041 1038 1038 1038 1038 1038 1034 1034 1034 1031
    1031 1028 1028 1028 1028 1028 1028 1022 1022 0 0 0 0 3539 3539 2579
    2579 2579 2598 2598 1054 1054 1054 1054 1050 1050 1050 1047 1047
    1044 1044 1044 1041 1041 1038 1038 1038 1038 1038 1034 1034 1031
    1031 1031 1031 1028 1028 1028 1028 1025 1022 1022 0 0 0 3576 3576
    3576 2579 2579 2579 2598 2598 1054 1054 1054 1054 1050 1050 1050
    1047 1047 1044 1044 1044 1044 1041 1041 1041 1038 1038 1038 1034
    1034 1031 1031 1031 1031 1028 1028 1028 1028 1025 1022 1022 0 0 0 0
    3576 3576 2579 2598 2618 2598 2598 0 1054 1054 1054 1054 1050 1050
    1047 1047 1044 1044 1044 1044 1041 1041 1041 1038 1038 1038 1034
    1034 1031 1031 1031 1031 1028 1028 1028 1028 1025 1025 1022 1022 0 0
    0 3576 3576 2598 2598 2618 2598 2598 0 1057 1054 1054 1054 1050 1050
    1047 1044 1044 1044 1044 1044 1041 1041 1041 1041 1038 1038 1038
    1034 1034 1034 1031 1031 1028 1028 1028 1028 1025 1025 1022 1022
    1022 0 3576 0 3576 2598 2618 2618 2618 2618 2618 1057 1057 1054 1054
    1050 1050 1047 1044 1044 1044 1044 1044 1044 1041 1041 1041 1038
    1038 1038 1034 1034 1034 1031 1031 1028 1028 1028 1028 1028 1025
    1022 1022 1022 0 0 0 3576 2618 2618 2598 2598 2598 0 1054 1054 1054
    1054 1054 1054 1047 1047 1044 1044 1044 1044 1044 1044 1041 1041
    1041 1038 1038 1038 1034 1034 1031 1031 1031 1031 1028 1028 1028
    1022 1022 1019 1019 0 0 0 0 2618 2618 2598 2598 2598 0 0 1054 1054
    1054 1054 1050 1047 1047 1047 1044 1044 1044 1044 1044 1041 1041
    1041 1038 1038 1038 1038 1034 1034 1031 1031 1031 1028 1028 1028
    1022 1022 1019 1019 1019 0 3503 0 2618 2618 2579 2579 2579 0 0 1054
    1054 1054 1050 1050 1047 1047 1047 1044 1044 1044 1044 1041 1041
    1041 1041 1041 1038 1038 1038 1034 1034 1031 1028 1028 1028 1028
    1028 1025 1025 1019 1019 0 0 0 3503 2618 2618 2579 2579 0 0 0 1054
    1054 1054 1050 1047 1047 1047 1047 1047 1044 1044 1044 1041 1041
    1041 1041 1041 1038 1038 1038 1034 1034 1031 1028 1028 1025 1025
    1028 1025 1025 1025 1025 0 0 0 3468 2598 2618 2598 2598 0 0 0 0 1054
    1054 1050 1047 1047 1044 1044 1044 1044 1044 1044 1041 1041 1038
    1038 1038 1038 1038 1038 1034 1034 1031 1028 1028 1025 1025 1028
    1025 1025 1028 0 0 0 3468 3468 2598 2618 2618 2618 0 0 0 0 1054 1054
    1050 1050 1047 1044 1044 1044 1044 1044 1041 1041 1041 1038 1038
    1038 1038 1034 1034 1034 1031 1031 1028 1028 1028 1025 1025 1025
    1028 1028 0 1025 0 3399 3399 2618 2639 2618 2618 0 0 0 0 1054 1054
    1050 1050 1047 1044 1044 1044 1044 1044 1041 1041 1041 1038 1038
    1038 1038 1034 1034 1034 1031 1031 1028 1028 1028 1025 1025 1025
    1028 1025 1025 1025 0 3399 3399 2618 2639 2639 2639 0 0 0 0 0 1054
    1054 1050 1047 1047 1044 1044 1044 1044 1041 1041 1041 1038 1038
    1038 1038 1034 1034 1034 1031 1031 1028 1028 1028 1025 1025 1025
    1025 1025 1025 1025 0 3433 0 2618 2639 2639 2639 0 0 0 0 0 1054 1050
    1050 1047 1047 1044 1044 1044 1044 1041 1041 1041 1038 1038 1038
    1038 1034 1034 1031 1031 1031 1031 1028 1028 1025 1025 1025 1025
    1025 1025 1028 0 0 0 2618 2639 2618 2618 0 0 0 0 0 1054 1050 1050
    1047 1047 1044 1044 1044 1044 1041 1041 1041 1041 1041 1041 1038
    1038 1034 1031 1031 1031 1028 1028 1028 1025 1025 1025 1025 1022
    1022 1022 1022 0 2541 2618 2618 2618 2618 0 0 0 0 0 1054 1050 1050
    1050 1050 1044 1044 1044 1044 1041 1041 1041 1041 1041 1041 1038
    1038 1034 1031 1031 1031 1028 1028 1028 1028 1028 1022 1022 1022
    1022 1022 1022 0 2503 2618 2618 2598 2598 2598 0 0 0 0 1054 1050
    1050 1050 1050 1047 1047 1044 1044 1041 1041 1041 1041 1041 1041
    1038 1038 1034 1031 1031 1031 1028 1028 1028 1025 1025 1022 1022
    1022 1022 1022 1022 0 2485 2639 2639 2598 2598 2598 0 0 0 0 1054
    1050 1050 1050 1047 1047 1047 1044 1044 1041 1041 1041 1041 1041
    1038 1038 1038 1034 1034 1031 1031 1028 1028 1028 1025 1025 1025
    1022 1022 1022 1022 1022 2467 2485 2618 2598 2598 2560 2560 0 0 0
    1054 1054 1054 1050 1047 1047 1047 1044 1044 1041 1041 1041 1038
    1038 1038 1038 1038 1038 1034 1034 1031 1031 1031 1028 1028 1028
    1028 1025 1025 1025 1025 1025 0 2467 2467 2579 2598 2560 2522 2522 0
    0 0 1050 1050 1054 1050 1047 1047 1047 1044 1044 1041 1041 1041 1038
    1038 1038 1038 1038 1038 1034 1034 1031 1031 1031 1028 1028 1028
    1028 1028 1025 1025 1028 1028 1028 2467 2467 2560 2560 2522 2503
    2503 0 0 0 1050 1050 1054 1047 1047 1047 1044 1044 1044 1041 1041
    1041 1038 1038 1038 1038 1038 1034 1034 1031 1031 1028 1028 1028
    1028 1028 1028 1028 1025 1025 1025 1028 1028 2467 2467 2541 2522
    2503 2503 2503 2503 0 1054 1054 1054 1050 1047 1047 1047 1044 1044
    1044 1041 1041 1041 1041 1041 1038 1038 1038 1034 1034 1031 1028
    1028 1028 1028 1028 1028 1028 1028 1025 1025 1019 1019 1019 2467
    2467 2503 2485 2485 2485 2503 0 0 0 1054 1054 1050 1047 1044 1044
    1044 1044 1044 1041 1041 1041 1038 1038 1038 1038 1038 1034 1034
    1031 1028 1028 1028 1028 1028 1028 1028 1025 1025 1025 1019 1019
    1019 2522 2467 2450 2450 2467 2467 2467 2450 2450 2450 0 1054 1050
    1047 1044 1044 1044 1044 1044 1041 1041 1038 1038 1038 1038 1038
    1034 1031 1031 1031 1031 1028 1028 1028 1025 1025 1025 1025 1025
    1025 1025 1025 1025 2522 2522 2450 2450 2450 2450 2450 2450 2450
    2450 2450 1050 1050 1047 1044 1044 1044 1044 1044 1041 1041 1038
    1038 1038 1038 1038 1034 1031 1031 1031 1031 1028 1028 1025 1025
    1022 1022 1025 1028 1028 1028 1028 1173 2503 2503 2450 2450 2450
    2450 2450 2450 2450 2450 2450 1047 1047 1047 1044 1044 1044 1044
    1044 1041 1041 1041 1041 1041 1038 1038 1031 1031 1034 1034 1031
    1028 1028 1025 1025 1022 1022 1028 1028 1028 1028 1173 1173 2503
    2503 2450 2450 2450 2450 2450 2450 2450 2450 2450 1047 1047 1047
    1047 1047 1044 1044 1044 1044 1041 1041 1041 1197 1197 1193 1031
    1031 1181 1181 1034 1031 1028 1025 1025 1112 1108 1108 1173 1169
    1169 1169 1177 1177 2503 2450 2450 2467 2467 2467 2467 2450 2450
    2450 1177 1197 1197 1050 1050 1181 1181 1181 1130 1126 1119 1119
    1185 1181 1181 1177 1177 1177 1173 1173 1165 1161 1161 1112 1112
    1108 1108 1165 1165 1161 1161 1161 1161 1161 2467 2467 2467 2467
    2467 2467 2450 2450 2450 0 1177 1177 1181 1173 1173 1161 1153 1130
    1126 1119 1119 1177 1173 1173 1173 1173 1169 1169 1165 1161 1157
    1153 1108 1108 1108 1108 1157 1157 1153 1145 1138 1138 0 2467 2467
    2467 2467 2467 2467 2450 2450 2450 1173 1173 1173 1173 1173 1169
    1157 1153 1130 1126 1119 1119 1157 1157 1157 1161 1161 1165 1161
    1157 1149 1145 1138 1108 1108 1108 1108 1149 1149 1145 1141 1134
    1134 0 2450 2450 2450 2450 2450 2450 2450 2450 2450 1169 1169 1169
    1165 1165 1161 1153 1149 1130 1126 1119 1119 1145 1145 1141 1141
    1138 1138 1145 1141 1141 1138 1134 1112 1108 1108 1108 1141 1141
    1138 1134 1130 1130 0 2450 2450 2450 2450 2450 2450 2450 2450 0 0
    1169 1165 1153 1153 1149 1141 1138 1130 1126 1126 1126 1134 1134
    1134 1130 1130 1126 1126 1126 1126 1130 1126 1115 1112 1112 1112
    1134 1126 1126 1126 1126 1130 0 2450 2432 2432 2450 2450 2450 2450 0
    0 0 1145 1145 1141 1138 1138 1134 1126 1123 1123 1123 1123 1126 1126
    1126 1126 1126 1123 1123 1119 1119 1119 1115 1115 1112 1112 1112
    1123 1115 1115 1115 1115 1123 0 2432 2432 2432 2432 2432 2432 2450 0
    0 0 1145 1138 1138 1134 1126 1126 1123 1119 1119 1119 1119 1119 1123
    1123 1119 1115 1108 1108 1108 1105 1105 1105 1101 1101 1090 1090
    1094 1108 1101 1094 1094 1123 0 2415 2415 2432 2432 2432 2432 0 0 0
    0 1123 1123 1123 1123 1112 1112 1108 1108 1108 1112 1112 1112 1112
    1105 1101 1101 1101 1101 1094 1094 1097 1097 1087 1087 1087 1087
    1087 1087 1087 1087 1080 1077 1077 2398 2398 2432 0 0 0 0 0 0 0 1119
    1115 1112 1105 1105 1105 1105 1105 1105 1105 1105 1097 1097 1094
    1094 1094 1094 1094 1090 1090 1090 1087 1084 1084 1084 1084 1084
    1084 1084 1080 1077 1077 1077 2381 2381 0 0 0 0 0 0 0 0 1112 1108
    1108 1097 1097 1097 1097 1097 1097 1097 1097 1094 1094 1094 1094
    1094 1094 1090 1087 1087 1087 1087 1084 1080 1080 1080 1080 1080
    1080 1077 1077 1073 1070 2381 2381 0 0 0 0 0 0 0 0 1112 1108 1108
    1097 1097 1097 1097 1097 1097 1097 1097 1094 1094 1094 1094 1094
    1090 1087 1084 1084 1084 1084 1084 1080 1080 1080 1080 1077 1077
    1077 1073 1073 1070</data></Depth10610>
</opencv_storage>
