<?xml version="1.0"?>
<opencv_storage>
<Depth4309 type_id="opencv-matrix">
  <rows>45</rows>
  <cols>67</cols>
  <dt>w</dt>
  <data>
    5933 5933 5734 5734 5832 5832 1785 1785 1776 1766 1766 1766 1757
    1748 1748 1748 5734 5734 1757 1757 1766 1766 5734 5734 5640 5640
    5640 5734 5734 5734 5640 5548 5548 5640 5640 5640 5548 5548 5548
    5548 5460 5460 5374 5374 5374 5374 5374 5374 5374 5374 5374 5374
    5374 4463 4405 4349 4349 4349 4295 4295 0 0 0 0 0 0 0 5832 5832 5734
    5734 5734 1804 1785 1785 1776 1766 1766 1766 1757 1748 1748 1748
    1757 1748 1748 1748 1748 1748 1748 1748 1748 1748 1748 1748 5734
    5734 5640 5548 1776 1776 1776 5640 5548 5548 5640 5548 5548 5460
    5374 5374 5374 5374 5374 5374 5374 5374 5374 5374 4349 4349 4349
    4349 4349 4349 4295 4295 0 0 0 0 0 0 0 5832 5832 5832 5832 1804 1804
    1785 1776 1776 1766 1766 1766 1757 1757 1748 1748 1748 1748 1748
    1748 1748 1748 1748 1748 1739 1739 1739 1739 1739 1739 1739 1739
    1757 1748 1748 1757 1757 5640 5640 5640 5548 5460 5460 5460 5374
    5374 5374 5374 5374 5374 5374 5374 4405 4349 4295 4295 4349 4349
    4295 4295 0 0 0 0 0 0 0 5832 5832 5832 1804 1804 1804 1785 1776 1776
    1766 1766 1766 1766 1757 1748 1748 1748 1739 1739 1748 1739 1739
    1739 1739 1739 1739 1739 1731 1731 1722 1722 1722 1739 1739 1739
    1731 1722 1713 1713 1713 1713 1722 1722 1739 5460 5460 1739 1739
    1739 1748 1748 1748 4405 4405 4295 4295 4349 4349 4295 4295 0 0 0 0
    0 0 0 5832 5832 5832 1804 1804 1794 1785 1776 1776 1766 1766 1766
    1766 1757 1748 1748 1748 1739 1739 1748 1739 1739 1739 1739 1731
    1731 1722 1713 1713 1713 1713 1713 1722 1722 1722 1713 1713 1713
    1713 1713 1713 1713 1713 1722 1722 1713 1713 1722 1722 1731 1722
    1713 1713 1713 1713 1713 1722 4349 4405 4405 4405 0 0 0 0 0 0 5933
    5933 5933 1804 1804 1785 1785 1776 1776 1766 1766 1776 1766 1757
    1748 1748 1748 1748 1748 1748 1739 1739 1739 1739 1731 1731 1722
    1713 1713 1713 1713 1713 1713 1713 1713 1713 1713 1713 1713 1705
    1705 1705 1705 1705 1696 1696 1705 1705 1705 1705 1713 1705 1705
    1705 1705 1705 1713 1713 1713 4405 4405 0 0 0 0 0 0 6038 6038 6038
    1804 1804 1785 1785 1776 1776 1766 1766 1776 1766 1757 1748 1748
    1748 1748 1748 1748 1739 1739 1739 1739 1731 1731 1722 1713 1713
    1713 1713 1713 1713 1713 1705 1705 1705 1705 1705 1705 1705 1705
    1705 1696 1696 1688 1688 1696 1688 1688 1688 1688 1688 1696 1696
    1696 1705 1688 1688 1688 1647 0 0 0 0 0 0 6038 6038 6038 1804 1804
    1785 1785 1776 1776 1776 1776 1776 1766 1757 1748 1748 1748 1748
    1748 1748 1739 1739 1739 1739 1731 1731 1731 1722 1713 1713 1713
    1713 1713 1713 1705 1705 1705 1705 1705 1705 1696 1696 1696 1688
    1688 1688 1688 1680 1680 1680 1680 1680 1680 1680 1680 1680 1680
    1671 1671 1647 1647 1647 1647 1647 0 0 0 5734 5734 5734 5734 1785
    1785 1785 1785 1776 1776 1776 1776 1766 1757 1757 1757 1748 1748
    1748 1748 1748 1739 1739 1739 1739 1739 1731 1722 1713 1713 1713
    1722 1713 1713 1705 1705 1705 1705 1705 1705 1696 1696 1696 1688
    1688 1688 1680 1680 1671 1671 1671 1671 1671 1671 1671 1671 1671
    1663 1663 1647 1647 1647 1647 1647 0 0 0 5734 5734 5734 1794 1785
    1785 1785 1785 1785 1785 1785 1776 1766 1766 1757 1757 1757 1748
    1748 1748 1748 1739 1739 1739 1739 1739 1731 1731 1722 1722 1722
    1722 1713 1713 1705 1705 1705 1705 1705 1705 1705 1696 1696 1688
    1688 1688 1680 1680 1671 1671 1671 1671 1671 1671 1671 1663 1663
    1663 1663 1647 1647 1647 1647 1647 1647 0 0 5734 5734 5734 1794 1794
    1794 1785 1785 1785 1785 1776 1776 1766 1766 1757 1757 1757 1748
    1748 1748 1748 1739 1739 1739 1739 1739 1739 1731 1731 1722 1722
    1713 1713 1713 1705 1705 1705 1705 1705 1705 1705 1696 1696 1688
    1688 1688 1680 1680 1671 1671 1671 1671 1671 1671 1671 1663 1663
    1663 1663 1647 1647 1647 1647 1647 1647 1647 0 5933 5933 1804 1794
    1794 1794 1785 1785 1785 1785 1776 1776 1766 1766 1766 1766 1757
    1748 1748 1748 1748 1748 1739 1739 1739 1739 1739 1731 1731 1722
    1722 1713 1713 1713 1705 1705 1705 1705 1705 1705 1705 1705 1696
    1696 1696 1688 1688 1680 1671 1671 1671 1671 1671 1671 1671 1663
    1663 1663 1663 1663 1647 1647 1647 1647 1647 1647 0 5933 5933 1804
    1804 1794 1794 1785 1785 1785 1785 1776 1776 1776 1766 1766 1766
    1757 1757 1748 1748 1748 1748 1739 1739 1739 1739 1739 1739 1731
    1722 1722 1713 1713 1713 1705 1705 1713 1705 1705 1705 1705 1696
    1696 1696 1696 1696 1688 1680 1680 1680 1671 1671 1671 1671 1671
    1663 1663 1663 1663 1663 1663 1647 1647 1647 1647 0 0 5933 5933 1794
    1794 1794 1785 1785 1785 1785 1785 1776 1776 1776 1766 1766 1766
    1757 1757 1748 1748 1748 1748 1748 1739 1739 1739 1739 1739 1731
    1731 1722 1722 1713 1713 1713 1713 1713 1713 1713 1705 1705 1696
    1696 1696 1696 1696 1688 1680 1680 1680 1680 1680 1680 1671 1671
    1671 1671 1671 1671 1671 1663 1663 1647 1647 1663 0 0 6038 6038 1794
    1794 1794 1785 1785 1785 1785 1785 1776 1776 1776 1776 1776 1776
    1766 1757 1757 1748 1748 1748 1748 1748 1748 1739 1739 1739 1731
    1731 1731 1722 1722 1713 1713 1713 1713 1713 1713 1705 1705 1705
    1696 1696 1696 1696 1696 1688 1680 1680 1680 1680 1680 1671 1671
    1671 1671 1671 1671 1663 1663 1663 1655 1655 1663 0 0 6038 1785 1785
    1785 1794 1785 1785 1785 1785 1785 1776 1776 1776 1776 1776 1776
    1766 1766 1757 1748 1748 1748 1748 1748 1748 1739 1739 1739 1739
    1731 1731 1722 1722 1713 1713 1722 1713 1713 1713 1705 1705 1705
    1696 1696 1696 1696 1696 1696 1688 1688 1680 1680 1680 1680 1671
    1671 1671 1671 1671 1663 1663 1663 1663 1663 1671 0 0 6038 1785 1785
    1785 1794 1785 1785 1785 1785 1785 1785 1785 1785 1776 1776 1776
    1766 1766 1766 1757 1757 1757 1757 1748 1739 1739 1739 1739 1739
    1739 1731 1722 1722 1713 1713 1713 1713 1713 1713 1713 1705 1705
    1705 1696 1696 1696 1696 1696 1696 1688 1680 1680 1680 1680 1680
    1671 1671 1671 1671 1663 1663 1663 1663 1663 1671 0 0 6038 1785 1785
    1785 1794 1794 1785 1785 1785 1785 1785 1785 1785 1776 1776 1776
    1766 1766 1766 1757 1757 1757 1757 1748 1739 1739 1739 1739 1739
    1739 1731 1722 1722 1713 1713 1713 1713 1713 1713 1713 1713 1705
    1705 1705 1696 1696 1705 1696 1696 1688 1680 1680 1680 1680 1680
    1671 1671 1671 1671 1663 1663 1655 1647 1647 0 0 0 5933 1785 1785
    1785 1794 1794 1794 1794 1785 1785 1785 1785 1785 1776 1776 1776
    1776 1776 1766 1757 1757 1757 1757 1748 1748 1739 1739 1739 1739
    1739 1731 1731 1722 1713 1713 1722 1722 1713 1713 1713 1713 1705
    1705 1705 1696 1696 1696 1696 1696 1696 1688 1688 1680 1680 1680
    1680 1680 1680 1671 1671 1663 1655 1647 1647 0 0 0 5933 1785 1785
    1785 1794 1804 1804 1794 1794 1794 1785 1785 1785 1785 1776 1776
    1776 1776 1766 1766 1757 1757 1757 1748 1748 1739 1739 1739 1739
    1739 1731 1731 1731 1713 1713 1722 1722 1722 1713 1713 1713 1705
    1705 1696 1696 1696 1696 1696 1696 1688 1680 1680 1680 1680 1680
    1680 1680 1671 1671 1671 1663 1655 1655 1655 1731 1731 0 5933 1794
    1794 1794 1804 1804 1804 1804 1794 1794 1785 1785 1785 1785 1785
    1776 1776 1776 1766 1766 1757 1757 1757 1748 1748 1748 1739 1739
    1739 1739 1731 1731 1731 1722 1722 1722 1722 1722 1722 1713 1713
    1705 1705 1696 1696 1696 1696 1696 1696 1688 1680 1680 1680 1680
    1680 1680 1680 1671 1671 1671 1663 1663 1663 1671 1713 1722 1722
    1804 1804 1804 1804 1804 1804 1794 1794 1794 1785 1785 1785 1785
    1785 1785 1776 1776 1776 1776 1776 1757 1757 1757 1748 1748 1748
    1739 1739 1739 1739 1739 1731 1731 1731 1731 1731 1722 1722 1722
    1713 1713 1705 1705 1705 1705 1705 1696 1696 1696 1696 1680 1680
    1680 1680 1680 1680 1680 1671 1671 1671 1663 1663 1671 1671 1705
    1705 1705 1804 1804 1804 1813 1804 1804 1794 1794 1794 1785 1785
    1785 1785 1785 1776 1776 1785 1776 1776 1776 1766 1766 1757 1748
    1748 1748 1748 1748 1739 1739 1739 1739 1739 1731 1731 1731 1731
    1731 1722 1713 1713 1713 1705 1705 1705 1705 1705 1696 1696 1696
    1688 1688 1688 1688 1680 1680 1680 1671 1671 1671 1663 1663 1671
    1680 1680 1688 1705 1813 1813 1813 1813 1804 1804 1804 1794 1794
    1794 1794 1785 1785 1785 1776 1776 1785 1776 1776 1776 1776 1766
    1766 1757 1757 1748 1748 1748 1739 1739 1739 1739 1739 1731 1731
    1731 1731 1731 1722 1713 1713 1713 1713 1705 1705 1705 1705 1696
    1696 1696 1688 1688 1688 1688 1688 1680 1680 1671 1671 1671 1671
    1671 1671 1680 1680 1688 1705 1813 1813 1813 1813 1813 1813 1804
    1794 1794 1794 1785 1785 1785 1785 1776 1776 1776 1776 1776 1776
    1776 1776 1766 1766 1757 1757 1748 1748 1739 1739 1739 1739 1739
    1731 1731 1731 1731 1731 1722 1713 1713 1713 1713 1713 1705 1705
    1705 1705 1705 1705 1705 1696 1688 1688 1688 1680 1680 1680 1671
    1671 1671 1671 1671 1671 1671 0 0 1823 1823 1823 1823 1813 1813 1804
    1804 1804 1794 1785 1785 1785 1785 1776 1776 1776 1776 1776 1776
    1776 1776 1766 1766 1757 1757 1748 1748 1739 1739 1739 1739 1739
    1739 1739 1739 1731 1731 1722 1713 1713 1713 1713 1713 1705 1705
    1705 1705 1705 1705 1705 1696 1696 1696 1688 1680 1680 1680 1671
    1671 1671 1671 1671 1671 0 0 0 1843 1833 1823 1823 1813 1813 1804
    1804 1804 1804 1794 1785 1785 1785 1776 1776 1776 1776 1776 1776
    1776 1776 1766 1766 1757 1748 1748 1748 1748 1748 1748 1739 1739
    1739 1739 1739 1731 1731 1722 1722 1713 1713 1713 1713 1705 1705
    1705 1705 1705 1705 1705 1696 1696 1696 1680 1680 1680 1680 1680
    1680 1671 1671 1671 1671 0 1739 0 1833 1823 1823 1823 1813 1813 1813
    1804 1804 1794 1794 1785 1785 1785 1785 1785 1785 1776 1776 1776
    1776 1776 1766 1766 1748 1748 1748 1748 1748 1748 1748 1748 1739
    1739 1739 1739 1739 1731 1731 1722 1713 1713 1713 1705 1705 1705
    1705 1705 1705 1705 1705 1696 1696 1696 1680 1680 1680 1680 1680
    1688 1671 1671 1671 1739 1739 1739 1739 1833 1823 1813 1813 1813
    1813 1813 1813 1804 1794 1794 1785 1785 1785 1785 1785 1785 1776
    1776 1776 1776 1776 1766 1766 1748 1748 1748 1748 1748 1748 1748
    1748 1739 1739 1739 1739 1739 1731 1722 1722 1713 1713 1713 1705
    1705 1705 1705 1705 1705 1705 1705 1696 1696 1696 1688 1688 1688
    1680 1680 1688 1680 1680 1739 1739 1739 1739 1739 1833 1813 1813
    1813 1813 1813 1813 1813 1804 1794 1794 1794 1785 1785 1785 1785
    1785 1776 1776 1776 1776 1776 1776 1766 1766 1748 1748 1748 1748
    1748 1748 1748 1739 1739 1739 1739 1739 1731 1722 1722 1722 1713
    1713 1713 1713 1705 1705 1713 1705 1705 1705 1696 1696 1696 1696
    1688 1688 1680 1680 1688 1680 1680 1731 1713 1705 1705 1739 1813
    1813 1813 1813 1823 1813 1813 1813 1813 1804 1804 1794 1794 1785
    1785 1785 1785 1776 1776 1776 1776 1776 1776 1776 1766 1757 1748
    1748 1748 1748 1748 1748 1739 1739 1739 1739 1739 1739 1731 1731
    1713 1713 1713 1713 1713 1713 1713 1713 1705 1705 1705 1696 1696
    1696 1696 1688 1688 1688 1680 1680 1688 1688 1696 1696 1696 1705
    1705 1813 1813 1813 1823 1823 1823 1813 1813 1813 1804 1804 1804
    1794 1785 1785 1785 1785 1785 1785 1776 1776 1776 1776 1776 1766
    1757 1757 1757 1757 1748 1748 1748 1739 1739 1739 1739 1739 1731
    1731 1731 1713 1713 1713 1713 1713 1713 1713 1713 1705 1705 1705
    1705 1705 1705 1696 1688 1688 1688 1680 1680 1688 1688 1688 1688
    1688 1688 1688 1843 1823 1823 1823 1823 1823 1813 1813 1813 1813
    1804 1804 1794 1785 1785 1785 1785 1785 1785 1785 1776 1776 1776
    1776 1766 1766 1757 1757 1757 1748 1748 1748 1739 1739 1739 1739
    1739 1731 1731 1731 1713 1713 1713 1713 1713 1713 1713 1713 1713
    1705 1705 1705 1705 1705 1696 1696 1688 1688 1688 1688 1688 1696
    1688 1680 1680 1680 1680 1843 1823 1823 1823 1823 1823 1813 1813
    1813 1813 1804 1804 1794 1794 1794 1785 1785 1785 1785 1785 1785
    1776 1776 1776 1766 1766 1766 1766 1757 1748 1748 1748 1739 1739
    1739 1739 1739 1731 1731 1731 1722 1713 1713 1722 1713 1713 1713
    1713 1713 1713 1713 1705 1705 1705 1696 1696 1688 1688 1688 1688
    1688 1696 1688 1680 1680 1680 1680 1853 1843 1833 1823 1823 1823
    1823 1813 1813 1813 1804 1804 1794 1794 1785 1785 1785 1785 1785
    1785 1785 1785 1776 1776 1766 1766 1766 1757 1757 1748 1748 1748
    1748 1739 1739 1739 1739 1731 1731 1731 1722 1722 1722 1722 1713
    1713 1713 1713 1713 1713 1705 1705 1705 1696 1696 1696 1688 1688
    1688 1688 1696 1696 1688 1680 1680 1680 1680 5734 1843 1833 1823
    1823 1823 1813 1813 1813 1813 1804 1804 1804 1794 1785 1785 1785
    1785 1785 1785 1785 1785 1776 1776 1766 1766 1757 1757 1757 1748
    1748 1748 1748 1748 1739 1739 1739 1739 1739 1731 1731 1722 1722
    1722 1713 1713 1713 1705 1705 1713 1705 1705 1705 1696 1696 1696
    1696 1696 1688 1688 0 0 0 1688 1688 1688 1688 5734 5734 5734 1823
    1823 1823 1813 1813 1813 1813 1804 1804 1804 1794 1794 1794 1794
    1785 1785 1785 1785 1785 1776 1776 1776 1766 1757 1757 1757 1748
    1748 1748 1748 1748 1748 1748 1739 1739 1731 1731 1731 1731 1731
    1722 1713 1713 1713 1705 1705 1713 1705 1705 1705 1696 1696 1696
    1696 1696 1688 1688 0 0 0 0 1688 1688 0 5734 5734 5734 5734 5734
    5734 5734 5734 5734 5734 5640 5640 5640 5640 1804 1804 1794 1785
    1785 1785 1785 1785 1776 1776 1766 1766 1757 1757 1757 1748 1748
    1748 1748 1748 1748 1748 1739 1739 1731 1731 1731 1739 1731 1731
    1722 1713 1713 1713 1713 1713 1705 1705 1705 1696 1696 1705 1696
    1696 1696 0 0 0 0 0 0 0 0 5734 5734 5734 5734 5734 5734 5734 5734
    5734 5640 5640 5734 5640 5640 5640 5640 5640 5640 1785 1785 1776
    1776 1776 1766 1757 1757 1757 1757 1757 1757 1757 1757 1757 1748
    1748 1748 1739 1739 1739 1731 1731 1731 1731 1731 1722 1713 1713
    1713 1713 1713 1713 1705 1705 1705 1705 1705 1705 1696 1696 0 0 0 0
    0 0 0 0 5734 5734 5734 5734 5734 5734 5734 5734 5734 5640 5640 5734
    5640 5640 5640 5640 5640 5640 5640 5640 1776 1776 1776 1766 1757
    1757 1757 1766 1766 1757 1757 1757 1757 1748 1748 1739 1731 1731
    1739 1739 1731 1731 1731 1731 1722 1722 1713 1713 1713 1713 1713
    1705 1705 1705 1705 1705 1705 1696 1696 0 0 0 0 0 0 0 0 5734 5734
    5734 5734 5734 5734 5734 5734 5640 5640 5640 5734 5640 5640 5640
    5640 5640 5640 5640 5640 5640 5548 5460 5374 5374 5460 5460 5460
    5374 1766 1766 1766 1748 1748 1748 1739 1731 1731 1739 1739 1739
    1731 1731 1731 1722 1722 1713 1713 1713 1713 1713 1705 1705 1705
    1705 1705 1705 1705 1713 0 0 0 0 0 0 0 0 5734 5734 5734 5734 5734
    5734 5734 5734 5640 5640 5734 5734 5640 5640 5640 5640 5640 5640
    5640 5640 5548 5548 5460 5460 5460 5460 5460 5460 5374 5374 5374
    5374 1748 1748 1748 1739 1739 1739 1739 1731 1731 1731 1722 1722
    1722 1722 1713 1713 1713 1713 1713 1713 1705 1705 1696 1696 1696
    1705 0 0 0 0 0 0 0 0 0 5734 5734 5734 5734 5734 5734 5734 5734 5734
    5734 5734 5734 5640 5640 5640 5640 5640 5640 5640 5548 5548 5548
    5460 5460 5460 5460 5374 5374 5374 5374 5374 5374 5374 5374 5291
    5291 5291 5374 1739 1731 1731 1731 1722 1722 1722 1722 1722 1713
    1713 1713 1713 1713 1705 1705 1696 1696 1696 1705 0 0 0 0 0 0 0 0 0
    5734 5734 5734 5734 5734 5734 5734 5734 5734 5734 5734 5640 5640
    5640 5640 5640 5640 5640 5548 5548 5548 5548 5548 5548 5460 5374
    5374 5374 5374 5374 5374 5374 5291 5291 5291 5291 5374 5291 5291
    5291 5132 1731 1722 1722 1722 1722 1722 1713 1713 1713 1713 1705
    1705 1705 1705 1696 1696 1705 0 0 0 0 0 0 0 0 0 5734 5734 5734 5734
    5734 5734 5734 5734 5734 5640 5640 5640 5640 5640 5640 5640 5548
    5548 5548 5548 5548 5548 5548 5460 5460 5374 5374 5374 5374 5374
    5374 5374 5291 5291 5374 5374 5374 5291 5291 5210 5210 5132 5132
    5132 5210 5291 5374 5374 3903 3903 3903 1705 1705 1705 1705 1705
    1705 0 0 0 0 0 0 0 0 0 0</data></Depth4309>
</opencv_storage>
