<?xml version="1.0"?>
<opencv_storage>
<Depth9661 type_id="opencv-matrix">
  <rows>52</rows>
  <cols>85</cols>
  <dt>w</dt>
  <data>
    4190 4190 1312 1312 1302 1302 1297 1297 1292 1292 1288 1288 1288
    1288 1288 1283 1283 1283 1283 1278 1278 1278 1278 1273 1273 1273
    1273 1278 1273 1273 1273 1273 1273 1268 1264 1264 1264 1264 1264
    1264 1264 1264 1264 1259 1259 1259 1255 1255 1259 1259 1255 1255
    1255 1255 1250 1250 1250 1250 1245 1245 1245 1241 1241 1236 1236
    1236 1241 1241 1241 1236 1236 1236 2984 1241 1241 1241 1241 1241
    1241 1241 0 0 0 0 0 1302 1307 1307 1307 1297 1292 1292 1292 1292
    1288 1283 1283 1283 1283 1278 1278 1278 1278 1278 1273 1273 1273
    1273 1268 1268 1268 1268 1273 1268 1268 1268 1268 1268 1268 1268
    1264 1259 1259 1259 1259 1259 1264 1259 1259 1259 1259 1255 1255
    1255 1255 1255 1250 1250 1250 1245 1245 1245 1245 1245 1241 1241
    1241 1241 1236 1236 1236 1241 1241 1236 1236 1236 1236 1236 1236
    1241 1241 1241 1241 1241 1236 1236 0 0 0 0 1302 1297 1283 1283 1283
    1288 1283 1283 1288 1283 1278 1278 1278 1278 1273 1273 1273 1268
    1268 1268 1268 1268 1268 1264 1264 1259 1259 1264 1264 1264 1264
    1264 1264 1259 1259 1259 1255 1255 1255 1255 1255 1255 1255 1255
    1250 1250 1250 1245 1245 1245 1241 1241 1241 1241 1241 1241 1241
    1241 1241 1241 1236 1232 1232 1232 1232 1232 1241 1236 1236 1236
    1236 1236 1236 1236 1236 1236 1236 1236 1232 1232 1232 0 0 0 0 1302
    1297 1297 1278 1273 1273 1273 1278 1278 1273 1273 1273 1273 1273
    1273 1268 1268 1264 1264 1264 1264 1264 1259 1259 1259 1259 1259
    1259 1259 1259 1259 1259 1255 1250 1250 1255 1250 1250 1250 1250
    1250 1250 1245 1245 1241 1241 1241 1241 1241 1241 1236 1236 1236
    1236 1236 1236 1236 1232 1232 1232 1227 1227 1227 1227 1223 1223
    1223 1219 1219 1219 1219 1232 1232 1232 1232 1232 1232 1232 1227
    1223 1223 0 0 0 0 1297 1297 1283 1278 1268 1268 1268 1268 1264 1264
    1273 1268 1268 1268 1264 1264 1264 1259 1259 1259 1255 1255 1255
    1255 1255 1255 1255 1259 1259 1255 1255 1250 1250 1250 1250 1245
    1245 1245 1241 1241 1245 1245 1241 1241 1236 1236 1236 1232 1232
    1236 1232 1232 1232 1232 1232 1227 1227 1223 1223 1223 1223 1223
    1223 1223 1219 1219 1219 1219 1219 1219 1219 1223 1223 1223 1223
    1227 1223 1223 1223 1219 1219 0 0 0 0 1297 1297 1273 1268 1264 1264
    1264 1264 1259 1259 1259 1264 1259 1259 1259 1259 1259 1255 1255
    1255 1255 1250 1250 1250 1250 1250 1250 1245 1245 1245 1245 1245
    1245 1245 1245 1245 1241 1241 1236 1236 1236 1236 1236 1232 1232
    1232 1232 1227 1227 1227 1227 1227 1227 1223 1223 1223 1223 1223
    1223 1223 1223 1219 1219 1214 1214 1214 1214 1214 1214 1214 1214
    1214 1214 1210 1210 1210 1210 1210 1214 1214 1214 0 0 0 0 1268 0
    1268 1264 1259 1259 1259 1259 1259 1259 1259 1259 1255 1255 1255
    1255 1250 1250 1255 1255 1250 1245 1241 1241 1241 1241 1245 1245
    1245 1241 1241 1241 1241 1241 1241 1241 1241 1236 1232 1232 1227
    1227 1232 1227 1227 1227 1227 1223 1223 1223 1219 1219 1219 1219
    1219 1219 1219 1214 1214 1214 1214 1210 1210 1210 1210 1210 1210
    1210 1210 1210 1210 1214 1210 1206 1206 1206 1206 1210 1210 1202
    1202 1202 0 0 0 0 0 1268 1255 1255 1255 1255 1250 1250 1255 1255
    1245 1245 1245 1245 1245 1245 1245 1245 1245 1241 1241 1241 1241
    1236 1236 1241 1241 1241 1236 1236 1236 1232 1232 1232 1232 1236
    1232 1227 1227 1223 1223 1227 1227 1223 1223 1223 1219 1214 1214
    1214 1214 1214 1214 1214 1214 1214 1210 1210 1210 1210 1206 1206
    1206 1206 1206 1206 1206 1206 1206 1206 1206 1206 1202 1202 1202
    1202 1202 1206 1197 1193 1193 1197 1197 0 1292 1292 1288 1255 1255
    1245 1241 1241 1241 1241 1241 1236 1236 1236 1241 1241 1241 1241
    1236 1236 1236 1236 1236 1236 1232 1232 1236 1236 1232 1232 1232
    1227 1227 1227 1227 1227 1227 1223 1223 1223 1219 1219 1219 1219
    1219 1214 1214 1214 1210 1210 1210 1206 1206 1210 1210 1210 1210
    1210 1206 1206 1206 1202 1202 1202 1197 1197 1197 1197 1197 1197
    1197 1202 1197 1197 1197 1197 1197 1197 1197 1193 1193 1189 1189
    1193 0 1292 1288 1288 1245 1236 1236 1232 1232 1236 1236 1236 1236
    1236 1232 1232 1227 1227 1227 1232 1227 1227 1227 1227 1223 1223
    1223 1227 1227 1227 1227 1227 1223 1223 1223 1223 1223 1223 1219
    1219 1219 1214 1214 1210 1210 1210 1210 1210 1210 1206 1206 1206
    1206 1206 1206 1206 1206 1206 1202 1202 1197 1197 1197 1197 1197
    1193 1193 1193 1193 1193 1193 1193 1197 1197 1197 1193 1193 1193
    1193 1189 1189 1189 1185 1185 1189 0 0 1288 1245 1236 1232 1227 1227
    1227 1232 1232 1232 1232 1232 1223 1223 1223 1223 1223 1223 1219
    1219 1223 1223 1223 1223 1223 1219 1219 1223 1223 1223 1219 1219
    1219 1219 1214 1214 1210 1210 1210 1210 1206 1206 1206 1206 1206
    1206 1206 1202 1202 1202 1197 1197 1197 1197 1202 1197 1197 1197
    1193 1193 1193 1193 1193 1189 1189 1189 1189 1189 1189 1189 1193
    1193 1189 1189 1185 1185 1185 1185 1185 1181 1181 1181 1181 1181 0 0
    1241 1227 1227 1223 1223 1223 1223 1227 1223 1223 1223 1219 1219
    1223 1219 1219 1219 1214 1214 1214 1214 1214 1214 1214 1214 1214
    1214 1214 1214 1214 1214 1210 1210 1210 1210 1206 1206 1210 1210
    1206 1206 1206 1202 1202 1202 1202 1197 1193 1193 1193 1193 1193
    1193 1193 1193 1193 1193 1189 1189 1189 1189 1189 1189 1189 1185
    1185 1185 1185 1185 1185 1185 1185 1181 1181 1181 1181 1181 1181
    1181 1181 1181 1181 1181 0 0 1241 1227 1223 1223 1223 1223 1223 1223
    1219 1219 1219 1219 1219 1219 1219 1214 1210 1210 1210 1210 1210
    1210 1206 1206 1210 1210 1210 1206 1206 1206 1206 1206 1206 1202
    1202 1206 1206 1206 1206 1202 1202 1202 1197 1197 1197 1193 1193
    1189 1189 1189 1189 1189 1189 1189 1189 1189 1189 1185 1185 1185
    1185 1185 1185 1185 1181 1181 1177 1177 1177 1181 1181 1181 1177
    1177 1177 1177 1177 1177 1177 1177 1177 1177 1177 0 0 1236 1227 1223
    1223 1223 1223 1223 1219 1219 1219 1219 1214 1214 1214 1214 1214
    1210 1210 1206 1206 1206 1206 1206 1206 1206 1206 1206 1206 1202
    1202 1202 1197 1197 1197 1202 1202 1202 1202 1202 1197 1197 1197
    1193 1193 1189 1189 1189 1189 1185 1181 1181 1181 1181 1185 1181
    1181 1181 1181 1181 1177 1177 1177 1181 1181 1177 1177 1173 1173
    1173 1177 1177 1173 1173 1173 1173 1173 1173 1173 1169 1169 1169
    1169 1169 0 0 1236 1227 1223 1223 1223 1223 1223 1219 1219 1219 1219
    1214 1214 1214 1214 1214 1210 1210 1206 1206 1206 1206 1206 1206
    1206 1206 1206 1206 1202 1202 1197 1197 1197 1197 1193 1193 1193
    1193 1193 1193 1193 1193 1193 1189 1189 1189 1189 1185 1181 1181
    1181 1181 1181 1181 1181 1177 1177 1177 1177 1177 1177 1177 1177
    1177 1173 1173 1173 1173 1173 1173 1173 1169 1169 1169 1169 1169
    1169 1169 1165 1165 1165 1169 1169 0 0 1236 1227 1223 1223 1223 1223
    1223 1223 1219 1219 1219 1214 1214 1214 1214 1214 1210 1210 1210
    1210 1206 1206 1206 1206 1206 1206 1206 1206 1202 1202 1197 1197
    1197 1197 1193 1193 1193 1193 1193 1189 1189 1189 1189 1189 1189
    1189 1189 1185 1181 1181 1181 1181 1181 1177 1177 1177 1177 1177
    1177 1173 1173 1173 1173 1173 1173 1173 1169 1169 1169 1173 1169
    1169 1169 1169 1169 1169 1165 1165 1165 1165 1165 1165 1165 0 0 1241
    1236 1227 1223 1223 1223 1223 1223 1223 1219 1219 1214 1214 1214
    1214 1219 1214 1214 1210 1210 1210 1210 1206 1206 1210 1206 1206
    1206 1206 1206 1206 1202 1202 1197 1197 1197 1193 1193 1193 1189
    1189 1189 1189 1189 1189 1189 1189 1185 1185 1181 1181 1181 1177
    1177 1177 1177 1177 1177 1177 1173 1173 1173 1173 1173 1173 1173
    1169 1169 1169 1173 1169 1169 1173 1169 1169 1169 1165 1165 1165
    1165 1165 1165 1165 0 0 1241 1236 1227 1223 1223 1223 1227 1227 1223
    1223 1223 1219 1219 1219 1219 1219 1219 1219 1214 1214 1214 1210
    1210 1210 1210 1210 1210 1206 1206 1206 1206 1206 1206 1202 1202
    1197 1197 1193 1193 1193 1193 1193 1189 1189 1189 1189 1189 1189
    1185 1185 1181 1181 1177 1177 1177 1177 1177 1177 1177 1177 1177
    1173 1173 1173 1173 1173 1173 1173 1173 1173 1173 1173 1173 1169
    1169 1169 1165 1165 1165 1165 1165 1165 1165 0 0 0 1241 1236 1232
    1227 1227 1227 1227 1227 1227 1227 1223 1223 1223 1223 1223 1219
    1219 1219 1219 1219 1219 1214 1214 1214 1210 1210 1210 1210 1210
    1210 1210 1210 1206 1206 1206 1202 1202 1197 1197 1193 1193 1193
    1193 1193 1193 1189 1189 1189 1189 1185 1185 1181 1181 1181 1181
    1181 1181 1181 1177 1177 1177 1177 1177 1177 1173 1173 1173 1173
    1177 1177 1177 1173 1173 1169 1169 1169 1169 1169 1169 1165 1165
    1161 0 0 1250 1241 1241 1236 1236 1236 1232 1232 1232 1232 1232 1232
    1227 1227 1223 1223 1223 1223 1219 1219 1219 1219 1219 1219 1219
    1214 1214 1214 1210 1210 1210 1210 1210 1206 1206 1206 1206 1206
    1202 1202 1202 1197 1197 1197 1197 1197 1197 1193 1193 1193 1189
    1189 1185 1185 1185 1185 1185 1185 1185 1181 1181 1181 1177 1177
    1177 1177 1173 1173 1173 1177 1177 1177 1177 1173 1169 1169 1169
    1169 1169 1169 1165 1165 1161 0 0 1250 1250 1245 1241 1236 1236 1236
    1236 1236 1236 1236 1236 1232 1232 1227 1227 1223 1223 1223 1223
    1219 1219 1219 1219 1223 1219 1219 1219 1214 1210 1210 1210 1210
    1210 1210 1210 1206 1206 1206 1206 1202 1202 1202 1197 1197 1202
    1202 1197 1193 1193 1193 1193 1193 1189 1189 1189 1189 1189 1189
    1185 1185 1185 1181 1181 1181 1177 1177 1177 1177 1181 1181 1181
    1177 1177 1173 1173 1173 1173 1173 1173 1173 1169 1165 0 0 1255 1250
    1250 1245 1241 1241 1241 1241 1241 1236 1236 1236 1236 1236 1227
    1227 1227 1227 1227 1227 1223 1219 1219 1219 1223 1223 1223 1223
    1219 1214 1214 1214 1214 1214 1210 1210 1210 1210 1206 1206 1206
    1206 1206 1206 1206 1206 1202 1202 1197 1197 1197 1197 1193 1193
    1193 1193 1193 1189 1189 1189 1189 1185 1185 1185 1185 1185 1181
    1181 1181 1185 1185 1181 1181 1177 1177 1177 1177 1177 1177 1177
    1177 1173 1173 0 0 1255 1255 1250 1250 1245 1245 1245 1241 1241 1241
    1241 1236 1236 1236 1232 1232 1232 1232 1232 1232 1223 1223 1223
    1223 1227 1227 1223 1223 1223 1223 1219 1219 1219 1214 1214 1214
    1210 1210 1210 1210 1210 1206 1206 1206 1206 1206 1206 1206 1202
    1202 1202 1202 1197 1197 1197 1193 1193 1193 1193 1193 1193 1189
    1189 1189 1189 1185 1185 1185 1185 1189 1189 1185 1181 1181 1181
    1177 1177 1177 1177 1177 1177 1173 1173 0 0 1259 1255 1255 1250 1250
    1250 1245 1245 1241 1241 1241 1241 1241 1236 1236 1236 1236 1236
    1236 1236 1232 1227 1223 1223 1227 1227 1227 1227 1223 1223 1223
    1223 1219 1219 1219 1219 1214 1214 1214 1210 1210 1210 1210 1210
    1210 1206 1206 1206 1206 1206 1202 1202 1202 1202 1202 1197 1197
    1197 1193 1193 1193 1193 1193 1193 1189 1189 1189 1189 1189 1189
    1189 1189 1185 1185 1181 1181 1181 1181 1177 1177 1181 1177 1177 0 0
    0 1255 1255 1255 1255 1250 1250 1250 1245 1245 1241 1241 1241 1241
    1236 1236 1236 1236 1236 1236 1236 1232 1232 1232 1232 1227 1227
    1227 1227 1227 1227 1223 1223 1223 1223 1223 1219 1219 1214 1214
    1214 1214 1210 1210 1210 1210 1210 1206 1206 1206 1206 1206 1206
    1202 1202 1202 1202 1197 1197 1193 1193 1193 1193 1193 1193 1193
    1189 1189 1189 1193 1193 1193 1189 1189 1189 1185 1185 1181 1181
    1181 1181 1181 1177 0 0 0 1255 1255 1255 1255 1255 1255 1250 1250
    1250 1250 1245 1245 1241 1241 1241 1241 1241 1236 1236 1236 1236
    1236 1236 1236 1232 1227 1227 1227 1227 1227 1227 1227 1223 1223
    1223 1223 1219 1219 1219 1219 1214 1214 1214 1214 1214 1210 1210
    1206 1206 1206 1206 1206 1206 1206 1206 1202 1202 1202 1202 1202
    1202 1202 1197 1197 1193 1193 1193 1193 1197 1197 1197 1193 1189
    1189 1185 1185 1185 1181 1181 1185 1185 1206 0 0 0 1264 1259 1255
    1255 1259 1255 1255 1250 1250 1250 1250 1250 1245 1241 1241 1241
    1241 1241 1241 1241 1241 1241 1241 1236 1236 1232 1232 1232 1232
    1227 1227 1227 1227 1227 1223 1223 1223 1223 1219 1219 1219 1219
    1219 1219 1219 1214 1210 1210 1210 1210 1210 1210 1210 1206 1206
    1206 1206 1206 1206 1206 1206 1206 1202 1202 1202 1197 1193 1193
    1197 1197 1197 1197 1193 1193 1193 1193 1193 1193 1193 1197 1202
    1206 0 0 1273 1268 1264 1264 1259 1259 1259 1259 1255 1255 1255 1255
    1250 1245 1245 1245 1245 1241 1241 1241 1241 1241 1241 1241 1241
    1241 1236 1236 1236 1236 1236 1232 1232 1232 1227 1227 1227 1227
    1223 1223 1223 1223 1223 1223 1223 1219 1219 1214 1210 1210 1210
    1210 1210 1210 1210 1210 1206 1206 1206 1210 1210 1206 1206 1202
    1202 1206 1202 1197 1197 1202 1202 1202 1197 1197 1197 1197 1197
    1197 1197 1197 1202 1202 1206 0 0 1273 1273 1268 1264 1264 1268 1264
    1259 1259 1259 1255 1255 1255 1250 1250 1250 1250 1250 1245 1245
    1241 1241 1241 1241 1245 1241 1241 1241 1241 1241 1236 1236 1236
    1236 1232 1227 1227 1227 1227 1223 1223 1223 1223 1223 1223 1223
    1219 1214 1214 1210 1210 1210 1210 1210 1210 1210 1210 1210 1210
    1210 1210 1210 1206 1206 1206 1206 1206 1202 1202 1206 1206 1202
    1202 1202 1202 1202 1202 1202 1202 1202 1202 1210 1210 0 0 1273 1273
    1273 1273 1273 1273 1268 1264 1264 1264 1259 1259 1259 1259 1255
    1255 1255 1255 1250 1250 1245 1245 1245 1245 1250 1245 1245 1245
    1245 1245 1241 1241 1236 1236 1236 1232 1232 1232 1227 1227 1227
    1227 1227 1223 1223 1223 1223 1219 1219 1219 1219 1219 1219 1219
    1214 1214 1214 1214 1214 1214 1210 1210 1210 1210 1210 1210 1206
    1202 1202 1210 1206 1206 1206 1206 1206 1210 1206 1206 1206 1206
    1210 1214 0 0 0 1273 1273 1278 1278 1278 1273 1273 1268 1268 1268
    1264 1264 1259 1259 1259 1259 1259 1259 1255 1250 1245 1245 1250
    1250 1250 1250 1245 1245 1245 1245 1245 1245 1241 1241 1241 1241
    1236 1236 1236 1236 1232 1232 1227 1227 1223 1223 1223 1223 1223
    1223 1223 1223 1223 1223 1219 1219 1219 1219 1219 1219 1214 1210
    1210 1210 1210 1210 1210 1206 1206 1210 1210 1210 1210 1210 1210
    1210 1210 1210 1210 1210 1210 1214 0 0 0 1278 1278 1278 1278 1278
    1278 1273 1273 1273 1268 1268 1268 1264 1264 1264 1268 1268 1264
    1259 1259 1259 1255 1255 1255 1255 1250 1250 1250 1250 1250 1245
    1245 1245 1245 1241 1241 1241 1241 1241 1236 1236 1236 1232 1227
    1227 1227 1227 1227 1227 1227 1227 1223 1223 1223 1223 1223 1223
    1223 1223 1223 1219 1219 1214 1214 1214 1214 1214 1210 1210 1210
    1210 1210 1210 1210 1210 1214 1210 1210 1210 1210 1210 1214 0 0 0
    1278 1278 1278 1278 1278 1278 1278 1273 1273 1273 1273 1273 1268
    1268 1268 1268 1268 1268 1264 1259 1259 1259 1259 1259 1259 1259
    1259 1255 1255 1255 1250 1250 1245 1245 1241 1241 1241 1241 1241
    1241 1241 1241 1236 1236 1232 1232 1236 1236 1236 1232 1227 1227
    1227 1227 1227 1227 1227 1227 1223 1223 1223 1223 1223 1223 1219
    1219 1219 1214 1214 1214 1214 1214 1214 1214 1214 1214 1214 1214
    1214 1214 1214 0 0 0 0 1288 1288 1283 1283 1278 1278 1278 1278 1278
    1273 1273 1273 1273 1273 1273 1273 1273 1268 1268 1268 1264 1264
    1259 1259 1259 1259 1259 1259 1259 1259 1259 1255 1250 1250 1245
    1245 1245 1241 1241 1241 1241 1241 1241 1241 1241 1241 1241 1241
    1236 1236 1232 1232 1227 1227 1227 1227 1227 1227 1227 1227 1223
    1223 1223 1223 1223 1223 1223 1219 1219 1219 1219 1219 1219 1219
    1219 1219 1219 1219 1214 1214 0 0 0 0 0 1288 1288 1288 1288 1288
    1283 1283 1278 1278 1278 1278 1278 1273 1273 1273 1273 1273 1273
    1268 1268 1268 1264 1259 1259 1264 1264 1264 1264 1264 1264 1259
    1259 1259 1259 1255 1245 1245 1245 1245 1245 1245 1245 1245 1241
    1241 1241 1241 1241 1241 1236 1236 1236 1232 1232 1227 1227 1227
    1227 1227 1227 1227 1227 1227 1227 1223 1223 1223 1223 1223 1223
    1223 1219 1219 1219 1219 1223 1223 1223 1223 1223 1232 0 0 0 0 1292
    1292 1292 1292 1292 1288 1288 1283 1283 1283 1278 1278 1278 1278
    1273 1273 1273 1273 1273 1273 1268 1268 1264 1264 1264 1264 1264
    1264 1264 1264 1264 1259 1259 1259 1259 1259 1255 1255 1255 1250
    1250 1245 1245 1245 1245 1245 1241 1241 1241 1241 1241 1241 1236
    1236 1236 1236 1232 1232 1232 1227 1227 1227 1227 1227 1227 1227
    1223 1223 1223 1227 1223 1223 1223 1223 1223 1227 1227 1227 1227
    1227 1232 1245 1241 1333 0 1297 1297 1292 1292 1292 1292 1292 1292
    1288 1288 1288 1283 1278 1278 1273 1273 1273 1273 1273 1273 1273
    1273 1273 1273 1268 1268 1268 1268 1268 1264 1264 1264 1264 1264
    1259 1259 1259 1259 1259 1255 1255 1250 1245 1245 1245 1245 1245
    1245 1241 1241 1241 1241 1241 1241 1241 1236 1236 1236 1232 1232
    1232 1232 1232 1232 1232 1232 1227 1227 1227 1227 1227 1227 1227
    1227 1227 1227 1227 1227 1232 1232 1241 1241 1241 1333 1322 1302
    1297 1297 1297 1297 1292 1292 1292 1292 1292 1288 1288 1283 1283
    1278 1278 1278 1278 1278 1278 1278 1273 1273 1273 1273 1273 1273
    1273 1273 1268 1268 1264 1264 1264 1264 1264 1264 1264 1259 1259
    1255 1250 1250 1250 1255 1255 1245 1245 1241 1241 1245 1245 1245
    1241 1241 1241 1241 1236 1236 1236 1236 1232 1232 1232 1232 1236
    1232 1232 1232 1232 1232 1227 1227 1232 1232 1232 1227 1227 1232
    1232 1241 1241 1241 1328 1322 1312 1302 1297 1297 1297 1297 1297
    1297 1297 1292 1292 1292 1288 1288 1278 1278 1283 1283 1283 1283
    1278 1278 1273 1273 1278 1278 1278 1278 1278 1278 1273 1268 1264
    1264 1264 1264 1268 1264 1264 1264 1259 1259 1259 1259 1259 1259
    1255 1250 1245 1245 1245 1245 1245 1245 1241 1241 1241 1241 1241
    1241 1241 1236 1236 1236 1236 1236 1236 1236 1232 1232 1232 1232
    1232 1232 1236 1232 1227 1227 1232 1232 1236 1241 1241 1328 1322
    1317 1312 1307 1302 1302 1302 1297 1297 1297 1297 1297 1297 1292
    1292 1288 1288 1288 1288 1288 1288 1283 1278 1278 1278 1278 1278
    1278 1278 1278 1278 1278 1273 1268 1268 1268 1268 1268 1268 1268
    1264 1264 1259 1259 1259 1259 1259 1259 1255 1250 1250 1250 1250
    1255 1250 1245 1245 1245 1245 1245 1241 1241 1241 1241 1241 1241
    1241 1241 1236 1236 1236 1236 1236 1236 1241 1241 1232 1227 1223
    1223 1227 1227 1227 2789 0 1322 1317 1317 1312 1312 1307 1307 1302
    1302 1297 1297 1297 1297 1297 1297 1292 1292 1292 1288 1288 1288
    1288 1283 1278 1278 1283 1283 1278 1278 1278 1278 1278 1278 1273
    1273 1273 1273 1273 1273 1268 1264 1264 1264 1264 1264 1264 1264
    1264 1259 1259 1259 1259 1259 1259 1255 1255 1255 1250 1250 1250
    1245 1245 1245 1245 1245 1245 1241 1241 1241 1241 1241 1241 1241
    1241 1245 1241 1232 1227 1223 1223 1227 1227 1227 2789 0 1328 1317
    1317 1317 1317 1312 1312 1307 1307 1302 1302 1302 1302 1297 1297
    1297 1297 1297 1292 1292 1292 1288 1288 1283 1283 1288 1283 1283
    1283 1283 1283 1283 1278 1278 1278 1278 1278 1278 1278 1273 1268
    1268 1268 1268 1264 1264 1264 1264 1259 1259 1264 1264 1264 1259
    1259 1259 1259 1255 1255 1250 1250 1250 1250 1245 1245 1245 1241
    1241 1241 1241 1245 1241 1241 1245 1245 1241 1236 1232 1227 1227
    1227 1227 2812 2789 1338 1333 1322 1317 1317 1317 1317 1312 1312
    1312 1312 1307 1307 1307 1302 1302 1302 1297 1297 1297 1297 1292
    1292 1292 1292 1292 1292 1292 1288 1288 1283 1283 1283 1283 1283
    1283 1283 1278 1278 1278 1278 1273 1273 1273 1273 1268 1268 1264
    1264 1264 1264 1264 1264 1264 1264 1259 1259 1259 1259 1259 1255
    1255 1255 1255 1255 1250 1250 1245 1245 1245 1245 1250 1245 1245
    1245 1245 1245 1241 1241 1245 1245 2812 2812 2812 2789 1338 1333
    1322 1317 1317 1317 1317 1312 1312 1312 1312 1312 1307 1307 1307
    1307 1302 1302 1302 1297 1297 1292 1292 1297 1297 1297 1297 1297
    1292 1292 1288 1283 1283 1283 1283 1283 1283 1283 1283 1278 1278
    1278 1278 1278 1273 1273 1273 1268 1268 1268 1268 1268 1268 1264
    1264 1264 1264 1264 1259 1259 1259 1259 1259 1259 1259 1259 1255
    1255 1250 1250 1250 1250 1250 1250 1250 1250 1250 1245 1245 1245
    1245 2835 2835 2812 2789 1333 1333 1328 1322 1322 1322 1317 1317
    1317 1312 1312 1312 1312 1312 1307 1307 1307 1307 1307 1297 1297
    1297 1297 1297 1297 1297 1297 1297 1297 1297 1297 1292 1288 1288
    1288 1288 1288 1283 1283 1283 1283 1283 1278 1278 1273 1273 1278
    1278 1278 1278 1273 1273 1273 1268 1268 1264 1264 1264 1264 1264
    1264 1264 1264 1259 1259 1259 1259 1259 1259 1259 1259 1259 1259
    1250 1250 1250 1250 1250 1250 1250 1250 2835 2835 2812 2767 1333
    1333 1333 1333 1333 1328 1328 1322 1317 1317 1317 1312 1312 1312
    1312 1312 1312 1312 1307 1302 1302 1302 1297 1297 1302 1302 1302
    1302 1302 1297 1297 1297 1297 1297 1292 1292 1288 1288 1288 1283
    1283 1283 1283 1283 1278 1278 1278 1283 1283 1278 1278 1278 1278
    1273 1273 1268 1268 1268 1268 1264 1264 1264 1264 1264 1264 1264
    1264 1264 1259 1259 1259 1259 1259 1255 1255 1259 1255 1250 1250
    1250 2789 2789 2835 2812 2767 3859 1333 1333 1333 1338 1338 1333
    1322 1322 1317 1317 1317 1317 1312 1312 1312 1312 1312 1312 1307
    1307 1307 1307 1307 1307 1302 1302 1302 1302 1302 1302 1302 1297
    1297 1297 1297 1297 1292 1292 1292 1288 1288 1288 1288 1283 1283
    1283 1283 1283 1283 1283 1278 1278 1278 1278 1273 1273 1278 1273
    1273 1268 1268 1268 1264 1264 1264 1264 1264 1264 1259 1259 1264
    1264 1264 1264 1264 1264 1264 1264 2789 2789 2789 2789 2812 2789
    3859 1333 1333 1333 1338 1338 1338 1333 1333 1328 1322 1322 1317
    1317 1317 1317 1312 1312 1312 1312 1312 1312 1312 1307 1307 1312
    1312 1307 1307 1302 1302 1302 1297 1297 1297 1297 1297 1297 1292
    1292 1292 1292 1292 1292 1288 1288 1288 1283 1283 1283 1283 1283
    1278 1278 1278 1278 1278 1278 1278 1273 1273 1273 1273 1268 1268
    1268 1268 1268 1264 1264 1264 1268 1264 1264 1264 1264 1264 1264
    1264 2789 2789 2789 2789 2812 2812 3859 3859 3859 1338 1338 1338
    1338 1338 1333 1328 1322 1322 1322 1317 1317 1317 1312 1312 1307
    1307 1312 1312 1312 1312 1312 1312 1312 1312 1312 1307 1302 1302
    1302 1302 1302 1302 1297 1297 1297 1297 1297 1297 1297 1292 1292
    1292 1292 1292 1288 1288 1283 1283 1283 1283 1283 1278 1278 1278
    1278 1278 1278 1278 1278 1273 1273 1268 1268 1268 1268 1268 1268
    1268 1268 1268 1268 1268 1268 1268 1268 2789 2789 2789 2835 2835
    2812 3859 3859 3859 3859 3859 3859 3816 3816 1343 1333 1333 3816
    3774 3774 3774 1317 1312 1312 1307 1307 1312 1312 1312 1312 1317
    1317 1317 1317 1312 1312 1307 1307 1302 1302 1302 1302 1297 1297
    1302 1302 1302 1297 1297 1297 1297 1297 1297 1297 1292 1292 1288
    1288 1288 1288 1288 1283 1283 1283 1278 1278 1278 1278 1278 1278
    1278 1273 1273 1268 1268 1268 1273 1273 1273 1268 1268 1268 1268
    1273 1273 2835 2835 2812 2812 2812 2789 3903 3859 3859 3859 3859
    3859 3816 3816 3816 3816 3816 3816 3774 3774 3774 3774 3774 3774
    3732 3732 3732 3732 3732 3732 1317 1317 1317 1322 1317 1317 1307
    1307 1307 1302 1302 1302 1297 1297 1302 1302 1302 1302 1302 1302
    1297 1297 1297 1297 1297 1297 1292 1292 1292 1292 1292 1288 1283
    1283 1283 1283 1283 1278 1278 1278 1278 1273 1273 1273 1273 1273
    1278 1278 1278 1273 1268 1268 1264 1264 1264 2835 2835 2812 2812
    2812 2789 3903 3859 3859 3859 3859 3859 3816 3774 3774 3732 3732
    3774 3774 3774 3774 3774 3774 3774 3732 3732 3732 3732 3732 3732
    3692 3692 3692 3692 3692 3692 3732 3732 3692 3692 3692 3692 3692
    3732 3732 3732 3732 1302 1302 1302 1297 1297 1297 1297 1297 1297
    1297 1297 1297 1292 1292 1288 1283 1283 1283 1283 1278 1278 1278
    1278 1278 1278 1278 1273 1273 1273 1273 1278 1278 1268 1268 1268
    1264 1264 1264 2859 2859 2835 2812 2789 2767</data></Depth9661>
</opencv_storage>
