<?xml version="1.0"?>
<opencv_storage>
<Depth9325 type_id="opencv-matrix">
  <rows>68</rows>
  <cols>46</cols>
  <dt>w</dt>
  <data>
    4241 4241 4241 4190 4190 4190 4190 4241 4241 4241 4241 4190 4190
    4190 4241 4241 0 0 0 0 4241 4241 4089 4041 4041 4041 4041 4041 1214
    1214 1214 4190 4190 4041 1278 1278 1273 1273 1292 1288 1288 1292
    1292 3948 3948 3994 4241 4241 4190 4190 4190 4190 4190 4241 4241
    4241 4241 4190 4190 4190 4241 4241 4241 0 0 0 1130 1123 1123 1123
    1130 1145 1149 1214 1214 1214 1214 1223 1223 1236 1245 1255 1255
    1264 1273 1283 1283 1292 1292 1307 1307 1307 4241 4241 4190 4190
    4241 1169 1169 1177 1181 1181 1185 1185 4241 4241 4241 4241 0 0 0
    1130 0 0 0 0 0 1145 1149 1214 1214 1214 1214 1219 1219 1236 1245
    1245 1250 1255 1259 1259 1273 1283 1292 1302 1302 1302 1169 1165
    1157 1157 1157 1153 1153 1157 1169 1181 1181 1185 1185 1138 0 0 0
    1126 1126 1130 1130 1123 1123 1123 1130 1145 1149 1149 1149 1214
    1173 1173 1210 1210 1214 1219 1236 1250 1255 1259 1273 1278 1292
    1302 1302 1302 1169 1165 1157 1157 1153 1153 1153 1153 1153 1165
    1181 1138 1138 1138 1119 1119 0 0 1126 1123 1123 1123 1123 1123 1130
    1141 1141 1149 1149 1169 1169 1173 1185 1202 1210 1214 1214 1223
    1250 1259 1268 1278 1292 1297 1297 1297 1169 1165 1161 1161 1153
    1153 1153 1149 1149 1141 1141 1138 1138 1138 1119 1119 1119 1119
    1119 1119 1119 1119 1119 1123 1130 1134 1138 1145 1149 1157 1169
    1173 1181 1197 1202 1210 1214 1223 1250 1259 1268 1283 1292 1292
    1292 1297 1169 1165 1161 1161 1153 1153 1149 1149 1145 1141 1138
    1138 1138 1134 1119 1119 1119 1119 1119 1119 1119 1115 1112 1112
    1115 1126 1134 1141 1145 1153 1165 1173 1181 1193 1202 1210 1214
    1236 1250 1259 1268 1278 1292 1292 1297 1297 1165 1165 1157 1157
    1153 1153 1149 1149 1145 1138 1138 1134 1134 1130 1123 1119 1119
    1119 1119 1119 1119 1115 1112 1112 1115 1119 1130 1138 1145 1153
    1161 1173 1181 1193 1202 1210 1214 1236 1250 1255 1264 1278 1288
    1292 1297 1297 1165 1165 1157 1153 1153 1149 1149 1149 1145 1138
    1138 1134 1134 1130 1126 1123 1123 1123 1119 1119 1115 1115 1112
    1112 1112 1119 1126 1138 1145 1153 1161 1173 1181 1193 1202 1210
    1214 1236 1250 1255 1264 1278 1283 1288 1288 4041 1165 1161 1157
    1153 1153 1149 1149 1149 1145 1141 1138 1134 1134 1130 1126 1126
    1123 1123 1119 1119 1115 1112 1112 1112 1112 1119 1126 1138 1145
    1153 1161 1173 1181 1193 1202 1210 1219 1236 1250 1255 1268 1273
    1283 1288 1288 4041 1165 1161 1157 1153 1153 1149 1149 1149 1145
    1141 1134 1134 1134 1130 1130 1126 1126 1123 1119 1119 1115 1112
    1112 1112 1112 1119 1130 1138 1145 1153 1157 1169 1185 1197 1202
    1210 1219 1232 1250 1259 1268 1273 1283 1283 1283 1283 1165 1161
    1161 1157 1153 1153 1149 1149 1145 1145 1134 1134 1130 1130 1130
    1126 1126 1123 1119 1115 1112 1112 1112 1112 1115 1123 1130 1138
    1149 1153 1157 1169 1185 1193 1202 1210 1219 1232 1241 1259 1268
    1273 1278 1278 1278 0 1165 1161 1161 1153 1153 1153 1149 1145 1145
    1141 1134 1134 1130 1126 1126 1126 1123 1119 1115 1112 1112 1112
    1112 1112 1112 1123 1130 1141 1149 1149 1157 1169 1181 1185 1202
    1210 1219 1227 1236 1255 1264 1273 1278 1278 1278 0 1169 1161 1161
    1153 1153 1153 1149 1145 1145 1138 1134 1134 1130 1126 1123 1123
    1119 1115 1112 1108 1108 1108 1108 1112 1112 1123 1130 1141 1149
    1149 1157 1165 1177 1185 1197 1210 1219 1227 1236 1255 1264 1268
    1278 1278 1278 0 1165 1161 1157 1153 1149 1149 1149 1145 1141 1138
    1134 1130 1126 1123 1123 1123 1119 1115 1112 1108 1108 1108 1108
    1108 1108 1123 1130 1141 1149 1153 1157 1165 1177 1185 1197 1210
    1214 1227 1250 1255 1264 1268 1278 1278 1278 4089 1161 1157 1153
    1153 1149 1149 1149 1145 1141 1138 1134 1130 1126 1123 1123 1123
    1119 1115 1112 1108 1108 1108 1108 1108 1108 1123 1130 1141 1149
    1153 1161 1165 1177 1189 1197 1206 1214 1236 1250 1255 1259 1268
    1278 1278 1278 4089 1161 1157 1153 1153 1149 1149 1149 1145 1141
    1138 1134 1130 1126 1123 1123 1123 1119 1115 1115 1108 1108 1108
    1108 1108 1112 1123 1130 1141 1149 1153 1161 1165 1177 1189 1197
    1202 1206 1236 1250 1255 1259 1268 1278 1278 1278 4089 1161 1157
    1153 1153 1149 1149 1145 1145 1141 1138 1134 1130 1126 1126 1123
    1123 1119 1119 1115 1112 1108 1108 1108 1108 1112 1123 1130 1138
    1149 1153 1157 1165 1173 1197 1197 1202 1206 1232 1250 1255 1259
    1264 1278 1278 1297 4089 1157 1153 1153 1153 1149 1149 1145 1145
    1145 1138 1134 1134 1130 1126 1126 1123 1123 1119 1115 1112 1108
    1108 1108 1108 1112 1119 1130 1138 1149 1153 1157 1165 1173 1197
    1197 1202 1206 1227 1245 1255 1259 1264 1278 1297 1297 1297 1157
    1153 1153 1153 1149 1149 1149 1145 1141 1138 1134 1134 1130 1130
    1126 1123 1123 1119 1115 1112 1108 1108 1108 1108 1112 1119 1126
    1138 1149 1149 1157 1165 1173 1197 1197 1202 1206 1227 1245 1255
    1255 1268 1278 1297 1297 1297 1161 1161 1157 1153 1149 1149 1145
    1145 1141 1138 1134 1134 1134 1130 1126 1123 1119 1119 1115 1112
    1108 1108 1108 1108 1108 1115 1126 1138 1149 1149 1157 1169 1173
    1197 1197 1202 1206 1227 1245 1255 1255 1268 1288 1288 1288 4089
    1161 1157 1157 1153 1149 1149 1145 1145 1138 1138 1134 1134 1134
    1130 1126 1123 1119 1119 1115 1112 1112 1108 1108 1108 1108 1115
    1126 1134 1149 1149 1161 1169 1177 1197 1197 1202 1206 1227 1255
    1255 1259 1273 1283 1283 0 4041 1161 1157 1157 1153 1153 1149 1149
    1145 1138 1138 1134 1134 1134 1130 1126 1123 1119 1119 1115 1112
    1108 1108 1108 1108 1108 1115 1126 1134 1149 1149 1161 1169 1181
    1197 1197 1202 1210 1241 1250 1250 1259 1273 1278 1278 0 4041 1161
    1157 1157 1153 1149 1149 1145 1145 1138 1138 1134 1134 1130 1130
    1126 1123 1119 1115 1115 1112 1108 1105 1105 1108 1108 1115 1130
    1134 1149 1149 1161 1169 1181 1197 1197 1202 1210 1241 1250 1250
    1259 1268 1278 1278 0 4041 1161 1161 1157 1153 1149 1149 1145 1145
    1138 1138 1134 1134 1130 1126 1123 1123 1119 1115 1112 1108 1108
    1105 1105 1108 1108 1115 1130 1134 1149 1149 1161 1169 1185 1197
    1197 1202 1214 1241 1245 1250 1259 1264 1278 1278 1292 4041 1165
    1161 1153 1153 1149 1149 1145 1145 1138 1134 1134 1134 1130 1126
    1123 1119 1119 1115 1112 1108 1108 1108 1108 1108 1112 1119 1130
    1134 1149 1149 1161 1169 1185 1197 1197 1206 1214 1241 1245 1250
    1259 1264 1278 1292 1292 4041 1161 1157 1153 1153 1149 1149 1145
    1145 1138 1134 1134 1130 1126 1123 1123 1119 1119 1115 1115 1112
    1112 1112 1108 1108 1112 1119 1130 1141 1149 1149 1157 1169 1185
    1197 1197 1210 1214 1241 1250 1250 1259 1273 1283 1292 1292 0 1161
    1157 1153 1153 1149 1149 1145 1141 1138 1134 1134 1130 1126 1123
    1123 1119 1119 1115 1115 1112 1112 1112 1108 1108 1112 1119 1130
    1141 1149 1149 1157 1173 1185 1197 1197 1206 1219 1241 1250 1250
    1259 1273 1283 1292 1292 0 1165 1157 1153 1153 1149 1149 1145 1138
    1138 1134 1134 1130 1126 1123 1123 1119 1119 1119 1115 1112 1112
    1108 1108 1108 1108 1115 1126 1138 1145 1149 1157 1165 1185 1197
    1197 1202 1227 1241 1250 1250 1259 1273 1278 1288 1288 0 1165 1157
    1157 1153 1153 1149 1145 1138 1138 1134 1134 1130 1126 1123 1123
    1119 1119 1119 1112 1108 1108 1108 1108 1108 1108 1115 1126 1138
    1145 1157 1157 1165 1185 1193 1193 1197 1219 1241 1250 1250 1259
    1273 1273 1288 1288 4041 1169 1157 1157 1153 1153 1149 1145 1138
    1138 1134 1134 1134 1126 1123 1123 1119 1115 1115 1112 1108 1108
    1108 1108 1108 1108 1112 1123 1138 1145 1153 1153 1177 1185 1193
    1193 1197 1219 1241 1255 1255 1259 1273 1273 1273 1273 4041 1169
    1157 1157 1153 1153 1149 1141 1138 1138 1134 1134 1134 1130 1126
    1123 1119 1115 1112 1112 1108 1105 1105 1108 1108 1108 1112 1123
    1138 1145 1153 1153 1177 1181 1193 1193 1197 1214 1236 1255 1255
    1259 1273 1273 1273 0 4041 1173 1157 1157 1153 1149 1149 1138 1138
    1138 1138 1138 1134 1130 1126 1123 1119 1119 1112 1112 1108 1105
    1105 1108 1108 1108 1112 1134 1138 1145 1153 1153 1173 1181 1189
    1193 1193 1214 1236 1255 1255 1264 1268 1268 1268 0 4041 1173 1157
    1157 1153 1149 1145 1138 1138 1138 1138 1138 1134 1130 1126 1123
    1119 1115 1112 1108 1108 1105 1105 1108 1108 1108 1112 1134 1141
    1145 1149 1153 1169 1177 1189 1193 1193 1219 1236 1255 1255 1268
    1268 1268 1268 1278 4041 1165 1161 1157 1153 1149 1145 1138 1138
    1138 1138 1138 1134 1130 1126 1123 1119 1115 1112 1108 1108 1105
    1105 1105 1108 1108 1112 1130 1138 1149 1149 1153 1169 1177 1189
    1193 1197 1223 1241 1250 1250 1268 1273 1273 1278 1278 4089 1165
    1161 1157 1153 1149 1145 1141 1141 1138 1138 1134 1134 1126 1126
    1123 1119 1119 1115 1108 1108 1105 1105 1105 1108 1108 1112 1126
    1138 1149 1149 1153 1169 1181 1193 1193 1206 1223 1241 1245 1245
    1268 1273 1273 1278 1278 1278 1157 1157 1153 1153 1149 1145 1141
    1141 1138 1138 1134 1130 1126 1123 1123 1119 1119 1115 1112 1108
    1105 1105 1105 1108 1108 1112 1126 1134 1149 1149 1161 1173 1185
    1193 1193 1206 1227 1236 1245 1245 1268 1273 1278 1278 1278 0 1153
    1153 1153 1149 1149 1145 1141 1141 1138 1134 1130 1126 1123 1123
    1123 1123 1119 1119 1115 1112 1105 1105 1105 1105 1108 1112 1126
    1134 1145 1153 1161 1177 1185 1193 1193 1202 1232 1236 1245 1245
    1264 1273 1278 1278 1278 0 1149 1149 1149 1149 1149 1145 1141 1141
    1138 1134 1130 1126 1123 1123 1123 1119 1119 1119 1115 1112 1108
    1105 1105 1105 1108 1119 1126 1134 1141 1153 1161 1173 1185 1193
    1193 1202 1232 1241 1245 1255 1259 1273 1273 1278 1278 0 1149 1149
    1149 1149 1149 1141 1138 1138 1138 1134 1130 1126 1126 1123 1123
    1119 1119 1115 1112 1112 1108 1105 1105 1108 1108 1119 1126 1134
    1141 1153 1161 1169 1185 1193 1193 1202 1227 1241 1245 1255 1259
    1268 1273 1273 1273 0 1149 1153 1153 1149 1149 1141 1138 1138 1138
    1134 1130 1126 1126 1123 1123 1119 1119 1115 1112 1108 1108 1105
    1105 1108 1108 1119 1126 1134 1141 1153 1161 1169 1181 1193 1193
    1197 1210 1241 1245 1255 1259 1268 1273 1273 1273 0 1157 1153 1153
    1149 1149 1145 1138 1138 1138 1134 1130 1126 1126 1123 1119 1119
    1115 1112 1112 1108 1108 1105 1105 1108 1108 1119 1126 1134 1141
    1153 1161 1169 1177 1193 1197 1197 1210 1241 1245 1255 1259 1268
    1273 1283 1283 0 1161 1153 1153 1149 1149 1141 1138 1138 1134 1130
    1130 1126 1123 1123 1119 1115 1112 1112 1108 1108 1105 1105 1105
    1108 1108 1123 1126 1130 1141 1153 1161 1169 1177 1193 1197 1197
    1214 1236 1245 1250 1259 1268 1273 1283 1283 4041 1161 1153 1153
    1149 1149 1141 1138 1138 1134 1130 1130 1126 1123 1123 1119 1115
    1112 1112 1108 1108 1105 1105 1105 1108 1108 1123 1126 1130 1138
    1149 1161 1169 1181 1189 1197 1197 1214 1236 1241 1250 1259 1268
    1273 1283 1283 4041 1161 1153 1153 1149 1149 1138 1138 1134 1134
    1134 1130 1126 1123 1123 1119 1115 1115 1115 1108 1108 1105 1101
    1101 1105 1108 1119 1123 1130 1138 1149 1161 1169 1181 1189 1197
    1197 1210 1236 1241 1250 1259 1268 1278 1278 0 4041 1153 1153 1153
    1149 1145 1138 1138 1134 1134 1134 1130 1126 1123 1123 1119 1115
    1115 1115 1112 1108 1105 1101 1101 1105 1108 1119 1123 1130 1141
    1149 1161 1169 1181 1189 1193 1197 1206 1236 1241 1250 1255 1268
    1273 1273 0 4089 1153 1149 1149 1149 1145 1138 1138 1134 1134 1134
    1130 1126 1123 1123 1119 1119 1115 1115 1112 1108 1105 1101 1101
    1105 1108 1119 1123 1130 1141 1149 1157 1165 1173 1189 1193 1197
    1206 1236 1241 1245 1255 1264 1273 1273 1288 4041 1153 1149 1149
    1149 1141 1138 1138 1134 1134 1130 1130 1126 1123 1123 1119 1119
    1115 1115 1112 1108 1105 1105 1105 1105 1108 1119 1123 1134 1141
    1149 1157 1165 1173 1189 1193 1197 1206 1236 1241 1245 1255 1264
    1273 1288 1288 4041 1153 1149 1149 1149 1141 1138 1138 1134 1134
    1130 1126 1123 1123 1123 1119 1119 1115 1112 1108 1108 1105 1105
    1105 1105 1108 1119 1123 1134 1141 1149 1157 1165 1173 1189 1197
    1202 1210 1236 1241 1245 1255 1264 1268 1278 1278 1283 1153 1149
    1149 1145 1141 1141 1138 1138 1134 1130 1126 1123 1123 1123 1119
    1119 1112 1112 1108 1105 1105 1105 1105 1108 1112 1119 1123 1134
    1141 1149 1153 1169 1177 1189 1193 1197 1219 1232 1241 1245 1255
    1264 1268 1278 1283 1283 1153 1149 1149 1138 1138 1138 1138 1134
    1130 1130 1126 1123 1123 1123 1119 1115 1112 1108 1105 1105 1101
    1101 1105 1108 1112 1119 1123 1130 1138 1149 1153 1165 1181 1189
    1193 1197 1210 1232 1241 1245 1255 1264 1268 1278 1283 0 0 1153 1149
    1138 1138 1138 1134 1134 1130 1126 1126 1123 1123 1119 1115 1115
    1112 1108 1105 1105 1101 1101 1101 1105 1112 1119 1123 1126 1134
    1149 1153 1165 1181 1189 1193 1197 1210 1227 1241 1245 1255 1264
    1268 1278 1283 1283 0 1153 1149 1138 1138 1138 1134 1134 1130 1126
    1123 1123 1123 1119 1115 1115 1112 1108 1105 1105 1101 1101 1101
    1105 1108 1115 1119 1123 1134 1141 1149 1161 1173 1189 1193 1197
    1210 1227 1241 1245 1255 1264 1273 1278 1283 1283 0 1165 1149 1141
    1138 1138 1134 1134 1126 1123 1123 1123 1119 1119 1115 1115 1112
    1108 1108 1105 1101 1101 1101 1105 1108 1115 1119 1123 1134 1141
    1149 1161 1173 1185 1193 1197 1210 1223 1241 1245 1255 1264 1273
    1278 1283 1283 0 1157 1149 1141 1141 1138 1138 1134 1126 1123 1123
    1123 1119 1119 1115 1112 1112 1108 1108 1105 1101 1101 1105 1105
    1108 1115 1119 1123 1138 1145 1153 1165 1173 1185 1193 1197 1210
    1219 1241 1250 1255 1259 1273 1273 1278 1278 1157 1153 1149 1141
    1138 1138 1138 1134 1134 1123 1123 1123 1119 1119 1115 1112 1112
    1108 1108 1105 1105 1105 1105 1105 1108 1115 1119 1123 1138 1149
    1153 1161 1173 1181 1193 1197 1206 1219 1241 1250 1255 1259 1268
    1273 1278 1278 1153 1149 1145 1141 1138 1138 1134 1134 1134 1126
    1123 1123 1119 1119 1115 1112 1112 1112 1105 1105 1105 1105 1105
    1105 1108 1115 1123 1126 1138 1145 1153 1157 1173 1181 1193 1197
    1206 1219 1236 1241 1250 1259 1268 1268 1273 1278 1153 1149 1145
    1141 1138 1138 1134 1134 1134 1130 1126 1123 1119 1119 1119 1115
    1115 1112 1105 1101 1101 1097 1097 1105 1108 1112 1119 1126 1134
    1138 1149 1153 1177 1181 1193 1197 1214 1223 1236 1236 1250 1259
    1268 1268 1273 1273 1153 1149 1145 1141 1138 1138 1134 1134 1130
    1126 1123 1123 1119 1119 1119 1115 1115 1112 1105 1101 1101 1097
    1097 1101 1108 1112 1119 1123 1134 1138 1145 1149 1165 1181 1189
    1197 1219 1223 1232 1232 1250 1259 1273 1273 1273 1273 1153 1149
    1149 1141 1138 1138 1134 1130 1126 1123 1123 1123 1119 1119 1119
    1115 1112 1105 1105 1101 1101 1097 1097 1101 1105 1108 1115 1123
    1134 1138 1145 1149 1165 1181 1189 1197 1214 1223 1232 1232 1245
    1273 1273 1273 1273 1268 1149 1149 1149 1141 1138 1138 1134 1130
    1126 1123 1123 1123 1119 1119 1119 1115 1108 1105 1105 1101 1097
    1097 1097 1097 1105 1108 1115 1123 1134 1138 1145 1153 1161 1181
    1189 1193 1206 1223 1232 1232 1245 1268 1273 1268 1268 1268 1149
    1149 1149 1145 1138 1138 1134 1134 1126 1123 1123 1119 1119 1119
    1115 1112 1108 1105 1105 1101 1097 1097 1097 1097 1101 1108 1115
    1123 1134 1145 1149 1153 1161 1177 1189 1193 1206 1223 1236 1236
    1245 1264 1268 1259 1259 1259 1153 1153 1149 1145 1138 1138 1134
    1134 1126 1123 1123 1119 1119 1119 1115 1112 1108 1105 1105 1101
    1097 1097 1097 1097 1101 1108 1115 1126 1134 1145 1149 1153 1165
    1173 1189 1193 1206 1223 1236 1236 1241 1259 1268 1259 1259 1259
    1149 1149 1149 1141 1138 1138 1134 1134 1130 1126 1123 1119 1119
    1119 1115 1112 1108 1105 1105 1101 1097 1097 1097 1097 1101 1108
    1112 1126 1134 1145 1149 1153 1165 1169 1189 1197 1206 1223 1236
    1236 1241 1259 1264 1264 1264 1264 1149 1149 1145 1141 1138 1138
    1134 1134 1130 1126 1123 1119 1119 1119 1115 1112 1108 1105 1105
    1101 1097 1097 1097 1097 1105 1108 1112 1119 1138 1145 1149 1153
    1165 1169 1189 1197 1210 1219 1236 1236 1245 1259 1264 1264 1264
    1264 1149 1149 1145 1138 1138 1138 1134 1134 1126 1126 1123 1119
    1115 1115 1115 1112 1108 1105 1105 1101 1097 1097 1097 1097 1105
    1112 1115 1119 1134 1145 1149 1153 1165 1181 1189 1193 1210 1219
    1236 1236 1245 1259 1268 1264 1264 1264 1149 1149 1145 1138 1138
    1138 1134 1130 1126 1123 1123 1119 1115 1115 1115 1112 1112 1105
    1105 1101 1094 1094 1094 1094 1101 1112 1119 1119 1134 1141 1145
    1153 1165 1181 1185 1193 1210 1219 1227 1236 1245 1259 1268 1268
    1268 3037 1149 1149 1145 1138 1138 1138 1134 1130 1126 1123 1123
    1119 1119 1115 1115 1112 1112 1105 1105 1101 1094 1094 1094 1094
    1097 1112 1119 1119 1130 1138 1141 1157 1165 1181 1185 1189 1210
    1219 1227 1236 1250 1259 1264 1268 0 0</data></Depth9325>
</opencv_storage>
