<?xml version="1.0"?>
<opencv_storage>
<Depth10324 type_id="opencv-matrix">
  <rows>74</rows>
  <cols>101</cols>
  <dt>w</dt>
  <data>
    3614 0 0 0 3653 3653 3653 3692 3692 910 908 906 903 901 898 898 896
    896 896 898 898 901 901 898 898 898 3576 3576 3576 3576 3576 3539
    3539 3539 3539 3576 3576 3576 3576 3576 3576 3576 3576 3576 3576
    3576 3576 3539 3539 3539 3539 3539 3539 3503 3503 3468 3468 3433
    3433 3433 3433 3433 3433 3433 3468 3503 3468 3468 3468 3503 3468
    3468 3468 3433 3433 3433 3399 3365 3365 3333 3333 2522 2503 2467
    2450 2450 2450 2450 2467 2467 2450 2432 2432 2415 2415 2398 2398 0 0
    0 0 0 0 0 0 0 3653 3653 3653 3692 3653 3576 3576 903 901 898 894 894
    891 891 894 894 894 896 898 898 898 898 901 903 906 903 903 906 3539
    3539 3576 3576 3576 3576 3576 3576 3576 3576 3539 3539 3576 3576
    3576 3576 3576 3576 3576 3539 3539 3503 3468 3468 3433 3433 3433
    3433 3433 3433 3433 3468 3503 3503 3503 3503 3503 3503 3503 3468
    3399 3399 3399 3365 3365 3365 3333 2541 2541 2522 2503 2450 2450
    2450 2450 2467 2467 2450 2432 2432 2415 2415 2398 2349 2349 0 0 0 0
    0 0 0 0 0 0 0 0 3576 3576 3576 858 858 898 887 882 882 880 880 882
    891 894 896 896 894 894 896 896 901 896 896 896 898 898 903 903 903
    903 903 3576 3576 3576 3539 3539 3576 3576 3576 3576 3576 3539 3539
    3539 3539 3503 3468 3433 3433 3433 3433 3433 3433 3433 3433 3468
    3503 3503 3503 3503 3503 3503 3503 3468 3399 3399 3399 3365 3365
    3333 3333 2541 2541 2522 2467 2450 2450 2450 2450 2467 2467 2450
    2432 2432 2415 2415 2398 2349 2349 0 0 0 0 0 0 0 0 0 0 0 0 858 858
    858 856 849 849 880 878 875 875 875 875 880 882 889 885 885 882 882
    885 887 889 889 891 891 894 901 903 903 903 901 898 898 901 901 901
    3576 3576 3576 3576 903 903 3539 3539 3539 3503 3468 3433 3433 3433
    3433 3433 3433 3433 3433 3468 3503 3503 3503 3503 3503 3468 3468
    3433 3399 3399 3399 3365 3333 3333 3333 2541 2541 2522 2467 2432
    2432 2450 2450 2467 2450 2450 2432 2432 2415 2398 2398 2349 2349 0 0
    0 0 0 0 0 0 0 0 0 0 0 0 858 856 847 841 841 841 875 873 873 873 873
    873 873 873 873 873 873 875 878 880 885 887 887 891 896 901 901 901
    898 898 898 898 898 898 898 898 898 898 901 903 903 3539 3539 3503
    3468 3468 3433 3433 3433 3433 3433 3433 3433 3433 3468 3503 3503
    3503 3503 3468 3468 3399 3399 3365 3365 3365 3333 3333 3333 2560
    2541 2522 2467 2432 2432 2450 2450 2467 2450 2450 2432 2432 2432
    2398 2398 0 0 0 0 0 0 0 0 0 0 923 920 920 0 0 0 856 851 843 839 839
    839 839 871 869 867 867 864 864 867 871 871 873 873 875 875 882 882
    882 882 885 889 894 896 898 898 896 896 896 894 894 894 894 894 896
    901 901 901 898 898 898 3468 3468 3433 3433 3433 3433 3433 3433 3433
    3468 3468 3468 3503 3468 3468 3468 3399 3399 3365 3365 3333 3269
    3269 3333 2541 2541 2522 2467 2432 2432 2467 2450 2450 2432 2432
    2450 2432 2432 2398 2398 0 0 0 0 0 0 0 0 0 0 923 920 920 0 0 0 856
    851 841 839 839 839 835 835 835 835 835 839 864 867 869 871 871 871
    873 873 873 873 873 882 882 885 882 882 885 885 894 891 891 887 887
    887 887 887 891 894 898 898 898 898 901 901 901 903 908 910 908 908
    908 908 910 910 3468 3503 3468 3433 3433 3365 3333 3333 3333 3333
    3269 3269 2541 2541 2522 2522 2467 2432 2432 2467 2450 2450 2432
    2432 2432 2432 2432 2415 2415 0 0 0 0 0 0 0 0 0 933 923 920 920 0 0
    0 0 0 841 839 839 839 835 835 835 833 833 833 835 839 862 867 864
    864 869 869 867 867 867 867 871 880 871 869 867 867 867 882 882 882
    882 882 885 885 885 887 887 896 896 896 898 896 896 896 896 903 903
    903 903 903 906 906 906 906 3433 3433 3433 3365 3300 3300 3300 3333
    3269 3238 2522 2503 2485 2467 2432 2415 2415 2450 2450 2450 2432
    2432 2432 2432 2432 2398 2398 0 0 0 0 0 0 0 0 0 933 925 925 0 0 0 0
    0 0 0 839 839 839 837 835 833 831 831 831 833 833 835 839 839 841
    862 869 867 867 864 864 864 864 869 869 867 867 867 869 873 875 880
    880 882 880 880 882 882 885 894 894 894 891 891 894 894 896 898 898
    898 898 901 901 901 903 903 903 903 3300 3300 3300 3300 3333 3269
    3238 2522 2503 2467 2432 2415 2415 2415 2415 2432 2432 2432 2415
    2415 2415 2415 2398 2398 0 0 0 0 0 0 0 0 0 933 925 925 0 0 0 0 0 0 0
    802 803 837 837 835 829 829 829 831 831 833 835 835 835 835 835 837
    837 867 864 862 862 864 869 867 867 867 867 867 867 867 873 875 875
    875 875 875 878 875 875 882 882 885 885 887 891 891 894 894 896 896
    896 896 896 901 903 898 898 898 898 901 906 906 3365 3333 2541 2522
    2432 2415 2381 2381 2415 2415 2432 2415 2415 2415 2415 2415 2415
    2415 2415 0 0 0 0 0 0 0 0 0 933 928 928 0 0 0 0 0 803 802 802 803
    805 805 821 821 821 827 829 829 829 831 831 831 833 833 833 831 831
    833 833 833 833 831 831 833 864 864 864 864 864 867 871 869 869 869
    869 869 869 869 871 875 880 882 882 885 885 889 889 891 891 891 889
    889 894 898 898 898 896 896 898 903 903 906 906 906 906 2432 2415
    2381 2381 2415 2432 2432 2415 918 915 915 915 2415 2415 2415 0 0 0 0
    0 0 0 0 938 933 910 910 0 0 0 0 0 803 802 802 802 803 803 819 819
    817 815 815 815 821 827 827 827 827 827 827 827 827 829 831 831 831
    831 831 831 833 833 864 864 864 867 867 862 862 864 864 864 867 867
    867 869 869 871 871 873 871 871 878 880 880 885 885 885 887 891 896
    896 894 891 891 894 898 901 901 901 901 896 896 896 894 2450 2450
    915 915 913 913 913 913 913 2432 887 880 880 882 0 0 0 0 0 938 930
    910 910 0 0 0 0 0 798 796 796 794 794 803 817 790 790 790 803 803
    805 815 817 817 821 821 823 823 823 823 825 827 829 829 831 831 829
    829 831 831 831 831 831 858 858 860 860 862 864 864 864 867 867 869
    869 869 867 867 869 871 871 875 878 880 878 878 878 878 885 887 885
    885 889 891 891 898 898 896 894 894 894 894 901 903 906 906 906 910
    910 910 910 887 880 880 882 0 0 0 0 0 0 930 930 938 943 0 802 802 0
    798 794 792 790 790 789 789 787 787 789 790 798 800 800 800 807 807
    813 815 819 817 817 817 821 825 827 827 827 829 829 831 831 831 829
    829 829 829 829 860 860 860 860 862 862 864 867 867 867 864 864 867
    867 869 869 871 873 873 873 875 875 878 878 880 880 885 885 887 889
    894 894 894 894 891 891 896 901 903 901 901 903 901 898 896 891 891
    894 896 0 0 0 0 0 0 940 935 935 943 943 802 802 798 798 792 789 789
    789 787 787 785 785 789 790 794 794 794 794 796 798 798 800 813 815
    815 815 817 819 819 819 821 825 825 827 829 829 829 827 827 829 829
    831 827 827 831 831 833 833 833 831 831 860 860 864 867 867 867 867
    867 867 871 871 871 873 873 875 878 878 878 880 880 885 891 891 891
    891 891 894 896 896 898 898 898 896 896 896 894 894 894 896 898 0 0
    0 0 0 943 935 935 940 940 800 800 798 796 792 789 789 780 778 778
    780 781 783 787 789 789 790 792 792 794 794 794 794 805 811 811 811
    809 809 809 811 811 821 819 819 819 819 823 823 823 827 829 827 827
    831 831 833 833 833 831 831 833 833 833 862 862 862 862 862 862 867
    867 869 869 869 871 871 871 871 871 873 873 878 878 880 878 878 880
    880 891 894 894 894 894 894 896 896 896 896 898 896 896 0 0 0 0 943
    940 940 940 940 798 798 792 792 792 789 789 776 774 771 766 766 767
    769 771 771 774 789 789 790 789 789 789 792 794 796 796 798 805 807
    807 807 817 815 815 815 815 817 817 817 819 817 817 819 819 831 831
    831 831 831 831 831 831 831 831 831 831 833 841 837 837 867 864 862
    860 860 862 864 864 867 869 869 869 869 871 875 875 875 875 878 889
    889 889 889 889 894 894 894 894 891 891 889 0 0 948 948 946 938 938
    940 940 798 798 787 787 749 749 749 776 774 757 757 759 762 764 767
    767 767 767 767 778 778 781 785 783 783 789 789 792 796 805 800 796
    789 789 789 789 813 813 813 815 815 813 813 811 809 809 825 825 825
    827 827 829 827 827 829 829 831 833 833 833 831 831 831 854 845 845
    860 864 864 864 864 862 862 864 867 873 873 871 869 869 871 875 878
    878 878 878 878 878 891 889 889 887 948 948 948 946 943 938 938 938
    938 780 780 780 787 747 742 742 744 744 755 755 757 757 759 761 762
    762 764 767 771 773 774 776 776 776 776 774 774 789 787 787 789 789
    789 789 789 789 790 792 813 813 809 809 807 807 809 809 817 817 819
    819 823 823 823 823 823 827 827 829 829 829 829 829 835 841 841 841
    862 862 862 860 860 860 862 862 869 869 869 864 864 867 869 873 873
    873 873 873 875 878 878 882 880 948 948 948 946 943 938 938 938 0
    780 780 780 780 746 738 738 741 741 744 744 754 750 750 752 754 755
    757 759 762 766 766 766 767 773 771 771 769 769 771 773 780 781 783
    787 789 789 790 787 787 813 809 809 803 803 807 807 809 811 813 813
    815 817 815 815 817 819 821 825 825 827 825 825 829 833 829 829 831
    831 831 860 860 858 851 851 867 860 860 862 862 864 864 864 867 867
    869 869 873 875 875 880 875 951 951 948 948 946 938 938 938 0 750
    733 733 738 738 736 736 736 738 739 744 754 750 749 749 750 750 750
    754 755 757 759 759 759 764 764 766 766 766 767 767 766 766 767 767
    767 774 781 781 783 783 783 785 785 803 807 807 807 807 809 807 807
    813 811 811 811 813 817 821 821 823 821 821 823 827 827 827 829 829
    829 831 835 835 835 833 833 833 845 860 860 862 864 864 867 867 867
    869 869 871 869 869 869 951 951 948 948 946 940 940 940 750 750 0
    733 733 733 733 733 733 733 733 731 731 731 731 747 747 749 749 749
    749 750 755 755 754 754 755 757 759 761 761 761 761 761 762 764 766
    769 780 778 778 774 774 774 778 778 781 785 787 790 790 798 796 796
    807 807 809 813 817 819 819 819 817 817 813 813 825 825 827 825 825
    827 829 831 831 831 831 831 833 835 841 839 837 837 839 867 867 869
    869 869 864 864 864 954 954 951 948 946 943 752 750 750 750 736 733
    733 733 731 731 731 731 731 731 731 731 731 731 733 733 742 744 742
    742 744 746 746 746 746 747 755 757 757 757 757 757 759 762 761 757
    755 755 755 757 767 771 771 774 771 771 771 773 774 778 789 792 807
    807 794 794 794 794 794 794 796 809 809 811 811 811 817 817 817 819
    823 827 827 827 825 823 823 827 833 835 835 827 827 835 835 833 829
    829 829 860 860 954 954 951 951 948 750 750 750 750 750 736 736 733
    733 731 731 731 731 731 731 731 731 731 731 730 730 730 733 736 739
    739 741 741 744 744 747 747 747 749 749 749 750 752 752 752 752 752
    754 755 757 759 759 759 759 767 767 769 771 771 773 773 773 778 780
    783 790 792 792 794 794 794 794 796 811 811 811 800 800 802 817 819
    821 811 811 811 821 817 815 815 831 825 825 827 825 825 827 829 829
    829 829 829 954 954 951 951 951 750 750 749 744 744 741 736 734 734
    733 731 731 731 731 731 731 731 731 731 730 730 730 733 733 734 734
    734 734 741 741 741 741 746 747 747 747 747 749 749 750 747 747 750
    752 754 755 755 754 754 754 762 764 769 769 766 766 771 769 769 774
    774 776 776 781 787 781 781 787 787 787 789 789 792 796 798 800 802
    803 807 807 811 815 815 815 815 819 821 823 823 823 827 827 827 825
    825 825 0 954 951 951 951 750 750 749 744 744 741 738 736 734 733
    733 731 731 733 731 731 731 731 731 731 730 730 733 733 733 733 733
    733 733 733 733 733 733 733 738 739 739 742 744 744 746 746 746 750
    750 750 750 750 752 752 752 757 757 757 757 759 759 764 764 771 771
    771 773 773 778 778 778 778 780 780 785 785 787 794 794 794 796 796
    802 800 800 811 815 815 815 817 817 819 819 821 823 823 823 823 823
    825 0 0 0 0 0 750 750 749 746 746 744 739 738 736 734 733 733 733
    734 734 733 733 733 733 733 731 731 733 733 733 733 733 733 733 733
    733 733 733 733 733 733 734 734 738 734 734 739 739 746 746 746 746
    749 749 749 747 746 746 747 747 754 757 757 759 761 764 766 766 766
    769 771 773 773 774 774 774 774 774 783 781 781 783 785 796 796 796
    794 794 802 802 809 815 813 813 817 813 813 817 817 819 821 0 0 0 0
    0 0 750 749 749 749 744 739 738 736 736 734 734 734 734 734 734 733
    733 734 734 734 734 733 733 733 733 733 733 733 733 733 733 733 733
    731 731 733 733 733 733 733 734 734 734 733 733 738 741 741 741 741
    742 742 746 746 746 747 750 754 754 754 754 754 755 757 759 761 762
    769 769 766 766 767 767 769 778 778 778 778 785 785 785 787 787 790
    790 792 794 813 813 807 807 807 811 813 819 0 0 0 0 0 0 0 749 749
    747 744 739 738 738 738 736 736 736 736 736 736 734 734 734 734 736
    736 736 734 734 734 734 734 733 733 733 733 733 733 731 731 731 731
    733 733 733 733 733 733 731 731 731 733 733 734 736 736 741 742 742
    742 742 746 746 750 750 750 750 752 754 754 757 755 755 759 759 761
    761 762 764 769 771 771 771 771 774 778 781 781 785 785 787 789 789
    796 796 798 794 794 796 796 0 0 0 0 0 0 0 0 749 747 744 739 738 738
    738 738 738 738 736 736 738 738 738 736 736 736 736 738 738 736 736
    736 734 734 733 733 733 733 733 731 731 731 731 731 731 733 733 733
    731 731 731 731 731 731 733 733 733 734 736 738 739 739 739 741 744
    747 747 749 749 750 750 752 752 752 754 755 755 757 759 759 762 762
    762 766 766 769 767 767 767 767 773 774 774 774 774 783 785 785 787
    787 790 0 0 0 0 0 0 0 0 0 747 744 741 739 739 739 739 739 739 739
    738 738 738 738 738 738 738 738 739 738 738 738 738 736 736 734 734
    736 734 734 733 733 733 733 731 731 733 733 733 731 731 731 731 731
    731 731 731 731 731 731 733 734 734 734 734 734 734 734 734 736 739
    746 747 747 747 750 752 752 752 755 755 757 755 755 759 759 761 764
    764 764 764 767 767 771 773 773 774 774 778 783 783 789 0 0 0 0 0 0
    0 0 750 747 744 742 741 741 741 741 741 742 742 741 739 739 739 739
    739 739 739 739 739 739 739 739 736 736 734 734 736 738 738 736 734
    734 733 733 733 733 733 733 733 731 731 731 731 731 731 731 731 731
    731 733 733 733 733 733 733 734 734 734 734 734 738 742 742 747 747
    750 749 749 749 754 755 754 754 755 754 754 761 762 761 759 759 759
    759 766 766 767 767 769 774 778 789 0 0 0 0 0 0 0 0 750 747 746 744
    742 742 742 742 742 742 742 742 741 739 739 739 739 739 739 741 739
    739 739 739 738 738 736 736 738 738 738 738 738 736 734 733 733 733
    733 733 733 733 733 733 733 733 731 731 731 731 731 731 731 731 731
    731 733 733 733 733 733 733 734 734 736 736 741 746 746 742 741 741
    755 752 752 750 749 749 749 754 755 754 754 754 754 754 754 757 764
    766 771 773 0 0 0 0 0 0 0 0 0 750 749 747 746 746 746 744 744 744
    744 744 742 742 741 741 741 741 741 741 742 741 741 741 741 739 739
    739 739 739 739 739 739 738 738 738 736 734 734 734 734 734 734 734
    733 733 733 733 733 731 731 731 731 731 731 731 731 733 733 733 733
    733 733 733 733 733 733 734 734 736 736 734 734 734 752 752 747 747
    749 749 750 750 752 749 749 750 750 752 754 754 754 754 755 0 0 0 0
    0 771 769 769 769 749 749 749 747 747 749 749 749 746 744 744 744
    744 742 742 742 742 742 742 744 742 742 742 741 741 741 741 741 741
    741 741 741 741 739 739 738 738 736 736 736 736 736 734 734 734 734
    734 734 733 731 731 733 733 733 731 731 733 733 733 733 733 733 733
    733 733 733 733 733 733 733 733 733 733 733 734 736 736 736 738 738
    741 746 746 747 747 749 750 750 750 750 752 752 0 0 0 0 0 767 767
    762 762 762 750 750 749 749 749 750 750 749 749 747 747 746 746 746
    744 744 744 744 744 744 744 744 742 742 742 742 742 742 741 741 741
    741 741 741 739 739 738 738 738 738 738 736 736 736 736 736 736 734
    733 733 733 733 733 731 731 733 733 734 733 733 733 733 733 733 733
    733 733 733 733 733 733 733 733 733 733 733 734 734 734 734 734 739
    744 747 747 747 747 747 747 749 749 0 0 0 0 766 764 764 761 757 755
    752 750 749 749 750 750 750 750 750 749 749 747 747 747 746 746 746
    746 747 747 744 744 744 744 744 744 744 744 742 742 742 742 742 741
    741 739 739 739 739 739 739 738 738 738 738 738 738 736 736 734 734
    734 733 733 733 734 734 734 734 734 733 733 733 733 733 733 733 733
    733 733 733 733 733 733 733 733 733 733 733 733 733 733 733 744 744
    744 744 744 746 746 746 0 0 0 0 766 764 762 759 757 755 755 752 752
    752 752 752 752 750 750 750 750 750 749 749 747 747 747 747 749 750
    749 749 747 747 747 744 744 744 744 744 744 744 744 744 744 742 741
    741 739 739 739 739 739 739 739 739 738 738 738 738 736 736 734 734
    734 736 736 736 736 734 734 734 734 734 734 733 733 733 733 733 733
    733 733 733 733 733 733 733 733 731 731 730 730 730 730 733 734 738
    741 742 742 0 0 0 0 0 0 762 759 757 755 755 754 754 754 754 754 754
    752 750 750 750 750 750 750 749 749 749 749 750 750 750 750 750 749
    749 749 749 747 747 746 746 744 744 744 744 744 744 742 742 741 741
    741 741 739 739 739 739 739 738 738 738 738 738 738 738 739 739 739
    738 736 736 736 734 734 734 733 733 733 733 733 733 733 733 733 733
    733 733 733 733 731 731 730 730 730 730 731 733 734 734 736 736 0 0
    0 0 0 0 0 759 757 757 757 755 755 755 755 755 755 755 754 752 752
    752 752 752 750 750 750 750 752 752 750 750 750 750 750 750 749 749
    747 747 747 746 746 746 746 746 746 744 744 742 742 742 742 741 741
    739 739 739 739 739 739 739 739 739 739 741 741 741 739 738 738 738
    736 736 736 734 734 734 734 734 734 734 734 734 734 734 734 733 733
    733 733 731 731 731 731 731 733 734 734 734 734 0 0 0 0 0 0 0 759
    759 759 757 757 757 757 757 757 757 755 755 754 754 754 754 754 750
    750 750 752 754 754 752 752 750 750 750 750 750 750 750 749 749 747
    747 746 746 746 746 746 746 744 744 744 742 742 742 741 741 741 741
    741 741 741 739 739 739 741 742 741 739 739 739 739 738 738 738 738
    738 738 738 736 734 734 736 734 734 734 734 733 733 733 733 733 733
    731 731 733 733 734 733 733 733 0 0 0 0 0 0 0 762 762 761 761 759
    759 759 757 757 757 757 755 755 755 755 755 755 754 754 754 754 755
    755 754 754 752 752 752 752 752 750 750 750 750 749 749 747 747 747
    747 747 747 747 746 746 746 744 744 744 744 744 742 742 741 741 741
    741 742 742 742 741 741 739 739 739 739 739 739 739 739 739 739 738
    738 738 738 738 738 736 736 736 736 734 734 734 733 733 733 733 733
    734 733 733 733 0 0 0 0 0 0 0 762 762 762 762 761 761 761 761 759
    759 757 757 757 755 755 755 755 755 755 755 755 757 757 755 755 755
    754 754 752 752 752 752 752 750 750 750 749 749 749 749 749 749 749
    749 747 746 746 746 746 746 746 744 744 744 744 744 744 744 744 742
    741 741 741 741 741 741 741 741 741 741 741 739 739 738 738 738 739
    738 738 736 736 736 736 736 736 734 734 734 734 734 734 734 733 733
    0 0 0 0 0 0 0 764 764 764 762 762 762 762 762 762 761 759 759 757
    757 757 757 757 757 757 755 755 757 757 757 757 757 755 755 754 754
    754 754 754 754 752 752 750 750 750 750 750 750 750 750 750 750 749
    747 746 746 746 746 746 746 744 744 744 744 746 744 744 744 741 741
    741 741 741 742 741 741 741 741 741 739 739 739 739 739 739 739 739
    738 738 738 738 736 736 736 736 736 736 734 734 734 0 0 0 0 0 0 0
    764 764 764 764 764 764 764 764 762 762 761 761 759 759 759 759 759
    759 757 757 757 759 759 757 757 757 757 757 755 755 755 755 755 755
    754 752 752 752 752 752 752 750 750 750 750 750 750 749 749 747 747
    747 747 747 746 746 746 746 746 746 746 746 746 746 746 746 746 744
    742 742 741 741 741 741 741 741 741 741 741 739 739 739 739 739 739
    739 738 738 738 738 736 736 734 734 0 0 0 0 0 0 0 766 766 764 764
    764 764 766 764 764 762 762 762 762 762 762 761 761 761 761 761 761
    761 761 759 759 759 759 759 757 757 757 757 757 757 755 755 754 752
    752 752 752 752 752 752 752 752 752 750 750 749 749 749 749 749 747
    747 747 747 749 749 749 747 747 747 747 747 746 746 746 746 744 744
    744 742 742 742 742 741 741 741 741 741 741 739 739 739 739 739 739
    739 739 738 736 736 0 0 0 0 0 0 771 769 767 766 766 766 766 767 766
    766 764 764 764 764 762 762 762 762 762 762 762 762 764 764 762 762
    761 761 761 759 759 759 759 759 757 757 757 755 755 754 752 752 752
    752 752 752 752 752 752 752 750 750 750 750 750 750 750 750 750 752
    750 750 749 747 747 749 747 747 746 746 746 746 746 746 746 746 746
    746 744 744 742 742 742 742 741 741 741 741 741 741 741 741 739 738
    738 0 0 0 0 0 776 771 769 769 767 767 767 769 767 767 766 764 764
    764 764 764 764 762 762 762 762 762 764 766 764 764 764 762 762 761
    759 759 759 759 759 759 759 759 757 757 757 754 754 754 754 754 754
    754 754 754 752 752 752 750 750 750 750 750 750 750 752 752 752 750
    749 749 750 749 749 747 747 746 746 746 747 747 747 747 746 746 744
    744 744 746 746 744 742 742 741 741 742 742 741 739 739 739 0 0 0 0
    0 776 773 771 769 769 769 769 769 769 769 769 767 766 766 766 766
    766 764 764 764 764 764 766 766 766 766 764 764 764 762 761 761 761
    761 759 759 759 759 759 759 759 757 757 755 755 755 755 755 755 755
    754 752 752 752 752 752 752 752 750 750 752 752 752 750 750 750 750
    750 749 749 749 747 747 747 749 749 749 747 747 746 746 746 746 746
    746 746 746 746 746 744 744 742 742 741 741 741 0 0 0 0 781 776 774
    771 771 771 769 769 771 771 771 771 769 769 769 769 767 767 766 766
    766 767 766 766 766 766 766 766 766 766 764 764 764 762 762 761 761
    759 759 759 759 759 759 759 759 757 757 757 757 757 757 755 754 754
    754 752 752 752 752 752 752 754 752 752 752 752 752 752 752 752 752
    750 749 749 749 750 750 752 750 750 747 747 747 747 747 747 747 747
    746 746 746 746 746 744 744 744 746 0 0 0 0 781 778 776 774 773 773
    771 771 773 773 773 771 771 769 769 769 769 769 769 769 769 767 767
    767 767 767 767 767 767 766 766 766 766 766 764 762 762 762 762 762
    762 761 761 761 759 759 759 759 757 757 757 757 755 755 755 755 755
    755 754 754 754 754 754 754 754 752 752 754 754 752 752 752 752 752
    752 752 752 752 752 750 749 749 749 749 749 749 747 747 747 747 747
    746 746 746 746 746 746 0 0 0 785 781 778 778 776 776 776 774 774
    774 774 774 774 773 771 771 769 769 769 769 769 769 769 769 769 769
    769 769 769 769 767 766 766 766 766 766 764 764 764 764 764 764 762
    762 762 762 761 761 761 759 759 759 757 757 757 757 757 755 755 755
    755 755 757 755 755 754 754 754 754 754 754 754 754 752 752 752 752
    752 754 752 752 750 750 750 750 750 750 749 749 749 749 747 747 747
    747 747 747 747 0 0 0 785 781 780 778 778 778 778 778 778 776 776
    776 776 774 773 771 771 771 771 773 773 769 769 769 769 771 771 771
    771 769 769 769 767 767 767 767 766 766 766 764 764 764 764 764 762
    762 762 762 762 761 761 759 759 759 759 759 757 757 757 755 755 755
    759 757 757 757 755 755 755 755 755 755 754 754 754 754 754 754 754
    754 752 752 752 752 752 752 750 749 749 750 749 749 747 747 747 749
    747 747 0 3539 3539 781 781 781 780 778 778 778 778 778 778 778 778
    778 776 776 774 774 774 774 774 774 773 773 773 773 773 773 771 771
    771 771 771 769 769 771 769 767 767 766 766 766 764 764 764 764 764
    764 764 764 762 762 761 761 761 761 759 759 759 757 757 757 757 759
    759 759 759 759 759 757 757 755 755 755 755 755 755 755 755 755 754
    754 754 752 752 752 752 752 752 752 752 750 750 749 749 749 750 750
    750 0 3539 3539 3539 781 781 780 780 780 780 780 780 780 780 780 778
    778 776 776 776 776 776 776 776 776 774 774 774 774 774 774 774 774
    773 773 773 771 771 771 769 767 767 767 767 766 766 766 766 766 766
    766 764 764 764 762 762 762 762 761 761 759 759 759 761 761 761 761
    761 761 761 759 759 759 757 757 757 757 757 755 755 755 755 755 755
    754 754 754 754 754 754 752 752 752 752 752 750 750 750 752 750 750
    0 3539 3539 3539 781 781 780 780 778 778 780 780 781 780 780 778 778
    778 778 778 778 778 778 778 776 776 776 776 776 776 776 776 776 774
    774 774 773 773 773 771 771 769 769 769 767 767 767 767 767 766 766
    766 766 764 764 764 764 762 762 762 761 761 761 762 762 762 762 761
    761 761 761 761 761 759 759 759 759 759 759 757 757 757 757 757 755
    755 754 754 754 755 755 754 754 754 752 752 752 752 752 752 752 0
    3539 3539 3539 3539 3539 780 780 778 778 780 780 781 780 780 780 780
    780 780 778 778 778 778 778 778 778 778 778 778 778 778 778 778 778
    776 776 774 774 774 773 773 773 771 771 771 771 771 769 769 767 767
    766 766 766 766 766 764 764 764 764 762 762 762 762 762 764 764 764
    764 764 762 761 761 759 759 761 759 759 759 759 759 759 759 759 757
    757 755 755 757 757 757 755 755 754 754 754 754 754 754 754 754 0
    3539 3539 3539 3539 3539 3539 3539 3539 3503 3503 3433 783 781 781
    780 780 780 780 780 780 780 780 778 778 780 778 778 781 781 780 780
    780 778 778 778 778 776 776 774 774 774 774 774 773 771 771 771 771
    771 771 771 767 767 766 766 766 766 766 766 766 764 764 764 764 766
    766 766 766 766 764 762 761 761 761 761 761 761 761 761 761 761 761
    759 759 759 759 759 759 759 759 757 757 757 755 755 755 754 754 754
    754 0 3539 3539 3539 3539 3539 3539 3539 3539 3539 3503 3468 3468
    781 781 781 780 780 780 781 781 781 781 780 780 780 780 780 781 781
    780 780 780 780 778 778 778 778 778 776 776 776 776 776 774 773 773
    773 773 773 771 771 771 771 771 769 769 767 766 766 767 766 766 766
    766 766 766 766 766 766 766 762 762 762 762 762 762 762 762 762 762
    762 762 761 761 761 759 759 759 759 759 759 759 759 757 757 757 755
    755 755 755 0 3539 3539 3539 3539 3539 3539 3539 3539 3503 3503 3503
    3503 3503 3468 3468 3503 3503 3503 3503 781 781 781 781 781 783 781
    781 783 783 781 780 780 780 780 780 780 780 778 778 778 778 778 778
    778 776 774 773 773 773 773 773 773 771 771 771 771 771 769 769 769
    769 769 767 767 767 767 767 767 766 766 764 764 764 764 764 764 764
    766 766 764 764 764 762 761 761 761 761 759 759 759 759 759 759 759
    759 759 759 757 757 757 0 3539 3539 3539 3539 3539 3539 3539 3539
    3503 3503 3503 3503 3503 3503 3503 3503 3468 3468 3468 783 781 781
    781 781 3468 783 783 785 783 781 781 780 780 781 781 781 780 780 780
    780 780 780 780 778 778 776 774 774 774 773 773 773 773 773 773 771
    771 769 769 771 771 771 771 771 771 771 771 767 767 766 766 766 766
    766 766 766 766 766 766 766 766 766 764 764 764 762 762 761 761 761
    761 761 762 762 761 761 761 759 759 761 0 3539 3539 3539 3539 3539
    3539 3539 3539 3503 3503 3503 3503 3503 3503 3503 3503 3468 3468
    3468 3503 785 785 785 3503 3468 3468 3468 3433 3433 781 781 780 780
    780 780 781 781 781 780 780 780 780 780 778 778 778 778 778 776 776
    774 774 774 774 774 774 773 771 771 771 771 771 773 773 773 771 771
    769 769 769 767 767 767 767 767 766 766 767 767 767 767 767 766 766
    766 766 766 764 762 762 764 764 762 762 761 761 761 761 761 761 0
    3503 3539 3539 3539 3539 3539 3503 3503 3503 3503 3503 3503 3503
    3503 3503 3503 3503 3503 3503 3503 3503 3503 3503 3503 3468 3468
    3468 3468 3433 3433 3433 780 780 780 780 781 781 781 780 780 780 780
    780 780 778 778 778 778 780 778 778 778 776 776 776 776 776 774 774
    773 773 773 773 773 774 773 773 773 773 773 771 771 771 771 771 771
    769 767 767 767 767 767 766 766 766 766 766 764 764 764 766 766 764
    764 762 762 762 762 762 762 0 2812 2812 2812 2812 2812 2835 3503
    3503 3503 3503 3503 3503 3503 3503 3503 3503 3503 3503 3503 3503
    3503 3503 3503 3503 3503 3503 3468 3468 3433 3433 3433 3433 3433
    3433 3433 3468 781 781 780 780 781 781 780 780 778 778 780 780 780
    780 780 778 776 776 778 778 776 776 776 776 776 774 774 774 774 774
    774 773 773 773 773 773 773 773 773 773 773 771 771 771 771 771 771
    767 767 767 767 766 766 766 766 767 766 766 764 764 764 764 764 764
    0 2789 2789 2812 2812 2812 2812 2812 3503 3503 3503 3468 3468 3468
    3468 3468 3503 3503 3503 3503 3503 3503 3503 3503 3503 3503 3503
    3468 3468 3468 3468 3468 3468 3433 3433 3433 3468 3503 3503 3503 785
    785 785 778 778 778 780 780 781 781 780 780 780 778 778 778 778 778
    778 778 778 778 776 776 776 778 776 776 774 774 774 774 774 774 774
    774 773 773 771 771 771 773 773 773 771 771 771 771 771 767 767 767
    767 767 766 766 764 764 764 764 764 0 2789 2789 2812 2812 2812 2812
    2812 2835 3539 3503 3468 3468 3433 3433 3468 3503 3468 3468 3468
    3468 3503 3503 3503 3503 3503 3503 3468 3468 3468 3468 3468 3468
    3468 3468 3468 3503 3503 3468 3468 3468 3468 3468 778 778 778 781
    781 781 781 780 780 781 780 778 778 778 780 780 780 778 778 778 778
    778 780 780 778 776 776 776 776 776 776 774 774 774 774 774 773 773
    773 773 773 773 773 773 773 773 771 771 771 771 769 767 767 766 766
    766 766 766 0 2789 2789 2812 2835 2835 2835 2812 2812 2812 3503 3503
    3468 3433 3433 3468 3503 3468 3468 3468 3468 3468 3468 3468 3503
    3503 3503 3468 3468 3468 3468 3468 3433 3433 3468 3468 3468 3468
    3468 3468 3468 3468 3468 3468 3468 785 785 783 781 781 3333 785 785
    783 778 778 778 778 778 780 780 778 778 778 778 780 780 780 778 778
    778 778 778 778 776 776 776 776 776 774 774 774 774 774 774 773 773
    773 773 773 773 771 771 771 771 771 767 767 767 767 767 0 2789 2789
    2789 2812 2835 2835 2812 2789 2789 3503 3503 3503 3468 3468 3468
    3503 3468 3468 3468 3468 3468 3468 3468 3468 3468 3468 3468 3468
    3433 3433 3468 3433 3433 3468 3468 3468 3468 3468 3468 3468 3468
    3468 3468 3468 3468 3468 3433 3365 3365 3333 3333 3365 3433 3468
    3433 3433 778 778 780 780 778 778 778 778 780 780 780 778 778 778
    778 780 778 778 778 778 778 778 778 778 776 776 774 774 774 774 774
    774 774 773 773 773 773 771 771 771 769 769 767 767 0 2767 2767 2789
    2812 2812 2812 2812 2789 2789 2789 3503 3503 3503 3503 3468 3468
    3468 3468 3468 3468 3468 3468 3468 3468 3468 3468 3468 3468 3433
    3433 3468 3468 3433 3433 3468 3468 3468 3468 3468 3468 3468 3468
    3468 3468 3468 3433 3433 3433 3365 3365 3365 3399 3433 3468 3468
    3433 3433 3433 3433 3433 780 778 778 778 780 780 778 774 774 778 778
    780 780 780 780 780 780 780 780 780 778 778 776 776 778 778 776 776
    774 774 774 774 774 773 773 773 771 771 769 769 0 2767 2767 2767
    2789 2789 2789 2812 2789 2789 2789 3503 3503 3503 3503 3468 3468
    3468 3468 3433 3433 3433 3468 3468 3468 3468 3468 3433 3433 3433
    3433 3468 3468 3433 3433 3468 3468 3468 3468 3468 3468 3468 3468
    3468 3468 3468 3433 3433 3399 3365 3365 3399 3399 3433 3468 3468
    3468 3468 3433 3433 3433 3433 3433 780 780 780 780 778 774 774 778
    780 780 780 780 780 780 780 780 780 780 780 780 780 780 780 780 778
    778 778 776 776 774 774 774 774 773 773 773 773 773 0 2723 2744 2744
    2744 2744 2767 2767 2767 2767 2767 3503 3503 3503 3503 3468 3468
    3468 3433 3433 3433 3433 3468 3468 3468 3468 3468 3433 3433 3433
    3433 3468 3503 3468 3468 3468 3468 3468 3468 3468 3468 3468 3468
    3468 3468 3433 3365 3365 3365 3365 3365 3399 3399 3433 3468 3468
    3468 3433 3433 3433 3433 3433 3433 3433 3468 3468 3468 2415 2415
    2415 2415 2415 2365 2349 2349 2349 780 780 778 778 778 780 780 780
    780 780 780 780 778 778 778 778 778 778 776 774 774 774 774 774 774
    0 2701 2723 2723 2723 2723 2723 2723 2744 2744 2723 2680 2680 3468
    3468 3468 3468 3468 3433 3433 3433 3433 3468 3468 3468 3468 3433
    3433 3433 3433 3433 3468 3468 3468 3468 3468 3468 3468 3468 3468
    3503 3468 3468 3468 3468 3399 3365 3365 3333 3333 3333 3365 3365
    3433 3468 3468 3433 3433 3433 3433 3433 3433 3433 3433 3433 3433 0 0
    2432 2432 2432 2450 2398 2365 2349 2349 2349 2381 778 778 778 2333
    783 781 781 781 780 780 778 778 780 780 778 778 778 776 776 776 776
    776 776 0 2680 2701 2701 2701 2701 2701 2701 2701 2701 2701 2680
    2680 2680 3468 3468 3468 3468 3433 3433 3433 3433 3468 3468 3468
    3468 3433 3433 3433 3433 3433 3468 3468 3468 3468 3468 3468 3468
    3468 3468 3468 3468 3468 3468 3433 3399 3365 3365 3333 3333 3333
    3365 3365 3433 3468 3433 3433 3433 3433 3433 3433 3433 3433 3433
    3433 3433 0 0 2450 2450 2450 2467 2398 2365 2365 2365 2365 2381 2398
    2365 2365 2365 2349 785 783 783 781 780 778 778 778 780 780 780 778
    778 778 778 778 780 780 0 2659 2659 2680 2680 2680 2680 2701 2701
    2680 2680 2680 2680 2680 2680 2701 2701 2723 3433 3433 3433 3433
    3468 3468 3468 3468 3468 3433 3433 3468 3468 3468 3468 3468 3468
    3468 3468 3468 3503 3468 3468 3468 3468 3468 3433 3399 3365 3365
    3333 3333 3333 3365 3399 3433 3468 3433 3433 3433 3433 3433 3433
    3433 3433 3433 3433 3433 0 0 2467 2467 2467 2450 2415 2381 2365 2365
    2365 2365 2365 2381 2381 2365 2365 2365 2349 2349 2398 2398 778 778
    778 780 780 780 780 780 780 778 778 780 780 0</data></Depth10324>
</opencv_storage>
