<?xml version="1.0"?>
<opencv_storage>
<Depth5263 type_id="opencv-matrix">
  <rows>47</rows>
  <cols>34</cols>
  <dt>w</dt>
  <data>
    4645 4645 4645 4708 4774 4774 4774 4774 4774 4774 4774 4842 2184
    2184 2184 2184 2170 2156 2156 2143 2143 2143 2116 2116 2116 2129
    2129 2143 2143 2156 2156 5056 5056 5056 4645 4645 4645 4708 4774
    4774 4842 4774 4774 4774 2212 2184 2184 2184 2184 2184 2170 2156
    2156 2156 2143 2143 2116 2116 2116 2129 2129 2143 2156 2156 2156
    2156 2156 5210 4645 4645 4645 2286 2271 2256 2241 2226 2226 2212
    2212 2184 2184 2184 2184 2184 2184 2170 2170 2156 2143 2143 2129
    2129 2129 2129 2143 2156 2156 2156 2156 2156 2156 5291 4582 4582
    2271 2271 2241 2241 2241 2226 2226 2212 2198 2198 2184 2184 2184
    2184 2184 2170 2170 2156 2156 2143 2129 2129 2129 2129 2143 2156
    2156 2170 2170 2184 2212 2212 4582 2256 2241 2241 2241 2241 2226
    2212 2212 2198 2198 2198 2184 2170 2170 2170 2170 2170 2170 2156
    2156 2143 2129 2129 2129 2129 2143 2156 2156 2170 2170 2184 2212
    2212 4582 2241 2241 2241 2226 2226 2226 2212 2212 2198 2198 2198
    2184 2170 2170 2170 2170 2170 2170 2156 2156 2143 2116 2116 2116
    2129 2143 2156 2170 2170 2184 2198 2212 2212 2256 2241 2241 2241
    2226 2226 2226 2212 2212 2212 2212 2198 2184 2170 2170 2170 2170
    2170 2170 2156 2156 2143 2116 2116 2116 2129 2143 2156 2170 2170
    2184 2198 2212 2212 2256 2241 2226 2226 2241 2226 2226 2212 2212
    2212 2212 2198 2184 2184 2170 2170 2170 2170 2170 2156 2156 2143
    2116 2116 2116 2116 2129 2156 2170 2170 2184 2198 2198 2198 2256
    2241 2226 2226 2241 2226 2226 2212 2212 2212 2212 2212 2198 2184
    2170 2170 2170 2156 2156 2156 2156 2143 2116 2116 2116 2116 2129
    2156 2170 2170 2184 2184 2184 2184 2256 2256 2256 2256 2241 2226
    2226 2212 2212 2212 2212 2212 2198 2184 2170 2156 2156 2156 2156
    2156 2156 2143 2143 2129 2129 2143 2143 2156 2170 2184 2184 2184
    2184 2184 4645 2286 2271 2271 2241 2226 2226 2212 2212 2212 2212
    2212 2198 2184 2170 2156 2156 2156 2156 2156 2143 2143 2143 2129
    2129 2143 2143 2156 2170 2184 2184 2184 2198 2198 4708 2301 2286
    2271 2256 2226 2226 2226 2226 2212 2212 2212 2198 2198 2170 2156
    2156 2156 2156 2156 2143 2143 2129 2129 2129 2143 2143 2156 2170
    2170 2184 2184 2198 2241 4645 2286 2286 2271 2256 2226 2226 2226
    2226 2212 2212 2212 2198 2198 2184 2170 2170 2170 2156 2156 2143
    2143 2129 2129 2129 2143 2143 2156 2170 2170 2198 2198 2226 2226
    2286 2271 2256 2256 2256 2226 2226 2226 2226 2212 2212 2198 2198
    2198 2198 2170 2170 2170 2156 2156 2143 2143 2129 2129 2129 2129
    2143 2156 2170 2170 2198 2212 2212 2212 2286 2271 2256 2256 2256
    2226 2226 2226 2226 2212 2212 2198 2198 2198 2170 2170 2170 2170
    2156 2156 2156 2143 2129 2129 2129 2129 2143 2156 2170 2170 2198
    2212 2212 2212 2271 2271 2271 2271 2256 2226 2226 2226 2226 2226
    2212 2212 2198 2184 2170 2156 2156 2156 2156 2156 2156 2143 2129
    2129 2129 2129 2143 2156 2170 2170 2198 2198 2212 2226 2271 2271
    2271 2256 2256 2226 2226 2226 2226 2226 2212 2212 2198 2184 2170
    2156 2156 2156 2156 2156 2143 2143 2129 2129 2129 2143 2156 2156
    2170 2170 2184 2184 2198 2198 2271 2256 2256 2256 2241 2226 2226
    2226 2226 2226 2212 2212 2198 2184 2170 2170 2170 2156 2156 2156
    2143 2129 2129 2129 2129 2143 2156 2156 2170 2170 2184 2184 2184
    2212 4645 2256 2241 2241 2241 2241 2226 2226 2226 2212 2212 2198
    2184 2170 2170 2170 2170 2170 2156 2156 2143 2129 2129 2129 2129
    2156 2156 2156 2170 2170 2184 2184 2184 2212 4645 2241 2241 2241
    2241 2241 2226 2226 2226 2212 2212 2198 2184 2170 2170 2170 2170
    2170 2156 2156 2143 2143 2116 2116 2116 2129 2143 2156 2156 2170
    2170 2198 2198 2198 4645 2241 2241 2241 2241 2241 2226 2226 2212
    2212 2212 2198 2184 2184 2184 2170 2170 2170 2156 2156 2156 2143
    2116 2116 2116 2129 2143 2156 2156 2170 2170 2198 2198 2198 4708
    2256 2256 2256 2241 2226 2212 2212 2212 2212 2198 2198 2198 2184
    2184 2170 2170 2170 2156 2156 2156 2143 2116 2116 2116 2129 2156
    2156 2156 2170 2170 2198 2212 5291 4645 2271 2271 2256 2241 2226
    2212 2212 2198 2198 2198 2198 2198 2198 2184 2170 2170 2170 2156
    2156 2156 2143 2116 2116 2116 2129 2156 2156 2170 2170 2170 2198
    2198 5291 4645 2271 2256 2256 2241 2226 2212 2212 2198 2198 2198
    2198 2198 2198 2198 2184 2170 2170 2156 2156 2143 2129 2129 2116
    2116 2129 2156 2156 2170 2170 2170 2184 2184 2184 4645 2271 2256
    2241 2226 2226 2212 2212 2198 2198 2198 2198 2198 2198 2198 2184
    2170 2170 2170 2156 2143 2129 2116 2116 2116 2143 2156 2156 2170
    2170 2170 2184 2184 2184 4645 2271 2256 2241 2226 2226 2212 2212
    2212 2212 2212 2212 2198 2198 2184 2170 2170 2170 2156 2156 2143
    2129 2116 2116 2116 2143 2156 2170 2170 2170 2170 2184 2198 2198
    4645 2271 2271 2241 2226 2226 2212 2212 2212 2212 2212 2212 2198
    2198 2184 2170 2170 2170 2156 2156 2143 2129 2129 2129 2129 2156
    2156 2170 2170 2170 2184 2198 2198 2198 4645 2271 2271 2241 2226
    2226 2226 2226 2226 2212 2212 2212 2184 2184 2184 2170 2170 2170
    2156 2156 2143 2129 2129 2129 2129 2143 2156 2156 2170 2170 2184
    2198 2198 2212 4645 2286 2271 2241 2241 2226 2226 2226 2226 2226
    2212 2198 2184 2184 2184 2170 2170 2170 2156 2156 2143 2129 2129
    2129 2129 2143 2156 2156 2170 2170 2184 2198 2198 2198 4582 2271
    2271 2256 2241 2226 2226 2226 2226 2226 2212 2198 2184 2184 2184
    2170 2170 2170 2156 2143 2143 2129 2129 2129 2129 2129 2156 2156
    2170 2170 2184 2184 2198 2198 4582 2271 2271 2256 2241 2226 2226
    2226 2226 2212 2212 2212 2198 2184 2184 2170 2170 2170 2156 2143
    2129 2116 2116 2116 2116 2129 2143 2156 2170 2170 2184 2184 2198
    2198 4463 4463 2256 2256 2241 2226 2226 2212 2212 2212 2198 2198
    2198 2184 2184 2170 2170 2170 2156 2143 2129 2116 2116 2116 2116
    2129 2143 2156 2170 2170 2170 2184 2184 2184 4463 2271 2256 2256
    2241 2226 2226 2212 2212 2212 2198 2198 2198 2198 2184 2170 2170
    2170 2156 2143 2129 2116 2116 2116 2116 2129 2156 2156 2170 2170
    2170 2184 2184 2184 4241 2271 2271 2241 2241 2226 2226 2212 2212
    2212 2198 2198 2198 2184 2184 2170 2170 2170 2156 2156 2143 2129
    2116 2116 2116 2143 2156 2170 2170 2170 2184 2198 2212 2212 4241
    2271 2256 2241 2241 2226 2226 2226 2212 2198 2198 2198 2198 2184
    2184 2170 2170 2170 2156 2156 2143 2129 2116 2116 2116 2143 2156
    2170 2170 2170 2184 2198 2212 2212 4405 2271 2256 2241 2241 2241
    2226 2226 2212 2198 2198 2198 2198 2184 2184 2170 2170 2170 2156
    2156 2143 2129 2129 2129 2129 2143 2156 2156 2170 2170 2170 2170
    2170 2170 4405 4405 2271 2256 2241 2241 2226 2226 2212 2212 2198
    2198 2198 2184 2184 2170 2170 2170 2156 2143 2143 2129 2129 2129
    2129 2143 2156 2156 2170 2170 2170 2170 2170 2170 4405 2256 2256
    2256 2256 2241 2226 2226 2226 2212 2198 2198 2184 2184 2170 2170
    2170 2170 2156 2143 2143 2129 2129 2143 2143 2143 2156 2156 2170
    2170 2170 2170 2170 2170 4582 2241 2241 2256 2256 2241 2241 2226
    2226 2212 2212 2212 2184 2184 2170 2170 2170 2170 2156 2143 2143
    2143 2143 2143 2143 2143 2143 2156 2156 2170 2170 2170 2170 2170
    4582 2241 2241 2241 2241 2241 2241 2226 2226 2212 2212 2212 2198
    2184 2170 2170 2170 2170 2156 2156 2143 2143 2129 2129 2143 2143
    2143 2156 2156 2170 2170 2170 2198 2198 4582 2241 2241 2241 2241
    2241 2241 2226 2212 2212 2212 2212 2212 2198 2184 2170 2170 2170
    2156 2156 2143 2129 2116 2116 2129 2129 2143 2156 2156 2170 2184
    2198 2198 2198 4582 2241 2226 2226 2226 2226 2226 2226 2212 2212
    2212 2198 2198 2212 2198 2184 2184 2170 2156 2156 2143 2116 2116
    2116 2129 2129 2143 2156 2156 2170 2184 2198 2198 2198 4582 2241
    2226 2226 2226 2226 2226 2226 2212 2212 2212 2198 2198 2198 2198
    2198 2184 2170 2156 2156 2156 2116 2116 2129 2129 2143 2156 2156
    2170 2170 2184 2198 2198 5132 4645 4842 2226 2226 2226 2226 2226
    2226 2212 2212 2212 2212 2212 2198 2156 2156 2198 2184 2170 2170
    2170 2156 2156 2143 2143 2156 2170 2170 2170 2170 2170 2198 2198
    5132 4645 4774 4842 2256 2256 2241 2226 2226 2212 2212 2226 2198
    2198 2198 2156 2156 2271 2226 2226 2226 2226 0 5210 5210 5210 2170
    2170 2184 2170 2170 2170 5132 5132 5132 4708 4774 4774 4774 2256
    2256 2256 2256 4842 4842 4842 2198 2198 2198 2198 2271 2271 2241
    2241 0 0 0 0 5210 5210 5132 5132 5132 5132 5132 5132 5132 5132 5210
    4708 4708 4774 4774 4774 4774 4774 4774 4774 4842 4842 4911 4911
    4911 0 2271 2271 2271 2286 0 0 0 5210 5210 5210 5132 5132 5132 5132
    5132 5132 5132 5132 5210</data></Depth5263>
</opencv_storage>
