<?xml version="1.0"?>
<opencv_storage>
<Depth1907 type_id="opencv-matrix">
  <rows>69</rows>
  <cols>149</cols>
  <dt>w</dt>
  <data>
    2078 2065 2065 2053 2040 913 910 910 913 915 915 915 915 915 915 910
    910 910 910 908 908 908 908 910 915 915 915 915 913 913 913 913 913
    913 910 910 910 913 913 913 913 913 913 910 910 910 908 908 910 913
    913 913 913 913 915 915 915 915 913 913 913 913 913 918 918 913 913
    913 913 913 4190 4190 4190 4190 4190 4139 4089 4089 913 913 4041
    4041 4041 4041 4041 3399 3399 913 913 913 910 910 913 913 910 910
    910 908 2560 2560 2541 2541 2541 2522 908 908 913 2503 2485 1044
    1044 1050 1050 1001 1001 1001 992 987 987 987 987 978 970 970 970
    2116 2078 2078 933 933 928 925 923 918 910 906 901 896 889 887 885
    880 875 871 867 862 860 858 854 4241 2065 2065 2065 913 910 910 910
    910 913 915 913 913 913 913 908 908 908 908 908 908 908 908 908 910
    910 913 913 910 910 910 910 910 910 908 908 908 910 910 910 910 910
    910 908 908 908 908 908 910 910 910 910 910 910 910 913 913 913 910
    910 910 910 910 910 910 908 908 908 910 910 908 908 908 910 910 910
    910 910 910 910 913 4041 4041 4041 4041 3399 915 910 908 908 908 908
    908 910 910 910 908 908 908 908 2541 2541 2541 910 908 908 910 910
    2503 1050 1050 1050 1050 0 1001 1001 2286 2271 2256 2241 2241 2241
    2129 2116 2116 2116 2078 2078 2078 2078 2005 2005 1981 1959 1947
    1947 1947 896 889 889 887 880 880 873 869 864 860 856 854 4241 4241
    2090 2078 910 908 908 908 908 910 913 913 913 910 908 908 908 908
    908 908 908 908 908 908 908 908 908 908 908 908 908 908 908 908 906
    906 906 908 908 908 908 908 908 908 908 908 908 908 908 908 908 908
    908 908 908 908 908 908 908 908 908 908 908 908 908 906 906 906 906
    906 908 908 908 908 908 908 908 908 908 908 908 908 908 4041 4041
    915 913 910 906 906 906 906 908 908 908 908 908 908 908 908 908 908
    908 908 908 908 906 906 2503 0 0 898 2286 0 0 2286 2286 2271 2256
    2241 2241 2241 2129 2129 2116 2103 2078 2078 2078 2078 2005 2005
    1959 1947 1947 1936 1926 1926 891 891 891 880 880 875 875 1794 1794
    856 856 4241 4241 4190 4190 908 908 906 906 906 908 910 910 910 910
    908 908 908 908 908 906 906 906 906 906 906 906 906 906 906 906 906
    906 906 906 906 906 906 906 906 906 906 906 906 906 906 906 906 906
    906 906 906 908 908 906 906 906 906 906 906 906 906 903 903 903 903
    903 901 901 903 903 903 906 906 906 903 903 903 906 906 906 906 906
    906 906 906 908 908 906 903 903 903 906 906 906 906 903 903 903 906
    906 906 908 908 908 906 906 903 903 903 0 0 0 0 0 0 2271 2271 2286
    2241 2241 2241 2241 2129 2129 2116 2103 2078 2078 2078 2078 2005
    2005 1959 1947 1947 1936 1926 1894 1873 1873 1873 1853 1853 1833
    1804 1804 1794 1776 1766 4241 4241 4190 4190 908 906 906 906 906 906
    908 908 908 908 906 906 906 906 906 906 903 903 903 903 901 901 901
    903 903 903 903 903 903 903 903 903 903 903 901 901 903 901 901 901
    901 901 903 903 903 901 901 903 903 903 903 901 901 901 901 901 901
    901 898 898 898 898 901 901 901 901 901 903 903 903 901 901 901 901
    901 901 901 901 901 903 903 903 903 901 901 901 901 901 901 901 901
    898 898 901 901 901 901 903 903 903 901 901 901 898 898 898 0 0 0 0
    0 2271 2271 2286 2241 2241 2241 2241 2129 2129 2116 2103 2090 2078
    2053 2028 2028 2005 1981 1970 1959 1947 1926 1894 1873 1873 1873
    1853 1853 1833 1813 1804 1794 1776 1766 4241 4241 4241 4241 903 903
    903 903 903 906 906 906 906 903 903 903 903 903 903 903 903 901 901
    898 898 898 898 898 898 898 898 898 901 898 898 898 898 898 898 898
    898 898 898 898 898 898 901 901 901 898 898 898 898 898 898 898 898
    898 898 898 898 898 898 898 898 898 898 898 898 898 898 898 898 898
    898 898 898 898 898 898 898 898 898 898 898 898 901 901 898 898 898
    898 898 898 898 898 898 898 898 898 898 898 898 898 898 898 898 898
    898 898 0 0 0 0 0 0 0 2286 2286 2241 2212 2212 2156 2129 2116 2103
    2090 2078 2053 2028 2028 2016 1981 1970 1970 1947 1926 1894 1883
    1883 1883 1863 1863 1833 1823 1813 1804 1785 1757 4241 4241 4241 908
    903 903 903 903 903 901 898 898 898 898 898 898 898 901 901 901 898
    898 898 898 896 896 896 896 896 898 898 898 898 896 896 896 896 896
    896 896 896 896 896 896 896 896 898 898 898 898 896 896 896 896 896
    896 896 896 896 896 896 896 896 896 896 896 898 898 898 896 896 896
    898 896 896 896 896 896 896 896 896 896 896 896 896 896 896 896 896
    894 894 898 898 898 898 898 896 896 896 896 896 896 896 896 898 898
    898 898 898 896 896 0 0 0 0 0 0 0 0 2241 2212 2198 2156 2143 2129
    2116 2103 2078 2065 2053 2028 2016 1981 1981 1970 1959 1926 1904
    1883 1883 1883 1873 1873 1833 1823 1813 1804 1785 1757 0 4463 4463
    908 908 906 903 903 901 898 896 896 896 896 896 896 896 898 898 898
    898 896 896 896 896 896 896 896 896 896 896 896 896 896 896 896 896
    896 896 894 894 894 894 894 894 894 894 896 896 896 894 894 894 894
    894 894 894 894 894 894 894 894 894 894 896 896 896 896 896 896 896
    896 894 894 894 891 891 894 891 891 891 891 891 894 891 891 894 891
    891 891 891 891 894 894 896 896 896 894 894 891 891 894 894 894 896
    896 896 896 896 896 894 894 0 0 0 0 0 0 0 2241 2212 2198 2170 2156
    2156 2129 2103 2078 2065 2053 2028 2016 1981 1981 1970 1959 1926
    1915 1894 1894 1883 1873 1863 1833 1823 1813 1804 1785 1766 906 0 0
    906 906 906 903 901 898 891 887 885 885 894 894 894 891 891 894 896
    896 894 894 894 894 894 891 891 891 891 891 891 891 891 891 894 894
    894 891 891 891 891 891 891 891 891 891 891 891 891 891 891 891 891
    891 891 891 891 891 889 889 891 891 891 891 891 891 894 894 894 894
    891 891 891 891 889 889 889 889 889 889 889 889 889 889 889 889 889
    889 889 889 889 889 889 889 889 889 889 889 889 889 889 891 891 894
    894 894 896 896 896 894 889 889 0 0 0 0 0 0 0 2212 2198 2170 2170
    2170 2156 2116 2078 2065 2053 2028 2005 1981 1970 1970 1959 1926
    1915 1894 1894 1883 1873 1853 1833 1823 1813 1785 1776 1766 0 0 0
    906 906 903 896 896 896 889 887 882 882 882 885 887 887 887 887 891
    891 891 891 891 891 891 889 889 889 889 889 889 889 889 889 889 889
    889 889 889 889 889 889 889 887 887 889 889 889 889 889 889 889 889
    889 891 891 889 889 889 887 887 887 889 889 887 887 889 889 889 889
    889 889 889 889 887 887 887 887 887 887 887 887 887 887 887 887 887
    887 887 887 887 887 887 887 887 887 887 887 887 887 887 887 887 889
    889 889 891 894 891 889 889 889 0 0 0 0 0 0 0 2212 2198 2156 2156
    2156 2143 2129 2090 2078 2065 2040 2005 1970 1970 1959 1959 869 869
    869 871 882 1873 1853 1833 1833 1813 1785 1776 1766 0 0 0 0 0 903
    889 889 887 885 882 880 880 880 882 882 885 885 885 882 882 882 882
    882 887 887 887 887 887 887 889 889 889 889 887 887 887 887 887 887
    887 887 887 887 885 885 885 887 887 887 887 887 887 887 887 887 887
    887 887 887 887 885 885 885 885 885 885 885 885 885 887 887 887 887
    887 887 885 885 885 885 885 885 882 882 882 882 885 885 885 885 885
    885 885 885 885 882 882 885 885 882 882 885 885 885 885 887 885 885
    889 889 889 889 889 0 0 0 0 0 0 2226 2212 2198 2156 2156 2156 2143
    2129 2103 2078 2053 2040 2005 1970 1970 1959 867 867 867 867 869 869
    1883 1883 864 864 1804 1785 1776 1766 0 0 0 0 0 903 882 882 885 882
    880 880 880 880 880 882 880 880 880 880 880 880 880 880 880 880 880
    880 882 885 885 885 885 885 885 885 885 885 885 885 885 885 885 882
    882 880 880 880 882 882 882 885 885 882 882 882 882 882 885 885 885
    882 882 882 882 882 882 882 882 882 885 885 882 882 882 882 885 882
    882 882 882 882 882 882 882 882 882 882 880 880 880 880 880 880 880
    880 880 880 880 880 880 880 880 882 882 882 880 880 880 880 882 885
    885 887 0 0 0 0 0 2212 2212 2198 2170 2156 2143 2143 2129 2116 2078
    2053 2028 2005 860 860 860 862 867 867 867 867 864 864 862 862 862
    862 1794 1794 1766 0 0 0 0 878 878 878 878 880 878 878 875 875 878
    878 880 880 880 878 878 878 875 875 878 878 878 878 878 878 878 878
    878 880 880 882 882 882 882 882 882 882 882 882 880 880 878 878 880
    880 880 880 882 882 880 880 880 880 880 880 880 880 880 880 880 880
    880 880 880 880 880 880 880 880 880 880 880 880 880 880 880 880 880
    880 880 880 880 878 878 878 878 878 878 878 878 878 878 878 878 878
    875 875 875 875 878 878 878 875 875 875 875 875 873 873 880 880 0 0
    0 0 2212 2184 2184 2156 2156 2129 2129 2116 2103 2078 2053 2028 2005
    860 860 860 862 864 864 864 862 862 862 862 862 862 862 862 862 1739
    0 0 0 0 871 871 873 875 873 873 871 871 873 873 875 875 878 878 875
    875 875 873 873 873 873 875 875 875 875 875 875 875 875 875 873 873
    873 875 875 878 878 880 878 878 878 878 878 878 878 878 878 878 880
    880 878 878 878 878 878 878 878 878 878 878 875 875 875 875 875 875
    875 875 875 875 878 878 875 875 875 878 878 875 875 875 875 875 873
    873 873 873 875 875 875 875 875 875 875 875 873 873 873 873 873 873
    873 873 873 873 873 871 871 871 871 873 880 0 0 0 0 0 2184 2170 2156
    2156 2129 2129 2116 2103 2078 2053 2016 869 862 862 862 862 860 860
    860 860 860 860 862 862 860 860 858 858 858 0 0 0 860 860 867 871
    871 871 869 869 869 869 869 871 873 873 873 871 871 871 871 871 871
    871 871 871 871 871 871 871 871 871 871 871 871 869 869 871 871 871
    871 871 871 873 873 873 873 873 873 875 875 875 875 875 875 875 873
    873 873 873 873 873 873 873 873 873 871 871 871 871 871 873 873 873
    873 871 871 871 871 871 873 873 871 871 871 871 871 871 871 871 871
    871 873 873 871 871 871 871 871 871 871 871 871 871 871 871 871 871
    871 871 871 871 871 871 0 0 0 0 0 0 2170 2156 2156 2129 2129 2129
    2129 2129 2016 2016 869 867 864 862 860 858 856 856 856 858 858 860
    860 860 858 856 856 856 0 0 0 860 860 862 864 867 869 869 867 867
    867 867 867 869 869 869 867 867 869 869 869 869 869 869 869 869 869
    869 869 869 869 869 867 867 867 867 867 867 869 869 869 869 869 869
    869 869 869 871 871 871 871 871 871 871 871 871 871 871 871 871 871
    871 871 869 869 869 869 869 869 869 869 869 869 871 871 871 869 869
    869 869 869 869 869 869 869 869 869 869 869 869 867 867 869 867 867
    869 869 869 869 869 869 867 867 869 869 869 869 869 869 869 869 869
    869 869 0 0 0 0 0 2170 2170 2170 2143 2129 2129 2129 2116 882 882
    873 869 864 862 858 856 854 854 854 856 856 858 858 858 856 854 854
    856 0 0 0 860 860 860 860 860 864 867 867 864 864 864 864 864 864
    864 864 864 864 864 867 867 867 867 867 864 864 864 864 867 867 867
    864 864 864 864 864 864 867 867 864 864 864 867 864 864 864 864 864
    864 864 864 869 869 867 867 867 867 867 869 869 867 867 867 867 867
    867 867 864 864 867 867 867 867 867 867 869 867 867 867 867 867 867
    867 867 867 867 867 867 867 864 864 864 864 864 864 864 864 864 864
    864 864 864 864 867 867 864 858 858 862 862 867 867 867 0 0 0 0 0
    2170 2156 2156 2156 2129 2116 2116 2116 882 882 878 869 862 860 858
    856 854 854 854 854 854 856 856 856 854 854 854 854 0 946 946 860
    858 858 858 858 862 864 864 862 862 862 862 862 862 862 862 862 862
    862 862 862 864 862 862 862 862 862 862 862 864 864 862 862 862 862
    862 862 862 862 862 862 862 862 862 862 862 862 862 862 862 862 862
    860 860 862 862 864 864 864 864 864 864 862 862 862 862 862 862 862
    862 862 862 862 862 864 867 864 864 862 862 862 864 862 862 862 862
    862 862 862 862 862 862 862 862 862 862 862 862 862 862 862 860 860
    862 860 858 854 854 854 854 862 862 864 864 0 0 0 0 2156 2156 2156
    2129 2129 2116 2116 2116 882 882 878 869 862 860 858 856 854 851 851
    854 854 854 854 854 851 851 851 851 0 946 946 948 854 854 854 854
    858 860 862 862 862 862 862 862 862 862 860 860 860 860 860 860 860
    862 862 862 860 860 860 862 862 862 860 860 860 860 860 862 860 860
    860 860 860 860 860 860 860 860 860 860 860 860 860 860 860 860 860
    860 860 860 860 860 860 860 860 860 860 860 860 860 860 860 860 860
    860 860 862 862 862 860 860 860 860 860 860 860 860 860 860 862 860
    860 860 860 860 860 860 858 858 860 858 858 858 858 858 856 851 851
    854 854 854 858 858 860 860 860 0 2143 0 2143 2143 2143 2129 2129
    2129 2129 0 0 885 878 869 864 862 858 856 854 849 849 851 851 851
    851 849 849 849 849 851 0 946 946 948 851 851 851 851 854 858 858
    860 860 860 860 860 860 860 858 858 856 856 858 858 858 858 858 858
    860 860 860 860 860 860 858 858 858 858 858 858 860 858 858 860 860
    860 858 858 856 856 856 858 858 860 860 858 858 858 858 858 858 856
    856 856 858 856 856 858 858 858 858 860 860 858 858 858 858 858 858
    858 858 860 860 860 858 858 856 856 856 858 858 860 860 860 860 858
    858 856 856 856 856 856 856 856 856 856 856 856 851 851 851 851 851
    854 854 856 860 860 0 2143 2143 2129 2129 2129 2129 2129 2129 0 891
    0 887 885 871 869 862 860 858 851 847 841 841 839 839 847 847 847
    845 845 847 0 946 946 946 849 849 849 849 854 854 856 856 856 856
    856 856 856 858 856 856 854 854 856 856 854 854 856 856 856 858 858
    856 856 856 856 856 856 856 856 856 856 856 856 856 856 858 858 858
    856 856 856 856 856 856 858 856 856 856 856 856 854 854 854 854 854
    854 854 854 854 854 854 856 858 856 856 856 854 854 854 854 856 856
    856 858 856 856 856 854 854 856 856 856 858 858 858 856 854 854 854
    854 854 854 854 854 854 854 854 851 851 849 849 849 849 851 854 854
    854 854 0 2129 2129 2129 2129 2129 2129 0 0 0 891 891 889 885 873
    871 867 862 860 847 845 841 839 837 837 837 839 839 843 841 841 0
    943 943 946 847 847 849 849 851 851 851 851 851 851 854 854 854 854
    854 851 851 851 854 854 854 854 854 854 854 854 854 854 854 854 854
    854 854 854 851 851 854 854 854 854 854 851 851 854 854 854 854 854
    854 854 854 854 851 851 851 851 851 854 854 854 851 851 851 851 851
    851 851 851 851 851 851 851 851 851 851 854 854 854 854 854 854 854
    851 851 851 854 854 854 854 854 854 854 854 851 851 851 851 851 851
    851 851 851 851 851 849 847 847 847 847 849 851 851 851 847 847 2129
    2129 2129 2129 2129 860 860 860 0 889 889 889 887 875 873 869 862
    858 847 843 839 837 837 835 835 835 835 835 835 837 0 943 943 946
    847 847 847 847 849 849 847 847 847 849 849 849 849 851 851 851 849
    849 849 849 849 851 851 851 849 849 849 849 851 851 851 851 851 851
    849 849 849 849 849 849 849 851 851 851 849 849 849 851 851 851 849
    849 847 847 847 847 847 847 849 849 849 849 849 849 849 847 847 847
    847 847 847 847 849 849 849 849 851 851 851 851 851 849 847 847 849
    849 849 849 847 847 849 849 849 849 849 849 849 849 849 849 849 849
    849 849 847 845 845 845 845 845 847 847 847 847 847 860 858 858 858
    858 860 860 860 854 889 889 889 887 878 873 869 862 854 847 843 839
    835 835 835 835 833 833 833 833 835 0 0 946 946 946 845 845 845 845
    845 843 841 839 839 841 841 845 843 843 843 843 843 845 845 845 847
    845 845 845 845 845 847 847 847 849 849 849 849 847 845 845 845 845
    845 843 843 845 845 845 845 845 845 845 845 843 843 845 845 845 843
    843 843 843 843 845 845 845 843 843 843 843 843 843 843 843 843 843
    845 845 845 845 845 845 843 843 845 845 845 845 847 847 847 845 843
    843 845 845 845 845 845 845 845 845 845 845 845 847 847 845 843 843
    843 843 843 843 843 843 845 849 858 858 858 858 858 858 860 858 854
    854 854 891 887 878 871 864 860 854 849 843 839 833 833 833 833 831
    829 829 833 833 0 0 948 946 946 845 843 843 845 843 841 837 837 835
    835 837 837 839 837 837 839 839 841 841 841 841 841 839 839 841 841
    843 841 841 843 843 843 841 841 841 841 839 839 839 839 839 841 841
    843 841 839 839 839 837 837 837 837 839 841 841 841 839 839 839 839
    839 839 837 837 837 839 839 839 837 837 837 837 837 839 839 839 839
    839 837 837 837 837 839 843 843 843 843 841 841 841 841 841 841 839
    839 839 841 841 841 841 841 841 843 843 839 839 839 839 839 841 841
    841 843 849 858 858 858 858 858 858 860 858 854 854 858 858 860 862
    862 862 860 854 851 843 837 831 831 831 831 829 829 829 833 833 0 0
    948 946 946 835 835 841 841 841 839 837 835 833 833 833 835 835 835
    835 835 837 837 837 837 837 837 837 837 837 837 835 835 835 837 833
    833 835 835 837 837 837 837 837 837 837 837 837 839 837 837 837 837
    837 835 835 835 835 837 837 839 837 837 837 835 835 835 835 835 835
    835 835 835 833 833 835 835 835 835 835 835 835 835 833 833 833 833
    833 833 835 833 833 833 837 835 835 835 835 835 835 835 837 837 837
    837 837 839 839 839 837 837 837 837 839 839 841 841 843 847 858 858
    860 858 858 858 858 858 858 858 858 858 858 858 860 860 858 854 851
    845 837 831 829 827 827 827 825 817 815 815 0 0 0 946 946 835 829
    829 831 835 833 831 829 829 829 831 831 833 833 833 833 833 833 833
    833 835 835 833 833 833 831 831 831 833 831 829 829 831 831 833 835
    835 835 835 833 833 833 835 835 833 833 835 835 835 833 831 831 833
    833 833 833 833 835 833 833 831 831 833 833 831 831 831 831 831 831
    833 833 833 831 831 831 831 829 829 831 831 831 831 831 831 831 831
    831 831 831 831 831 833 833 833 835 835 835 835 835 835 835 835 835
    835 835 835 835 837 837 837 837 837 837 858 858 858 856 856 856 856
    856 856 856 856 856 856 856 858 858 856 854 851 845 837 829 825 821
    821 821 821 817 815 815 0 0 0 0 946 825 825 827 827 829 827 827 825
    825 827 829 829 831 831 831 831 831 831 831 831 833 831 829 829 829
    829 829 829 829 829 827 827 829 829 829 831 833 831 831 831 831 831
    831 831 831 831 833 833 833 831 831 831 831 831 831 831 831 831 831
    829 829 831 831 831 829 829 829 829 829 829 831 831 829 829 829 829
    829 829 829 829 829 829 829 829 829 829 829 829 829 829 829 827 827
    827 827 827 831 831 831 831 831 831 831 831 831 831 831 831 833 837
    835 835 833 833 835 858 856 854 854 854 854 854 854 854 854 856 856
    856 858 856 856 854 851 845 837 827 821 819 819 819 819 817 817 817
    0 0 0 0 0 821 821 823 827 827 823 823 821 821 823 827 827 827 827
    827 827 827 829 829 829 829 829 829 829 829 829 829 829 829 827 827
    827 827 827 827 829 829 829 829 829 829 829 829 829 829 829 829 829
    829 829 827 827 829 829 829 827 827 827 829 827 827 827 827 827 827
    827 827 827 827 827 827 827 827 827 827 827 827 827 827 827 829 829
    829 827 827 829 829 829 827 827 827 827 827 827 825 825 827 827 827
    829 829 829 827 827 829 829 829 829 831 831 831 829 829 829 829 856
    854 854 854 854 851 851 851 854 854 854 856 856 856 856 854 854 851
    845 829 825 821 817 815 815 815 817 817 817 0 0 0 0 817 817 821 821
    825 825 821 821 821 821 821 823 823 823 821 821 823 823 825 825 825
    825 825 827 827 827 827 827 827 827 827 827 827 827 827 827 827 827
    827 827 827 827 827 827 829 829 827 827 825 823 823 825 825 827 827
    827 827 825 825 827 827 827 827 825 825 825 823 823 823 823 825 825
    825 825 825 825 825 825 825 825 825 827 827 827 825 825 825 825 825
    825 825 825 825 825 825 823 823 823 823 823 823 821 821 823 825 827
    827 827 827 827 827 825 825 825 825 827 851 851 851 851 851 851 851
    851 851 851 851 854 854 856 854 854 854 851 845 829 825 821 817 815
    813 813 813 813 813 0 0 0 0 815 815 817 819 821 823 821 819 819 819
    819 821 821 821 821 821 821 821 821 821 821 821 821 821 821 821 821
    823 825 825 825 825 825 825 823 823 823 825 825 825 825 823 823 823
    825 825 825 825 823 821 821 821 821 823 823 823 825 825 825 825 825
    825 825 823 823 823 823 823 823 821 821 821 821 823 821 821 821 821
    821 823 823 823 821 821 823 823 823 823 823 823 825 825 823 821 821
    821 819 819 819 819 819 819 819 819 821 821 821 821 825 825 823 821
    821 821 821 821 821 851 851 851 851 851 851 851 851 851 851 854 854
    856 854 854 854 851 845 829 825 821 817 813 811 809 809 807 807 0 0
    0 0 815 813 813 815 815 817 819 817 817 817 817 817 819 819 819 819
    819 819 819 821 819 819 819 819 821 819 819 819 819 821 821 821 821
    823 821 821 821 821 823 823 821 821 821 821 821 821 821 821 821 821
    821 821 821 821 821 821 821 821 821 821 821 821 823 821 821 821 821
    821 821 821 821 821 821 821 821 821 819 819 819 819 821 821 821 821
    821 821 821 821 821 821 821 821 819 819 819 819 817 817 817 817 817
    819 817 817 819 821 821 819 819 819 819 819 821 821 821 821 821 851
    851 854 854 851 851 851 851 851 894 891 858 858 858 856 854 849 845
    841 827 823 815 811 809 807 807 807 807 0 0 0 0 815 813 813 813 813
    813 811 811 813 813 813 815 815 817 817 817 817 817 817 817 817 819
    819 819 819 819 819 817 817 819 819 819 817 817 815 815 817 817 821
    821 819 819 819 819 817 817 817 819 819 819 819 819 819 819 819 819
    819 819 819 817 817 819 819 819 819 819 819 819 819 817 817 819 819
    819 819 819 817 817 817 817 817 817 817 817 817 817 817 817 817 819
    819 817 817 817 815 815 815 815 815 815 817 815 815 815 815 817 819
    819 815 815 815 813 813 815 817 817 819 851 851 854 854 851 851 851
    851 898 896 891 871 862 858 856 854 849 845 841 829 823 815 811 809
    805 805 805 805 0 0 0 0 809 809 809 809 811 811 811 811 813 811 811
    813 813 813 815 815 815 815 815 813 813 815 815 817 817 815 815 815
    815 815 815 815 815 813 813 813 813 813 813 813 813 817 817 817 815
    815 815 815 817 817 817 817 817 817 817 819 819 817 817 813 813 815
    815 815 815 815 817 817 815 815 815 815 815 815 815 815 815 815 815
    815 815 815 815 815 813 813 813 813 813 813 813 815 813 813 813 813
    813 813 813 813 815 813 813 813 813 815 815 815 813 813 811 811 809
    809 811 813 811 811 811 854 854 923 918 915 908 901 896 891 889 871
    862 860 854 849 845 841 837 821 817 813 809 805 803 802 802 0 0 0
    803 803 803 807 809 809 809 811 811 811 811 811 811 811 811 811 811
    813 813 813 813 813 813 813 813 813 813 813 813 813 813 813 813 813
    813 811 811 811 811 811 811 811 811 813 811 811 811 813 813 813 815
    813 813 813 813 813 815 815 815 813 813 813 813 811 811 811 811 813
    813 813 813 813 813 811 811 811 811 813 813 813 813 815 815 815 813
    813 813 813 813 813 813 813 811 811 811 811 811 811 811 811 811 811
    811 811 811 811 811 811 813 811 811 809 807 807 809 809 809 809 809
    809 809 928 925 920 915 908 901 896 891 889 873 864 860 854 849 843
    839 829 821 817 813 809 802 800 798 798 0 0 0 800 800 800 803 805
    807 807 807 807 807 807 807 807 809 809 809 809 811 811 811 811 811
    809 809 811 811 811 811 811 811 811 811 811 811 811 809 809 809 809
    809 809 809 811 811 809 809 809 809 809 809 811 811 811 811 811 811
    813 813 813 813 813 811 811 811 811 811 811 811 811 811 811 811 811
    809 809 809 809 809 811 811 811 813 813 811 811 809 809 809 809 809
    809 809 809 809 809 809 809 809 809 809 809 809 809 809 809 809 809
    809 811 811 805 805 805 805 805 805 805 807 807 807 809 928 928 918
    913 908 903 898 894 887 873 864 860 854 849 843 837 829 823 817 815
    809 800 798 796 796 0 0 0 798 798 798 800 803 805 805 805 805 805
    803 803 803 805 805 807 807 805 805 807 807 807 809 809 809 807 807
    807 807 807 807 805 805 807 807 805 805 805 807 805 805 805 805 807
    807 807 805 805 805 805 807 807 807 807 807 809 811 811 809 809 809
    809 809 809 809 809 809 809 809 809 809 809 809 809 807 807 807 807
    807 807 805 805 807 807 807 809 809 809 807 807 807 807 807 805 805
    805 805 805 805 805 805 805 805 805 805 807 807 807 807 807 805 803
    803 803 803 803 803 803 803 805 809 896 896 898 910 906 906 898 894
    885 871 864 862 858 849 843 837 829 823 819 813 809 800 796 794 794
    0 0 0 798 798 798 798 802 803 803 803 803 803 802 802 802 802 803
    803 803 803 803 803 803 803 805 805 805 805 805 805 805 805 805 805
    805 803 802 802 802 803 803 802 802 802 802 803 805 805 803 803 802
    802 803 803 803 803 803 803 803 802 800 800 805 805 805 805 805 805
    809 809 807 807 807 805 805 805 805 805 805 805 805 805 805 805 805
    803 803 805 805 805 805 805 803 803 803 803 803 803 803 803 803 803
    803 803 803 803 803 803 803 803 805 805 803 802 800 800 800 798 798
    803 798 798 896 896 896 896 896 906 903 896 891 882 871 864 862 858
    851 843 837 827 823 817 813 809 798 794 792 792 0 0 0 798 796 796
    798 800 800 798 798 798 798 798 798 798 798 800 802 802 802 802 802
    800 800 800 802 802 802 802 802 802 803 802 802 800 800 798 798 798
    798 800 800 800 800 800 802 802 802 800 800 800 800 800 800 802 800
    798 798 798 796 796 796 794 794 796 796 803 803 805 803 803 803 803
    803 803 803 803 803 803 803 803 803 803 803 803 800 798 798 798 798
    802 802 802 800 800 800 800 802 803 802 802 800 800 800 800 800 802
    798 798 802 802 802 800 798 798 798 798 798 798 798 798 798 896 894
    891 891 891 896 896 894 891 882 873 864 864 860 854 843 837 827 823
    817 813 809 798 794 790 790 0 0 0 796 796 796 796 796 796 796 796
    796 792 792 792 792 792 796 796 796 796 798 798 796 796 798 798 798
    798 798 798 798 798 798 798 796 796 796 794 794 794 794 796 796 798
    798 798 798 798 796 796 796 796 798 798 798 798 796 796 796 794 792
    792 792 792 792 792 794 794 794 796 800 800 800 798 798 798 798 798
    798 796 796 800 802 800 800 796 792 792 792 794 796 798 798 798 798
    798 798 798 798 798 798 798 798 798 798 798 798 798 798 798 798 798
    798 796 796 796 796 796 798 798 796 796 798 889 889 889 889 889 894
    894 891 882 875 869 867 860 854 843 837 829 823 819 815 809 798 794
    789 789 0 0 0 792 792 794 794 794 796 796 794 790 789 789 789 789
    789 790 790 792 792 794 794 794 796 796 796 792 792 792 792 792 794
    794 794 792 792 792 790 790 790 792 794 792 792 792 792 792 792 792
    792 792 792 794 794 794 794 794 792 790 790 790 790 792 792 790 790
    790 790 792 792 792 792 792 792 792 796 796 796 794 794 794 794 798
    796 796 792 790 790 790 790 790 792 794 796 794 794 796 796 796 796
    796 796 794 794 794 796 796 796 796 796 794 794 794 792 792 792 792
    794 794 796 796 796 796 803 889 889 889 889 891 891 891 882 878 807
    807 860 854 845 841 829 823 819 813 800 796 785 785 789 0 0 790 790
    790 790 790 792 794 794 790 787 787 787 787 787 789 789 790 790 790
    790 792 792 792 792 792 790 790 789 789 790 790 790 790 790 790 790
    790 790 790 789 789 789 789 790 790 790 790 790 790 790 790 790 790
    789 789 789 789 789 789 789 789 789 789 790 790 789 789 789 789 790
    790 790 789 789 789 789 790 792 790 790 792 792 790 790 790 789 789
    789 789 789 790 790 790 790 790 790 790 789 789 792 792 792 790 790
    790 789 789 790 792 790 790 790 790 790 792 792 792 792 794 794 794
    794 798 800 889 889 889 889 889 894 887 809 807 805 805 854 845 841
    829 815 811 805 800 796 785 785 787 0 0 789 789 789 789 789 790 792
    790 787 785 783 783 785 785 785 787 787 787 789 789 789 789 789 789
    789 789 787 787 787 787 787 787 787 787 789 789 789 789 787 787 787
    787 787 789 789 789 789 789 789 789 789 789 789 785 785 785 785 787
    787 787 787 789 789 789 789 789 789 789 789 789 787 787 787 785 785
    785 789 789 787 787 787 789 789 789 787 787 787 787 787 789 789 789
    789 789 787 787 789 787 787 790 790 790 789 787 787 789 789 790 790
    790 789 787 787 787 790 792 792 792 792 792 790 790 796 798 802 802
    805 807 807 807 805 805 805 805 805 805 805 805 813 809 805 802 800
    796 792 787 787 0 0 789 787 787 787 787 789 790 789 785 783 783 783
    783 783 783 785 785 785 787 785 785 785 785 785 785 785 783 783 785
    785 785 785 785 787 787 787 785 785 785 785 785 783 783 783 783 783
    785 787 787 787 787 787 785 785 785 785 785 785 787 785 783 783 783
    783 783 783 783 783 783 785 785 783 783 783 783 783 783 783 783 783
    783 783 783 783 783 783 783 783 787 787 787 787 785 785 785 785 785
    785 785 787 787 785 783 783 783 783 785 785 785 783 783 783 783 783
    785 785 785 789 789 790 789 789 789 796 802 802 805 807 805 805 803
    803 805 805 805 805 805 805 805 805 803 802 798 796 785 785 787 0 0
    785 783 783 783 783 787 789 787 785 783 781 781 781 781 781 783 783
    783 783 783 783 783 783 783 783 783 783 783 783 783 783 783 783 783
    783 783 783 783 783 783 783 783 783 783 783 783 783 783 785 785 785
    785 783 783 783 783 783 783 785 783 783 781 781 781 781 781 781 781
    781 781 781 781 781 781 781 781 781 781 783 780 780 780 780 781 783
    781 781 781 781 781 783 783 783 783 783 783 783 783 783 783 783 783
    781 781 781 781 783 783 783 781 781 781 781 781 783 783 783 785 785
    785 785 785 785 785 800 805 807 805 803 803 803 803 805 805 805 803
    803 803 805 805 803 802 798 796 783 783 0 0 0 780 780 780 781 781
    781 783 783 781 781 780 780 780 780 780 781 781 783 783 783 783 783
    783 781 781 781 781 781 781 781 781 781 781 783 781 781 781 781 781
    781 781 780 780 780 780 780 780 780 781 781 781 783 783 783 781 781
    781 781 781 781 781 781 781 781 781 780 780 780 780 780 780 780 781
    780 780 780 780 780 781 780 778 778 778 780 780 778 778 778 778 778
    778 778 781 781 781 781 781 781 781 781 781 781 781 780 780 780 781
    781 781 781 781 780 780 780 781 781 781 783 783 783 783 783 783 783
    800 807 807 805 803 803 803 803 803 803 803 803 803 803 805 805 803
    802 800 796 783 783 0 0 0 776 776 776 780 781 781 781 780 780 776
    776 776 776 776 776 776 776 778 780 780 781 781 780 780 780 781 780
    780 778 776 776 778 780 781 780 780 780 780 780 778 778 778 778 778
    778 780 780 780 778 778 778 780 780 780 780 778 778 778 778 780 778
    778 778 778 778 778 778 778 778 778 778 778 780 780 778 776 776 776
    776 776 776 776 776 776 774 774 774 774 774 776 776 776 778 778 778
    778 778 778 780 780 780 780 780 778 778 778 778 780 780 780 778 778
    778 780 780 781 781 781 780 780 783 781 778 778 780 803 802 802 802
    803 803 802 802 803 803 803 803 803 803 803 803 802 800 796 785 785
    787 0 0 774 774 774 776 778 778 778 776 776 773 771 771 773 773 774
    774 774 774 774 776 776 776 776 778 778 778 778 776 776 776 776 776
    778 778 778 778 776 776 776 776 776 776 774 774 776 776 776 774 774
    774 776 776 776 776 778 776 776 774 774 776 776 776 776 776 774 774
    774 774 774 774 774 774 774 774 776 776 774 774 773 773 774 774 773
    773 771 771 773 774 774 774 774 774 776 776 776 774 774 774 774 774
    778 776 776 776 776 776 776 776 776 776 776 776 776 778 778 778 778
    776 776 776 780 776 776 776 776 802 802 802 802 803 803 802 800 800
    798 798 798 802 803 803 803 802 800 796 790 787 787 0 0 774 774 774
    774 776 776 774 773 773 769 769 769 769 769 773 773 773 773 773 771
    771 771 773 774 776 776 774 774 774 774 774 774 774 774 774 774 774
    774 774 774 774 774 771 771 774 773 773 774 773 773 773 773 774 774
    774 774 774 773 773 774 774 774 774 774 771 771 771 771 771 771 773
    773 773 773 773 771 771 771 771 771 774 774 771 769 769 771 771 771
    773 773 774 774 773 773 773 773 773 773 773 771 771 769 769 774 774
    774 773 773 774 774 774 774 774 774 774 774 774 773 773 773 773 774
    773 773 773 773 802 802 802 803 805 869 800 800 798 798 798 802 803
    805 805 803 802 796 792 787 787 0 0 773 771 771 773 774 774 774 769
    764 764 764 767 767 767 767 769 769 769 769 769 767 767 769 771 773
    769 769 769 771 771 773 773 771 771 771 771 771 773 774 774 773 771
    771 771 771 769 769 769 769 771 771 771 771 773 773 773 771 769 769
    769 769 769 769 769 769 769 769 769 769 769 769 769 769 769 769 769
    769 769 769 771 769 769 769 767 767 767 769 769 769 769 767 767 769
    769 769 771 769 769 769 769 769 767 767 767 767 767 769 769 769 771
    771 771 773 773 771 771 771 771 771 771 771 773 771 771 771 771 776
    803 803 803 805 871 869 862 803 803 843 839 805 805 807 805 802 796
    785 785 787 0 0 769 769 769 769 771 771 771 762 762 762 762 764 764
    766 766 766 766 766 766 766 766 766 764 764 766 766 767 767 766 766
    766 766 769 769 769 769 767 767 769 769 769 769 769 767 767 767 767
    767 767 769 769 767 767 767 767 769 767 767 767 767 767 766 766 766
    767 767 767 767 767 767 767 767 767 767 767 767 767 767 767 767 766
    766 766 766 767 767 767 767 767 767 766 766 767 767 767 767 767 767
    767 767 767 767 766 766 767 767 767 767 767 769 769 769 769 769 769
    769 769 769 769 769 769 769 771 771 769 769 769 805 803 803 875 871
    867 862 856 849 843 841 827 817 813 807 803 798 785 785 787 0 0 764
    764 767 767 769 767 766 761 761 761 761 761 762 762 764 762 762 762
    762 764 764 764 762 762 762 762 764 764 764 764 762 762 762 764 764
    764 764 766 766 766 766 767 766 766 766 766 766 766 767 767 767 766
    764 764 764 766 766 766 766 766 764 764 766 766 766 766 766 766 766
    766 766 766 766 766 766 766 766 766 766 764 764 764 764 762 762 762
    762 762 762 762 762 764 764 764 766 764 764 766 766 766 766 766 764
    764 764 764 764 766 766 766 764 764 764 766 767 767 767 767 766 764
    764 767 767 769 767 767 767 767 882 882 880 873 862 858 854 849 845
    839 823 821 815 809 803 798 792 787 787 0 762 762 762 764 766 766
    766 762 761 759 759 759 759 761 761 761 762 762 762 762 762 762 762
    761 761 761 761 761 761 761 761 761 761 761 761 761 762 762 761 761
    761 762 762 762 762 762 764 762 762 764 764 764 764 762 762 762 762
    762 762 762 762 762 762 762 762 762 762 762 762 764 762 762 762 762
    762 762 762 762 762 762 762 762 762 762 761 761 761 761 761 762 761
    761 761 762 762 762 762 762 762 762 762 762 762 762 761 761 761 762
    762 762 762 764 762 762 761 761 761 761 764 764 762 762 764 764 764
    767 766 766 767 767 885 885 873 862 856 854 849 843 839 823 821 815
    807 803 798 794 789 789 0 762 761 761 762 762 762 762 761 759 757
    757 757 757 757 759 761 761 761 761 761 761 761 761 761 761 759 759
    759 759 759 759 759 759 759 759 759 759 759 759 759 759 759 759 759
    759 761 761 761 761 761 762 762 762 762 762 761 761 761 761 761 761
    759 759 761 761 761 761 759 759 761 761 761 762 761 761 761 761 759
    759 759 759 759 761 761 761 759 759 759 761 761 759 759 759 759 759
    761 761 761 761 761 761 761 761 761 759 759 759 759 761 761 761 761
    761 761 759 759 759 759 759 761 762 762 762 762 762 762 762 762 762
    762 841 841 843 843 851 851 849 839 829 823 819 813 807 803 800 796
    790 790 0 764 759 759 761 759 759 759 757 755 755 755 755 755 755
    757 757 757 759 759 759 759 757 757 757 757 757 757 755 755 757 757
    757 755 755 755 757 757 757 755 755 755 757 757 757 757 757 757 757
    757 757 759 759 759 759 759 759 759 757 757 757 757 755 755 755 755
    757 757 757 757 757 757 759 759 757 757 757 757 757 757 755 755 757
    757 759 759 757 757 757 759 757 755 755 755 755 757 757 757 757 757
    757 759 759 759 759 755 755 755 755 757 759 759 759 757 757 755 755
    755 755 755 757 759 757 757 759 759 759 759 759 759 837 837 841 841
    841 845 845 845 839 827 821 819 813 807 803 798 794 789 789 0 0 759
    759 759 757 757 754 754 754 754 754 754 754 754 754 755 755 755 755
    755 755 754 754 754 754 754 755 755 755 755 754 754 754 754 754 755
    755 754 754 754 754 754 754 755 755 754 754 754 754 754 754 754 754
    754 755 755 755 755 755 755 755 754 754 754 754 754 754 754 754 754
    755 755 755 755 755 755 755 755 755 754 754 755 755 755 755 755 755
    755 755 754 754 754 754 754 754 754 754 754 754 755 755 755 755 755
    754 754 754 754 754 755 755 755 754 754 754 754 754 754 754 754 754
    754 752 752 752 752 752 755 755 837 837 839 839 839 841 841 843 841
    827 821 819 813 807 802 798 794 789 789 0 0 754 754 754 752 750 750
    750 750 752 752 750 750 750 752 752 752 750 750 752 752 752 752 752
    752 752 754 752 752 750 750 750 750 750 750 752 752 752 750 750 750
    750 750 752 754 752 752 752 750 750 750 750 750 749 749 750 750 750
    754 754 754 752 752 752 752 752 752 752 754 754 754 752 752 754 754
    752 752 752 752 752 752 752 752 752 752 752 754 754 754 754 754 752
    752 752 752 752 752 752 752 752 752 754 754 754 752 750 750 750 750
    750 750 750 750 750 750 750 750 750 750 752 752 750 749 749 749 749
    747 747 747 747 837 839 837 837 839 839 839 839 829 823 819 813 807
    802 798 794 789 789 755 754 754 752 750 749 749 747 747 747 749 749
    749 749 749 749 750 749 749 749 750 750 750 750 750 750 750 750 750
    750 749 749 749 749 749 750 750 750 749 749 749 749 749 749 749 749
    749 749 749 749 749 749 749 749 749 749 749 749 750 750 750 749 749
    750 750 750 750 750 750 750 750 750 750 750 750 750 750 750 750 749
    749 750 750 749 749 749 749 750 752 750 750 750 750 750 750 750 750
    749 749 749 750 750 750 749 749 749 749 749 749 749 749 749 749 749
    749 749 749 749 750 750 752 752 750 749 747 746 746 746 746 747 747
    837 837 837 837 839 839 839 837 829 823 819 813 809 802 796 794 790
    790 755 754 754 752 746 746 746 746 746 746 746 746 746 747 747 749
    749 749 749 749 749 749 749 749 749 749 749 749 747 747 749 747 747
    749 749 749 749 749 747 747 747 747 747 749 749 749 747 747 747 747
    747 747 747 747 747 747 747 747 747 747 749 747 747 747 747 747 749
    749 749 749 749 749 749 749 749 749 749 749 749 747 747 749 749 749
    747 747 747 749 749 749 749 749 749 749 749 749 749 749 749 749 749
    749 749 749 749 749 747 747 747 747 747 749 749 749 747 747 747 749
    749 749 749 749 749 747 744 744 744 742 742 744 746 833 833 837 837
    839 837 837 837 829 823 819 813 809 802 796 794 790 790 754 754 752
    750 746 744 744 744 744 742 742 742 742 744 746 747 747 747 747 747
    749 749 749 747 747 747 747 747 747 747 747 747 747 747 747 747 747
    747 747 747 746 746 747 747 747 747 747 747 747 746 746 746 746 746
    746 746 746 746 746 746 746 746 746 744 744 746 746 746 746 746 747
    747 747 747 747 747 749 749 747 746 746 746 747 747 747 747 747 747
    747 747 747 747 747 747 747 747 746 746 747 747 747 747 747 747 747
    747 747 746 746 747 747 747 747 747 746 746 747 747 747 747 747 747
    747 746 744 742 742 742 742 742 742 742 833 837 837 839 837 837 837
    831 823 819 813 807 802 798 796 792 792 754 752 752 750 742 742 742
    742 742 741 741 741 741 741 742 744 746 746 746 747 747 747 747 746
    746 746 746 746 746 746 746 747 747 746 746 744 744 744 744 744 744
    744 744 746 746 747 746 746 744 744 742 742 744 744 746 746 746 744
    744 746 744 744 742 742 742 742 742 742 742 742 742 742 742 742 746
    746 746 746 744 744 744 744 744 744 744 746 746 746 744 744 746 746
    746 746 744 744 744 744 744 744 746 746 746 744 744 746 746 746 746
    746 746 746 746 746 744 744 746 746 746 746 746 744 744 744 742 742
    741 741 741 741 741 741 741 837 837 839 839 839 837 833 823 817 813
    807 802 798 798 792 792 752 752 750 749 742 742 742 741 741 741 739
    738 738 739 741 741 742 742 742 744 746 746 746 744 744 744 744 742
    742 742 744 744 742 742 742 742 742 742 742 742 742 742 742 742 744
    746 744 742 742 741 741 741 741 742 742 742 742 742 742 742 742 742
    741 741 741 741 741 742 742 741 741 741 741 741 741 741 744 744 742
    742 742 742 742 742 742 742 744 744 744 744 746 746 744 742 742 742
    742 742 742 742 742 742 742 742 742 742 744 744 744 744 744 744 742
    742 742 742 742 742 742 742 742 744 742 741 739 739 739 739 739 739
    739 741 739 739 841 843 841 841 839 831 825 815 813 809 803 800 798
    794 794 750 752 750 747 742 741 741 739 739 739 738 736 736 736 738
    739 741 741 741 741 742 744 742 742 742 742 742 742 742 742 742 742
    742 742 742 741 741 741 741 741 741 741 742 742 742 742 742 741 741
    741 741 741 741 741 741 741 741 741 741 741 741 741 741 741 741 741
    741 739 739 739 739 739 739 739 739 739 741 741 741 741 741 741 741
    741 741 741 742 742 742 742 742 742 742 742 741 741 742 741 741 741
    742 742 741 741 741 741 741 742 742 742 742 742 742 742 741 741 741
    741 741 741 741 741 741 739 738 736 736 736 738 738 738 739 739 739
    847 845 843 843 839 831 827 815 813 811 805 800 798 796 796 750 750
    749 747 742 741 741 739 738 736 736 734 734 734 734 736 738 739 739
    739 739 741 741 741 741 741 741 741 741 739 739 739 741 741 741 739
    739 741 739 739 739 739 741 741 741 741 741 739 739 739 738 738 738
    738 738 738 738 739 739 739 738 738 738 738 738 738 738 736 736 738
    738 738 736 736 736 736 738 738 739 739 738 738 738 738 741 741 741
    741 741 741 741 741 741 741 741 741 741 741 741 741 741 741 739 739
    739 739 739 741 741 741 742 742 741 741 739 739 739 739 739 739 739
    739 738 736 736 734 734 734 736 736 736 736 736 736 736 847 843 843
    841 831 825 817 813 813 809 802 798 796 796 749 749 747 747 744 742
    739 738 736 736 734 734 734 734 734 734 734 736 736 736 736 738 739
    739 739 739 741 741 739 738 738 738 739 739 739 738 738 738 738 738
    738 738 739 739 739 738 738 738 738 738 736 736 736 736 736 736 736
    738 738 736 736 736 736 736 736 736 736 736 736 736 736 736 734 734
    734 734 734 734 736 736 736 736 736 736 736 736 738 738 736 736 736
    736 738 739 739 739 739 739 739 739 738 738 738 738 738 738 738 738
    738 739 739 741 738 738 736 736 736 736 736 736 738 738 736 734 733
    733 733 733 733 734 734 734 733 733 733 849 843 843 835 825 825 817
    813 813 809 805 800 798 798 749 746 746 746 746 744 739 736 736 736
    734 734 733 733 731 731 733 734 734 736 736 736 738 738 738 738 738
    738 736 736 734 734 736 736 736 736 736 736 736 736 736 736 736 736
    736 734 734 734 734 736 734 734 734 734 734 734 736 736 734 734 734
    734 734 734 736 736 736 734 734 734 734 734 734 734 734 734 734 734
    734 734 734 734 734 734 736 736 734 734 734 734 734 736 736 736 736
    736 736 736 736 736 736 736 736 736 736 736 736 736 736 736 736 738
    736 736 736 736 734 734 734 734 734 736 734 734 733 731 731 731 731
    731 733 733 731 731 731 727 833 831 831 825 823 821 815 813 809 807
    803 800 800 0 746 746 746 744 744 741 736 734 734 734 733 733 733
    731 731 733 733 733 734 734 734 734 736 736 736 734 734 733 733 733
    733 733 734 736 736 736 734 734 736 734 734 734 734 734 734 734 734
    734 734 734 734 734 734 734 734 734 734 734 734 734 734 734 734 734
    734 734 734 734 733 733 733 733 733 733 733 733 734 734 734 734 734
    734 734 736 736 734 734 734 734 734 734 734 734 734 736 736 734 734
    734 734 734 734 734 734 734 734 733 733 733 733 734 736 736 736 736
    734 734 734 734 734 734 734 733 731 730 730 730 730 731 731 731 730
    727 727 727 833 833 831 827 823 821 817 815 811 807 805 803 803 0
    746 746 746 744 744 742 736 734 734 734 733 733 731 731 731 731 731
    733 734 734 734 734 734 734 736 734 734 733 733 733 733 733 734 736
    736 734 734 734 734 734 734 734 734 734 734 734 734 734 734 734 734
    734 734 734 734 734 734 733 733 734 734 734 733 731 731 734 734 734
    733 733 733 733 731 731 733 733 734 734 734 734 734 734 734 736 736
    736 734 734 734 734 734 734 734 734 734 734 734 733 733 734 734 734
    734 734 734 733 733 733 733 733 734 736 736 736 736 734 734 734 733
    731 731 731 731 731 730 730 730 730 731 730 730 728 723 722 722 722
    831 831 827 823 821 819 815 811 807 805 803 803 0 0 0 0 0 0 0 0 0 0
    0 0 0 731 731 731 731 731 733 734 734 734 734 734 734 736 734 734
    733 733 733 734 734 736 736 736 734 734 734 734 734 734 734 734 736
    734 734 734 734 736 734 734 734 734 734 734 734 734 733 733 734 734
    734 733 731 731 734 734 734 734 733 733 733 731 731 733 734 736 734
    734 736 736 736 736 736 736 736 734 734 734 734 734 736 734 734 734
    734 734 733 733 734 734 734 734 734 734 733 733 733 733 733 734 736
    736 736 736 736 734 734 733 730 730 731 731 731 731 731 731 731 731
    728 728 723 723 722 722 722 728 831 827 825 823 819 815 811 809 805
    803 803</data></Depth1907>
</opencv_storage>
