<?xml version="1.0"?>
<opencv_storage>
<Depth11870 type_id="opencv-matrix">
  <rows>81</rows>
  <cols>160</cols>
  <dt>w</dt>
  <data>
    0 0 0 0 0 0 0 0 0 0 0 0 0 0 0 0 0 0 0 0 0 0 0 0 0 4983 4911 4911 0 0
    0 5734 5734 5832 5933 5933 5933 5933 5933 5933 5933 5933 5933 6038
    6038 6038 6038 6038 6038 6038 6038 6038 6038 6038 6038 6038 6038
    6038 6146 6146 6146 6146 6146 6146 6146 6146 6146 6146 6146 6146
    6146 6146 6146 6146 6146 6146 6146 6146 6146 6146 6146 6146 6146
    6146 6497 6497 6375 6375 6375 6375 6375 6375 6375 6375 6259 6259
    6259 6259 6259 6259 6259 0 0 0 0 0 0 0 0 0 0 0 0 0 0 0 0 0 0 0 636
    636 636 636 636 636 636 636 636 636 637 637 637 638 638 641 641 641
    642 642 642 643 643 644 644 644 646 646 646 646 644 644 647 0 0 0 0
    0 0 0 0 0 0 0 0 0 0 0 0 0 0 0 0 0 0 0 0 0 0 0 0 0 0 0 4911 4911 4911
    4911 4911 4911 4911 5734 5734 5832 5933 5933 5933 5933 5933 5832
    5832 5933 5933 6038 6038 6038 6038 6038 6038 6038 6038 6038 6038
    6038 6038 6038 6146 6146 6146 6146 6038 6038 6146 6146 6146 6146
    6146 6146 6146 6146 6146 6146 6146 6146 6146 6146 6146 6146 6146
    6146 6146 6146 6146 6146 6497 6375 6375 6375 6375 6375 6375 6375
    6375 6375 6259 6259 6259 738 738 738 0 0 0 0 0 0 0 0 0 0 0 0 0 0 0 0
    0 0 0 634 634 635 635 635 635 635 636 636 636 636 637 637 637 638
    640 641 641 642 642 643 643 644 644 644 646 646 647 647 647 648 646
    646 646 0 0 0 0 0 0 0 0 0 0 0 0 0 0 0 0 0 0 0 0 0 0 0 0 0 0 0 0 0 0
    0 4911 4911 4911 4911 4911 4911 4983 5056 5640 5832 5832 5933 5933
    5933 5933 5832 5832 5933 5933 6038 6038 6038 6038 6038 6038 6038
    6038 6038 6038 6038 6038 6038 6146 6146 6146 6146 6038 6038 6146
    6146 6146 6146 6146 6146 6146 6146 6146 6146 6146 6146 6146 6146
    6146 6146 6146 6259 6259 6259 6259 6259 6497 6375 6375 6259 6259
    6259 6375 6622 6622 6622 739 739 738 738 733 733 733 0 0 0 0 0 0 0
    634 632 632 634 0 0 0 0 0 0 634 634 634 634 634 634 635 635 636 636
    636 636 637 637 638 640 640 641 641 642 643 644 644 644 644 644 646
    646 648 647 647 648 647 646 646 0 0 0 0 0 0 0 0 0 0 0 0 0 0 0 0 0 0
    0 0 0 0 0 0 0 0 0 0 0 0 0 4983 4983 4983 4983 4983 4983 4983 4983
    5291 5734 5832 5933 5933 5933 5933 5832 5832 5933 5933 6038 6038
    6038 6038 6038 6038 6038 6038 6038 6038 6038 6038 6038 6146 6146
    6146 6146 6146 6146 6146 6146 6146 6146 6146 6146 6146 6146 6146
    6146 6146 6146 6146 6146 6146 6146 6146 6259 6259 6259 6259 6259
    6497 6497 6375 6259 6259 6259 6259 738 738 738 739 739 739 738 733
    733 736 736 0 0 0 0 0 0 631 631 630 630 630 631 631 631 636 634 634
    634 634 634 634 634 635 635 636 636 636 636 637 638 640 641 641 641
    642 642 643 644 644 644 644 644 646 647 649 649 649 649 648 648 0 0
    0 0 0 0 0 0 0 0 0 0 0 0 0 0 0 0 0 0 0 0 0 0 0 0 0 0 0 0 0 0 4983
    4983 4983 4983 4983 4983 4983 4983 5056 5734 5832 5933 5832 5832
    5933 5933 5933 5933 5933 5933 6038 6038 6038 6038 6038 6038 6038
    6038 6038 6038 6038 6146 6146 6146 6146 6146 6146 6146 6146 6146
    6146 6146 6146 6146 6038 6038 6146 6146 6146 6146 6146 6146 6146
    6146 6146 6259 6259 6259 6259 6497 6497 6497 6497 736 736 734 734
    738 738 738 738 738 738 738 736 736 736 736 0 0 0 0 0 630 630 630
    630 630 630 631 631 631 634 634 634 634 634 634 635 635 636 636 636
    637 637 637 637 640 640 641 641 642 642 643 643 644 644 646 644 644
    646 648 649 649 649 649 648 648 0 0 0 0 0 0 0 0 0 0 0 0 0 0 0 0 0 0
    0 0 0 0 0 0 0 0 0 0 0 0 0 0 0 4983 4983 4983 4983 4983 4983 4983
    4983 5210 5640 5933 5832 5832 5832 5933 5933 5933 5933 5933 6038
    6038 6038 6038 6038 6038 6038 6038 6146 6146 6146 6146 6146 6146
    6146 6146 6146 6146 6146 6146 6259 6146 6146 6146 6038 6038 6146
    6146 6259 6259 6259 6146 6146 6146 6146 6259 6259 6259 6259 6259 736
    739 739 734 734 734 734 738 738 738 738 736 736 736 738 738 738 738
    0 0 0 0 630 630 629 629 630 630 630 631 631 631 632 634 634 634 634
    635 635 635 636 636 637 638 638 638 640 640 640 641 641 642 642 644
    644 644 644 646 644 644 646 649 649 649 650 650 650 650 0 0 0 0 0 0
    0 0 0 0 0 0 0 0 0 0 0 0 0 0 0 0 0 0 0 0 0 0 0 0 0 0 0 0 4983 4983
    4983 4911 4911 4983 4983 5132 5640 5933 5832 5832 5832 5832 5832
    5933 5933 6038 6038 6038 6038 6038 6038 6038 6038 6038 6146 6146
    6146 6146 6146 6146 6146 6146 6146 6146 6146 6146 6146 6146 6146
    6146 6146 6146 6146 6146 6259 6259 6259 6146 6146 6146 6146 0 0 0 0
    736 736 736 736 734 734 736 736 738 738 738 738 736 736 736 738 738
    738 629 625 625 627 628 628 629 629 629 629 630 630 631 631 632 632
    635 635 635 635 635 635 635 636 637 638 640 640 640 640 640 641 641
    642 643 643 644 646 646 646 647 648 648 649 649 650 650 652 652 652
    652 652 0 0 0 0 0 0 0 0 0 0 0 0 0 0 0 0 0 0 0 0 0 0 0 0 0 0 0 0 0 0
    0 0 0 4983 4983 4911 4911 4911 4911 4911 5056 5832 5832 5933 5933
    5933 5832 5832 5933 5933 6038 6038 6038 6038 6038 6146 6038 6038
    6146 6146 6146 6146 6146 6146 6146 6146 6146 6146 6146 6146 6146
    6146 6146 6146 6146 6146 6146 6146 6259 6375 6375 6259 6259 6259 0 0
    0 0 0 736 736 736 736 736 736 736 736 736 736 738 736 736 736 628
    627 627 625 625 625 625 625 625 628 628 629 629 629 629 630 630 631
    632 632 634 635 635 635 635 636 636 636 637 638 638 640 640 640 640
    641 641 641 644 646 646 647 647 647 648 649 649 649 649 650 652 654
    654 654 654 652 652 654 0 0 0 0 0 0 0 0 0 0 0 0 0 0 0 0 0 0 0 0 0 0
    0 0 0 0 0 0 0 0 0 0 0 4911 4911 4911 4911 4911 4911 4983 5640 5640
    5933 5933 5933 5933 5832 5832 5933 6038 6038 6038 6038 6038 6146
    6146 6146 6146 6146 6146 6146 6146 6146 6146 6146 6146 6259 6259
    6146 6146 6146 6146 6146 6259 6375 6259 6146 6146 6375 6375 6375 0 0
    0 0 0 0 0 733 733 734 734 736 736 736 736 736 736 738 736 736 628
    628 625 625 625 625 625 625 625 625 627 628 629 629 629 629 630 631
    632 632 634 634 635 635 636 636 636 636 636 637 640 640 641 641 641
    643 642 642 643 646 647 648 648 648 649 649 649 649 649 650 650 653
    654 654 654 654 653 653 654 0 0 0 0 0 0 0 0 0 0 0 0 0 0 0 0 0 0 0 0
    0 0 0 0 0 0 0 0 0 0 0 0 0 4842 4842 4911 4911 4911 4911 4774 4774
    5640 5832 5832 5933 5933 5832 5832 6038 6038 6038 6038 6038 6038
    6038 6146 6146 6146 6146 6146 6146 6146 6146 6146 6146 6146 6259
    6259 6146 6146 6146 6146 6146 6146 6375 6259 6146 6146 0 0 0 0 0 0 0
    0 0 0 733 733 734 734 736 736 736 738 738 739 738 738 625 625 625
    625 625 625 625 625 625 625 625 627 628 629 629 629 629 630 631 632
    632 635 635 635 635 635 636 636 636 637 638 640 641 641 642 643 644
    644 646 647 648 649 649 649 649 649 649 650 650 650 652 652 654 655
    655 655 654 654 654 654 655 0 0 0 0 0 0 0 0 0 0 0 0 0 0 0 0 0 0 0 0
    0 0 0 0 0 0 0 0 0 0 0 0 4842 4842 4911 4911 4911 4911 4774 4774 5548
    5734 5832 5832 5933 5832 5832 5933 6038 6038 6038 6038 6038 6038
    6038 6038 6146 6146 6146 6146 6146 6146 6038 6038 6259 6259 6259 0
    6146 6146 6146 6146 6146 0 0 0 0 0 0 0 0 0 0 0 0 0 0 734 734 734 736
    739 739 739 738 738 739 624 624 624 624 624 624 625 625 625 625 625
    625 625 627 628 629 629 629 630 630 631 632 634 635 635 635 635 635
    636 637 637 638 640 641 641 642 643 644 646 646 646 647 648 650 650
    650 650 650 650 650 650 650 652 652 654 655 655 655 655 655 655 653
    653 0 0 0 0 0 0 0 0 0 0 0 0 0 0 0 0 0 0 0 0 0 0 0 0 0 0 0 0 0 0 0 0
    4842 4842 4911 4911 4911 4911 4911 4983 5210 5640 5832 5832 5933
    5933 5933 5933 6038 6038 6038 6038 5933 5933 6038 6038 6038 6038
    6038 6038 6146 6146 6038 6038 0 0 0 0 0 0 0 0 0 0 0 0 0 0 0 0 0 0 0
    0 0 0 0 0 620 620 620 620 620 620 623 623 623 623 623 624 624 624
    624 625 625 625 625 625 627 628 628 628 629 629 629 630 631 631 632
    635 636 636 636 636 636 637 638 638 640 641 642 642 643 644 646 646
    646 647 648 648 650 650 650 650 652 652 652 650 650 653 654 654 655
    655 655 655 657 655 653 653 0 0 0 0 0 0 0 0 0 0 0 0 0 0 0 0 0 0 0 0
    0 0 0 0 0 0 0 0 0 0 0 0 4842 4842 4911 4911 4911 4911 4911 4911 5056
    5460 5832 5832 5933 5933 5933 5933 6038 6038 6038 6038 5933 5933
    6038 6038 6038 6038 6038 6038 6146 0 0 0 0 0 0 0 0 0 0 0 0 0 0 0 0 0
    0 0 0 0 0 0 0 0 0 0 620 620 620 620 620 620 622 622 622 622 623 624
    624 624 625 625 627 627 627 628 628 629 628 628 629 629 630 630 631
    632 635 635 636 637 637 638 638 638 640 640 641 642 643 643 644 644
    646 647 647 647 648 648 650 650 652 652 653 653 654 654 654 654 655
    657 658 659 659 659 658 657 655 655 0 0 0 0 0 0 0 0 0 0 0 0 0 0 0 0
    0 0 0 0 0 0 0 0 0 0 0 0 0 0 0 0 4911 4911 4911 4911 4911 4911 4911
    4911 5056 5374 5832 5832 5933 5933 5933 5933 6038 6038 6038 0 0 6038
    6038 6038 6038 6038 0 0 0 0 0 0 0 0 0 0 0 0 0 0 0 0 0 0 0 0 0 0 0 0
    615 615 615 616 616 618 620 620 620 620 620 621 622 622 622 622 623
    624 624 624 625 625 627 627 628 629 629 629 629 629 629 629 630 631
    634 634 636 638 638 640 640 640 640 640 641 642 643 643 644 644 644
    644 646 647 647 647 649 649 650 650 653 653 654 654 654 655 655 655
    655 657 658 659 661 661 661 659 657 657 0 0 0 0 0 0 0 0 0 0 0 0 0 0
    0 0 0 0 0 0 0 0 0 0 0 0 0 0 0 0 0 0 4911 4911 4911 4911 4911 4911
    4911 4911 4983 5056 5734 5640 5640 6038 5933 5933 6038 6038 0 0 0 0
    0 0 0 0 0 0 0 0 0 0 0 0 0 0 0 0 0 0 0 0 0 0 0 0 0 616 616 616 615
    615 615 616 616 618 620 620 620 620 621 621 622 622 622 622 623 624
    624 624 625 627 627 628 628 629 630 630 630 630 630 631 631 632 635
    635 638 638 640 641 641 641 641 641 641 643 644 644 646 646 646 646
    646 647 648 649 650 650 650 650 654 654 654 655 655 657 657 657 657
    657 658 661 661 662 662 659 658 658 0 0 0 0 0 0 0 0 0 0 0 0 0 0 0 0
    0 0 0 0 0 0 0 0 0 0 0 0 0 0 0 0 0 4983 4983 4983 4983 4911 4911 4911
    4911 4983 4983 5640 5640 6038 6038 6038 6038 6038 0 0 0 0 0 0 0 0 0
    0 0 0 0 0 0 0 0 0 0 608 608 0 0 0 0 615 615 616 616 616 616 616 616
    619 618 618 618 619 620 620 620 620 621 622 622 622 622 623 624 624
    625 625 625 628 628 629 629 630 630 630 630 631 631 631 632 634 635
    635 637 640 640 641 641 641 642 642 642 643 644 646 646 646 647 646
    646 647 648 649 650 650 650 654 655 655 655 657 657 658 657 657 658
    659 659 661 661 663 663 662 659 659 0 0 0 0 0 0 0 0 0 0 0 0 0 0 0 0
    0 0 0 0 0 0 0 0 0 0 0 0 0 0 0 0 0 5056 4983 4983 4983 4983 4911 4911
    4911 4911 4911 4983 0 0 0 0 0 0 0 0 0 0 0 0 0 0 0 0 0 0 0 0 0 0 0 0
    0 608 607 607 608 614 614 615 615 616 616 616 618 618 619 619 618
    618 619 620 620 621 621 621 621 622 622 622 623 623 624 624 625 625
    625 628 629 630 630 630 630 630 630 631 631 632 634 635 636 637 637
    640 640 641 641 641 642 642 643 644 644 646 647 647 648 648 647 647
    649 652 652 653 653 654 655 655 657 658 658 658 658 658 659 659 659
    661 663 664 664 662 661 661 663 0 0 0 0 0 0 0 0 0 0 0 0 0 0 0 0 0 0
    0 0 0 0 0 0 0 0 0 0 0 0 0 0 0 0 0 4983 4983 4983 4983 4983 4911 4911
    4983 0 0 0 0 0 0 0 0 0 0 0 0 0 0 0 0 0 0 0 0 0 0 0 0 609 609 607 607
    608 611 614 615 615 616 616 616 618 618 619 619 620 620 620 620 621
    621 621 621 621 622 623 623 623 623 625 625 625 625 627 629 630 630
    630 631 631 631 631 631 634 634 635 637 637 637 637 640 641 641 642
    642 643 643 643 644 646 647 647 648 649 649 649 649 650 652 653 653
    654 655 655 657 658 658 659 659 659 659 659 659 661 661 663 664 664
    664 664 663 663 667 0 0 0 0 0 0 0 0 0 0 0 0 0 0 0 0 0 0 0 0 0 0 0 0
    0 0 0 0 0 0 0 0 0 0 0 0 0 0 5056 4911 4911 4983 0 0 0 0 0 0 0 0 0 0
    0 0 0 0 0 0 0 0 0 0 0 0 0 611 609 609 608 608 611 611 614 615 615
    616 616 616 618 618 619 619 620 620 620 621 621 621 622 622 622 622
    623 623 623 624 625 625 625 627 628 629 630 631 631 631 631 631 634
    634 635 636 637 637 638 638 638 640 641 642 643 643 644 644 644 644
    646 648 648 649 649 649 649 650 652 653 654 654 654 655 657 658 658
    659 659 661 661 661 661 661 661 662 664 666 666 666 666 666 667 667
    0 0 0 0 0 0 0 0 0 0 0 0 0 0 0 0 0 0 0 0 0 0 0 0 0 0 0 0 0 0 0 0 0 0
    0 0 0 0 0 4983 4983 0 0 0 0 0 0 0 0 0 0 0 0 0 0 0 0 0 0 0 0 0 0 612
    612 611 610 610 610 610 613 613 614 614 614 615 616 616 618 619 620
    620 620 620 620 621 621 621 623 623 623 623 624 625 624 624 625 627
    628 629 629 629 630 631 631 632 632 634 634 635 635 636 638 638 640
    640 640 640 641 643 644 644 646 646 646 647 647 648 648 649 649 650
    650 652 653 654 654 654 655 657 658 659 659 661 661 661 661 661 661
    661 662 663 664 666 667 667 667 667 668 668 0 0 0 0 0 0 0 0 0 0 0 0
    0 0 0 0 0 0 0 0 0 0 0 0 0 0 0 0 0 0 0 0 0 0 0 0 0 0 0 0 0 0 0 0 0 0
    0 0 0 0 0 0 0 0 0 0 0 0 0 0 610 610 611 611 612 612 612 612 612 613
    613 614 614 614 614 615 616 616 618 619 620 620 620 621 621 621 621
    622 623 623 624 624 625 625 625 629 629 629 630 630 630 630 631 631
    632 632 634 634 634 635 636 637 638 640 640 640 640 640 641 644 644
    646 647 647 647 648 648 649 649 649 650 650 650 653 654 654 654 655
    655 658 659 659 661 661 661 662 662 662 662 663 663 664 666 667 668
    668 668 668 670 671 0 0 0 0 0 0 0 0 0 0 0 0 0 0 0 0 0 0 0 0 0 0 0 0
    0 0 0 0 0 0 0 0 0 0 0 0 0 0 0 0 0 0 0 0 0 0 0 0 0 0 0 0 0 0 0 0 610
    609 609 610 610 610 611 611 612 612 612 612 613 613 614 614 614 614
    614 615 616 616 619 620 620 620 620 621 621 622 622 622 623 624 625
    625 625 627 627 630 630 630 630 631 631 631 634 634 634 634 635 635
    635 636 637 638 640 640 641 641 641 643 644 644 646 647 647 648 648
    648 649 649 650 650 652 653 653 654 655 655 655 657 657 659 659 661
    661 661 662 662 663 663 663 664 664 666 667 668 670 670 670 670 671
    672 0 0 0 0 0 0 0 0 0 0 0 0 0 0 0 0 0 0 0 0 0 0 0 0 0 0 0 0 0 0 0 0
    0 0 0 0 0 0 0 0 0 0 0 0 0 0 0 0 0 0 0 0 0 0 610 610 610 609 609 610
    610 610 611 611 612 612 612 613 613 613 614 614 614 615 615 616 618
    618 619 621 621 621 621 621 621 623 623 623 624 624 625 625 627 628
    629 630 631 631 632 632 632 634 634 635 635 635 636 636 638 638 640
    640 640 640 641 642 642 644 646 646 646 647 647 648 649 649 649 650
    650 652 653 654 654 654 655 655 657 659 659 661 661 661 662 662 662
    663 664 664 664 666 666 667 668 670 670 670 670 670 671 0 0 0 0 0 0
    0 0 0 0 0 0 0 0 0 0 0 0 0 0 0 0 0 0 0 0 0 0 0 0 0 0 0 0 0 0 0 0 0 0
    0 0 0 0 0 0 0 0 0 0 0 0 0 609 609 609 610 610 610 610 610 611 611
    611 611 612 613 613 614 614 614 614 614 615 616 616 618 620 620 621
    621 621 621 622 623 623 624 624 625 625 625 628 628 628 629 630 631
    631 632 632 634 634 635 635 635 635 636 637 638 640 640 640 641 641
    641 642 643 643 646 646 647 647 648 648 649 650 650 650 652 653 654
    654 654 654 655 657 657 659 659 661 662 662 662 663 663 664 666 666
    666 666 667 667 668 670 671 670 670 670 670 671 0 0 0 0 0 0 0 0 0 0
    0 0 0 0 0 0 0 0 0 0 0 0 0 0 0 0 0 0 0 0 0 0 0 0 0 0 0 0 661 661 659
    659 659 659 658 658 0 0 0 0 0 607 607 609 609 609 610 610 610 610
    610 611 611 611 612 612 613 613 614 614 614 614 615 616 618 618 619
    620 620 621 621 622 622 623 623 625 625 625 625 625 625 629 629 629
    630 630 631 632 632 634 634 635 635 635 636 636 636 638 638 640 640
    640 641 641 642 643 644 647 647 648 648 648 649 649 649 650 650 652
    653 654 654 655 655 655 657 657 658 659 661 661 662 663 663 664 664
    664 667 667 668 668 668 668 668 670 671 671 670 670 690 691 0 0 0 0
    0 0 0 0 0 0 0 0 0 0 0 0 0 0 0 0 0 0 0 0 0 0 0 0 0 0 0 0 662 661 661
    661 661 661 661 661 659 659 659 659 606 604 604 608 609 607 607 607
    607 608 609 609 610 610 610 610 610 611 611 612 612 612 613 614 615
    615 615 615 615 618 618 619 620 621 622 622 622 622 623 624 624 625
    627 627 627 627 628 629 629 630 630 631 632 634 634 635 635 636 636
    637 637 637 638 638 640 641 641 642 643 643 643 644 644 648 649 649
    649 650 650 650 650 650 650 653 653 654 655 655 655 655 657 658 659
    661 661 662 663 664 664 664 666 666 668 668 668 668 668 670 670 671
    671 671 671 684 686 690 690 0 0 0 0 0 0 0 0 0 0 0 0 0 0 0 0 0 0 0 0
    0 0 0 0 0 662 662 661 661 659 659 662 661 661 661 661 661 661 661
    659 607 606 606 606 604 604 607 607 607 607 607 607 608 609 610 610
    610 610 611 611 611 612 612 613 613 614 614 615 615 615 615 615 619
    619 619 620 621 622 622 623 624 624 624 625 625 627 628 628 629 629
    630 630 630 631 632 634 634 635 635 635 636 637 638 640 640 640 640
    641 642 642 643 644 644 644 644 646 648 649 649 650 650 652 652 653
    654 654 654 655 655 655 657 657 657 659 659 661 661 662 663 664 664
    664 666 667 667 670 670 670 670 670 670 670 671 672 674 675 682 686
    688 690 691 693 0 0 0 0 0 0 0 0 0 0 0 0 0 0 0 0 0 0 0 0 0 0 0 661
    661 659 659 659 659 662 662 661 661 602 602 602 602 604 606 606 606
    606 606 606 607 607 607 607 607 607 608 609 610 610 610 610 611 611
    612 613 613 614 614 615 615 615 615 615 618 619 619 619 620 621 623
    623 623 624 624 624 625 625 625 628 629 629 629 630 631 630 630 631
    634 634 635 636 636 636 637 637 638 640 640 640 640 642 642 643 643
    644 644 644 646 646 649 650 650 650 652 652 653 654 655 655 655 655
    655 657 658 659 659 661 661 662 662 662 664 664 666 666 667 668 668
    670 670 670 671 670 670 671 672 674 676 678 682 683 688 691 691 693
    0 0 0 0 0 0 0 0 0 0 0 0 0 0 0 0 0 0 0 0 657 657 658 659 659 658 658
    658 659 661 662 661 602 602 602 602 602 603 604 606 606 606 606 606
    607 607 607 608 608 608 608 610 610 611 611 611 611 612 613 614 614
    614 615 615 615 616 616 618 619 619 620 620 621 623 623 624 624 624
    624 625 625 625 625 628 629 629 630 631 632 632 632 632 634 635 635
    636 637 637 638 638 640 640 641 642 642 642 643 643 644 646 646 646
    646 646 649 650 650 650 653 654 654 655 655 655 655 657 657 658 659
    661 661 661 662 663 664 664 666 666 667 667 668 668 670 670 671 671
    671 671 671 671 674 676 678 679 682 683 687 690 690 693 693 0 0 0 0
    0 0 0 0 0 0 0 0 0 0 0 0 0 654 654 655 657 658 659 659 658 657 657
    659 661 602 602 602 602 602 602 602 603 603 604 606 607 607 607 607
    607 607 608 610 610 610 611 611 611 611 611 612 613 614 614 615 615
    615 615 616 618 619 619 620 620 620 620 621 623 624 624 625 625 625
    627 627 627 627 629 629 630 631 634 634 634 634 635 635 636 637 637
    638 638 638 640 640 641 642 642 643 643 643 644 644 647 647 647 647
    649 650 650 652 652 654 654 655 655 655 657 657 658 658 659 661 661
    661 662 663 664 666 666 666 667 667 667 670 671 671 671 671 672 672
    672 671 671 674 676 679 680 682 683 687 690 690 693 693 0 0 0 0 0 0
    0 0 0 0 0 0 0 0 0 0 0 654 654 655 655 658 658 658 658 602 601 601
    601 602 602 603 603 602 602 602 603 603 604 606 606 607 607 607 607
    607 608 610 610 610 611 611 611 612 613 614 615 615 615 615 615 615
    616 618 619 619 620 620 620 621 621 622 624 624 625 625 625 627 628
    628 628 628 629 630 630 632 634 634 634 634 635 635 637 637 637 638
    640 640 640 641 641 642 643 643 643 644 644 646 648 648 648 648 650
    650 653 653 653 654 655 655 655 657 658 658 659 659 661 661 662 663
    663 664 664 666 667 667 668 670 670 671 671 671 672 674 674 674 674
    675 675 675 676 680 680 682 683 686 687 688 693 693 0 0 0 0 0 0 0 0
    0 0 0 0 0 0 0 0 0 0 655 655 655 658 658 658 600 600 601 601 601 601
    601 602 602 602 602 603 604 604 606 606 606 607 607 608 608 609 609
    610 611 611 611 612 612 613 614 615 615 615 616 618 618 618 618 619
    619 620 620 621 621 621 622 623 624 624 625 627 627 628 629 629 629
    629 630 631 632 634 634 634 634 634 636 637 637 638 638 640 641 641
    641 642 642 642 643 643 644 644 644 646 648 648 648 648 652 652 653
    654 654 655 655 655 657 657 658 659 661 661 661 662 662 664 664 666
    666 668 670 670 670 670 671 672 672 672 674 674 675 675 675 675 676
    678 679 682 682 684 684 686 687 687 690 693 0 0 0 0 0 0 0 0 0 0 0 0
    0 0 0 0 597 597 597 597 598 598 598 599 599 599 600 600 600 600 601
    602 602 603 603 603 604 606 606 606 606 607 607 608 609 610 610 611
    611 611 612 613 614 614 615 615 616 616 616 619 619 619 620 620 620
    621 622 622 622 623 623 623 627 627 627 628 628 629 630 630 630 630
    630 631 634 634 634 634 635 636 637 637 638 638 638 641 641 641 642
    642 643 643 644 644 644 646 646 648 649 649 649 649 652 653 654 654
    655 655 655 655 658 658 659 661 661 661 662 663 664 666 666 666 668
    668 670 670 671 671 672 674 674 675 675 675 675 675 676 676 678 679
    679 682 682 684 684 687 687 687 687 688 0 0 0 0 0 0 0 0 0 0 0 0 0 0
    0 0 597 597 597 597 598 598 598 598 598 599 600 600 600 600 601 602
    602 603 603 603 606 606 607 607 607 607 608 609 610 611 611 611 611
    613 613 614 615 615 615 615 619 619 619 619 619 619 620 621 621 622
    622 623 623 624 624 625 627 627 628 628 629 629 630 630 631 631 631
    634 634 634 634 635 636 637 638 638 638 638 640 641 642 642 643 643
    644 644 644 646 646 647 648 648 649 649 649 650 653 653 655 655 655
    657 657 658 659 659 661 661 662 662 663 664 664 666 666 667 668 670
    670 671 671 671 672 674 675 675 675 675 675 676 676 678 679 680 682
    683 684 686 686 687 687 686 686 687 0 0 0 0 0 0 0 0 0 0 0 0 0 0 0 0
    597 597 597 597 598 598 598 598 598 599 600 600 600 600 601 602 602
    603 603 604 606 607 607 607 608 608 609 610 611 611 611 611 612 614
    614 615 616 618 618 619 619 619 620 620 620 620 620 621 622 622 623
    623 624 624 625 625 629 629 630 629 629 629 630 631 631 632 632 634
    635 635 635 636 638 638 638 638 640 640 641 642 643 643 644 644 644
    644 646 647 648 648 648 649 649 649 650 652 653 654 655 655 657 658
    658 659 659 661 662 662 663 663 663 664 664 666 667 667 670 670 671
    671 671 672 674 675 675 676 676 676 676 676 676 678 680 682 683 684
    686 686 686 687 687 686 686 687 0 0 0 0 0 0 0 0 0 0 0 0 596 596 596
    597 596 596 596 597 598 598 598 598 599 600 600 600 600 600 601 603
    604 604 604 604 607 608 608 609 610 611 611 611 611 611 612 613 613
    614 615 615 616 618 618 619 620 620 620 620 620 621 621 622 623 623
    623 624 624 625 627 628 629 630 630 631 631 631 632 632 634 634 634
    635 635 635 636 637 638 640 640 640 641 641 642 642 643 643 644 644
    646 647 647 648 648 649 649 650 650 650 652 653 654 654 655 655 659
    659 659 659 661 661 662 663 663 664 664 666 666 667 668 668 670 671
    671 671 672 672 675 675 675 676 676 678 678 678 679 679 682 683 684
    686 686 687 687 688 687 686 686 686 0 0 0 0 0 0 0 0 592 592 592 593
    595 595 595 596 596 596 596 597 598 598 598 599 600 600 600 600 600
    600 602 604 604 604 606 607 607 609 609 610 611 611 611 612 612 612
    613 613 613 615 615 616 618 618 619 619 620 620 621 621 621 622 622
    623 623 623 624 624 625 627 627 628 630 630 630 631 631 632 634 634
    634 634 636 636 637 637 637 637 638 640 640 641 642 642 643 643 644
    644 644 644 646 647 648 648 649 649 650 650 650 652 653 654 654 655
    657 657 659 661 661 661 661 662 663 664 664 664 664 666 667 668 668
    668 671 671 672 672 674 675 675 675 676 678 678 679 679 679 680 682
    684 684 686 686 686 687 687 688 688 687 686 686 0 0 0 0 0 0 594 592
    592 592 592 593 593 595 595 596 596 596 596 597 598 598 599 599 600
    601 601 601 601 601 602 606 606 606 607 608 609 610 610 611 611 612
    613 613 613 613 614 614 616 618 618 618 619 619 619 619 620 621 621
    622 622 622 623 624 624 624 625 627 628 628 628 629 630 631 631 632
    632 634 634 635 635 635 637 638 638 638 640 640 640 641 641 643 642
    642 643 643 644 644 646 646 646 648 649 649 649 649 650 652 653 653
    654 654 655 655 657 658 661 661 661 662 662 663 664 664 666 666 666
    668 668 670 670 670 672 674 674 674 675 675 676 676 676 679 679 680
    680 680 682 684 686 686 687 687 687 687 687 690 690 688 687 687 0
    592 592 592 593 593 593 592 592 592 592 593 593 595 595 596 597 597
    597 597 598 598 600 600 600 601 601 601 601 602 603 607 608 608 609
    609 610 610 611 611 611 612 613 613 614 614 614 615 618 619 619 619
    619 619 619 620 620 621 622 622 623 623 624 625 625 627 627 627 628
    628 629 629 631 632 632 634 634 634 635 636 637 637 640 640 640 640
    640 640 641 642 642 643 643 644 644 646 646 646 647 647 648 649 649
    649 650 650 653 653 654 654 654 655 657 657 659 659 661 662 663 663
    663 664 664 666 666 667 667 668 668 670 670 671 672 674 674 675 675
    676 676 678 679 680 682 682 682 683 683 684 686 686 687 687 687 687
    688 690 691 690 690 688 593 592 592 592 592 592 592 592 592 592 594
    595 595 596 596 597 597 597 597 597 598 599 600 600 601 602 602 602
    603 604 604 608 609 609 610 610 610 611 611 611 611 612 613 614 614
    615 615 616 619 619 619 620 620 620 621 621 621 623 623 623 623 623
    624 625 625 628 628 629 629 629 629 630 632 632 632 634 634 635 635
    636 638 638 640 640 641 641 642 642 642 642 643 643 644 646 646 647
    648 648 649 649 649 649 649 650 652 653 653 654 654 655 655 657 658
    658 661 661 662 663 664 664 664 666 666 666 667 668 668 670 670 670
    671 671 674 675 675 675 675 676 678 679 680 680 683 683 683 684 684
    686 686 686 687 687 687 688 688 691 691 691 691 688 592 592 591 591
    592 592 592 593 592 592 595 596 596 596 598 598 598 598 598 598 599
    600 601 601 602 603 604 604 604 606 606 609 609 610 610 610 611 611
    612 612 612 613 614 614 615 615 616 618 619 619 620 620 620 621 621
    622 623 623 623 623 624 624 625 627 627 628 628 629 629 630 630 631
    634 634 634 635 635 636 636 637 638 640 640 640 641 643 643 643 643
    643 643 644 646 647 648 648 648 649 650 650 652 652 652 653 654 654
    655 655 655 657 657 658 658 659 661 662 663 664 664 664 666 666 667
    667 668 670 670 671 671 671 672 672 674 675 675 676 676 679 680 680
    680 682 683 684 684 686 686 686 686 686 687 687 687 688 688 691 691
    688 688 693 591 591 591 591 592 592 593 593 593 593 595 596 597 597
    599 599 599 599 599 600 601 601 603 602 602 603 606 606 606 606 607
    609 610 610 611 611 611 612 614 614 614 614 614 614 615 615 618 618
    619 620 620 620 620 621 621 622 623 624 624 624 624 625 627 627 628
    628 629 630 631 631 631 631 634 635 635 636 637 637 638 638 640 641
    641 641 642 643 643 644 644 644 644 644 646 648 648 649 649 650 650
    650 652 652 652 654 654 655 657 657 658 658 659 659 659 659 661 663
    664 664 664 666 666 666 667 668 670 670 670 671 671 672 672 674 675
    676 676 678 680 680 682 680 680 683 684 684 686 686 686 686 686 686
    687 687 687 687 688 691 691 688 688 688 591 591 591 591 591 591 593
    594 594 595 596 597 597 598 600 600 600 600 600 600 601 602 603 603
    604 604 606 608 608 608 608 610 610 611 611 612 612 614 614 615 615
    615 615 616 616 618 618 618 620 620 620 620 621 622 623 623 624 624
    625 625 627 628 628 628 629 629 630 631 631 632 632 632 634 635 635
    636 637 638 638 640 640 641 642 642 643 644 644 644 644 644 646 647
    648 649 649 649 650 652 652 652 653 653 653 654 655 655 658 658 658
    659 661 661 661 661 662 664 664 666 666 667 667 667 667 668 670 670
    671 672 672 674 674 675 676 679 679 680 682 682 682 680 680 683 684
    686 686 686 686 686 686 686 687 687 687 687 687 693 693 693 7178
    7030 592 591 591 591 591 591 593 594 595 595 596 597 597 598 600 601
    600 600 600 601 602 604 604 604 606 606 607 608 609 609 610 611 612
    612 612 612 613 614 614 615 615 615 618 618 619 619 619 620 620 620
    620 620 621 622 623 624 624 625 627 628 628 628 629 629 629 630 630
    631 632 632 632 632 635 635 636 637 638 638 640 640 640 642 643 643
    643 644 644 646 646 646 647 647 648 649 650 650 652 653 653 653 654
    654 654 654 655 655 658 659 659 661 661 662 663 663 664 666 666 666
    668 668 670 668 668 670 670 671 672 674 675 675 675 676 678 680 680
    680 682 682 682 682 682 684 686 686 686 686 686 686 686 686 686 6889
    7030 7030 6889 6889 706 706 704 704 592 591 591 592 592 593 595 596
    596 596 597 597 598 598 600 601 601 601 601 602 603 604 606 606 606
    607 608 609 609 610 610 612 613 613 613 613 613 614 614 615 616 618
    619 619 619 619 619 620 621 621 621 621 622 623 624 624 625 627 628
    628 629 629 629 629 630 631 632 632 632 634 634 634 636 636 637 638
    638 640 640 641 642 643 643 644 644 644 646 647 647 647 648 648 649
    650 650 652 653 653 654 654 654 654 655 655 657 658 658 659 659 661
    661 662 663 663 666 666 667 668 670 671 671 671 672 672 675 675 675
    675 675 676 676 679 679 680 680 680 682 682 682 683 683 686 686 686
    686 686 686 686 686 6889 6889 6889 7030 7030 6889 6889 7030 706 704
    704 0 592 592 592 593 595 596 596 596 597 597 598 598 599 600 601
    601 602 603 603 606 606 606 607 608 609 609 610 610 610 610 613 614
    614 614 614 615 615 616 618 619 619 619 620 620 620 620 622 622 622
    623 623 624 625 625 625 627 627 628 628 629 629 630 630 631 631 632
    632 634 634 635 637 637 637 637 638 640 640 641 641 643 644 644 644
    644 646 647 648 648 648 648 649 650 650 652 653 653 654 654 655 655
    657 657 657 658 658 659 659 661 661 662 663 663 664 666 667 668 670
    670 671 671 672 674 675 675 676 676 678 678 679 679 679 679 680 680
    682 682 682 682 683 683 686 686 686 686 686 7030 7178 7178 6889 6889
    6889 6889 6889 6889 6889 6889 707 704 704 0 0 593 593 593 596 596
    596 597 597 599 598 598 600 600 600 601 602 603 604 606 607 607 609
    609 610 610 610 611 611 613 613 614 615 615 616 616 618 619 619 619
    619 620 620 621 622 622 623 623 623 623 624 624 627 627 627 628 628
    629 629 629 629 630 630 631 632 632 632 634 634 636 637 637 640 640
    640 641 641 641 642 644 644 646 646 646 647 648 648 649 649 650 652
    652 652 653 653 654 654 655 655 657 657 658 658 658 659 661 661 661
    662 662 663 663 664 667 668 670 671 672 674 674 674 675 675 676 676
    676 678 678 679 679 679 680 680 682 682 682 683 683 684 686 686 686
    7030 6889 6889 7030 7178 7178 7030 6889 6889 6889 6889 6889 6889
    6889 707 706 706 0 0 0 596 596 596 596 597 598 599 600 600 600 600
    600 600 602 603 604 606 607 608 608 609 609 610 610 611 611 612 613
    614 615 615 615 618 619 619 620 620 620 620 621 621 622 623 623 624
    624 624 624 625 625 628 628 628 629 629 629 630 630 630 631 631 632
    632 634 634 635 636 637 637 638 640 640 641 642 642 643 643 644 646
    647 647 647 647 648 648 650 652 652 652 652 653 653 653 654 655 655
    655 658 658 659 659 659 659 661 661 662 663 663 664 664 666 668 670
    671 674 675 675 675 675 676 676 676 676 676 678 679 679 679 679 680
    680 682 683 683 683 683 684 684 7030 7030 7030 6889 6889 7030 7030
    7030 7030 6889 6889 6889 6889 6889 6889 6889 6889 6889 6889 0 0 0 0
    597 597 597 597 599 599 600 600 601 601 601 601 604 604 606 606 609
    609 609 610 610 610 611 611 612 613 613 614 615 616 618 619 619 619
    620 620 620 620 621 622 623 623 624 625 625 625 625 627 628 629 629
    630 630 630 630 631 631 632 632 632 634 634 635 635 636 637 637 638
    638 641 641 642 642 642 643 644 646 647 648 648 648 648 649 649 652
    653 653 653 653 653 654 654 655 657 657 658 659 659 661 661 661 661
    662 662 664 664 666 666 667 668 670 671 672 674 675 675 675 675 676
    676 676 678 678 678 679 679 680 680 680 682 682 6889 6889 6753 6753
    6753 6889 7030 7030 6889 6889 6889 6889 6889 6889 6889 6889 6889
    6889 6889 6889 6889 6889 6889 6889 6889 0 0 0 0 0 601 601 601 600
    600 600 601 601 602 603 604 604 607 607 607 609 609 610 610 610 610
    613 613 613 613 613 615 615 616 618 620 620 620 620 620 620 621 622
    623 623 624 624 625 625 627 627 628 629 629 630 630 631 631 632 632
    632 634 634 634 635 635 636 636 637 637 638 638 640 642 642 642 643
    643 644 646 646 647 648 648 648 649 650 652 653 653 653 653 653 654
    654 655 657 657 658 658 661 662 662 662 661 661 663 664 666 667 668
    668 668 670 671 671 672 674 675 675 675 675 676 676 676 678 679 679
    679 6889 6889 6889 6889 7030 7030 6889 6889 6753 6753 6753 6889 6889
    6889 6889 6889 6889 6889 6889 6889 6889 6889 6889 6889 6889 6889
    6889 6889 6889 6889 6889 0 0 0 0 0 601 601 601 600 600 601 601 602
    603 604 604 606 608 608 609 610 610 611 611 611 611 613 614 614 614
    614 616 616 618 619 620 620 621 621 621 621 622 623 624 624 624 627
    627 627 628 628 629 629 630 630 631 632 632 632 634 634 634 635 636
    637 637 637 638 638 638 638 638 640 642 643 643 644 644 644 647 647
    648 648 649 649 649 652 653 653 653 653 653 653 654 655 657 658 658
    659 661 662 663 663 663 663 664 666 667 668 668 670 670 670 670 671
    672 674 675 675 675 675 675 675 676 676 678 679 679 0 6889 6889 6889
    6889 7030 7030 6889 6889 6889 6889 6889 6889 6889 6889 6889 6889
    6889 6889 6889 6889 6889 6889 6889 7030 7030 6889 6889 6889 6889
    6889 6889 0 0 0 0 0 601 601 602 601 601 601 601 602 602 603 604 606
    608 608 609 610 610 611 611 612 612 613 614 615 615 616 618 619 619
    620 621 621 621 621 621 622 623 624 624 625 627 627 627 628 628 629
    629 630 630 631 632 632 634 635 635 635 635 636 637 637 638 638 640
    640 641 641 642 643 643 644 644 644 646 646 647 648 648 648 649 649
    650 652 653 653 654 654 654 655 657 658 658 659 659 662 663 664 664
    664 664 664 666 667 668 668 668 670 670 670 670 672 672 674 675 675
    674 674 675 675 676 676 676 676 6889 6889 6889 6889 6889 6889 6889
    7030 6889 6889 6889 6889 6889 6889 6889 6889 6889 6889 6889 6889
    7030 7030 7030 7030 7030 7030 7030 6889 6889 6889 6889 6889 6889 0 0
    0 0 0 0 603 602 602 602 602 602 602 602 603 604 607 608 609 610 610
    611 611 612 613 613 613 615 616 618 618 619 620 620 620 621 622 622
    623 623 623 624 625 627 627 628 628 628 629 629 630 630 630 632 632
    632 634 635 636 636 636 636 637 637 638 638 638 640 641 642 642 643
    643 647 647 647 646 646 646 647 648 649 649 650 652 652 653 654 654
    655 655 655 657 658 658 659 661 662 663 663 664 664 664 666 667 667
    668 668 668 670 670 670 670 670 672 672 674 675 675 674 674 674 674
    7030 6889 6889 6889 6889 6889 6889 6889 6889 6889 6889 7030 6889
    6889 6889 6889 6889 6889 6889 6889 6889 6889 6889 7030 7030 7030
    7030 7030 7030 7030 7030 7030 6889 6889 6889 6889 6889 0 0 0 0 0 0 0
    604 603 603 603 603 603 604 606 606 608 609 609 610 611 612 613 613
    613 613 613 616 618 618 619 620 620 620 620 621 622 623 623 624 624
    625 627 627 628 628 629 629 629 630 631 631 632 632 634 635 635 636
    636 636 637 637 637 638 640 640 641 642 642 642 643 643 646 648 648
    648 648 648 648 649 650 652 652 652 652 652 653 654 654 655 657 657
    658 659 659 662 662 663 664 664 664 664 666 666 667 668 668 668 668
    670 670 670 671 671 674 674 674 675 675 675 675 7030 7030 7030 7030
    6889 6889 6889 6889 6889 6889 6889 6889 6889 6889 6889 6889 6889
    6889 6889 6889 6889 6889 6889 6889 6889 7030 7030 7030 6889 6889
    7030 7030 7030 7030 6889 6889 6889 6889 6889 0 0 0 0 0 0 0 606 606
    606 604 604 604 604 606 606 609 610 610 610 611 612 613 613 614 614
    614 618 618 619 619 620 621 622 623 623 624 624 624 625 625 627 628
    628 628 629 629 629 630 630 632 632 632 632 635 635 636 637 637 637
    637 638 638 638 640 641 641 642 642 643 644 646 647 649 649 649 649
    649 649 652 653 653 653 653 654 654 654 655 655 658 658 658 659 659
    661 663 663 664 664 664 664 666 666 667 668 668 670 668 668 670 670
    670 671 672 674 674 675 675 675 6889 6889 7030 7030 7030 7030 7030
    6889 6889 6889 6889 6889 6889 6889 6889 6889 6889 6889 6889 6889
    6889 6889 6889 6889 6889 6889 6889 7030 7030 7030 6889 6889 7030
    6889 6889 7030 6889 6889 6889 6889 6889 0 0 0 0 0 0 0 0 606 606 606
    606 606 606 607 610 611 611 612 612 613 614 614 614 614 614 618 619
    619 620 620 622 622 624 624 624 624 625 625 627 628 628 628 628 629
    629 629 630 631 632 632 632 632 634 635 636 637 637 637 637 638 638
    638 640 641 642 642 643 643 644 644 646 647 649 649 649 649 650 650
    653 653 654 654 654 655 655 655 657 659 661 661 661 661 662 662 663
    663 664 664 664 664 666 666 667 668 668 670 670 670 668 668 671 674
    675 675 675 675 6753 6753 6889 6889 6889 6889 6889 6889 6889 6889
    6889 6889 6889 6889 7030 7030 6889 6889 6889 6889 6889 6889 6889
    6889 6889 6889 6889 6889 6889 6889 6889 6889 6889 6889 7030 6889
    6889 7030 7030 7030 6889 6889 6889 0 0 0 0 0 0 0 0 0 607 607 607 608
    608 610 610 611 612 613 613 614 615 616 616 618 618 619 619 620 620
    621 623 623 624 624 624 624 625 627 628 628 629 629 629 629 630 631
    632 632 632 632 634 634 634 637 637 637 637 638 638 638 640 642 642
    642 642 643 643 643 644 646 646 648 649 649 649 650 652 653 653 654
    655 655 657 658 658 658 659 661 661 661 662 663 663 663 664 664 664
    664 664 664 666 666 668 668 670 670 670 668 668 668 668 6753 6753
    6622 6622 6622 6753 6753 6753 6753 6753 6889 6889 6889 6889 6889
    6889 6889 6889 7030 7030 7030 6889 6889 6889 6889 6889 6889 6889
    6889 6889 6889 6889 6889 6889 6889 6889 6889 6889 6889 7030 6889
    6889 7030 7030 7030 7030 7030 7030 0 0 0 0 0 0 0 0 0 0 0 0 610 610
    610 610 611 612 614 615 615 616 616 618 619 619 619 619 620 621 621
    624 624 624 624 624 625 628 628 629 629 629 629 629 630 631 631 632
    634 634 634 635 635 636 637 637 638 638 640 640 641 642 642 643 643
    643 643 644 646 647 647 647 648 649 650 650 652 652 653 654 655 657
    658 658 658 659 659 661 661 661 661 662 663 663 664 664 664 664 664
    666 666 668 668 670 670 670 670 670 668 668 6753 6753 6753 6753 6753
    6622 6622 6753 6753 6753 6753 6753 6753 6753 7030 7030 7030 7030
    7030 7030 6889 6889 7030 7030 6889 6889 6889 6889 6889 6889 6889
    6889 6889 6889 7030 7030 6889 6889 6889 7030 7030 7030 7030 7030
    7030 7030 7030 7030 7030 7178 0 0 0 0 0 0 0 0 0 0 0 0 612 612 612
    613 614 615 615 615 616 618 618 618 619 619 620 620 621 622 622 624
    625 625 625 627 628 629 629 629 629 630 630 631 631 632 632 634 634
    636 636 636 636 637 638 638 638 638 641 642 642 642 643 643 643 643
    644 646 647 647 647 647 649 650 650 652 653 653 654 655 657 658 658
    659 659 659 659 661 661 661 662 663 663 663 664 664 664 664 664 666
    666 666 6622 6622 6622 6622 6753 6753 6753 6753 6753 6753 6753 6753
    6753 6753 6753 6753 6753 6753 6753 6753 6753 6753 7030 7030 7030
    7030 7030 7030 6889 6889 7030 7030 7030 7030 6889 6889 6889 6889
    6889 6889 6889 6889 7030 7030 7030 6889 6889 7030 7030 7030 7030
    7030 7030 7030 7030 7030 7178 7030 0 0 0 0 0 0 0 0 0 0 0 613 613 613
    613 614 614 615 616 616 618 618 619 619 621 621 621 621 622 622 622
    624 625 627 627 628 629 629 629 630 630 631 632 632 632 634 634 635
    635 637 637 637 637 637 638 638 640 641 642 643 643 643 644 644 644
    644 646 647 648 648 648 648 650 650 653 653 654 654 655 657 658 659
    659 659 659 661 661 661 661 661 662 663 663 663 664 664 664 664 666
    666 6622 6622 6622 6622 6622 6622 6622 6622 6622 6753 6753 6753 6753
    6753 6753 6889 6753 6753 6753 6753 6753 6753 6753 6753 6889 7030
    7030 7030 7030 7030 7030 7030 7030 7030 7030 7030 7030 7030 7030
    7030 6889 6889 6889 6889 7030 7030 7030 7030 7030 7030 7030 7030
    7030 7030 7030 7030 7030 7030 7030 7030 0 0 0 0 0 0 0 0 0 0 0 613
    613 613 614 614 615 615 616 618 619 619 620 621 622 623 623 623 622
    622 623 625 627 627 628 629 629 629 630 630 631 632 632 632 632 634
    634 635 636 637 637 637 638 638 640 640 641 642 642 643 643 644 646
    646 646 646 647 648 649 649 649 649 650 653 654 654 657 657 657 658
    659 659 659 659 659 661 661 661 662 662 663 663 663 663 664 664 664
    664 6753 6622 6622 6622 6622 6622 6622 6622 6622 6622 6622 6753 6753
    6753 6753 6753 6753 6753 6753 6753 6889 6889 6753 6753 6753 6753
    6889 7030 7030 7030 7030 7030 7030 7030 7030 7030 7030 7178 7030
    7030 7030 7030 7030 7030 7030 7030 7030 7030 7030 7030 7030 7178
    7178 7178 7030 7030 7030 7030 7030 7030 7030 7030 0 0 0 0 0 0 0 0 0
    0 0 613 613 613 614 616 616 616 616 618 620 620 621 622 622 623 623
    623 623 625 625 628 628 628 628 629 630 630 630 631 632 632 632 632
    634 634 635 635 637 637 637 638 638 638 640 641 641 642 643 643 643
    644 646 647 647 647 648 649 650 650 650 652 652 654 655 655 658 658
    658 658 659 659 659 659 661 661 661 661 662 663 663 663 663 663 6622
    6622 6753 6753 6753 6622 6622 6622 6622 6622 6622 6622 6622 6622
    6753 6753 6753 6753 6753 6753 6753 6753 6753 6753 6889 6889 6889
    6889 6889 6889 6889 7030 7030 7030 7030 7030 7030 7030 7030 7030
    7030 7030 7030 7030 7030 7030 7030 7030 7030 7030 7030 7030 7030
    7030 7030 7178 7178 7178 7178 7178 7178 7030 7030 7030 7030 7030 0 0
    0 0 0 0 0 0 0 0 0 0 614 614 616 616 618 618 618 619 621 622 622 622
    623 623 624 624 627 627 627 628 628 628 630 631 631 632 632 632 634
    634 634 635 635 635 635 637 637 638 638 638 638 640 641 642 642 643
    643 643 643 644 647 647 648 648 649 652 652 652 652 652 653 655 655
    657 658 658 658 658 659 659 659 661 661 661 661 661 662 663 663 663
    6753 6622 6622 6622 6753 6753 6753 6753 6622 6622 6753 6753 6753
    6753 6753 6753 6753 6753 6753 6753 6889 6753 6753 6753 6753 6753
    6889 6889 6889 6889 6753 6753 6889 7030 7030 7030 7030 7030 7030
    7030 7030 7030 7030 7030 7030 7030 7030 7030 7030 7030 7030 7030
    7030 7178 7030 7030 7030 7030 7030 7178 7178 7178 7178 7178 7030
    7030 7030 7030 0 0 0 0 0 0 0 0 0 0 0 0 0 618 618 618 618 618 619 619
    621 622 622 623 623 623 625 627 627 627 627 629 629 630 631 631 632
    632 634 634 634 634 636 636 636 637 637 637 638 640 640 640 640 642
    642 643 643 643 643 644 646 646 647 648 648 649 650 652 652 653 653
    653 653 655 657 657 658 658 658 658 659 659 659 661 661 661 661 661
    661 6622 6622 6753 6753 6622 6622 6622 6622 6622 6622 6753 6753 6753
    6753 6753 6753 6753 6753 6753 6753 6753 6753 6753 6889 6753 6753
    6753 6753 6889 6889 6889 6889 6889 6753 6753 6889 7030 7030 7030
    7030 7030 7030 7030 7030 7030 7030 7030 7030 7030 7030 7030 7030
    7030 7030 7030 7030 7030 7030 7030 7030 7030 7030 7178 7178 7178
    7178 7030 7030 7030 7030 7030 0 0 0 0 0 0 0 0 0 0 0 0 0 0 619 619
    619 620 620 621 623 623 623 623 623 623 625 627 628 628 628 630 630
    632 632 632 632 634 634 635 636 636 637 637 637 638 638 640 641 641
    641 642 642 643 643 643 644 644 646 646 647 648 648 648 649 652 652
    652 652 653 653 654 654 655 657 657 658 658 658 658 659 659 659 659
    659 6622 6622 6622 6622 6622 6622 6753 6753 6622 6622 6622 6622 6622
    6622 6753 6753 6753 6753 6753 6753 6753 6753 6753 6753 6753 6753
    6889 6889 6753 6753 6753 6753 6753 6753 6889 6889 6889 6753 6753
    6889 7030 7030 7030 7030 7030 7030 7030 7030 7030 7030 7030 7030
    6889 6889 6889 6889 7030 7030 7030 7030 7030 7030 7030 7030 7030
    7030 7030 7178 7178 7178 7030 7030 7030 7030 7030 0 0 0 0 0 0 0 0 0
    0 0 0 0 0 621 620 620 622 622 623 623 624 625 625 625 627 627 627
    628 628 629 631 632 632 632 632 634 635 636 637 637 637 637 637 638
    638 638 641 641 642 643 643 643 643 643 644 646 646 647 647 648 649
    649 649 650 653 652 652 653 653 653 654 655 657 657 657 658 658 659
    659 659 659 6622 6622 6622 6622 6622 6622 6622 6622 6622 6753 6753
    6753 6753 6622 6622 6622 6622 6753 6753 6753 6753 6753 6753 6753
    6753 6753 6753 6753 6753 6753 6753 6753 6753 6753 6753 6753 6753
    6889 6889 6889 6889 6889 7030 7030 7030 7030 7030 7030 7030 7030
    7030 7030 7030 7030 7178 6889 6889 6889 6889 7030 7030 7030 7030
    7030 7030 7030 7030 7030 7030 7030 7030 7178 7178 7178 7178 7030
    7030 7030 0 0 0 0 0 0 0 0 0 0 0 0 0 0 621 620 620 622 622 623 623
    624 625 625 627 627 628 629 629 629 630 632 632 632 632 632 634 635
    637 637 638 638 638 638 638 640 640 641 642 642 643 643 643 646 646
    647 647 648 648 648 649 649 650 652 652 653 652 652 653 653 653 654
    654 654 655 658 658 658 658 6497 6497 6497 6622 6622 6622 6622 6622
    6622 6622 6622 6753 6753 6753 6753 6753 6753 6753 6622 6622 6622
    6753 6753 6753 6753 6753 6753 6753 6753 6753 6753 6753 6753 6753
    6753 6753 6753 6753 6753 6753 6889 6889 6889 6889 6889 7030 7030
    7030 7030 7030 7030 7030 7030 7030 7030 7030 7178 7178 7178 7178
    7178 7030 7030 7178 7178 7178 7178 7178 7178 7030 7030 7030 7030
    7030 7178 7178 7178 7178 7030 7030 7030 0 0 0 0 0 0 0 0 0 0 0 0 0 0
    621 621 621 622 622 623 624 625 625 627 627 628 628 629 630 630 631
    632 634 634 634 634 635 636 637 637 638 638 638 638 640 641 641 642
    643 643 644 644 646 646 647 648 648 648 649 649 650 650 652 652 652
    653 653 653 653 653 653 653 653 653 655 655 6622 6622 6497 6497 6497
    6497 6622 6622 6622 6622 6622 6622 6622 6753 6753 6622 6622 6622
    6753 6753 6753 6753 6622 6622 6753 6753 6889 6753 6753 6753 6753
    6753 6753 6753 6889 7030 6889 6889 6889 6889 6753 6753 6753 6889
    6889 6889 7178 7030 7030 7030 7030 7030 7030 7030 7178 7030 7030
    7030 7030 7030 7178 7178 7178 7178 7178 7178 7178 7178 7178 7178
    7178 7178 7030 7030 7030 7030 7178 7178 7178 7178 7178 7030 7030
    7030 0 0 0 0 0 0 0 0 0 0 0 0 0 0 0 622 622 623 623 624 625 627 627
    628 628 628 629 629 630 631 631 634 634 634 634 634 635 636 637 638
    638 638 640 641 642 642 642 643 644 644 646 646 647 647 648 648 648
    649 649 649 650 652 653 653 653 653 653 653 653 653 653 653 653 653
    653 6622 6622 6622 6622 6497 6497 6497 6497 6622 6622 6622 6622 6622
    6622 6622 6622 6622 6622 6622 6753 6753 6753 6753 6753 6753 6753
    6889 6889 6889 6753 6753 6753 6889 6889 6889 7030 7030 6889 6889
    6889 6889 6753 6753 6753 6753 6889 6889 7030 7030 7030 7030 7030
    7030 7030 7030 7178 7030 7030 7030 7030 7030 7030 7178 7178 7178
    7030 7030 7030 7178 7178 7178 7178 7178 7030 7030 7178 7178 7178
    7178 7178 7178 7030 7030 7030 7030 0 0 0 0 0 0 0 0 0 0 0 0 0 0 0 623
    623 624 624 625 627 627 628 628 628 628 629 630 631 632 632 634 635
    635 635 636 637 637 638 638 640 640 641 642 642 643 643 644 646 646
    647 647 648 648 648 648 649 649 649 648 648 652 653 653 654 654 654
    654 6497 6497 6497 6146 6146 6146 6375 6622 6622 6622 6622 6497 6497
    6497 6497 6622 6622 6622 6622 6622 6622 6622 6622 6622 6622 6753
    6753 6753 6753 6753 6753 6753 6753 6889 6889 6753 6753 6753 6753
    6889 6889 6889 7030 7030 6889 6889 6889 6889 6753 6753 6753 6753
    6889 6889 7030 7030 7030 7030 7030 7030 7030 7030 7178 7178 7030
    7030 7030 7030 7030 7178 7178 7030 7030 7030 7030 7030 7178 7178
    7178 7178 7030 7030 7178 7178 7178 7178 7178 7178 7030 7030 7030
    7030 0 0 0 0 0 0 0 0 0 0 0 0 0 0 0 624 624 625 627 627 628 628 628
    628 628 629 629 630 632 632 634 635 635 636 636 637 638 638 638 638
    640 641 642 643 643 643 644 646 647 647 647 647 648 648 649 649 649
    649 649 648 648 652 654 654 654 6375 6375 6375 6497 6497 6497 6375
    6146 6146 6375 6497 6622 6622 6622 6497 6497 6497 6622 6622 6622
    6622 6622 6622 6622 6622 6753 6622 6622 6753 6753 6753 6753 6753
    6753 6889 6889 6889 6889 6753 6753 6753 6753 6889 6889 6889 7030
    7030 7030 6889 6889 6889 6889 6753 6753 6753 6889 6889 7030 7030
    7030 7030 7030 7030 7030 7030 7178 7178 7178 7178 7178 7178 7178
    7178 7178 7030 7030 7030 7030 7030 7178 7178 7178 7178 7178 7178
    7332 7332 7178 7178 7178 7178 7030 7030 7030 7030 0 0 0 0 0 0 0 0 0
    0 0 0 0 0 0 624 624 625 627 628 628 628 629 629 629 630 630 631 632
    632 634 636 637 637 638 638 640 640 641 642 643 643 643 643 643 644
    644 647 647 647 648 648 648 649 649 649 649 649 649 649 649 6375
    6375 6259 6375 6375 6375 6375 6375 6497 6497 6375 6375 6375 6497
    6497 6497 6497 6497 6497 6497 6622 6622 6753 6622 6622 6622 6622
    6622 6622 6753 6753 6753 6753 6753 6753 6753 6753 6753 6889 6889
    6889 6889 6753 6753 6753 6753 6889 6889 7030 6889 6889 6889 6889
    6889 6889 6889 6889 6889 6889 6889 6889 6889 6889 7030 7030 7030
    7030 7030 7030 7178 7178 7178 7178 7178 7178 7178 7178 7178 7030
    7030 7030 7030 7030 7178 7178 7178 7178 7178 7178 7332 7332 7178
    7178 7178 7178 7178 7178 7178 7178 0 0 0 0 0 0 0 0 0 0 0 0 0 0 0 0
    625 625 627 628 629 629 629 630 630 631 631 632 634 634 635 637 637
    638 640 641 641 641 642 642 644 644 644 644 644 646 647 647 647 647
    647 648 648 649 649 649 650 650 650 0 6375 6375 6375 6259 6375 6375
    6375 6375 6375 6497 6497 6497 6497 6497 6497 6497 6497 6497 6497
    6497 6497 6497 6497 6753 6622 6622 6753 6753 6622 6622 6753 6753
    6753 6753 6753 6753 6753 6753 6753 6889 6889 6889 6889 6753 6753
    6753 6753 6889 6889 7030 6889 6889 6889 6889 6889 6889 6889 6889
    6889 6889 6889 6889 6889 6889 6889 6889 7030 7030 7030 7178 7178
    7178 7178 7178 7178 7178 7178 7178 7178 7178 7178 7178 7178 7030
    7030 7030 7178 7178 7178 7178 7332 7178 7178 7178 7178 7178 7178
    7178 7178 7178 0 0 0 0 0 0 0 0 0 0 0 0 0 0 0 0 625 625 628 628 629
    629 631 631 632 632 632 632 634 635 636 637 638 640 640 641 641 641
    642 643 644 646 647 647 647 647 647 647 647 646 646 648 648 649 649
    0 0 6038 6497 6375 6375 6375 6375 6259 6259 6259 6375 6497 6497 6497
    6497 6497 6497 6497 6497 6497 6497 6497 6622 6497 6497 6497 6497
    6622 6753 6753 6753 6753 6753 6753 6753 6753 6753 6753 6753 6753
    6753 6753 6753 6889 6889 6889 6889 6889 6889 6889 6889 7030 7030
    7030 6889 6889 6889 6889 7030 7030 7030 7030 7030 7030 6889 6889
    7030 7030 6889 6889 7030 7030 7030 7178 7178 7178 7178 7178 7178
    7178 7178 7178 7178 7178 7178 7178 7178 7030 7030 7030 7178 7178
    7178 7178 7332 7178 7178 7178 7178 7178 7178 7178 7332 7178 0 0 0 0
    0 0 0 0 0 0 0 0 0 0 0 0 0 629 629 630 630 630 632 632 632 632 632
    632 635 636 637 637 640 641 641 642 642 642 643 643 646 646 647 647
    647 647 647 647 647 646 646 0 0 0 0 0 0 6038 6497 6497 6375 6375
    6375 6259 6259 6259 6375 6497 6497 6497 6497 6497 6497 6497 6497
    6497 6497 6497 6622 6497 6497 6497 6497 6622 6753 6753 6753 6753
    6753 6753 6753 6753 6753 6753 6753 6753 6753 6753 6753 6889 6889
    6889 6889 6889 6889 6889 6889 7030 7030 7030 7030 6889 6889 7030
    7030 7030 7030 6889 6889 6889 6889 7030 7030 7178 7030 7030 7178
    7178 7178 7178 7178 7178 7178 7178 7178 7178 7178 7178 7178 7178
    7178 7332 7178 7178 7178 7178 7178 7178 7178 7178 7332 7178 7178
    7178 7178 7178 7178 7332 7178 7178 0 0 0 0 0 0 0 0 0 0 0 0 0 0 0 0 0
    631 631 632 632 632 632 632 632 632 634 634 636 637 637 637 641 642
    642 642 642 643 643 644 646 647 647 647 647 647 646 646 647 647 0 0
    0 0 0 0 0 6038 6038 6038 6259 6259 6375 6375 6375 6375 6497 6497
    6497 6497 6497 6497 6497 6497 6497 6497 6497 6497 6622 6497 6497
    6497 6497 6622 6753 6753 6753 6753 6753 6753 6753 6753 6753 6889
    6753 6753 6753 6889 6889 6889 6889 6889 6889 6889 6889 6889 7030
    7030 7030 6889 6889 6889 6889 6889 6889 6889 6889 6889 6889 6889
    6889 7030 7030 7178 7030 7030 7178 7178 7178 7178 7178 7178 7178
    7178 7178 7178 7178 7178 7178 7178 7178 7178 7332 7178 7178 7178
    7178 7178 7178 7178 7178 7332 7332 7332 7178 7178 7332 7332 7178
    7178 0 0 0 0 0 0 0 0 0 0 0 0 0 0 0 0 0 634 634 634 632 632 632 634
    634 635 635 636 637 637 638 640 642 642 643 643 643 643 643 643 646
    647 647 647 647 644 644 646 0 0 0 0 0 0 0 0 5734 5734 5734 5933 6259
    6259 6375 6375 6375 6497 6497 6497 6497 6497 6497 6622 6622 6497
    6497 6497 6497 6497 6622 6622 6622 6622 6622 6753 6753 6753 6753
    6753 6753 6753 6753 6889 6889 6889 6889 6753 6753 6889 6889 6889
    7030 6889 6889 6889 6889 7030 7030 7030 6889 6889 6889 6889 6889
    6889 6889 6889 6889 6889 6889 6889 7030 7030 7030 7178 7178 7178
    7178 7178 7178 7178 7178 7178 7178 7178 7178 7332 7178 7178 7178
    7178 7178 7178 7332 7178 7178 7178 7178 7178 7178 7178 7178 7332
    7332 7332 7332 7332 7332 7332 7178 7178 0 0 0 0 0 0 0 0 0 0 0 0 0 0
    0 0 0 0 0 635 635 635 635 636 637 636 636 637 637 638 641 641 642
    643 643 644 644 644 643 643 646 647 648 648 647 644 644 0 0 0 0 0 0
    0 0 5460 5374 5374 5460 5640 6146 6146 6259 6375 6375 6497 6497 6497
    6497 6497 6497 6622 6497 6497 6497 6497 6497 6497 6497 6622 6622
    6497 6497 6753 6753 6753 6753 6753 6753 6753 6753 6889 6889 6889
    6753 6753 6753 6889 6889 6889 7030 6889 6889 6889 6889 7030 7030
    7030 6889 6889 6889 6889 6889 6889 6889 6889 6889 6889 6889 6889
    7030 7030 7030 7030 7178 7178 7178 7178 7178 7178 7178 7178 7178
    7332 7332 7332 7178 7178 7178 7178 7178 7178 7332 7332 7332 7178
    7178 7178 7030 7030 7178 7332 7332 7332 7332 7332 7332 7332 7178
    7178 0 0 0 0 0 0 0 0 0 0 0 0 0 0 0 0 0 0 0 636 636 636 637 637 638
    638 638 640 640 641 641 641 643 643 644 644 644 644 644 0 0 0 0 0 0
    0 0 0 0 0 0 0 0 0 0 5374 5374 5374 5374 5460 5734 6038 6259 6375
    6375 6375 6497 6497 6497 6497 6622 6497 6497 6497 6497 6497 6497
    6497 6497 6622 6622 6497 6497 6753 6753 6753 6753 6753 6753 6753
    6889 6889 6889 6889 6753 6753 6753 6753 6753 6753 6889 6889 6889
    7030 7030 7030 7030 7030 6889 6889 6889 6889 6889 6889 6889 6889
    6889 6889 6889 6889 7030 7030 7030 7030 7178 7178 7178 7178 7178
    7178 7178 7178 7178 7332 7332 7178 7178 7178 7178 7178 7178 7178
    7332 7332 7332 7178 7178 7178 7030 7030 7178 7178 7332 7332 7332
    7332 7178 7178 7178 7178 0 0 0 0 0 0 0 0 0 0 0 0 0 0 0 0 0 0 0 636
    636 636 637 637 638 638 638 640 641 641 641 641 644 644 644 644 0 0
    0 0 0 0 0 0 0 0 0 0 0 0 0 0 0 0 0 5374 5374 5374 5374 5460 5640 6038
    6259 6375 6375 6375 6497 6497 6497 6497 6622 6497 6497 6497 6497
    6497 6497 6497 6497 6622 6622 6497 6497 6753 6753 6753 6753 6753
    6753 6753 6753 6889 6889 6753 6753 6753 6753 6753 6753 6753 6889
    6889 6889 7030 6889 6889 6889 6889 6889 6889 6889 6889 6889 6889
    6889 7030 7030 7030 7030 7030 7030 7030 7030 7178 7178 7178 7178
    7178 7178 7178 7178 7178 7332 7332 7332 7178 7178 7178 7178 7178
    7178 7178 7178 7332 7332 7178 7178 7178 7178 7178 7178 7178 7178
    7332 7332 7332 7178 7178 7178 7178 0 0 0 0 0 0 0 0 0 0 0 0 0 0 0 0 0
    0 0 0 637 637 637 637 640 640 640 641 641 641 641 0 0 0 0 0 0 0 0 0
    0 0 0 0 0 0 0 0 0 0 0 0 0 0 5374 5374 5374 5374 5374 5460 5374 5291
    5291 6375 6375 6375 6497 6497 6497 6497 6497 6497 6497 6497 6497
    6497 6497 6497 6622 6622 6622 6622 6622 6753 6753 6753 6753 6753
    6753 6753 6753 6753 6889 6753 6753 6753 6753 6753 6753 6753 6889
    6889 6889 6889 6889 6889 6889 6889 7030 7030 6889 6889 7030 7030
    7030 7030 7030 7030 7030 7030 7030 7030 7178 7178 7178 7178 7178
    7178 7178 7178 7178 7332 7332 7332 7332 7178 7178 7178 7178 7178
    7178 7178 7178 7332 7332 7332 7178 7178 7178 7178 7178 7178 7178
    7332 7332 7332 7178 7178 7178 7178</data></Depth11870>
</opencv_storage>
