<?xml version="1.0"?>
<opencv_storage>
<Depth2831 type_id="opencv-matrix">
  <rows>34</rows>
  <cols>44</cols>
  <dt>w</dt>
  <data>
    2639 4842 4774 4774 4708 4645 4645 4645 2659 2659 2659 2659 2659
    2659 2659 2659 4645 4645 4645 4645 4645 4645 4645 4645 4645 4582
    4582 4582 4582 4582 4522 4522 4522 4522 4522 4522 4522 4463 4463
    4463 4463 4463 4405 4405 2639 4842 4774 4774 4774 4708 4645 2680
    2659 2659 2659 2659 2659 2639 2639 2659 2659 2659 2680 2680 2680
    4582 4582 4645 4645 4582 4582 4582 4582 4582 4582 4582 4522 4522
    4522 4522 4522 4463 4463 4463 4463 4463 4463 4463 2639 2639 4842
    4774 4774 2639 2639 2639 2659 2659 2659 2659 2659 2639 2639 2639
    2659 2659 2680 2680 2659 2659 2659 2659 2659 4582 4582 4582 4582
    4582 4582 4582 4522 4522 4522 4522 4522 4463 4463 4463 4463 4463
    4463 4463 2639 4842 4842 4842 2618 2618 2639 2639 2639 2639 2659
    2639 2639 2639 2639 2639 2659 2659 2680 2659 2659 2659 2659 2659
    2659 2659 2659 2639 2639 2639 2639 2639 4582 4582 4522 4522 4522
    4522 4522 4522 4522 4522 4522 4522 2639 4842 4842 4842 2618 2618
    2618 2639 2639 2639 2639 2639 2639 2639 2639 2659 2659 2659 2680
    2659 2639 2639 2639 2639 2659 2659 2659 2639 2639 2639 2639 2639
    2639 2639 2639 2639 4522 4522 4522 4522 4522 4522 4522 4522 2639
    4842 4842 2659 2639 2618 2618 2639 2639 2639 2639 2639 2639 2639
    2639 2659 2639 2639 2639 2659 2639 2639 2639 2639 2639 2659 2639
    2639 2639 2639 2639 2639 2639 2639 2639 2639 2639 2639 4522 4582
    4582 4582 4582 4522 2618 4842 4842 2659 2639 2618 2618 2618 2618
    2618 2618 2618 2618 2639 2639 2639 2639 2639 2639 2639 2639 2639
    2639 2639 2639 2639 2639 2639 2639 2639 2639 2639 2639 2639 2639
    2639 2639 2639 2639 4582 2639 2639 4582 4522 2618 4911 2639 2639
    2639 2618 2618 2618 2618 2618 2618 2618 2618 2618 2618 2618 2618
    2618 2639 2639 2639 2639 2639 2639 2639 2639 2639 2639 2639 2639
    2639 2639 2639 2639 2639 2639 2639 2639 2639 2639 2639 2639 2639
    2659 2598 4911 2618 2598 2598 2618 2618 2618 2618 2618 2618 2618
    2618 2618 2618 2618 2618 2618 2639 2639 2639 2639 2639 2639 2639
    2639 2639 2639 2639 2639 2639 2639 2639 2639 2639 2639 2639 2639
    2639 2639 2639 2639 2639 2659 2598 2579 2579 2579 2579 2579 2579
    2579 2579 2579 2579 2618 2598 2598 2598 2598 2618 2618 2618 2618
    2618 2618 2618 2618 2618 2618 2639 2618 2618 2618 2618 2618 2618
    2639 2639 2639 2639 2639 2639 2639 2639 2639 2639 2639 5056 2579
    2560 2560 2560 2560 2560 2579 2579 2579 2579 2618 2598 2598 2598
    2598 2598 2598 2618 2618 2618 2618 2618 2618 2618 2618 2618 2618
    2618 2618 2618 2618 2618 2639 2639 2639 2639 2639 2639 2639 2639
    2639 2639 2639 2618 2579 2560 2560 2560 2560 2560 2579 2579 2598
    2598 2598 2598 2598 2598 2598 2598 2579 2579 2598 2598 2618 2618
    2598 2598 2598 2598 2618 2618 2598 2598 2618 2618 2618 2618 2618
    2618 2618 2639 2639 2639 2639 2639 2639 2618 2579 2560 2560 2560
    2560 2560 2579 2579 2598 2579 2579 2579 2598 2598 2579 2579 2579
    2579 2579 2579 2598 2598 2598 2598 2598 2598 2598 2598 2598 2598
    2598 2598 2598 2618 2618 2618 2618 2618 2639 2639 2639 2639 2618
    2639 2618 2579 2560 2560 2560 2579 2579 2579 2579 2579 2579 2579
    2579 2579 2579 2579 2579 2579 2579 2579 2598 2598 2579 2579 2579
    2579 2579 2598 2579 2579 2579 2598 2598 2598 2618 2618 2618 2618
    2618 2639 2639 2639 2618 2639 2618 2598 2579 2560 2560 2579 2579
    2579 2579 2579 2579 2579 2579 2560 2560 2560 2560 2560 2560 2560
    2560 2579 2579 2579 2579 2579 2579 2598 2579 2579 2579 2579 2579
    2579 2598 2598 2598 2618 2618 2618 2639 2639 2639 2639 2618 2598
    2579 2579 2579 2579 2579 2579 2579 2579 2560 2560 2560 2560 2560
    2560 2560 2560 2560 2560 2560 2560 2579 2560 2560 2560 2560 2579
    2579 2560 2560 2560 2560 2579 2579 2579 2598 2598 2618 2618 2639
    2659 2680 2618 2618 2598 2598 2598 2598 2598 2579 2579 2579 2579
    2560 2560 2560 2560 2560 2560 2560 2560 2560 2560 2560 2560 2579
    2560 2560 2560 2560 2560 2560 2560 2560 2560 2560 2560 2560 2560
    2579 2598 2598 2598 2618 2659 2659 2618 2618 2618 2598 2598 2598
    2598 2579 2579 2579 2579 2579 2560 2560 2560 2560 2560 2560 2560
    2560 2560 2560 2560 2560 2560 2560 2560 2560 2560 2560 2560 2560
    2560 2560 2560 2560 2560 2560 2579 2598 2598 2618 2659 4708 2598
    2598 2598 2618 2618 2618 2598 2579 2579 2579 2579 2579 2560 2560
    2560 2560 2560 2560 2560 2560 2560 2560 2560 2560 2560 2560 2560
    2560 2541 2541 2541 2560 2560 2560 2541 2541 2560 2560 2560 2579
    2639 2639 4708 4708 2598 2598 2598 2618 2618 2618 2598 2598 2598
    2598 2598 2598 2579 2560 2560 2560 2560 2560 2560 2560 2560 2560
    2560 2560 2560 2560 2560 2541 2541 2541 2541 2541 2541 2560 2541
    2541 2541 2541 2560 2579 4774 4774 4774 4774 2618 2598 2598 2618
    2618 2618 2618 2618 2598 2598 2598 2598 2579 2560 2560 2560 2560
    2560 2560 2560 2560 2560 2560 2560 2560 2560 2560 2541 2541 2541
    2541 2541 2541 2541 2541 2541 2541 2541 2541 2579 4842 4842 4842
    4774 5210 5210 2618 2618 2618 2618 2618 2618 2618 2618 2598 2598
    2598 2579 2579 2579 2579 2579 2579 2579 2560 2560 2560 2560 2560
    2560 2560 2541 2541 2541 2541 2541 2541 2541 2541 2522 2522 2522
    2541 2560 4842 4842 4842 4774 5210 5210 5291 2618 2618 2618 2618
    2618 2618 2618 2618 2618 2598 2598 2598 2579 2579 2579 2579 2579
    2579 2579 2579 2560 2560 2560 2560 2560 2541 2541 2541 2541 2541
    2541 2541 2522 2522 2503 2503 2541 4842 4842 4842 4842 5210 5291
    5291 5291 5291 2639 2639 2639 2639 2618 2618 2618 2598 2598 2598
    2579 2579 2579 2579 2579 2579 2579 2579 2579 2560 2560 2560 2560
    2541 2541 2541 2560 2541 2541 2541 2522 2522 2503 2503 2541 4842
    4842 4842 4842 5291 5291 5291 5291 5291 5291 5291 5291 2639 2618
    2618 2618 2618 2598 2598 2598 2598 2598 2579 2579 2579 2579 2598
    2579 2579 2560 2560 2560 2560 2541 2541 2560 2541 2541 2541 2541
    2541 2522 2522 4842 4842 4842 4842 4842 5291 5291 5291 5291 5291
    5291 5291 5291 5210 5210 5210 5210 2618 2598 2598 2579 2579 2579
    2598 2598 2598 2598 2598 2579 2579 2560 2560 2560 2560 2541 2541
    2560 2560 2541 2541 2541 2541 2541 2560 4842 4842 4911 4911 4911
    5374 5291 5291 5374 5291 5291 5291 5291 5210 5210 5210 5210 5210
    5210 5210 2579 2560 2560 2579 2579 2598 2598 2598 2579 2579 2579
    2560 2560 2560 2560 2560 2560 2560 2541 2541 2560 2560 2560 2560
    4911 4911 4911 4911 4911 5374 5291 5291 5374 5291 5291 5291 5291
    5210 5210 5210 5210 5210 5210 5210 5210 2560 2560 2579 2579 2579
    2579 2579 2579 2579 2579 2560 2560 2560 2560 2560 2560 2560 2541
    2541 2560 2560 2560 2560 4842 4911 4911 4911 4911 5374 5460 5374
    5374 5291 5291 5291 5291 5210 5210 5210 5210 5210 5210 5210 5210
    5210 5210 5210 5132 2579 2579 2579 2579 2579 2579 2579 2579 2560
    2560 2560 2560 2560 2541 2541 2560 2560 2560 4842 4842 4911 4911
    4911 4911 5460 5374 5374 5374 5374 5291 5291 5291 5291 5291 5291
    5291 5291 5291 5291 5291 5210 5210 5210 5210 5210 5210 5210 5210
    2579 2579 2560 2560 2560 2560 2579 2579 2560 2560 2560 2560 2560
    2560 2560 4911 4911 4911 4911 4911 5460 5374 5374 5374 5374 5374
    5374 5291 5291 5291 5374 5291 5291 5291 5291 5291 5291 5291 5210
    5210 5210 5210 5210 5210 5210 5132 2560 2560 2560 2560 2579 2579
    2579 2560 2560 2560 2560 2560 2618 4911 4911 4911 4911 4911 5460
    5460 5460 5460 5460 5374 5374 5374 5374 5374 5374 5374 5374 5291
    5291 5291 5291 5291 5210 5210 5210 5210 5210 5210 5210 5132 5132
    5132 5132 2598 2579 2579 2579 2560 2560 2560 2598 2598 2598 4983
    4911 4911 4911 4911 5548 5460 5460 5460 5460 5374 5374 5374 5374
    5374 5374 5374 5374 5374 5374 5291 5291 5291 5210 5210 5210 5210
    5210 5210 5210 5210 5210 5210 5210 5210 5210 5132 5132 2579 2560
    2560 2598 2598 2598 4983 4983 4983 4983 4983 5548 5460 5460 5460
    5460 5460 5460 5460 5460 5460 5460 5460 5374 5374 5374 5291 5291
    5291 5210 5210 5210 5210 5210 5210 5210 5210 5210 5210 5210 5210
    5210 5132 5132 5132 5132 2579 2579 2560 2560 5132 5056 5056 5056
    4983</data></Depth2831>
</opencv_storage>
