<?xml version="1.0"?>
<opencv_storage>
<Depth10387 type_id="opencv-matrix">
  <rows>58</rows>
  <cols>52</cols>
  <dt>w</dt>
  <data>
    1322 1322 1322 1312 1312 1312 1307 1307 1297 1297 1292 1288 1283
    1278 1273 1268 1259 1259 1259 1259 1259 1264 1268 1273 1278 1283
    1292 1292 1297 1297 1312 1328 1328 1333 1333 1333 1343 1354 1365
    1365 1370 1376 1387 1387 1387 0 0 0 3732 3732 3732 3732 1322 1322
    1317 1312 1312 1312 1307 1302 1297 1297 1292 1288 1283 1278 1273
    1259 1259 1259 1259 1259 1259 1264 1268 1273 1278 1283 1292 1292
    1292 1297 1312 1328 1328 1333 1333 1333 1343 1354 1359 1365 1370
    1376 1387 1387 1387 0 0 0 3732 3732 3732 3732 1322 1322 1317 1312
    1312 1312 1307 1302 1297 1297 1292 1292 1283 1278 1273 1259 1259
    1259 1259 1259 1259 1264 1268 1273 1278 1283 1288 1292 1292 1292
    1312 1322 1328 1333 1333 1333 1338 1359 1359 1359 1365 1376 1387
    1387 1387 1392 0 0 3732 3732 3732 3732 1322 1322 1317 1312 1312 1312
    1307 1302 1297 1297 1292 1292 1283 1278 1273 1268 1264 1264 1264
    1264 1264 1264 1268 1273 1278 1283 1288 1292 1292 1292 1307 1307
    1317 1328 1333 1333 1338 1359 1359 1359 1359 1376 1387 1387 1387
    1392 1392 0 3732 3732 3732 3692 1322 1322 1317 1317 1317 1317 1312
    1307 1302 1297 1292 1292 1288 1278 1273 1268 1268 1259 1259 1264
    1264 1264 1268 1273 1278 1278 1283 1288 1292 1292 1307 1307 1312
    1317 1328 1333 1349 1354 1359 1359 1359 1376 1387 1392 1392 1404
    1433 0 3732 3732 3692 3692 1328 1328 1328 1322 1322 1317 1312 1307
    1302 1302 1297 1292 1288 1278 1273 1268 1268 1259 1259 1259 1259
    1264 1268 1273 1273 1278 1283 1288 1297 1302 1307 1307 1312 1317
    1328 1333 1349 1349 1359 1359 1359 1376 1387 1387 1398 1404 1433 0
    3732 3732 3692 3692 1328 1328 1328 1328 1322 1317 1312 1307 1302
    1302 1297 1292 1288 1278 1273 1273 1268 1259 1259 1259 1259 1264
    1268 1273 1273 1278 1283 1288 1297 1302 1312 1317 1317 1317 1328
    1333 1349 1349 1359 1359 1365 1370 1381 1381 1387 1404 1404 1404
    3732 3732 3692 3692 1328 1328 1328 1328 1328 1322 1312 1307 1307
    1302 1297 1292 1283 1278 1273 1273 1268 1264 1259 1259 1264 1264
    1268 1273 1278 1278 1283 1288 1297 1297 1312 1312 1317 1317 1328
    1333 1343 1349 1359 1359 1370 1370 1381 1381 1387 1398 1398 0 3732
    3732 3732 3732 1328 1328 1328 1328 1328 1322 1312 1307 1307 1302
    1297 1292 1283 1278 1278 1273 1268 1264 1264 1264 1264 1264 1264
    1273 1278 1278 1283 1288 1297 1297 1307 1312 1317 1322 1328 1333
    1343 1349 1359 1359 1365 1370 1381 1381 1387 1392 1392 1387 0 3732
    3732 3732 1328 1328 1328 1328 1328 1322 1317 1312 1307 1302 1302
    1292 1288 1278 1278 1273 1273 1268 1264 1259 1259 1259 1264 1273
    1278 1278 1283 1288 1297 1297 1302 1307 1312 1317 1322 1333 1349
    1349 1354 1359 1365 1370 1381 1381 1387 1387 1387 1387 0 3732 3732
    3732 0 1328 1328 1328 1328 1328 1317 1312 1307 1302 1302 1292 1288
    1283 1278 1273 1273 1268 1264 1259 1259 1259 1264 1273 1278 1278
    1278 1283 1297 1297 1302 1307 1312 1317 1322 1333 1343 1349 1354
    1359 1365 1370 1381 1381 1387 1387 1387 1387 3732 3732 3732 3732 0
    1328 1328 1333 1333 1328 1317 1312 1312 1307 1302 1292 1288 1283
    1278 1278 1273 1268 1264 1259 1259 1264 1268 1273 1273 1278 1278
    1283 1292 1297 1302 1302 1307 1317 1328 1333 1343 1349 1354 1354
    1359 1376 1381 1381 1381 1381 1387 1387 0 3732 3732 3732 1328 1328
    1328 1333 1333 1328 1317 1317 1312 1307 1302 1297 1292 1288 1283
    1278 1273 1268 1264 1264 1264 1264 1268 1268 1273 1278 1278 1283
    1292 1297 1302 1302 1307 1317 1333 1338 1343 1349 1349 1354 1359
    1370 1381 1381 1381 1381 1387 1387 3732 3732 3732 3732 1333 1333
    1333 1333 1333 1328 1322 1317 1317 1312 1307 1297 1292 1292 1283
    1278 1273 1268 1264 1264 1264 1264 1268 1268 1273 1278 1278 1283
    1292 1297 1302 1302 1302 1312 1333 1338 1338 1349 1349 1354 1359
    1365 1381 1381 1387 1387 1387 1387 3774 3774 3732 3732 0 1333 1333
    1333 1333 1333 1322 1317 1317 1312 1307 1302 1292 1292 1288 1278
    1273 1273 1268 1264 1264 1264 1264 1264 1273 1278 1278 1283 1292
    1297 1297 1297 1302 1312 1333 1338 1338 1349 1349 1354 1359 1365
    1381 1381 1387 1387 1387 1387 3732 3732 3732 3732 0 1333 1333 1333
    1333 1333 1328 1317 1317 1312 1307 1302 1297 1292 1288 1283 1278
    1273 1268 1264 1264 1264 1264 1264 1273 1278 1283 1288 1292 1297
    1297 1297 1302 1312 1333 1333 1333 1343 1349 1354 1359 1365 1381
    1381 1387 1387 1387 1387 3732 3732 3732 3732 3539 1333 1333 1333
    1333 1333 1322 1317 1317 1312 1307 1302 1297 1292 1288 1288 1278
    1273 1268 1264 1264 1264 1264 1264 1268 1278 1278 1288 1292 1297
    1297 1302 1302 1312 1333 1333 1333 1338 1349 1359 1359 1365 1381
    1381 1387 1387 1387 1387 3732 3732 3732 3732 0 1333 1333 1333 1333
    1333 1322 1317 1317 1312 1307 1302 1292 1292 1288 1288 1278 1273
    1268 1268 1264 1264 1264 1268 1268 1273 1278 1288 1292 1297 1297
    1302 1302 1312 1333 1333 1333 1338 1343 1354 1359 1365 1381 1381
    1387 1387 1387 1387 3732 3732 3732 3732 0 1333 1333 1328 1328 1333
    1328 1322 1317 1312 1307 1302 1292 1292 1288 1288 1278 1278 1273
    1268 1264 1264 1264 1268 1268 1273 1278 1283 1292 1297 1297 1302
    1307 1322 1333 1333 1333 1338 1343 1354 1354 1359 1376 1381 1387
    1392 1392 1398 1398 3732 3732 3732 3539 1333 1333 1328 1328 1333
    1328 1322 1317 1312 1307 1302 1292 1292 1283 1283 1278 1278 1273
    1273 1264 1264 1264 1273 1273 1273 1278 1283 1292 1297 1297 1302
    1307 1322 1333 1333 1333 1338 1338 1349 1354 1359 1370 1381 1387
    1392 1398 1398 1398 3732 3732 3732 3539 0 1333 1333 1333 1333 1333
    1322 1317 1312 1307 1302 1292 1292 1283 1283 1278 1278 1273 1273
    1264 1264 1264 1268 1273 1273 1278 1283 1292 1297 1297 1307 1312
    1322 1328 1333 1333 1338 1338 1349 1354 1354 1365 1376 1381 1392
    1398 1404 1404 3732 3732 3732 3539 3539 1333 1333 1333 1333 1333
    1322 1317 1317 1312 1312 1307 1297 1288 1283 1278 1278 1278 1273
    1268 1264 1264 1264 1268 1273 1278 1283 1292 1297 1297 1302 1307
    1317 1328 1333 1333 1338 1338 1349 1354 1354 1365 1376 1381 1387
    1392 1398 1404 1404 3732 3732 3539 0 1333 1333 1333 1333 1333 1322
    1317 1317 1312 1312 1307 1297 1292 1288 1283 1278 1278 1273 1268
    1264 1264 1264 1264 1268 1278 1278 1288 1297 1297 1297 1307 1317
    1322 1333 1333 1338 1338 1349 1354 1359 1365 1370 1381 1387 1392
    1398 1398 1398 3774 3774 3539 0 1333 1333 1333 1338 1333 1328 1322
    1317 1317 1312 1312 1297 1292 1288 1288 1283 1278 1273 1273 1268
    1264 1264 1264 1268 1278 1278 1288 1292 1297 1297 1307 1317 1322
    1333 1333 1338 1338 1349 1354 1359 1365 1370 1381 1387 1387 1392
    1392 1392 3774 3774 3503 0 1338 1338 1338 1338 1333 1333 1322 1317
    1317 1312 1312 1302 1292 1288 1288 1283 1278 1273 1273 1268 1264
    1264 1264 1268 1278 1283 1288 1292 1297 1297 1307 1317 1328 1333
    1333 1338 1338 1354 1354 1359 1370 1376 1381 1381 1387 1392 1392
    1392 3774 3774 0 0 0 1338 1338 1338 1338 1333 1328 1322 1317 1312
    1312 1302 1297 1292 1292 1283 1278 1278 1273 1268 1268 1268 1268
    1273 1278 1278 1288 1292 1297 1297 1307 1317 1328 1333 1333 1338
    1338 1349 1354 1359 1370 1376 1381 1381 1387 1387 1392 1392 3732
    3732 0 3539 0 1343 1343 1338 1338 1333 1328 1322 1317 1317 1307 1302
    1297 1292 1292 1288 1278 1278 1273 1273 1273 1273 1273 1273 1278
    1278 1288 1292 1297 1297 1307 1312 1322 1328 1333 1333 1338 1349
    1354 1359 1376 1381 1381 1381 1387 1387 1392 1392 3732 3732 3539
    3539 0 1343 0 1343 1338 1338 1333 1322 1317 1317 1307 1302 1297 1297
    1292 1288 1278 1278 1273 1273 1268 1268 1273 1273 1273 1283 1292
    1297 1297 1302 1307 1312 1317 1322 1328 1333 1338 1343 1354 1359
    1376 1381 1381 1387 1387 1387 1392 1410 1410 3732 3539 3539 0 0 0
    1338 1338 1338 1333 1322 1322 1317 1307 1297 1297 1292 1292 1288
    1283 1278 1273 1268 1268 1268 1268 1268 1273 1283 1288 1292 1297
    1302 1307 1312 1317 1322 1328 1333 1333 1338 1343 1359 1376 1381
    1381 1387 1387 1392 1398 1404 1404 3732 3539 3539 3539 0 1338 1338
    1338 1338 1333 1328 1322 1312 1307 1297 1297 1292 1292 1288 1283
    1278 1273 1268 1264 1264 1264 1264 1273 1278 1283 1292 1297 1302
    1302 1312 1317 1317 1328 1333 1333 1338 1343 1359 1370 1376 1381
    1387 1387 1392 1398 1404 1404 3732 3539 3539 3539 0 1338 1338 1338
    1338 1333 1328 1322 1312 1307 1302 1297 1292 1292 1288 1283 1278
    1278 1268 1264 1264 1264 1264 1273 1278 1283 1288 1292 1297 1302
    1312 1317 1317 1328 1333 1333 1338 1349 1359 1365 1370 1376 1381
    1387 1392 1404 1404 1404 1404 3539 3539 3539 0 1338 1338 1338 1338
    1333 1328 1322 1312 1307 1302 1297 1292 1292 1288 1288 1278 1278
    1268 1264 1264 1264 1264 1273 1278 1283 1288 1292 1297 1302 1312
    1317 1322 1328 1333 1333 1338 1349 1354 1365 1370 1376 1381 1387
    1392 1398 1404 1404 1404 3503 3503 3503 3365 1338 1338 1338 1338
    1333 1328 1317 1317 1307 1302 1297 1297 1292 1292 1288 1283 1278
    1273 1268 1268 1268 1268 1273 1278 1283 1288 1292 1297 1302 1312
    1317 1322 1328 1328 1333 1338 1349 1354 1365 1365 1376 1381 1387
    1392 1392 1404 1404 1404 3503 3365 3365 3365 1338 1338 1338 1338
    1333 1328 1317 1317 1312 1307 1302 1297 1297 1292 1288 1283 1278
    1273 1273 1268 1268 1268 1273 1278 1283 1288 1297 1302 1307 1312
    1317 1317 1328 1328 1333 1338 1349 1354 1365 1365 1370 1381 1387
    1387 1392 1404 1410 1410 3503 3365 3365 3365 0 1338 1338 1338 1333
    1328 1317 1317 1312 1312 1307 1297 1297 1292 1292 1288 1278 1278
    1273 1268 1268 1268 1273 1278 1283 1288 1297 1302 1307 1312 1312
    1317 1322 1328 1333 1338 1343 1354 1365 1365 1370 1381 1387 1387
    1392 1404 1415 1415 3503 3399 3399 3503 0 1343 1338 1338 1333 1333
    1322 1317 1312 1312 1307 1302 1297 1297 1292 1288 1283 1278 1273
    1268 1268 1273 1273 1278 1283 1288 1292 1297 1302 1307 1312 1317
    1322 1328 1333 1338 1343 1354 1365 1370 1370 1381 1387 1392 1398
    1404 1410 1410 3503 3503 3503 3503 0 1338 1338 1338 1338 1333 1322
    1317 1317 1312 1307 1302 1297 1297 1292 1288 1283 1278 1273 1264
    1264 1268 1273 1278 1283 1288 1292 1297 1302 1307 1312 1317 1322
    1328 1333 1338 1343 1354 1365 1370 1376 1381 1381 1387 1398 1404
    1410 1410 3539 3539 3503 3503 3503 1338 1338 1338 1338 1333 1322
    1317 1317 1312 1312 1302 1297 1297 1292 1288 1283 1278 1273 1264
    1264 1268 1273 1278 1288 1288 1292 1297 1297 1307 1312 1317 1322
    1333 1333 1338 1343 1349 1365 1365 1370 1381 1381 1387 1398 1404
    1404 1410 3539 3539 3539 3539 3539 3539 1338 1338 1338 1333 1322
    1317 1317 1312 1312 1307 1302 1297 1292 1288 1283 1278 1273 1268
    1268 1268 1268 1278 1288 1288 1288 1292 1297 1302 1312 1317 1317
    1328 1338 1338 1343 1349 1365 1365 1370 1381 1381 1392 1398 1398
    1404 1404 3539 3539 3539 3539 3539 0 1343 1343 1343 1333 1322 1317
    1317 1312 1312 1307 1302 1297 1292 1288 1283 1278 1273 1268 1268
    1268 1268 1278 1283 1283 1288 1292 1297 1302 1312 1317 1317 1328
    1333 1338 1343 1349 1365 1365 1376 1376 1381 1392 1398 1398 1404
    1404 3539 3539 3539 3539 3539 0 1343 1343 1343 1333 1322 1322 1317
    1312 1312 1307 1302 1297 1292 1288 1283 1278 1273 1273 1268 1268
    1273 1278 1278 1283 1288 1292 1297 1302 1312 1317 1317 1328 1333
    1338 1343 1349 1365 1365 1376 1376 1381 1392 1398 1404 1404 1410
    3539 3539 3539 3539 3539 0 1354 1354 1354 1333 1328 1322 1317 1317
    1312 1312 1302 1297 1292 1292 1288 1283 1273 1273 1273 1273 1273
    1273 1278 1283 1288 1292 1297 1302 1312 1312 1317 1322 1333 1338
    1338 1349 1365 1365 1370 1376 1381 1392 1398 1404 1404 1404 3539
    3503 3503 3503 3503 0 1354 1354 1354 1338 1333 1328 1317 1317 1317
    1312 1307 1297 1297 1292 1288 1283 1278 1273 1273 1273 1273 1273
    1278 1283 1288 1292 1297 1302 1312 1312 1317 1322 1333 1338 1338
    1343 1354 1365 1370 1376 1381 1392 1398 1404 1404 1404 3539 3503
    3503 3503 3503 3433 1349 1349 1349 1338 1333 1328 1322 1317 1317
    1312 1307 1302 1297 1292 1292 1288 1278 1273 1273 1273 1273 1273
    1278 1283 1288 1292 1297 1302 1312 1312 1317 1322 1333 1338 1338
    1343 1354 1365 1370 1376 1381 1387 1392 1398 1410 1410 3539 3539
    3503 3433 3433 3433 0 1349 1349 1338 1333 1328 1322 1317 1317 1312
    1312 1302 1297 1292 1292 1288 1278 1273 1273 1273 1273 1273 1278
    1283 1288 1288 1292 1297 1312 1312 1312 1317 1328 1333 1338 1343
    1354 1359 1370 1381 1381 1387 1387 1392 1410 1410 3539 3539 3503
    3433 3433 3433 0 1349 1349 1338 1333 1333 1328 1317 1317 1317 1312
    1307 1297 1297 1292 1283 1278 1273 1273 1273 1273 1273 1278 1283
    1288 1288 1292 1297 1307 1307 1312 1317 1328 1333 1338 1343 1354
    1359 1365 1381 1381 1387 1387 1392 1404 1410 3539 3539 3503 3503
    3503 3503 0 1343 1343 1338 1333 1333 1328 1317 1317 1317 1312 1307
    1297 1297 1292 1283 1278 1273 1273 1273 1273 1273 1273 1278 1288
    1292 1292 1297 1302 1307 1312 1317 1328 1333 1338 1343 1359 1359
    1365 1376 1381 1387 1387 1392 1404 1410 3539 3539 3539 3503 3503 0 0
    0 1343 1338 1338 1333 1328 1322 1317 1317 1312 1307 1302 1297 1292
    1288 1283 1278 1273 1268 1268 1268 1268 1273 1288 1292 1297 1297
    1302 1307 1312 1317 1328 1333 1338 1343 1354 1359 1365 1370 1381
    1381 1387 1392 1404 1404 3539 3539 3539 3503 3503 0 0 0 1349 1343
    1338 1333 1333 1328 1322 1317 1312 1307 1297 1297 1292 1283 1283
    1278 1273 1268 1268 1268 1268 1273 1288 1292 1292 1297 1302 1307
    1317 1317 1322 1328 1338 1343 1354 1359 1359 1370 1376 1381 1381
    1392 1404 1404 3539 3539 3539 3539 3539 0 0 0 1349 1343 1338 1338
    1333 1328 1322 1317 1312 1307 1297 1297 1292 1283 1283 1283 1278
    1273 1268 1268 1268 1273 1278 1283 1292 1297 1302 1312 1312 1322
    1322 1328 1338 1343 1354 1359 1359 1365 1370 1376 1381 1392 1404
    1404 3539 3539 3539 3503 3503 0 0 0 1349 1343 1338 1338 1333 1328
    1317 1317 1312 1307 1302 1297 1292 1288 1288 1288 1278 1273 1273
    1268 1268 1273 1278 1283 1292 1297 1302 1312 1312 1322 1322 1333
    1343 1343 1354 1359 1359 1365 1370 1376 1381 1398 1404 1404 3539
    3539 3539 3503 3503 3503 0 1349 1349 1349 1343 1338 1333 1328 1317
    1317 1312 1307 1302 1297 1292 1288 1288 1292 1283 1278 1273 1273
    1273 1278 1288 1288 1297 1302 1307 1312 1317 1328 1333 1338 1349
    1349 1359 1370 1370 1370 1370 1381 1381 1404 1404 1404 3539 3539
    3539 3539 3539 3539 0 1343 1343 1343 1338 1338 1333 1328 1317 1317
    1312 1307 1302 1297 1292 1288 1288 1292 1283 1283 1278 1278 1278
    1288 1292 1292 1297 1312 1322 1322 1328 1338 1343 1354 1359 1365
    1376 1376 1370 1370 1370 1387 1387 1410 1410 1410 3539 3539 3539
    3503 3503 3503 0 1343 1343 1343 1338 1338 1333 1328 1322 1317 1312
    1312 1307 1302 1292 1292 1297 1297 1292 1288 1288 1283 1283 1292
    1312 1312 1338 1333 1333 1338 1338 1359 1359 1370 1370 3653 3539
    3539 3539 3614 3774 1410 1410 1421 1421 1421 3539 3539 3539 3503
    3503 3503 3576 1354 1354 1343 1338 1338 1333 1328 1322 1317 1312
    1312 1312 1307 1302 1297 1297 1312 1302 1292 1292 1292 1292 1292
    3692 3692 3692 3692 3692 1387 1387 1387 1387 3692 3653 3653 3576
    3576 3653 3732 3774 1410 1410 3774 3774 3774 3539 3539 3539 3539
    3539 3614 3576 3576 1354 1349 1343 1338 1333 1328 1328 1322 1317
    1317 1312 1312 1317 1343 1333 1328 1317 1297 1297 3692 3692 3692
    3692 3692 3692 3692 3692 1387 1387 1387 1387 3692 3692 3692 3692
    3692 3692 3732 3774 3732 3732 3774 3774 3774 3539 3539 3539 3539
    3576 3576 3539 3539 3539 1349 1343 1338 1333 1328 1328 1328 1322
    1322 1328 1328 1333 1343 1333 1328 1328 3692 3692 3692 3692 3692
    3692 3692 3692 3692 3692 3692 3692 3692 3692 3692 3692 3732 3732
    3732 3732 3774 3774 3774 3774 3774 3774 3774 3539 3539 3539 3576
    3576 3576 3539 3539 3576 3576 3614 3614 3614 3614 1343 1338 1333
    1333 1338 1338 3653 3653 3653 3692 3692 3692 3692 3692 3692 3692
    3692 3692 3692 3692 3692 3692 3692 3692 3692 3692 3692 3732 3732
    3732 3732 3774 3774 3774 3774 3774 3774 3774</data></Depth10387>
</opencv_storage>
