<?xml version="1.0"?>
<opencv_storage>
<Depth6927 type_id="opencv-matrix">
  <rows>23</rows>
  <cols>58</cols>
  <dt>w</dt>
  <data>
    3178 3178 3178 3178 3178 3178 3208 3208 3208 3208 3269 3269 3300
    3300 3333 3333 3333 3333 3365 3399 3399 3433 3433 3433 3433 3468
    3468 3503 3539 3539 3539 3576 3576 3576 3576 3614 3653 3653 3692
    3692 3692 3692 3732 3732 3732 3732 3732 3732 3732 3774 3816 3816
    2598 2598 2680 2659 2659 2680 3208 3208 3208 3208 3178 3178 3208
    3208 3238 3238 3300 3300 3300 3365 3365 3365 3365 3399 3433 3433
    3433 3433 3433 3433 3468 3503 3503 3539 3539 3539 3576 3576 3614
    3576 3576 3614 3653 3653 3692 3692 3692 3692 2598 2579 2579 2598
    2598 3732 3732 3732 2598 2598 2598 2598 2701 2701 2680 2680 3208
    3208 3208 3208 3208 3208 3208 3208 3238 3269 3333 3333 3333 3365
    3365 3399 3399 3399 3433 3433 3433 3433 3433 3468 3468 3503 3503
    3539 3539 3539 3576 3576 3576 3576 3576 3614 3653 3653 2598 2579
    2560 2560 2560 2560 2560 2598 2579 2579 2579 2598 2598 2598 2639
    2639 2680 2680 2680 2680 3208 3208 3208 3238 3238 3238 3238 3269
    3300 3333 3365 3365 3365 3399 3399 3399 3399 3399 3433 3433 3433
    3433 3468 3468 3468 3503 3503 3503 3539 3539 3576 3539 3539 3576
    3576 2541 2541 2522 2522 2541 2541 2541 2541 2560 2560 2579 2579
    2579 2579 2598 2598 2618 2639 2639 2659 2659 2659 2701 3238 3238
    3238 3238 3238 3269 3269 3333 3333 3333 3365 3399 3399 3399 3399
    3399 3399 3433 3433 3433 3433 3433 3433 3468 3468 3468 3468 3503
    3539 3539 3576 2432 2432 2485 2485 2503 2522 2522 2522 2522 2522
    2541 2541 2541 2560 2579 2598 2598 2598 2618 2618 2618 2639 2639
    2659 2659 2659 2680 3269 3269 3269 3269 3269 3333 3333 3333 3365
    3365 3365 3399 3399 3399 3399 3399 3399 3399 3433 3433 3433 3399
    3399 2365 2365 3399 3399 2432 2432 2432 2432 2432 2432 2450 2485
    2503 2522 2503 2503 2522 2522 2541 2541 2541 2560 2579 2579 2598
    2598 2598 2598 2618 2639 2639 2659 2639 2639 2680 3269 3269 3269
    3269 3269 3333 3333 3333 3333 3333 3333 3399 3399 3399 3399 3399
    3399 3399 3433 3399 3399 2450 2432 2365 2365 2381 2381 2415 2432
    2432 2432 2450 2450 2450 2503 2503 2503 2503 2503 2503 2522 2522
    2522 2541 2560 2579 2579 2598 2598 2598 2598 2598 2639 2659 2659
    2639 2639 2639 3300 3300 3300 3300 3300 3333 3300 3300 3333 3333
    3333 3365 3365 3399 3365 3365 3365 3365 3399 3399 3399 2415 2415
    2381 2381 2381 2381 2415 2415 2432 2432 2450 2450 2450 2450 2503
    2503 2503 2503 2503 2522 2522 2522 2522 2560 2579 2579 2598 2598
    2598 2598 2598 2639 2659 2659 2639 2639 2639 3300 3300 3300 3333
    3333 3333 3300 3300 3333 3365 3365 3365 2349 2349 2349 2333 2317
    2317 2317 2317 2333 2381 2381 2381 2381 2381 2398 2415 2415 2415
    2432 2432 2450 2450 2450 2503 2503 2503 2503 2503 2522 2522 2522
    2522 2522 2560 2560 2598 2598 2598 2598 2598 2618 2639 2659 2659
    2659 2659 3300 3300 3300 3333 3333 3333 3300 3300 3300 2365 2349
    2349 2333 2333 2349 2333 2317 2317 2317 2317 2333 2365 2365 2365
    2365 2365 2398 2415 2415 2415 2432 2432 2450 2450 2450 2485 2485
    2503 2503 2522 2522 2522 2522 2522 2522 2560 2560 2579 2579 2579
    2598 2598 2618 2639 2659 2659 2659 2659 3300 3300 3300 3269 3269
    3300 3300 3300 2317 2317 2349 2333 2333 2333 2333 2349 2365 2365
    2365 2333 2333 2365 2365 2365 2365 2365 2398 2415 2432 2432 2432
    2432 2450 2450 2450 2485 2485 2503 2503 2522 2522 2522 2522 2522
    2541 2560 2579 2579 2579 2579 2598 2598 2618 2659 2659 2659 2659
    2659 3269 3269 3300 3269 3269 2271 2271 2286 2286 2301 2333 2333
    2333 2317 2317 2349 2365 2365 2365 2349 2349 2365 2365 2365 2381
    2381 2415 2415 2432 2432 2450 2450 2450 2450 2485 2485 2503 2503
    2522 2522 2522 2522 2522 2522 2560 2560 2579 2579 2579 2579 2598
    2598 2618 2639 2659 2680 2680 0 3269 3269 3269 2301 2271 2271 2271
    2286 2286 2301 2333 2317 2317 2317 2317 2333 2349 2365 2365 2365
    2365 2381 2381 2381 2381 2381 2398 2415 2432 2432 2450 2450 2450
    2467 2467 2485 2485 2485 2503 2522 2522 2522 2522 2541 2560 2560
    2560 2560 2579 2579 2579 2598 2598 2639 2659 2680 2680 0 0 2301 2301
    2301 2286 2286 2286 2286 2286 2301 2317 2317 2317 2317 2317 2333
    2349 2349 2365 2365 2365 2365 2365 2381 2381 2381 2398 2398 2432
    2432 2450 2450 2450 2467 2467 2485 2485 2485 2503 2503 2503 2522
    2522 2541 2560 2560 2560 2560 2560 2579 2579 2598 2598 2659 2701
    2701 2723 0 2286 2286 2271 2271 2286 2286 2286 2286 2286 2317 2317
    2317 2317 2317 2317 2333 2349 2349 2365 2365 2365 2365 2365 2365
    2381 2381 2398 2398 2415 2432 2450 2450 2450 2467 2467 2485 2485
    2485 2503 2503 2503 2503 2522 2541 2541 2541 2541 2541 2560 2579
    2579 2579 2579 0 0 0 0 0 2286 2286 2271 2271 2286 2286 2286 2286
    2286 2317 2317 2317 2317 2333 2333 2333 2349 2349 2349 2365 2365
    2365 2365 2365 2381 2381 2398 2398 2415 2432 2450 2450 2467 2467
    2467 2485 2485 2485 2485 2485 2503 2503 2522 2541 2541 2541 2541
    2541 2560 2560 2579 2579 2579 0 0 0 0 0 2271 2271 2271 2271 2286
    2286 2286 2286 2286 2317 2317 2317 2317 2333 2333 2333 2349 2349
    2349 2365 2365 2365 2365 2365 2381 2381 2398 2398 2415 2432 2450
    2450 2450 2467 2467 2485 2485 2485 2485 2485 2503 2503 2503 2522
    2541 2541 2541 2541 2560 2560 0 0 0 0 0 0 0 0 2271 2271 2271 2271
    2286 2286 2286 2286 2301 2317 2317 2317 2317 2317 2333 2333 2333
    2349 2349 2349 2365 2365 2365 2365 2381 2381 2398 2398 2415 2432
    2432 2450 2450 2450 2467 2485 2485 2485 2485 2485 2503 2485 2485
    2522 2541 0 0 0 0 0 0 0 0 0 0 0 0 0 2271 2271 2286 2286 2286 2286
    2286 2286 2301 2317 2317 2317 2317 2317 2317 2333 2333 2349 2333
    2333 2349 2365 2365 2381 2381 2381 2398 2398 2415 2415 2415 2432
    2450 2450 2450 2467 2485 2485 2485 2503 2503 2485 2485 0 0 0 0 0 0 0
    0 0 0 0 0 0 0 0 2271 2271 2286 2286 2286 2286 2286 2286 2301 2317
    2317 2317 2317 2317 2317 2333 2349 2349 2333 2333 2349 2365 2365
    2381 2365 2365 2381 2398 2415 2398 2398 2432 2432 2432 2450 2450
    2485 2485 2485 2503 2503 0 0 0 0 0 0 0 0 0 0 0 0 0 0 0 0 0 2271 2271
    2286 2286 2286 2286 2301 2301 2301 2317 2317 2317 2317 2317 2317
    2333 2349 2349 2349 2349 2349 2365 2365 2365 2365 2365 2381 2381
    2381 2381 2398 2415 2432 2432 2450 2450 2485 2485 2485 2503 0 0 0 0
    0 0 0 0 0 0 0 0 0 0 0 0 1328 1322 2271 2271 2271 2271 2286 2286 2286
    2301 2301 2317 2317 2301 2301 2317 2317 2333 2333 2333 2349 2349
    2349 2349 2381 2365 2365 2365 2381 2381 2381 2381 2398 2415 2432
    2432 2450 2450 2503 0 0 0 0 0 0 0 0 0 0 0 0 0 0 0 0 0 0 1328 1322
    1322 2301 2286 2271 2271 2286 2286 2286 2301 2301 2317 2317 2301
    2301 2317 2317 2333 2333 2333 2349 2349 2349 2349 0 0 0 2381 2381
    2381 2398 0 0 0 0 0 0 0 0 0 0 0 0 0 0 0 0 0 0 0 0 0 0 0 1302 1302
    1312 1317 1322 1322</data></Depth6927>
</opencv_storage>
