<?xml version="1.0"?>
<opencv_storage>
<Depth1921 type_id="opencv-matrix">
  <rows>61</rows>
  <cols>75</cols>
  <dt>w</dt>
  <data>
    5056 5056 4983 4983 4842 4842 4842 4842 4983 1464 1452 1445 1439
    1439 1445 1445 1439 1439 1445 2933 2933 2933 2908 2908 2883 2883
    2883 2883 2883 2883 2859 2859 2859 2859 2859 4911 4911 4911 4911
    4911 4911 4911 4911 4911 4911 4842 4842 4842 4842 4842 4842 4842
    4842 4842 4842 4774 4774 4774 4774 4774 4774 4842 4842 4842 4774
    4774 4708 4708 4708 4708 4708 4774 4708 4708 4645 5132 5056 5056
    5056 4911 4911 4911 4911 1464 1464 1445 1445 1445 1452 1452 1445
    1439 1439 1439 1445 1445 1445 1433 1433 1433 2883 2883 2883 2883
    2883 2859 2859 2859 2859 2859 2859 4911 4911 4911 4911 4911 4911
    4911 4911 4911 4911 4842 4842 4842 4842 4842 4842 4842 4842 4842
    4842 4842 4842 4842 4842 4842 4842 4842 4842 4774 4774 4708 4708
    4708 4774 4774 4774 4708 4708 4708 5132 5132 5056 5056 5056 5056
    5056 0 1445 1445 1445 1445 1445 1445 1445 1439 1439 1439 1439 1439
    1439 1439 1433 1433 1433 1439 1439 2883 2883 2883 2883 2835 2835
    2835 2835 2835 2835 4983 4911 4911 4911 4911 4911 4911 4911 4911
    4911 4911 4842 4842 4842 4842 4842 4842 4911 4911 4911 4911 4911
    4842 4842 4842 4842 4842 4842 4774 4774 4708 4708 4774 4708 4708
    4708 4708 4708 5132 5132 5132 5132 5132 5132 0 1445 1445 1445 1439
    1439 1439 1439 1445 1439 1439 1439 1439 1439 1439 1439 1439 1439
    1439 1439 1439 1439 1415 1415 1445 1445 1445 1445 2835 2835 2835
    4911 4911 4911 4911 4911 4911 4911 4911 4911 4911 4911 4911 4911
    4911 4911 4842 4842 4911 4911 4911 4911 4911 4842 4842 4842 4842
    4774 4774 4774 4774 4774 4774 4774 4708 4708 4708 4708 4708 5132
    5132 5132 5132 5132 5132 0 1445 1445 1439 1439 1439 1439 1439 1439
    1439 1439 1439 1439 1439 1439 1439 1439 1439 1439 1439 1439 1439
    1415 1415 1445 1445 1445 1439 1439 1439 1439 1439 1445 1445 4911
    4911 4911 4911 4911 4911 4911 4911 4911 4911 4911 4911 4842 4842
    4911 4911 4911 4842 4842 4911 4842 4842 4842 4774 4774 4774 4774
    4842 4842 4774 4708 4708 4708 4708 4708 5132 5132 5132 5132 5132
    5132 0 1439 1439 1439 1439 1439 1439 1439 1439 1439 1439 1439 1439
    1439 1439 1439 1439 1439 1433 1433 1439 1439 1439 1439 1445 1445
    1445 1439 1439 1439 1439 1439 1439 1445 1445 1445 1439 1439 4911
    4911 4911 4911 4983 4983 4911 4911 4911 4911 4911 4911 4911 4842
    4842 4911 4911 4842 4842 4842 4842 4842 4842 4842 4842 4774 4708
    4708 4708 4708 4708 5132 5132 5056 5056 5132 5132 0 1439 1439 1439
    1433 1433 1433 1439 1439 1439 1439 1439 1439 1439 1439 1433 1433
    1433 1433 1433 1439 1439 1439 1439 1439 1439 1439 1439 1439 1439
    1439 1439 1439 1439 1439 1439 1439 1439 1445 1439 1439 1445 1439
    1439 4983 4983 4911 4911 4911 4911 4911 4911 4911 4911 4911 4911
    4842 4842 4842 4842 4842 4842 4842 4842 4774 4774 4708 4708 4708
    5132 5132 5056 5056 5132 5132 0 1439 1439 1433 1433 1433 1433 1439
    1439 1439 1439 1439 1439 1439 1433 1433 1433 1433 1433 1433 1439
    1439 1439 1439 1439 1439 1439 1439 1439 1439 1439 1439 1439 1439
    1439 1439 1445 1445 1445 1439 1439 1439 1439 1439 1439 1439 1439
    1439 1439 4911 4911 4911 4911 4911 4911 4911 4911 4911 4911 4911
    4911 4911 4842 4842 4842 4774 4708 4708 4708 5132 5132 5056 5056
    5056 5056 1439 1433 1433 1433 1433 1433 1433 1439 1439 1439 1439
    1439 1439 1433 1433 1433 1433 1433 1433 1433 1439 1439 1439 1439
    1439 1439 1439 1439 1439 1439 1439 1439 1439 1439 1439 1439 1439
    1439 1439 1439 1439 1439 1439 1439 1439 1439 1439 1439 1439 1439
    1439 1439 1439 4911 4911 4911 4911 4911 4911 4911 4911 4911 4842
    4842 4842 4842 4774 4774 4842 5132 5132 5056 5056 5056 0 1439 1439
    1433 1433 1433 1433 1433 1433 1433 1433 1433 1439 1433 1433 1433
    1433 1433 1433 1433 1433 1439 1439 1439 1439 1439 1439 1439 1439
    1439 1439 1439 1439 1439 1439 1439 1439 1439 1439 1439 1439 1439
    1439 1439 1439 1439 1439 1439 1439 1439 1439 1439 1439 1439 1439
    1439 1439 1439 1439 4842 4842 4911 4911 4842 4842 4842 4842 4842
    4842 4842 5132 5132 5132 5132 5132 0 1433 1433 1433 1433 1433 1433
    1433 1433 1433 1433 1433 1433 1433 1433 1433 1433 1433 1433 1433
    1433 1439 1439 1439 1439 1439 1439 1439 1439 1439 1439 1439 1439
    1439 1439 1439 1439 1439 1439 1439 1439 1439 1439 1439 1439 1433
    1433 1439 1439 1439 1439 1439 1439 1439 1439 1439 1439 1439 1433
    1433 1433 1433 1433 1439 1439 4708 4774 4842 4911 4911 5132 5132
    5210 5210 5210 0 1433 1433 1433 1433 1433 1433 1433 1433 1433 1433
    1433 1433 1433 1433 1433 1427 1427 1433 1433 1433 1439 1439 1439
    1439 1439 1439 1439 1433 1433 1439 1439 1439 1433 1433 1439 1439
    1439 1439 1439 1439 1439 1439 1439 1439 1433 1433 1439 1439 1439
    1433 1433 1439 1439 1439 1439 1439 1439 1433 1433 1433 1433 1433
    1433 1439 1439 1439 1439 1439 4911 5132 5132 5210 5210 5210 0 1445
    1433 1433 1433 1433 1433 1433 1433 1433 1433 1433 1433 1433 1433
    1427 1427 1427 1427 1427 1433 1433 1433 1439 1439 1439 1439 1439
    1433 1433 1439 1439 1439 1433 1433 1433 1439 1439 1439 1439 1439
    1439 1439 1439 1439 1433 1433 1433 1433 1433 1433 1433 1439 1439
    1439 1439 1439 1439 1439 1439 1433 1433 1433 1433 1433 1439 1433
    1433 1433 1433 5210 5132 5132 5132 5132 1439 1439 1433 1433 1433
    1427 1427 1433 1427 1427 1427 1427 1433 1433 1427 1427 1427 1427
    1427 1427 1433 1433 1433 1433 1439 1439 1439 1439 1433 1433 1433
    1433 1439 1433 1433 1433 1433 1439 1439 1439 1439 1433 1433 1433
    1433 1433 1433 1433 1433 1427 1427 1433 1433 1439 1433 1433 1433
    1439 1439 1439 1439 1439 1433 1433 1433 1433 1433 1433 1433 1433
    5210 5132 5132 5132 0 1439 1439 1433 1433 1433 1427 1427 1427 1427
    1427 1427 1427 1427 1433 1427 1421 1421 1421 1427 1427 1427 1433
    1433 1433 1433 1433 1433 1433 1433 1433 1433 1433 1433 1433 1433
    1433 1433 1433 1439 1439 1439 1433 1433 1433 1433 1439 1439 1433
    1433 1427 1427 1427 1433 1433 1433 1433 1433 1433 1433 1439 1439
    1439 1433 1433 1433 1433 1433 1433 1433 1433 5210 5056 5056 5056 0
    1439 1439 1433 1427 1427 1421 1421 1421 1427 1427 1427 1427 1427
    1433 1427 1421 1421 1421 1427 1427 1427 1433 1433 1433 1427 1427
    1433 1433 1433 1433 1427 1427 1427 1427 1433 1427 1427 1433 1433
    1433 1439 1433 1433 1427 1427 1433 1433 1433 1433 1427 1427 1427
    1427 1433 1433 1433 1433 1433 1433 1433 1433 1439 1433 1433 1433
    1433 1433 1427 1427 1433 5210 5056 5056 5056 0 1433 1433 1427 1427
    1421 1421 1421 1421 1421 1421 1421 1427 1427 1433 1427 1421 1421
    1421 1421 1427 1427 1433 1433 1433 1427 1427 1427 1427 1433 1427
    1427 1427 1427 1427 1427 1427 1427 1427 1427 1427 1433 1433 1433
    1427 1427 1427 1433 1433 1433 1427 1427 1427 1427 1433 1433 1433
    1427 1427 1433 1433 1433 1439 1433 1433 1433 1427 1427 1427 1427
    1427 5056 5056 5132 0 0 0 1433 1427 1421 1421 1415 1415 1421 1421
    1421 1421 1421 1427 1427 1421 1421 1421 1421 1421 1427 1427 1433
    1427 1427 1421 1421 1427 1427 1427 1427 1427 1421 1421 1427 1427
    1427 1427 1427 1427 1427 1433 1433 1433 1427 1427 1427 1427 1427
    1427 1427 1427 1427 1427 1433 1433 1433 1427 1427 1433 1433 1433
    1433 1433 1433 1427 1427 1427 1427 1427 1427 5056 5056 5056 0 0 0
    1427 1421 1421 1421 1415 1415 1421 1415 1415 1415 1415 1421 1421
    1421 1421 1421 1421 1421 1421 1421 1433 1427 1427 1421 1421 1427
    1427 1427 1421 1421 1421 1421 1427 1427 1427 1427 1427 1427 1427
    1427 1433 1433 1427 1427 1427 1427 1427 1427 1427 1427 1433 1433
    1433 1427 1427 1433 1433 1433 1433 1433 1433 1433 1427 1427 1421
    1421 1421 1421 1427 5132 5132 0 0 0 0 1421 1421 1421 1421 1415 1415
    1415 1415 1415 1415 1415 1415 1415 1415 1415 1415 1415 1415 1415
    1421 1427 1427 1427 1421 1421 1427 1427 1427 1421 1421 1421 1421
    1421 1427 1427 1427 1427 1427 1427 1427 1427 1433 1427 1427 1427
    1427 1421 1421 1427 1427 1433 1427 1427 1427 1427 1427 1427 1433
    1433 1433 1433 1433 1427 1427 1421 1421 1421 1421 1421 5132 0 5132 0
    1415 1415 1415 1415 1415 1415 1415 1415 1415 1415 1415 1415 1415
    1415 1415 1415 1415 1415 1415 1415 1415 1415 1421 1421 1421 1421
    1421 1421 1421 1421 1421 1421 1421 1421 1421 1427 1427 1427 1421
    1421 1427 1427 1427 1427 1427 1427 1421 1421 1421 1421 1421 1421
    1427 1427 1427 1427 1427 1427 1427 1427 1433 1427 1427 1433 1427
    1427 1421 1421 1421 1421 1421 5210 0 0 0 1410 1410 1410 1415 1415
    1415 1415 1415 1415 1415 1415 1415 1415 1415 1415 1415 1415 1415
    1415 1415 1415 1415 1421 1421 1421 1421 1421 1421 1421 1421 1421
    1421 1421 1427 1427 1421 1421 1421 1421 1421 1421 1421 1421 1421
    1421 1421 1421 1421 1421 1421 1421 1421 1421 1421 1427 1427 1427
    1427 1427 1427 1427 1427 1427 1427 1427 1427 1421 1421 1421 1421
    1421 0 0 0 0 0 1410 1410 1415 1415 1415 1415 1415 1415 1415 1415
    1415 1415 1415 1415 1415 1415 1415 1415 1415 1415 1415 1421 1421
    1421 1421 1421 1421 1421 1421 1421 1421 1421 1421 1421 1421 1421
    1421 1421 1421 1421 1421 1421 1421 1421 1421 1421 1421 1421 1421
    1421 1421 1421 1421 1427 1427 1427 1427 1421 1421 1427 1421 1421
    1427 1427 1427 1421 1421 1421 1421 1421 0 5291 0 1421 0 1415 1415
    1415 1415 1415 1415 1415 1415 1415 1415 1415 1415 1415 1415 1415
    1415 1415 1415 1415 1415 1415 1421 1421 1421 1421 1421 1421 1421
    1421 1421 1421 1421 1421 1421 1421 1421 1421 1421 1421 1421 1421
    1421 1421 1421 1421 1421 1421 1421 1421 1421 1421 1421 1421 1421
    1427 1421 1421 1421 1421 1421 1421 1421 1427 1421 1421 1421 1421
    1421 1427 0 5291 5291 0 1421 1421 1415 1415 1415 1415 1415 1415 1415
    1415 1415 1415 1415 1415 1415 1415 1415 1415 1415 1415 1415 1415
    1415 1421 1421 1421 1421 1421 1421 1421 1421 1421 1421 1421 1421
    1421 1421 1421 1421 1421 1421 1421 1421 1421 1421 1421 1421 1421
    1421 1421 1421 1421 1421 1421 1421 1421 1421 1421 1421 1421 1421
    1421 1421 1421 1421 1421 1421 1421 1421 1421 1421 1421 5291 5291 0
    1421 1421 1415 1415 1415 1415 1415 1415 1415 1410 1410 1410 1410
    1410 1410 1410 1415 1415 1415 1415 1415 1410 1410 1421 1421 1421
    1421 1421 1421 1421 1415 1415 1421 1421 1421 1421 1421 1421 1421
    1421 1421 1421 1421 1421 1421 1421 1421 1421 1421 1421 1421 1421
    1421 1421 1421 1421 1421 1421 1421 1421 1421 1421 1421 1421 1415
    1415 1415 1421 1421 1421 1415 1415 5291 5291 0 1415 1415 1415 1410
    1410 1410 1415 1415 1415 1410 1410 1410 1410 1410 1410 1410 1410
    1410 1410 1415 1415 1410 1410 1421 1421 1415 1415 1415 1421 1415
    1415 1415 1421 1421 1421 1421 1421 1421 1421 1421 1421 1421 1421
    1421 1421 1415 1415 1421 1421 1421 1421 1421 1421 1421 1421 1421
    1421 1421 1421 1421 1421 1421 1421 1421 1415 1415 1415 1415 1415
    1421 1415 1415 5210 5210 0 1415 1415 1415 1410 1410 1410 1415 1415
    1415 1410 1410 1410 1410 1410 1410 1410 1410 1410 1410 1415 1415
    1410 1410 1415 1415 1415 1415 1415 1415 1415 1415 1415 1415 1415
    1421 1421 1421 1421 1421 1421 1421 1421 1421 1421 1415 1415 1415
    1415 1415 1421 1421 1421 1415 1415 1415 1415 1421 1421 1421 1421
    1421 1421 1421 1421 1415 1415 1415 1415 1415 1421 1415 1415 5210 0
    1410 1410 1410 1410 1410 1410 1410 1410 1410 1410 1410 1410 1410
    1410 1410 1410 1410 1410 1410 1410 1410 1410 1410 1410 1415 1415
    1415 1415 1415 1415 1415 1415 1415 1415 1415 1421 1415 1415 1421
    1421 1421 1421 1421 1421 1421 1415 1415 1415 1415 1415 1415 1421
    1421 1415 1415 1415 1415 1415 1415 1415 1421 1415 1415 1415 1415
    1415 1415 1415 1421 1421 1421 1427 0 5374 0 1410 1410 1410 1410 1410
    1410 1410 1410 1410 1410 1410 1410 1410 1410 1404 1404 1410 1410
    1410 1410 1410 1410 1410 1410 1415 1415 1415 1415 1415 1415 1415
    1415 1415 1415 1415 1421 1415 1415 1415 1421 1421 1421 1421 1415
    1415 1415 1415 1415 1415 1415 1415 1415 1415 1415 1415 1415 1415
    1415 1415 1415 1415 1415 1415 1415 1415 1415 1421 1421 1421 1421
    1421 1427 0 5374 1410 1410 1410 1410 1410 1410 1410 1410 1410 1410
    1410 1410 1410 1410 1404 1404 1404 1410 1410 1410 1410 1410 1410
    1410 1410 1415 1415 1415 1415 1415 1415 1415 1415 1415 1415 1415
    1415 1415 1415 1415 1415 1415 1415 1415 1415 1415 1415 1415 1415
    1415 1415 1415 1415 1415 1415 1415 1415 1415 1415 1415 1415 1415
    1415 1415 1415 1415 1415 1415 1415 1415 1410 1410 0 0 0 1410 1410
    1410 1410 1410 1410 1410 1410 1410 1410 1410 1410 1410 1404 1404
    1404 1404 1410 1410 1410 1410 1410 1410 1410 1410 1415 1415 1415
    1415 1415 1415 1415 1415 1415 1415 1415 1415 1415 1415 1415 1415
    1415 1415 1415 1415 1415 1415 1415 1415 1415 1415 1415 1415 1415
    1415 1415 1415 1415 1415 1415 1415 1415 1415 1415 1415 1415 1415
    1415 1415 1410 1404 1404 0 0 5548 1410 1410 1410 1410 1410 1410 1410
    1410 1410 1404 1404 1410 1404 1404 1398 1398 1398 1404 1410 1410
    1410 1410 1410 1404 1404 1415 1415 1415 1410 1410 1415 1415 1415
    1415 1415 1415 1415 1415 1415 1415 1415 1415 1415 1415 1415 1415
    1415 1415 1415 1415 1415 1415 1415 1415 1415 1415 1415 1415 1415
    1415 1415 1415 1415 1415 1415 1415 1415 1415 1415 1410 1404 1398
    1398 0 1404 1410 1410 1410 1410 1410 1410 1410 1410 1404 1404 1404
    1404 1404 1398 1398 1398 1398 1404 1410 1410 1410 1410 1410 1404
    1404 1415 1415 1415 1410 1410 1410 1415 1415 1415 1415 1415 1415
    1415 1415 1415 1415 1415 1415 1415 1415 1415 1415 1415 1415 1415
    1415 1415 1415 1415 1415 1415 1415 1415 1415 1415 1415 1415 1415
    1415 1415 1415 1415 1415 1415 1410 1404 1398 1398 0 1404 1404 1404
    1404 1404 1404 1404 1404 1404 1404 1404 1404 1404 1404 1398 1398
    1398 1398 1404 1410 1410 1410 1410 1410 1410 1410 1415 1415 1410
    1410 1410 1410 1410 1410 1415 1410 1410 1415 1415 1415 1415 1415
    1415 1415 1415 1415 1415 1415 1415 1415 1415 1415 1415 1415 1415
    1415 1415 1410 1410 1415 1415 1415 1415 1410 1410 1410 1410 1410
    1415 1415 1410 1404 1404 0 0 1404 1404 1404 1404 1398 1398 1398 1398
    1404 1404 1404 1398 1398 1398 1398 1398 1398 1398 1398 1404 1404
    1404 1404 1404 1410 1410 1415 1410 1410 1410 1410 1410 1410 1410
    1410 1410 1410 1415 1415 1415 1415 1415 1415 1410 1410 1410 1415
    1415 1415 1415 1415 1415 1415 1415 1415 1415 1410 1410 1410 1415
    1415 1415 1415 1410 1404 1404 1404 1410 1410 1410 1410 1404 1404 0 0
    1404 1404 1404 1404 1398 1398 1398 1398 1398 1398 1398 1398 1398
    1398 1392 1392 1392 1392 1398 1398 1404 1404 1404 1404 1410 1410
    1415 1410 1404 1404 1404 1404 1404 1404 1404 1410 1410 1410 1415
    1415 1415 1415 1415 1410 1410 1410 1410 1410 1410 1410 1415 1415
    1415 1415 1410 1410 1410 1410 1410 1415 1415 1410 1410 1410 1404
    1404 1404 1404 1410 1410 1404 1404 1404 0 0 1410 1404 1404 1404 1398
    1398 1398 1398 1398 1398 1398 1392 1392 1392 1392 1392 1392 1392
    1398 1398 1404 1404 1404 1404 1404 1410 1415 1410 1404 1404 1404
    1398 1398 1398 1398 1404 1410 1410 1415 1415 1415 1415 1410 1410
    1410 1410 1410 1410 1410 1410 1410 1410 1410 1410 1410 1410 1410
    1410 1415 1415 1415 1410 1410 1404 1404 1404 1404 1404 1404 1404
    1398 1398 0 0 0 1410 1410 1404 1398 1398 1398 1398 1398 1398 1392
    1392 1392 1392 1392 1392 1392 1392 1392 1392 1398 1398 1398 1398
    1404 1404 1410 1410 1410 1410 1404 1404 1398 1398 1398 1398 1404
    1404 1410 1410 1410 1404 1404 1410 1410 1410 1410 1404 1404 1404
    1404 1404 1410 1410 1404 1404 1404 1410 1410 1410 1410 1410 1410
    1410 1404 1404 1404 1404 1404 1404 1404 1398 1398 0 0 0 1415 1410
    1404 1398 1398 1398 1398 1398 1398 1392 1392 1392 1398 1398 1398
    1392 1392 1392 1392 1398 1398 1398 1398 1398 1398 1404 1410 1404
    1404 1404 1398 1398 1398 1398 1398 1398 1398 1404 1404 1404 1398
    1398 1404 1404 1404 1404 1404 1404 1404 1404 1404 1410 1404 1398
    1398 1398 1404 1410 1410 1404 1404 1404 1404 1404 1404 1404 1404
    1404 1404 1404 1398 1398 0 0 0 1410 1410 1404 1398 1398 1398 1398
    1398 1398 1392 1392 1392 1392 1392 1392 1392 1392 1392 1392 1398
    1398 1398 1398 1398 1398 1398 1404 1404 1404 1404 1398 1398 1398
    1398 1398 1398 1398 1398 1398 1404 1398 1398 1404 1404 1404 1404
    1404 1404 1404 1404 1404 1404 1404 1398 1398 1398 1404 1404 1404
    1404 1398 1398 1398 1398 1398 1404 1404 1410 1404 1404 1404 1404
    1415 0 0 1398 1398 1398 1398 1398 1398 1398 1398 1392 1392 1392 1392
    1392 1392 1392 1392 1392 1392 1392 1398 1398 1398 1398 1398 1398
    1398 1404 1404 1404 1404 1404 1398 1398 1398 1398 1398 1398 1398
    1398 1398 1398 1398 1398 1398 1398 1404 1404 1404 1404 1404 1404
    1404 1404 1398 1398 1398 1398 1398 1398 1398 1398 1398 1398 1398
    1398 1404 1404 1404 1404 1404 1410 1410 1415 1421 1421 1398 1398
    1398 1398 1398 1398 1392 1392 1392 1392 1392 1392 1392 1392 1392
    1392 1392 1392 1392 1398 1398 1398 1398 1392 1392 1392 1404 1404
    1404 1404 1398 1398 1398 1398 1398 1398 1398 1398 1398 1398 1398
    1398 1398 1398 1398 1398 1398 1398 1398 1398 1404 1404 1404 1398
    1398 1398 1398 1398 1398 1398 1398 1398 1398 1398 1398 1398 1398
    1404 1404 1404 1404 1415 1415 1421 1421 1387 1387 1392 1398 1398
    1398 1392 1392 1392 1392 1392 1392 1392 1392 1392 1392 1392 1392
    1392 1392 1392 1398 1398 1392 1392 1392 1398 1398 1398 1398 1398
    1398 1398 1398 1398 1398 1398 1398 1398 1398 1398 1398 1398 1398
    1398 1398 1398 1398 1398 1398 1398 1398 1404 1404 1404 1398 1398
    1398 1398 1398 1398 1398 1398 1398 1398 1398 1398 1398 1398 1398
    1398 1410 1415 1421 1421 1387 1387 1392 1398 1398 1392 1392 1392
    1392 1392 1392 1392 1392 1392 1392 1392 1392 1392 1392 1392 1392
    1392 1392 1392 1392 1392 1398 1398 1398 1398 1398 1398 1398 1398
    1398 1392 1392 1398 1398 1398 1398 1398 1398 1398 1398 1398 1398
    1398 1398 1398 1398 1398 1398 1404 1404 1398 1398 1398 1398 1398
    1398 1398 1398 1398 1398 1398 1398 1398 1398 1398 1398 1410 1415
    1421 1421 5548 5640 5640 5548 1398 1392 1392 1392 1392 1392 1387
    1387 1392 1392 1392 1392 1392 1392 1392 1387 1387 1392 1392 1392
    1392 1392 1398 1398 1392 1392 1392 1392 1392 1392 1392 1392 1392
    1392 1398 1398 1398 1398 1398 1398 1398 1398 1398 1398 1398 1398
    1398 1398 1398 1398 1398 1398 1398 1398 1398 1398 1398 1398 1398
    1398 1398 1398 1398 1398 1398 1398 1376 1376 0 0 0 5640 5640 5640
    5548 5548 5548 5640 5832 5832 1392 1387 1387 1392 1392 1392 1392
    1392 1387 1387 1387 1387 1392 1392 1392 1392 1392 1392 1392 1392
    1392 1392 1392 1392 1392 1392 1392 1392 1392 1398 1398 1398 1398
    1398 1398 1398 1398 1398 1392 1392 1392 1392 1392 1398 1398 1398
    1398 1398 1398 1398 1398 1398 1398 1398 1398 1398 1398 1398 1398
    1398 1392 1376 1376 0 0 0 5640 5640 5640 5548 5548 5548 5640 5734
    5734 1398 1392 1392 1392 1392 1392 1392 1392 1387 1387 1387 1387
    1392 1392 1392 1387 1387 1392 1392 1392 1392 1392 1392 1392 1392
    1392 1392 1392 1392 1392 1392 1392 1392 1392 1392 1392 1392 1392
    1392 1392 1392 1392 1392 1392 1392 1392 1398 1398 1398 1398 1398
    1392 1392 1392 1392 1398 1398 1398 1398 1398 1392 1376 1376 0 0 0
    5734 5640 5640 5640 5640 5640 5640 5640 5640 5734 5832 5832 5734
    5640 5640 5734 5832 1387 1387 1387 1387 1392 1392 1392 1387 1387
    1392 1392 1392 1392 1392 1392 1392 1392 1392 1392 1392 1392 1392
    1392 1392 1392 1392 1392 1392 1392 1392 1392 1392 1392 1392 1392
    1392 1392 1392 1392 1392 1398 1392 1392 1392 1392 1392 1392 1392
    1392 1398 1398 1398 1398 1398 0 0 0 0 5734 5734 5734 5734 5640 5640
    5640 5640 5640 5734 5832 5832 5640 5640 5734 5734 5832 5640 5548
    5548 5548 5548 5640 1392 1387 1387 1392 1392 1392 1392 1392 1392
    1392 1392 1392 1392 1392 1392 1392 1392 1392 1392 1392 1392 1392
    1392 1392 1392 1387 1387 1392 1392 1392 1392 1392 1392 1392 1392
    1392 1392 1392 1392 1392 1392 1392 1392 1392 1392 1392 1398 1398 0 0
    0 0 5832 5832 5832 5832 5734 5640 5640 5640 5640 5832 5832 5832 5640
    5640 5734 5734 5832 5640 5548 5548 5548 5548 5640 1398 1398 1398
    1392 1392 1392 1387 1387 1392 1398 1392 1392 1392 1392 1392 1387
    1387 1387 1392 1392 1392 1392 1392 1392 1392 1387 1387 1392 1392
    1392 1392 1392 1392 1392 1392 1392 1392 1392 1392 1392 1392 1392
    1392 1392 1392 1392 1392 1398 0 0 0 0 5832 5832 5832 5832 5734 5734
    5734 5734 5734 5832 5832 5832 5734 5734 5832 5832 5832 5640 5640
    5548 5548 5640 5640 5640 5734 5734 5640 5640 1392 1387 1381 1381
    1392 1392 1392 1392 1392 1392 1387 1387 1387 1392 1392 1392 1392
    1392 1392 1392 1392 1392 1392 1392 1392 1392 1392 1392 1392 1392
    1392 1392 1392 1392 1392 1392 1392 1392 1387 1387 1387 1387 1398 0 0
    0 0 5832 5832 5832 5832 5832 5832 5832 5832 5832 5832 5832 5832 5832
    5832 5832 5832 5832 5640 5640 5548 5548 5640 5640 5640 5734 5640
    5640 5640 5640 1387 1381 1381 1392 1392 1392 1392 1392 1392 1381
    1381 1392 1392 1392 1392 1392 1392 1392 1392 1392 1392 1392 1392
    1392 1392 1392 1392 1392 1392 1392 1392 1392 1392 1392 1387 1387
    1387 1387 1387 1387 1387 0 0 0 0 0 5832 5832 5832 5832 5832 5832
    5832 5832 5832 5832 5734 5734 5832 5832 5832 5734 5734 5640 5640
    5640 5640 5640 5640 5640 5734 5640 5640 5640 5640 5640 5640 5640
    5832 5832 5832 5832 5832 5734 1381 1381 1392 1392 1398 1398 1392
    1392 1392 1392 1392 1392 1392 1392 1392 1392 1387 1387 1392 1392
    1392 1392 1392 1387 1387 1387 1381 1381 1381 1381 1381 1387 0 0 0 0
    0 5832 5933 5933 5933 5832 5832 5832 5832 5832 5832 5734 5734 5832
    5832 5832 5734 5734 5640 5640 5640 5640 5640 5734 5734 5734 5640
    5640 5734 5734 5734 5832 5832 5933 5832 5832 5832 5734 5734 5734
    5734 5734 5832 5832 1404 1398 1398 1392 1392 1392 1392 1392 1392
    1392 1392 1387 1387 1387 1387 1387 1387 1387 1387 1387 1387 1381
    1381 1381 1376 1376 1376 0 0 0 0 0 5933 5933 5933 5933 5832 5832
    5832 5832 5832 5832 5832 5832 5832 5832 5832 5832 5832 5832 5734
    5640 5640 5734 5734 5734 5734 5734 5734 5734 5734 5832 5933 5933
    5933 5832 5832 5832 5734 5734 5734 5734 5734 5832 5832 5832 1415
    1410 1398 1398 1392 1392 1392 1387 1387 1392 1387 1387 1387 1387
    1387 1387 1387 1387 1387 1387 1387 1381 1381 1376 1376 1370 1370 0 0
    0 0 5832 5933 5933 5933 5832 5832 5832 5832 5832 5832 5832 5832 5832
    5832 5832 5832 5832 5832 5832 5734 5734 5734 5734 5734 5734 5734
    5734 5832 5832 5832 5933 5933 5832 5832 5832 5832 5832 5933 5832
    5832 5832 5832 5832 5832 5832 5734 5640 1398 1392 1392 1392 1387
    1387 1387 1387 1387 1387 1387 1387 1387 1387 1387 1387 1387 1387
    1381 1381 1370 1370 1370 1370 1370 0 0 0 5832 5933 5933 5933 5832
    5832 5832 5933 5933 5933 5933 5933 5832 5832 5832 5832 5832 5832
    5832 5832 5832 5832 5734 5734 5734 5734 5832 5832 5832 5832 5832
    5832 5832 5832 5832 5933 5933 5933 5933 5832 5832 5832 5832 5933
    5832 5734 5640 5640 5640 5640 5640 5640 5640 1387 1387 1387 1387
    1387 1387 1387 1387 1387 1392 1392 1387 1387 1381 1370 1370 1370
    1370 1370 0 0 0 5933 5933 5933 5933 5933 5933 5933 5933 5933 5933
    5933 5933 5933 5933 5933 5933 5933 5832 5832 5832 5832 5832 5832
    5734 5734 5734 5832 5832 5832 5832 5832 5832 5933 5933 5933 5933
    5933 5933 5933 5832 5832 5832 5832 5832 5832 5832 5734 5640 5640
    5640 5640 5640 5640 5640 5548 5548 5548 5548 5832 5832 5832 1392
    1392 1392 1387 1387 1381 1376 1376 1376 1376 1376 0 0 0 5933 5933
    5933 5933 5933 5933 5933 5933 5933 5933 5933 5933 5933 5933 5933
    5933 5933 5933 5933 5933 5933 5832 5832 5832 5832 5832 5832 5832
    5832 5832 5933 5933 5933 5933 5933 5933 5933 5933 5933 5933 5933
    5832 5832 5832 5832 5832 5832 5832 5832 5832 5832 5832 5734 5640
    5548 5548 5548 5548 5832 5832 5832 5832 5734 1392 1387 1387 1387
    1381 1381 1381 1381 5291 5291 0 0 5933 5933 5933 5933 5933 5933 5933
    5933 5933 5933 5933 5933 5933 5933 5933 5933 5933 5933 5933 5933
    5933 5933 5832 5832 5832 5832 5832 5832 5832 5832 5933 5933 5933
    5933 5933 5933 5933 5933 5933 5933 5832 5832 5832 5832 5832 5933
    5832 5832 5832 5933 5933 5933 5734 5640 5640 5640 5640 5832 5640
    5640 5832 5734 5640 5548 5291 5291 5291 5291 1392 1392 1410 1415
    5210 0 0</data></Depth1921>
</opencv_storage>
