<?xml version="1.0"?>
<opencv_storage>
<Depth5876 type_id="opencv-matrix">
  <rows>63</rows>
  <cols>48</cols>
  <dt>w</dt>
  <data>
    4405 4405 4405 4405 4405 4405 4405 4405 4405 4463 1696 1688 1688
    1688 1696 1688 1688 1688 1696 1696 4645 4645 4645 4645 4645 4645
    4708 4708 4708 4708 4708 4708 4708 4708 4708 4708 4708 4842 4842
    4842 4842 4842 4842 4911 4911 4911 4911 4911 4405 4405 4405 4405
    4405 4405 4405 4405 4463 4463 1696 1688 1688 1688 1688 1688 1688
    1688 1688 1688 1696 1696 1696 1696 1696 4645 4708 4708 4708 4708
    4708 4708 4708 4708 4708 4774 4774 4842 4842 4842 4842 4842 4842
    4911 4911 4911 4911 4911 4405 4405 4405 4405 4405 4405 4405 4405
    4463 4463 1696 1688 1688 1688 1688 1696 1696 1696 1688 1688 1696
    1696 1696 1696 1696 1696 1696 4708 4708 4708 4708 4708 4708 4708
    4708 4774 4774 4842 4842 4842 4842 4842 4911 4911 4911 4911 4911
    4911 4405 4405 4405 4405 4405 4405 4405 4463 4463 1731 1705 1688
    1688 1688 1688 1696 1696 1696 1696 1696 1696 1696 1696 1696 1696
    1696 1696 1696 4708 4708 4645 4645 4645 4645 4708 4774 4774 4842
    4911 4911 4842 4842 4842 4911 4911 4911 4911 4911 4405 4405 4405
    4405 4405 4405 4405 4405 4405 1731 1705 1696 1688 1688 1688 1696
    1696 1696 1696 1696 1696 1696 1696 1705 1705 1705 1696 1696 1705
    1705 1705 1696 1696 4645 4708 4774 4842 4774 4774 4842 4842 4842
    4842 4911 4911 4911 4911 4911 4405 4405 4405 4405 4405 4405 4405
    4405 4522 1722 1713 1696 1688 1688 1688 1696 1696 1696 1696 1696
    1696 1696 1696 1705 1705 1705 1705 1705 1705 1705 1705 1696 1696
    1713 1705 1705 1722 1722 1731 4842 4842 4842 4842 4842 4842 4911
    4911 4911 4405 4405 4405 4405 4405 4405 4405 4405 4522 1713 1705
    1696 1688 1688 1688 1696 1696 1696 1696 1696 1696 1696 1705 1705
    1705 1705 1705 1705 1705 1705 1705 1705 1705 1713 1705 1705 1713
    1713 1713 1713 1722 1713 1713 4842 4774 4774 4911 4911 4405 4405
    4405 4405 4405 4349 4349 4349 4349 1713 1705 1696 1688 1688 1688
    1696 1696 1696 1696 1696 1696 1696 1705 1705 1705 1705 1705 1705
    1705 1705 1705 1713 1713 1713 1713 1705 1705 1713 1713 1713 1722
    1713 1713 1713 1713 1722 4911 4911 4405 4405 4405 4405 4405 4349
    4349 4349 1713 1705 1696 1696 1688 1688 1688 1696 1696 1696 1696
    1696 1705 1705 1705 1705 1705 1705 1705 1705 1705 1705 1705 1713
    1713 1713 1713 1705 1705 1713 1713 1713 1722 1713 1713 1713 1713
    1713 1705 1705 4405 4405 4405 4405 4405 4405 4241 4241 1713 1696
    1696 1696 1688 1688 1688 1696 1696 1696 1696 1705 1705 1705 1705
    1696 1696 1705 1705 1705 1705 1705 1705 1705 1713 1713 1713 1705
    1705 1713 1713 1713 1722 1722 1722 1722 1722 1713 1705 1705 4405
    4405 4405 4405 4405 4405 4241 4241 1705 1696 1696 1688 1688 1688
    1688 1696 1696 1696 1696 1705 1705 1705 1705 1696 1696 1696 1705
    1705 1705 1705 1705 1705 1713 1713 1713 1713 1713 1713 1713 1713
    1722 1722 1722 1722 1722 1713 1713 1713 4405 4405 4405 4405 4405
    4405 4405 4405 1705 1696 1696 1688 1688 1688 1688 1696 1696 1696
    1696 1696 1705 1705 1705 1696 1696 1696 1705 1705 1705 1705 1705
    1713 1713 1722 1713 1713 1713 1713 1713 1713 1722 1722 1722 1722
    1722 1731 1722 1722 4405 4405 4405 4463 4463 4463 4463 1766 1705
    1705 1696 1688 1688 1688 1688 1696 1696 1696 1696 1696 1705 1705
    1705 1696 1696 1705 1705 1705 1705 1713 1713 1713 1722 1713 1713
    1713 1713 1713 1713 1722 1722 1731 1722 1722 1722 1731 1731 1731
    4405 4405 4405 4463 4522 4522 1766 1766 1722 1713 1696 1696 1688
    1688 1688 1696 1696 1696 1705 1705 1705 1705 1705 1705 1705 1705
    1705 1705 1705 1713 1705 1705 1713 1713 1713 1713 1713 1713 1722
    1722 1722 1731 1722 1722 1722 1731 1731 1731 4405 4405 4405 4405
    4522 4522 1766 1748 1722 1705 1696 1688 1688 1688 1688 1696 1696
    1696 1705 1705 1705 1705 1705 1705 1705 1705 1705 1705 1705 1713
    1705 1705 1713 1713 1713 1713 1713 1713 1722 1722 1722 1722 1731
    1722 1722 1722 1731 1739 4405 4405 4405 4405 4405 4405 1766 1731
    1705 1696 1696 1688 1688 1688 1688 1696 1696 1696 1696 1705 1705
    1705 1705 1705 1705 1705 1705 1705 1705 1705 1705 1705 1705 1705
    1713 1713 1713 1722 1722 1722 1722 1722 1722 1722 1722 1713 1713
    1713 4463 4405 4405 4405 4405 4405 1766 1722 1705 1696 1688 1688
    1688 1688 1688 1696 1696 1696 1696 1696 1705 1705 1705 1705 1705
    1705 1705 1705 1705 1705 1705 1705 1705 1705 1713 1713 1713 1722
    1722 1722 1722 1722 1722 1722 1722 1713 1713 1713 4463 4405 4405
    4405 4241 4241 4241 1713 1696 1688 1688 1688 1688 1688 1688 1696
    1696 1696 1696 1696 1705 1705 1705 1705 1705 1705 1705 1705 1705
    1705 1705 1705 1705 1705 1713 1713 1722 1722 1722 1722 1722 1722
    1722 1722 1722 1722 1722 1722 4463 4463 4405 4405 4241 4241 4241
    1713 1696 1688 1688 1688 1688 1696 1696 1696 1696 1696 1705 1705
    1705 1705 1705 1705 1705 1705 1705 1705 1705 1705 1705 1705 1705
    1713 1713 1722 1722 1722 1722 1722 1722 1722 1722 1731 1722 1722
    1722 4911 4405 4405 4405 4405 4241 4241 1731 1722 1705 1696 1696
    1688 1688 1696 1696 1705 1705 1705 1705 1705 1705 1705 1705 1705
    1705 1705 1713 1713 1705 1705 1713 1705 1705 1713 1722 1722 1722
    1722 1722 1722 1722 1722 1722 1722 1731 1731 1731 4911 4405 4405
    1757 1757 1757 1757 1731 1713 1705 1696 1696 1696 1696 1696 1696
    1705 1705 1705 1705 1705 1705 1705 1705 1705 1705 1713 1713 1713
    1705 1705 1713 1713 1713 1722 1722 1722 1722 1722 1722 1731 1722
    1722 1722 1722 1731 1739 1739 4911 4463 4405 1757 1757 1757 1757
    1731 1713 1705 1696 1696 1696 1696 1688 1688 1696 1705 1705 1705
    1705 1705 1705 1705 1705 1713 1705 1705 1713 1713 1713 1713 1713
    1713 1722 1722 1722 1713 1713 1722 1731 1722 1722 1722 1722 1722
    1739 1739 4911 4405 4405 4405 4405 4405 1757 1731 1722 1705 1696
    1696 1696 1696 1688 1688 1696 1705 1705 1705 1705 1705 1705 1705
    1713 1713 1705 1705 1713 1713 1713 1713 1713 1713 1722 1722 1722
    1713 1713 1722 1731 1722 1722 1731 1722 1722 1722 1722 4983 4405
    4405 4349 4349 4349 1757 1731 1722 1696 1696 1696 1696 1696 1696
    1696 1705 1705 1705 1705 1705 1705 1705 1713 1713 1713 1705 1705
    1713 1713 1722 1722 1722 1722 1722 1722 1722 1713 1713 1722 1731
    1731 1731 1731 1722 1722 1722 1722 5056 4405 4349 4349 4349 4349
    1766 1722 1713 1696 1696 1696 1696 1696 1696 1696 1705 1705 1705
    1705 1705 1705 1705 1722 1713 1713 1705 1705 1713 1713 1713 1713
    1713 1722 1722 1722 1722 1722 1722 1731 1731 1731 1731 1731 1722
    1722 1722 1722 5056 4405 4349 4349 4349 4349 1731 1705 1705 1696
    1696 1696 1696 1688 1688 1696 1705 1705 1705 1705 1705 1705 1705
    1722 1713 1713 1705 1705 1713 1713 1713 1713 1713 1722 1722 1731
    1731 1722 1722 1731 1731 1731 1731 1731 1722 1722 1722 4983 4983
    4405 4405 4405 4405 1731 1731 1705 1705 1696 1696 1696 1688 1688
    1688 1696 1705 1705 1705 1705 1705 1705 1713 1713 1713 1713 1705
    1705 1705 1705 1705 1713 1713 1722 1722 1731 1731 1731 1731 1731
    1722 1722 1731 1731 1731 1731 1731 4983 4983 4405 4405 4405 4405
    1722 1722 1705 1705 1696 1696 1696 1688 1688 1688 1696 1705 1705
    1705 1705 1705 1705 1705 1705 1713 1713 1705 1705 1705 1705 1705
    1713 1713 1722 1722 1731 1731 1731 1731 1731 1722 1722 1731 1722
    1722 1731 1731 4983 4983 4463 4463 4463 4463 1722 1722 1713 1705
    1696 1696 1696 1696 1696 1696 1696 1705 1705 1705 1705 1705 1705
    1705 1705 1705 1713 1713 1713 1705 1705 1713 1713 1713 1722 1722
    1731 1731 1731 1731 1731 1722 1722 1722 1722 1722 1722 4983 4983
    4983 4463 4463 4463 1731 1722 1722 1713 1705 1696 1696 1696 1696
    1696 1696 1696 1705 1705 1705 1705 1705 1705 1705 1705 1705 1713
    1713 1713 1713 1713 1713 1713 1722 1731 1731 1731 1731 1731 1731
    1731 1722 1722 1722 1713 1713 1713 4983 4983 4911 4405 4405 4405
    1731 1731 1722 1713 1705 1696 1696 1696 1696 1696 1696 1696 1705
    1705 1705 1705 1705 1705 1705 1705 1705 1713 1713 1713 1713 1713
    1722 1722 1731 1731 1731 1731 1731 1731 1731 1731 1722 1722 1722
    1705 1705 1705 4911 4911 4911 4405 4405 4405 1731 1731 1722 1705
    1696 1696 1696 1696 1696 1696 1696 1696 1705 1705 1705 1705 1705
    1705 1705 1705 1705 1713 1713 1713 1713 1713 1722 1722 1739 1731
    1731 1731 1731 1731 1731 1731 1731 1731 1722 1705 1705 1766 1766
    4911 4911 4405 4405 4405 1731 1731 1705 1705 1696 1696 1696 1696
    1696 1696 1696 1696 1705 1705 1705 1705 1705 1705 1713 1713 1713
    1713 1722 1722 1722 1722 1722 1731 1731 1731 1731 1731 1731 1731
    1731 1731 1731 1731 1731 1731 1766 1766 1766 4983 4983 4463 4463
    4645 4645 1722 1705 1705 1696 1696 1696 1696 1696 1696 1696 1696
    1705 1705 1705 1705 1705 1705 1713 1713 1722 1722 1722 1722 1722
    1722 1731 1731 1731 1731 1731 1731 1731 1731 1731 1731 1731 1731
    1731 1731 1766 1766 5056 4983 4983 4463 4463 4645 4645 1722 1713
    1705 1696 1696 1696 1696 1696 1696 1696 1696 1705 1705 1705 1705
    1705 1705 1713 1722 1722 1722 1722 1722 1722 1722 1731 1731 1731
    1731 1731 1731 1731 1731 1731 1731 1731 1731 1731 1731 1731 5056
    5056 4983 4983 4405 4349 4349 1731 1722 1713 1705 1696 1696 1696
    1696 1696 1696 1696 1696 1713 1713 1713 1705 1705 1705 1713 1722
    1722 1722 1722 1722 1722 1722 1731 1731 1731 1731 1731 1731 1731
    1731 1731 1731 1731 1731 1731 1731 1731 5132 5056 4983 4983 4349
    4349 4349 1722 1722 1713 1705 1696 1696 1696 1696 1696 1696 1696
    1696 1713 1713 1705 1705 1713 1713 1713 1713 1722 1722 1722 1722
    1722 1722 1722 1731 1731 1731 1731 1731 1731 1731 1731 1731 1731
    1731 1731 1731 5056 5056 4983 4983 4983 4349 4349 4349 1722 1722
    1713 1696 1696 1696 1696 1696 1696 1696 1696 1696 1705 1705 1705
    1705 1713 1713 1713 1713 1722 1722 1722 1722 1722 1722 1722 1731
    1731 1731 1731 1731 1731 1731 1731 1731 1731 1731 1731 1731 5056
    5056 4983 4983 4983 4349 4349 4349 1722 1722 1705 1696 1696 1696
    1696 1696 1696 1696 1696 1696 1705 1705 1705 1705 1713 1713 1713
    1722 1722 1722 1722 1722 1722 1722 1722 1731 1731 1731 1731 1731
    1731 1731 1731 1731 1731 1731 1731 1731 4983 4983 4983 4983 4983
    4349 4349 4349 1722 1713 1705 1696 1696 1696 1696 1696 1705 1696
    1696 1696 1705 1705 1705 1705 1713 1713 1722 1722 1722 1722 1722
    1722 1722 1722 1731 1731 1731 1731 1731 1731 1731 1731 1731 1731
    1731 1731 1731 1731 4983 4983 4983 4983 4983 4405 4405 4405 1722
    1713 1705 1696 1696 1696 1696 1696 1705 1705 1705 1705 1705 1713
    1713 1713 1722 1722 1722 1722 1722 1722 1722 1722 1722 1731 1731
    1731 1731 1731 1731 1731 1739 1739 1739 1739 1731 1731 1739 1739
    4983 4983 4983 4983 4983 4582 4582 1766 1731 1713 1696 1696 1696
    1696 1696 1705 1696 1696 1705 1705 1713 1713 1713 1713 1713 1722
    1722 1722 1722 1722 1722 1722 1722 1731 1731 1731 1731 1731 1731
    1731 1731 1739 1739 1739 1739 1731 1731 1731 4911 4911 4911 4983
    4983 4582 4582 1766 1739 1713 1696 1696 1696 1705 1705 1705 1696
    1696 1705 1705 1713 1713 1713 1713 1713 1722 1731 1722 1722 1722
    1722 1722 1722 1731 1731 1731 1731 1731 1731 1731 1731 1739 1739
    1731 1731 1731 1731 1731 4911 4911 4911 4983 4983 4463 1776 1776
    1731 1713 1705 1705 1705 1705 1705 1705 1696 1696 1705 1705 1713
    1713 1713 1713 1713 1722 1722 1722 1722 1722 1722 1722 1722 1731
    1731 1731 1731 1731 1731 1731 1731 1731 1739 1731 1731 1731 1731
    1731 4983 4983 4983 4983 4983 4463 1776 1748 1722 1705 1696 1696
    1696 1705 1705 1705 1696 1696 1705 1705 1713 1713 1713 1713 1713
    1722 1722 1722 1722 1722 1722 1722 1722 1731 1731 1731 1731 1731
    1731 1731 1731 1731 1731 1731 1722 1722 1722 4983 4983 4983 4983
    4983 4983 4405 1776 1739 1722 1705 1696 1696 1696 1705 1705 1705
    1705 1705 1705 1713 1722 1722 1722 1713 1713 1722 1731 1722 1722
    1722 1722 1722 1722 1731 1731 1731 1731 1731 1731 1731 1731 1731
    1731 1731 1722 1722 1722 4983 4983 4983 4983 4983 4983 4405 1785
    1731 1722 1705 1696 1696 1696 1696 1696 1713 1713 1713 1705 1705
    1713 1713 1722 1722 1722 1722 1722 1722 1722 1722 1722 1722 1722
    1731 1731 1731 1731 1731 1731 1731 1731 1731 1731 1731 1731 1731
    1731 4983 4983 4983 4983 4983 5056 4405 1748 1731 1722 1705 1696
    1696 1696 1696 1696 1705 1705 1713 1705 1705 1713 1713 1722 1722
    1722 1722 1722 1722 1722 1722 1722 1722 1722 1731 1731 1731 1731
    1731 1731 1731 1731 1731 1731 1731 1731 1731 1731 4983 4983 4983
    4983 4983 5056 1748 1748 1731 1722 1713 1696 1696 1696 1696 1696
    1705 1705 1713 1713 1713 1713 1713 1722 1722 1722 1722 1722 1722
    1722 1722 1722 1722 1722 1731 1731 1731 1731 1731 1731 1731 1731
    1731 1731 1731 1731 1739 1739 4983 4983 4983 4983 4983 4983 1748
    1748 1731 1722 1713 1696 1696 1696 1696 1696 1705 1705 1713 1713
    1713 1713 1713 1722 1722 1722 1722 1722 1722 1722 1722 1722 1722
    1722 1731 1731 1731 1731 1731 1731 1731 1731 1731 1731 1731 1731
    1739 1739 4983 4983 4983 4983 4983 4983 1766 1748 1731 1713 1705
    1705 1705 1696 1696 1696 1705 1705 1713 1713 1713 1722 1722 1722
    1722 1722 1722 1722 1722 1722 1722 1722 1722 1731 1731 1731 1731
    1731 1731 1731 1731 1739 1739 1731 1731 1731 1739 1739 5056 5056
    4983 4983 4983 4983 1766 1739 1722 1705 1705 1705 1696 1696 1696
    1705 1705 1705 1713 1713 1713 1722 1722 1722 1722 1722 1722 1722
    1722 1722 1722 1731 1731 1731 1731 1731 1731 1731 1731 1731 1731
    1739 1739 1731 1731 1739 1739 1739 5056 5056 4983 4983 5056 5056
    1766 1739 1713 1705 1705 1705 1696 1696 1696 1705 1705 1705 1705
    1705 1713 1713 1722 1722 1722 1722 1722 1722 1722 1722 1722 1722
    1731 1731 1731 1731 1731 1731 1731 1731 1731 1739 1739 1731 1731
    1739 1739 1739 4983 4983 4983 4983 4983 5056 1739 1739 1713 1696
    1696 1705 1705 1705 1705 1705 1705 1705 1705 1705 1713 1713 1722
    1722 1722 1722 1722 1722 1722 1722 1722 1722 1731 1731 1731 1731
    1731 1731 1731 1731 1731 1731 1731 1731 1731 1731 1731 4983 4983
    4983 4983 4983 4983 5056 4582 1722 1722 1696 1696 1705 1705 1705
    1713 1705 1705 1705 1705 1713 1713 1722 1722 1722 1722 1722 1731
    1731 1731 1722 1722 1722 1731 1731 1731 1731 1731 1731 1731 1731
    1731 1731 1731 1731 1731 1731 1731 4983 4983 4983 4983 4983 4983
    5056 4582 4582 4582 1696 1696 1705 1705 1705 1713 1713 1713 1705
    1705 1713 1713 1722 1722 1722 1722 1722 1731 1731 1731 1722 1722
    1722 1731 1731 1731 1731 1731 1731 1731 1731 1731 1731 1739 1739
    1731 1731 1731 5056 5056 5056 4983 4983 4983 4983 4582 4582 4582
    4645 4645 4645 1722 1722 1722 1713 1713 1713 1713 1713 1722 1731
    1722 1722 1731 1731 1731 1731 1731 1731 1731 1731 1731 1731 1731
    1731 1731 1731 1731 1731 1731 1731 1739 1739 1731 1731 1731 4983
    4983 4983 4983 4983 4983 4983 4582 4582 4582 4582 4582 4582 4582
    4582 4645 1722 1722 1713 1713 1722 1722 1731 1722 1722 1731 1731
    1731 1731 1731 1731 1731 1731 1731 1731 1731 1731 1731 1731 1731
    1731 1731 1739 1739 1739 1739 1739 4983 4983 4983 4983 4983 4983
    4983 5056 4582 4582 4582 4582 4582 4582 4582 4645 4645 4708 4645
    4645 4645 1731 1731 1731 1731 1731 1739 1739 1731 1731 1731 1731
    1731 1722 1722 1731 1731 1731 1731 1731 1731 1731 1731 1739 1739
    1731 1731 1731 4983 4983 4983 4983 4983 4983 4983 5056 4582 4582
    4582 4582 4645 4582 4582 4582 4582 4708 4708 4708 4708 4645 4645
    4708 0 0 0 0 1739 1731 1731 1731 1722 1722 1722 1731 1731 1731 1731
    1731 1731 1731 1731 1739 1739 1731 1731 1731 5056 4983 4983 4983
    4983 4983 4983 5056 4582 4582 4582 4582 4582 4582 4582 4582 4582
    4708 4708 4708 4708 4645 4645 4842 0 0 0 0 0 1739 1739 1731 1722
    1722 0 1731 1731 1739 1731 1731 1731 1731 1731 1731 1731 1731 1731
    1731 5056 4983 4983 4983 5056 5056 5056 5056 4582 4582 4582 4582
    4582 4582 4582 4582 4582 4708 4708 4708 4708 4708 4774 4911 0 0 0 0
    0 0 0 0 0 0 0 0 0 0 0 4911 4911 1731 1731 1731 1722 1722 1731 1731
    4983 4983 4983 4983 4983 5056 5056 5056 4582 4582 4582 4645 4645
    4645 4645 4645 0 4708 4708 4708 4708 4708 4708 4708 0 0 0 0 0 0 0 0
    0 0 0 0 0 0 0 4911 4911 4911 1731 1731 1722 1722 1722 4983 4983 4983
    4983 4983 4983 5056 5056 5056</data></Depth5876>
</opencv_storage>
