<?xml version="1.0"?>
<opencv_storage>
<Depth3481 type_id="opencv-matrix">
  <rows>27</rows>
  <cols>33</cols>
  <dt>w</dt>
  <data>
    0 1823 1823 1833 0 0 0 1915 1915 1936 1970 1970 1970 1970 1970 1970
    1959 1959 1959 1947 1947 1959 1959 1970 1981 2028 2053 2065 2078
    2078 2744 2744 2767 0 1823 1823 1833 0 0 1915 1915 1915 1936 1970
    1970 1981 1981 1981 1970 1970 1970 1959 1959 1959 1959 1959 1970
    1981 2028 2053 2065 2078 2090 2744 2744 2767 0 1823 1823 1843 1843 0
    1915 1915 1915 1981 1981 1993 1993 1993 1981 1981 1981 1970 1970
    1959 1959 1959 1959 1970 1981 2028 2053 2065 2078 2090 2767 2767
    2767 1823 1823 1823 1843 1843 1843 1843 1970 1970 2005 2005 1993
    1993 2005 2005 1993 1993 1981 1981 1970 1959 1959 1959 1970 1970
    2040 2065 2078 2078 2812 2767 2767 2789 1813 1813 1833 1833 1833
    1833 1970 1970 1970 1970 1993 1993 2005 2005 2005 2005 2005 1993
    1993 1970 1970 1959 1959 1970 1970 2053 2065 2078 2078 2116 2789
    2789 2812 1813 1813 1833 1833 1833 1833 1970 1970 1970 1970 1993
    1993 2016 2016 2016 2005 2005 2005 2005 1993 1970 1970 1970 1970
    1981 2040 2065 2090 2090 2116 2129 2835 3010 1833 1833 1843 1843
    1843 1843 1970 1970 1970 1981 1993 1993 2016 2016 2016 2016 2016
    2016 2005 2005 1993 1993 1993 1993 2005 2040 2065 2090 2103 2116
    2116 2933 3064 1833 1833 1843 1843 1873 1873 1926 1926 1936 1947
    1993 1993 2028 2028 2016 2016 2016 2016 2016 2016 2005 2005 2005
    2016 2016 2040 2065 2090 2103 2116 2116 3092 3092 1813 1813 1843
    1853 1873 1873 1883 1926 1936 1947 1981 1993 2040 2040 2028 2028
    2028 2028 2028 2028 2016 2016 2016 2016 2016 2053 2078 2103 2116
    2116 2116 3120 3120 1813 1813 1843 1853 1863 1873 1873 1926 1936
    1947 1981 2016 2040 2040 2040 2040 2040 2040 2040 2040 2028 2028
    2028 2016 2016 2065 2078 2103 2116 2116 2129 3120 3120 1804 1833
    1863 1863 1863 1873 1873 1926 1936 1947 1981 2016 2028 2065 2065
    2053 2053 2053 2053 2053 2040 2028 2028 2028 2028 2065 2090 2103
    2129 2129 2129 3092 3120 1804 1833 1843 1843 1904 1894 1894 1926
    1947 1959 1981 2016 2028 2065 2065 2065 2065 2065 2065 2065 2053
    2053 2040 2040 2040 2065 2078 2116 2129 2143 2143 3092 3120 1804
    1833 1843 1843 1904 1904 1915 1926 1926 2005 2005 2016 2028 2065
    2078 2078 2065 2065 2078 2078 2078 2065 2065 2053 2053 2065 2078
    2116 2129 2143 2143 3120 3120 1833 1843 1843 1843 1926 1926 1926
    1926 1959 1993 1993 2028 2028 2078 2090 2090 2078 2078 2090 2090
    2090 2078 2065 2065 2065 2065 2078 2116 2143 2156 2156 3178 3149
    1843 1843 1843 1863 1894 1915 1926 1947 1959 1993 1993 2028 2028
    2090 2103 2090 2090 2090 2103 2103 2103 2078 2078 2065 2065 2065
    2078 2129 2156 2198 2198 2198 3149 1843 1843 1863 1863 1894 1915
    1926 1947 1947 2016 2016 2028 2053 2090 2090 2103 2103 2103 2116
    2103 2103 2090 2090 2078 2078 2078 2103 2156 2170 2198 2198 2198
    3120 1873 1873 1873 1873 1894 1915 1936 1936 1936 2040 2040 2040
    2040 2078 2090 2090 2103 2116 2116 2116 2116 2103 2103 2090 2090
    2090 2103 2143 2170 2198 2198 2198 3120 0 1873 1873 1873 1883 1915
    1936 1936 1970 2016 2040 2040 2040 2078 2090 2090 2103 2116 2116
    2116 2116 2116 2103 2103 2103 2103 2103 2129 2156 2184 2212 2212
    2212 1853 1863 1863 1863 1883 1926 1947 1970 1970 2016 2016 2016
    2053 2078 2078 2103 2129 2129 2129 2129 2129 2129 2116 2116 2116
    2116 2116 2129 2156 2184 2212 2212 2212 1853 1853 1863 1863 1873
    1926 1936 1959 1981 2005 2016 2016 2053 2078 2078 2129 2156 2143
    2143 2143 2143 2143 2143 2129 2129 2116 2116 2129 2156 2198 2212
    2226 2241 1853 1853 1863 1863 1873 1926 1936 1959 1970 1993 2005
    2016 2053 2090 2143 2143 2156 2156 2156 2156 2156 2156 2156 2129
    2129 2129 2129 2143 2156 2212 2226 2241 2256 1853 1853 1873 1873
    1883 1926 1947 1959 1970 1993 2005 2028 2053 2065 2156 2156 2156
    2156 2156 2170 2170 2170 2156 2143 2143 2143 2143 2143 2170 2212
    2241 2256 2271 1873 1873 1873 1883 1894 1926 1947 1959 1970 1993
    2005 2040 2053 2053 2143 2143 2156 2156 2156 2170 2170 2170 2170
    2156 2143 2143 2143 2156 2170 2198 2241 2256 2271 1873 1873 1873
    1883 1894 1926 1947 1959 1970 1993 2005 2040 2053 2053 2143 2143
    2143 2170 2170 2170 2170 2184 2170 2170 2156 2156 2156 2156 2170
    2198 2226 2271 2271 1883 1883 1883 1894 1915 1936 1970 1970 1981
    2005 2016 2053 2053 2065 2065 2143 2143 2184 2184 2184 2184 2184
    2184 2184 2184 2170 2170 2170 2170 2198 2226 2271 2286 1202 1883
    1883 1894 1926 1936 1936 1993 1993 2028 2028 2065 2065 833 2198 2198
    2198 2198 2212 2212 2212 878 878 2198 2198 2198 2198 2198 2301 2301
    2301 2301 2301 1202 1904 1904 1904 1926 1936 1936 1936 2028 2028
    2028 833 833 833 835 2212 2212 2212 2212 2212 878 878 878 880 880
    880 880 0 0 3433 3433 3433 3433</data></Depth3481>
</opencv_storage>
