<?xml version="1.0"?>
<opencv_storage>
<Depth13296 type_id="opencv-matrix">
  <rows>19</rows>
  <cols>32</cols>
  <dt>w</dt>
  <data>
    4842 4774 4708 4708 4774 4774 6146 6146 6146 6146 6146 6038 6038
    5933 5933 5933 5933 5933 5933 5933 5933 5933 5832 5734 5734 5640
    5640 5640 5548 0 0 0 4842 4774 4708 4708 4708 4708 4708 6259 6259
    6259 6146 6146 5933 5933 5933 5933 5933 5933 5933 5933 5832 5832
    5832 5734 5734 5640 5640 5640 5548 5460 5460 0 4842 4842 4774 4774
    4582 4582 4582 4708 4708 4708 6146 6146 5933 5933 5933 5933 5933
    5832 5832 5832 5832 5832 5832 5734 5734 5734 5548 5548 5548 5460
    5460 5374 4842 4842 4842 4774 4582 4582 4708 4708 4708 4708 4708
    4522 4463 4463 4463 5933 5933 5832 5832 5832 5832 5734 5734 5734
    5640 5640 5548 5548 5548 5460 5460 5374 4842 4842 4842 4774 4774
    4708 4708 4645 4645 4645 4582 4522 4463 4463 4463 4405 4405 5832
    5832 5832 5832 5734 5734 5734 5640 5640 5640 5548 5548 5460 5460
    5374 4842 4842 4842 4645 4645 4708 4645 4645 4582 4582 4582 4522
    4463 4463 4405 4405 4405 0 4190 4139 5832 5832 5832 5832 5734 5734
    5640 5640 5548 5460 5460 5374 6375 4645 4645 4645 4645 4708 4645
    4645 4582 4522 4522 4522 4463 4405 4349 4349 4349 4241 4190 4139
    4139 4139 5734 5734 5734 5734 5640 5640 5548 5460 5374 5374 0 0 4645
    4645 4645 4708 4645 4582 4522 4522 4463 4463 4463 4405 4349 4349
    4241 4241 4190 4139 4139 4139 4089 5734 5734 5548 5548 5640 5548
    5460 5374 5374 6146 6259 6259 0 4708 4708 4645 4582 4522 4522 4463
    4463 4463 4405 4349 4349 4241 4241 4190 4139 4139 4089 4089 4089
    5548 5548 5548 5734 5548 5460 5374 5374 6146 6259 6259 6259 6038
    6038 4522 4522 4522 4522 4463 4463 4405 4349 4349 4295 4295 4241
    4241 4241 4139 4089 4089 4041 4041 4041 3948 3948 3948 5460 5374
    5374 6146 6259 6146 6038 6038 6038 4522 4522 4522 4522 4463 4463
    4405 4349 4349 4295 4295 4241 4241 4241 4190 4089 4089 4041 4041
    4041 3948 3948 3903 3903 5374 5374 6146 6259 6146 6038 6038 6146
    6146 6259 6038 4463 4463 4463 4405 4349 4241 4241 4295 4190 4190
    4190 4139 4139 4139 4089 4089 3948 3948 3903 3903 3903 3903 3903
    6146 6259 6146 6038 6038 6146 6259 6259 6038 6038 6146 6146 6146
    4241 4241 4241 4295 4190 4190 4190 4089 4089 4139 4089 4089 3948
    3948 3903 3903 3816 3816 3816 6259 6146 6146 5933 5933 6038 6038
    6038 6038 6038 6146 6146 6146 6375 4295 4295 4295 4241 4190 4190
    4089 4089 4089 4089 4089 3994 3948 3903 3903 3816 3816 3816 6146
    6146 6146 5933 5933 6038 6038 6038 6038 6038 6146 6146 6259 6375
    6375 4295 4295 4241 4190 4190 4139 4089 4089 4041 4041 4041 3948
    3948 3903 3859 3859 3816 6146 6146 6146 5933 5933 5933 5933 6038
    6038 6038 6146 6259 6259 6375 6497 6497 6497 0 0 0 0 4089 3994 3994
    4041 4089 3948 3903 3903 3859 3816 3816 6038 6038 6038 5832 5832
    5933 5933 6038 6038 6146 6259 6259 6259 6259 6259 6259 0 0 0 0 0 0
    3994 3994 3994 3994 3994 3903 3903 3859 3816 3774 6038 6038 6146
    5832 5832 5933 5933 6038 6038 6146 6146 6259 6259 6259 6146 6146
    6146 0 0 0 0 0 0 0 3994 3994 3994 3994 3859 3816 3774 3732 6038 6038
    6146 6038 6038 6038 6038 5933 5933 6146 6146 6259 6259 6259 6146
    6146 6146 6146 0 0 0 0 0 0 0 0 0 0 3859 3816 3774 3732</data></Depth13296>
</opencv_storage>
