<?xml version="1.0"?>
<opencv_storage>
<Depth16295 type_id="opencv-matrix">
  <rows>46</rows>
  <cols>35</cols>
  <dt>w</dt>
  <data>
    4190 4241 4241 4241 4241 4241 4241 4241 4241 4241 4241 4241 4241
    4241 4241 4241 2103 2103 2103 2103 2103 2129 4295 4241 4241 4241
    4241 4241 4241 4241 4241 4241 4241 4241 4190 4190 4241 4241 4241
    4241 4241 4241 4241 4241 4241 4241 4241 4241 4241 4241 4190 2103
    2103 2090 2090 2078 2065 2065 4295 4241 4241 4241 4241 4241 4241
    4241 4241 4241 4241 4190 4190 4241 4241 4241 4241 4241 4241 4241
    4241 4241 4241 4241 4190 4190 4241 2065 2053 2053 2065 2065 2065
    2065 2065 2065 4295 4241 4241 4241 4241 4241 4241 4241 4241 4241
    4190 4190 4241 4241 4241 4241 4241 4241 4241 4241 4241 4241 4241
    4190 4190 4241 2053 2040 2040 2065 1894 1894 2053 2053 2040 2040
    4349 4295 4190 4190 4241 4190 4190 4241 4241 4190 4190 4241 4241
    4241 4241 4241 4241 4241 4241 4241 4241 4190 4190 4190 2040 2040
    2040 2040 1904 1894 1883 1873 1873 2040 2040 2053 2078 2078 4190
    4241 4190 4190 4190 4241 4241 4190 4241 4241 4241 4241 4241 4241
    4241 4241 4241 4241 4190 4139 2053 2040 2040 2028 2028 1894 1894
    1883 1873 1873 1873 2016 2053 1981 1981 1981 1981 4190 4190 4190
    4190 4241 4190 4241 4241 4241 4241 4241 4241 4241 4241 4241 4241
    4190 2053 2053 2040 2016 1904 1894 1883 1883 1883 1873 1873 1873
    1883 1883 1904 1947 1926 1894 1894 1883 1883 4190 4241 4190 4241
    4241 4241 4241 4241 4241 4241 4241 4241 4241 4190 2053 2053 2028
    1970 1894 1894 1883 1883 1883 1883 1883 1873 1873 1873 1883 1894
    1904 1894 1894 1883 1883 1873 1873 4190 4241 4241 4241 4241 4241
    4241 4241 4241 4241 4241 2090 2065 2040 2028 1894 1894 1883 1883
    1883 1883 1883 1883 1873 1873 1873 1883 1883 1883 1883 1883 1883
    1873 1873 1873 4190 4241 4241 4241 4241 4241 4241 4241 4241 2078
    2078 2078 2065 2040 2028 1894 1894 1883 1883 1883 1883 1883 1883
    1873 1873 1883 1883 1883 1883 1883 1883 1883 1873 1873 1873 4190
    4241 4241 4241 4241 4241 4241 4241 4241 2078 2078 2078 2053 2028
    2016 1904 1894 1883 1883 1883 1873 1873 1873 1873 1873 1873 1873
    1883 1883 1883 1883 1873 1873 1873 1853 4190 4241 4241 4241 4241
    4241 4241 4241 4241 2078 2065 2065 2053 2028 1947 1894 1883 1883
    1873 1873 1873 1873 1873 1873 1873 1873 1873 1883 1883 1873 1873
    1873 1873 1873 1853 4190 4241 4241 4241 4241 4241 4241 4241 4241
    2065 2065 2053 2040 2028 1904 1894 1883 1883 1873 1863 1863 1873
    1873 1873 1873 1873 1873 1873 1873 1873 1873 1873 1873 1873 1873
    4190 4241 4241 4241 4241 4241 4241 4241 4241 2065 2053 2040 2028
    1936 1904 1894 1883 1883 1873 1863 1863 1863 1863 1863 1863 1863
    1873 1873 1873 1873 1873 1873 1873 1873 1873 4190 4241 4241 4241
    4241 4241 4241 4241 4190 2065 2053 2028 2016 1915 1894 1894 1883
    1883 1873 1873 1873 1863 1863 1863 1863 1863 1863 1873 1873 1873
    1873 1873 1873 1873 1873 4190 4241 4241 4241 4241 4241 4241 4241
    4190 2053 2040 2016 1981 1904 1894 1883 1883 1883 1883 1873 1873
    1863 1863 1853 1853 1863 1863 1863 1873 1873 1863 1863 1873 1873
    1873 4190 4241 4241 4241 4241 4241 4241 4190 2078 2053 2040 2016
    1981 1904 1894 1883 1883 1883 1883 1873 1873 1863 1863 1853 1853
    1863 1863 1863 1873 1873 1863 1863 1873 1873 4241 4190 4241 4241
    4241 4241 4241 4241 4190 2065 2053 2053 2016 1970 1915 1894 1883
    1883 1873 1873 1873 1873 1873 1873 1863 1863 1863 1863 1863 1873
    1873 1863 1863 1863 1863 4241 4190 4241 4241 4241 4241 4241 4190
    2078 2065 2053 2028 2016 1936 1904 1883 1883 1873 1873 1873 1873
    1873 1873 1873 1873 1863 1863 1863 1863 1863 1863 1863 1863 1863
    1863 4190 4190 4241 4241 4241 4241 4190 4190 2065 2053 2040 2028
    1970 1904 1894 1883 1873 1873 1863 1863 1873 1873 1873 1873 1873
    1873 1863 1863 1863 1863 1863 1863 1863 1863 1863 4190 4190 4241
    4190 4190 4190 4190 4190 2053 2028 2028 2016 1915 1894 1883 1883
    1873 1863 1863 1863 1863 1863 1863 1863 1863 1863 1863 1863 1863
    1863 1863 1863 1863 1863 1863 4190 4139 4190 4190 4190 4190 4190
    2053 2053 2028 2016 1959 1904 1894 1883 1873 1873 1863 1863 1863
    1863 1863 1863 1863 1863 1863 1863 1863 1853 1853 1853 1863 1873
    1873 4190 4190 4139 4190 4190 4190 4190 4190 2053 2053 2028 2016
    1947 1904 1883 1873 1873 1863 1863 1863 1863 1863 1863 1863 1863
    1863 1863 1863 1863 1853 1853 1853 1863 1863 4190 4190 4190 4190
    4241 4190 4190 4190 2065 2053 2040 2016 1981 1926 1894 1883 1873
    1873 1863 1863 1863 1863 1863 1863 1863 1863 1863 1863 1863 1853
    1853 1853 1853 1863 1863 4139 4139 4190 4139 4241 4190 2090 2090
    2065 2053 2028 2016 1959 1904 1883 1873 1863 1863 1863 1863 1863
    1863 1863 1863 1863 1863 1863 1863 1863 1853 1853 1853 1853 1863
    4190 4139 4139 4190 4139 4190 4190 2090 2078 2053 2028 2016 1970
    1904 1894 1883 1873 1863 1863 1863 1853 1853 1853 1853 1863 1863
    1863 1863 1863 1863 1853 1853 1853 1853 1853 4190 4190 4190 4190
    4139 4190 4190 2078 2078 2053 2028 2016 1959 1904 1883 1873 1863
    1863 1853 1853 1853 1853 1853 1853 1853 1853 1863 1863 1863 1853
    1853 1853 1853 1853 1853 4190 4190 4190 4190 4139 4190 2078 2065
    2065 2053 2028 2016 1947 1894 1873 1863 1863 1853 1853 1853 1853
    1853 1853 1853 1853 1853 1863 1863 1853 1853 1853 1853 1853 1853
    1853 4190 4190 4190 4190 4139 4139 2078 2053 2053 2040 2028 2005
    1883 1883 1863 1863 1853 1853 1853 1853 1853 1853 1853 1853 1853
    1853 1853 1853 1853 1853 1853 1853 1853 1853 1853 4190 4190 4190
    4190 4139 4139 4139 2028 2028 2028 2016 2005 1883 1873 1863 1853
    1853 1853 1853 1853 1853 1853 1853 1853 1853 1853 1853 1853 1853
    1853 1853 1853 1853 1853 1853 4139 4139 4139 4139 4139 4139 2040
    2028 2028 2016 2005 1904 1883 1873 1853 1853 1853 1853 1853 1853
    1853 1853 1853 1853 1853 1853 1853 1853 1853 1853 1853 1853 1853
    1853 1853 4139 4139 4139 4139 4139 4139 2040 2028 2028 2016 1993
    1894 1873 1863 1853 1853 1853 1853 1853 1853 1853 1853 1853 1853
    1853 1853 1853 1853 1853 1853 1853 1853 1853 1853 4190 4139 4139
    4190 4190 4139 4139 2040 2028 2028 2016 1981 1894 1873 1863 1853
    1853 1853 1853 1853 1853 1853 1853 1853 1853 1853 1853 1853 1853
    1853 1853 1853 1853 1853 1853 4190 4190 4190 4190 4190 4139 4190
    2053 2028 2028 2005 1981 1883 1873 1863 1853 1853 1853 1853 1853
    1853 1853 1853 1853 1853 1853 1853 1853 1853 1853 1853 1853 1853
    1853 4139 4139 4139 4190 4190 4190 4139 4190 2040 2016 2005 1993
    1959 1873 1863 1853 1853 1853 1853 1853 1843 1843 1853 1853 1853
    1853 1853 1853 1853 1853 1853 1853 1853 1863 1863 4139 4139 4139
    4190 4190 4139 4139 2053 2040 2016 1993 1970 1936 1873 1863 1853
    1853 1843 1843 1853 1843 1843 1853 1853 1853 1853 1853 1853 1853
    1853 1853 1853 1853 1863 4089 4089 4089 4089 4139 4190 4139 4139
    2040 2028 2016 1981 1959 1883 1873 1863 1853 1853 1843 1843 1843
    1843 1843 1853 1853 1853 1853 1843 1843 1843 1843 1843 1843 1843
    1843 4089 4089 4089 4089 4139 4139 4190 2065 2040 2028 2016 1981
    1959 1883 1873 1853 1853 1843 1843 1843 1843 1843 1843 1853 1853
    1853 1843 1843 1843 1843 1843 1843 1843 1843 4190 4139 4139 4139
    4139 4139 4139 4139 2053 2040 2028 2016 1981 1947 1863 1853 1853
    1843 1843 1843 1843 1843 1843 1843 1843 1843 1853 1843 1843 1843
    1843 1843 1833 1833 1833 4190 4190 4139 4139 4139 4139 4139 4139
    2040 2028 2016 2005 1981 1915 1853 1853 1853 1843 1843 1843 1843
    1843 1843 1843 1843 1843 1843 1843 1843 1843 1843 1843 1833 1833
    4190 4190 4190 4190 4139 4139 4190 4139 4139 2040 2028 2016 2005
    1970 1894 1853 1853 1843 1843 1843 1843 1843 1843 1843 1843 1843
    1843 1843 1843 1843 1843 1843 1843 1843 1843 4139 4139 4139 4139
    4139 4139 4139 4139 4139 2028 2016 1981 1970 1926 1853 1853 1843
    1843 1843 1843 1843 1843 1843 1843 1843 1843 1843 1843 1843 1843
    1843 1843 1833 1833 1833 4139 4139 4139 4139 4139 4139 4139 4139
    4139 2005 1993 1947 1926 1904 1853 1853 1843 1843 1843 1843 1843
    1843 1843 1843 1843 1843 1843 1843 1843 1843 1843 1833 1833 1833
    4139 4139 4139 4139 4089 4089 4139 4139 4139 4139 2005 1936 1926
    1904 1883 1843 1843 1843 1843 1843 1843 1843 1843 1843 1843 1843
    1843 1843 1843 1843 1843 1843 1833 1833 1833 4139 4089 4089 4089
    4089 4089 4139 4089 4089 4089 0 1915 1904 1894 1883 1843 1843 1843
    1843 1843 1843 1843 1843 1843 1843 1843 1843 1843 1843 1843 1843
    1833 1833 1833 1833 4139 4089 4089 4089 4089 4089 4089 4089 4089
    4089 0 1915 1904 1894 1883 1843 1843 1843 1843 1843 1843 1843 1843
    1843 1843 1843 1843 1843 1843 1843 1843 1833 1833 0 4139 4139 4139
    4089 4089 4089 4089 4089 4089 4089 4089</data></Depth16295>
</opencv_storage>
