<?xml version="1.0"?>
<opencv_storage>
<Depth15706 type_id="opencv-matrix">
  <rows>105</rows>
  <cols>116</cols>
  <dt>w</dt>
  <data>
    0 0 0 837 837 837 835 835 835 835 835 837 837 837 839 845 841 841
    845 845 894 894 894 901 913 918 923 928 935 962 964 970 0 0 0 0 0 0
    0 0 0 2835 2835 2883 2883 2883 2883 845 0 4139 4139 4089 4089 4041
    4041 885 885 889 896 903 908 910 910 4089 4089 4089 4089 4089 4041
    4041 4041 4041 4041 4089 4089 4089 4089 4089 4089 4139 4139 4139
    4139 4139 4139 4139 4139 4139 4139 4139 4139 4139 4139 4190 4190
    4241 4190 4190 4190 4190 4190 4190 4190 4190 4190 4139 4139 4139
    4139 4139 4139 3178 3149 3120 3092 3010 0 0 0 839 837 837 835 835
    835 835 835 837 839 854 854 845 841 841 841 906 906 903 903 908 918
    923 933 940 943 959 964 970 975 975 0 0 0 0 0 0 0 0 0 0 0 0 845 845
    849 862 862 862 867 871 873 878 885 889 894 898 906 908 910 910 910
    0 4041 4041 4041 4041 4041 4089 4089 4089 4089 4089 4089 4089 4089
    4139 4139 4139 4139 4139 4139 4139 4139 4139 4139 4139 4139 4139
    4139 4190 4190 4241 4241 4190 4190 4190 4190 4190 4190 4190 4190
    4190 4190 4139 4139 4139 4139 3178 3149 3120 3092 3037 0 0 0 839 837
    837 837 837 837 837 839 851 856 860 867 867 873 873 0 0 906 906 906
    910 959 954 951 951 954 959 964 970 975 975 0 0 0 0 0 0 0 0 0 0 835
    845 845 845 849 849 860 862 864 871 873 878 882 887 891 896 901 906
    908 910 910 908 0 4041 4041 4041 4041 4041 4041 4089 4089 4089 4089
    4089 4089 4139 4139 4139 4139 4139 4139 4139 4139 4139 4139 4139
    4139 4139 4139 4190 4190 4190 4190 4190 4190 4190 4139 4139 4190
    4190 4190 4139 4139 4139 4139 4139 4139 4139 3149 3120 3120 3064 0 0
    0 843 837 837 837 837 839 851 851 860 862 864 875 880 880 880 0 0 0
    0 0 0 959 959 956 956 959 967 0 0 0 0 0 0 0 0 0 0 0 0 835 835 835
    839 839 841 845 849 858 862 864 867 871 875 880 882 887 894 898 906
    908 908 908 908 908 0 4041 4041 4041 4041 4041 4089 4089 4089 4089
    4089 4089 4139 4139 4139 4139 4139 4139 4139 4139 4139 4139 4139
    4139 4190 4190 4190 4190 4190 4190 4190 4190 4190 4139 4139 4190
    4190 4190 4139 4139 4139 4190 4190 4190 4139 4089 3120 3120 3092 0 0
    0 843 841 841 839 839 839 867 864 864 867 871 882 882 880 880 0 0 0
    0 0 0 962 962 962 964 0 0 0 0 0 0 0 0 0 0 0 0 823 823 825 829 835
    837 839 841 843 845 856 860 862 864 867 873 878 880 885 889 896 901
    906 908 908 908 0 0 0 0 4041 4041 4041 4089 4089 4089 4089 4089 4089
    4139 4139 4139 4139 4139 4139 4139 4190 4190 4190 4139 4139 4190
    4190 4190 4190 4190 4190 4139 4139 4190 4190 4190 4190 4190 4190
    4190 4139 4139 4190 4190 4190 4190 4190 3120 3120 3120 0 0 845 845
    845 847 847 889 889 871 871 871 873 873 889 887 887 0 0 0 0 0 0 0 0
    0 0 0 0 0 0 0 0 0 0 0 0 0 0 823 823 823 823 827 833 835 837 839 843
    845 851 858 862 864 867 871 875 880 882 887 891 894 903 908 908 908
    0 0 0 0 0 3994 3994 4041 4089 4089 4089 4089 4089 4139 4139 4139
    4139 4139 4139 4139 4139 4139 4139 4139 4139 4190 4190 4190 4190
    4190 4190 4139 4139 4190 4190 4190 4190 4190 4190 4190 4139 4139
    4190 4190 4190 4190 4190 4190 3120 3120 849 851 845 845 847 847 847
    889 889 889 891 894 896 901 910 913 913 0 0 0 0 0 0 0 0 0 0 0 0 0 0
    0 0 0 0 0 0 0 823 823 823 823 823 825 831 833 835 837 839 843 847
    854 860 862 864 867 871 875 880 885 889 891 894 906 908 908 908 0 0
    0 0 3994 3994 4041 4089 4089 4089 4089 4089 4139 4139 4139 4139 4139
    4139 4139 4139 4139 4139 4139 4139 4190 4190 4190 4190 4139 4139
    4139 4139 4190 4190 4190 4190 4190 4190 4190 4190 4190 4190 4190
    4190 4190 4190 3010 3010 3120 849 851 851 851 851 851 915 908 908
    896 896 898 898 908 913 918 920 0 0 0 0 0 0 0 0 0 0 0 0 0 0 0 0 0 0
    0 825 823 823 823 821 821 823 823 827 831 835 837 839 843 845 849
    856 858 862 864 869 873 880 882 887 889 891 903 906 906 908 0 0 0 0
    0 4041 4041 4089 4089 4089 4089 4139 4139 4139 4139 4139 4139 4139
    4139 4139 4139 4139 4139 4190 4190 4190 4190 4190 4139 4139 4139
    4139 4190 4190 4190 4139 4139 4190 4190 4190 4190 4190 4190 4190
    4190 4190 3010 3010 3092 851 851 854 854 854 0 0 915 908 908 910 910
    915 923 938 938 943 0 0 0 0 0 0 0 0 0 0 0 0 0 0 0 0 815 815 825 825
    823 823 823 821 821 821 823 823 827 833 835 839 841 845 847 854 856
    858 862 864 869 880 880 882 887 889 896 901 903 908 0 0 0 0 0 4041
    4041 4089 4089 4089 4139 4139 4139 4139 4139 4139 4139 4139 4139
    4139 4139 4139 4139 4139 4139 4139 4139 4139 4190 4190 4190 4190
    4190 4139 4139 4139 4139 4190 4190 4190 4190 4190 4190 4190 4190
    4190 4139 3092 3092 854 0 0 0 0 0 0 915 915 915 915 918 930 935 943
    946 951 0 0 0 0 0 0 0 0 0 0 0 0 0 0 0 831 815 815 825 825 823 823
    821 821 821 821 819 819 819 829 833 837 839 843 845 849 854 856 858
    858 864 875 880 880 885 887 894 898 903 903 908 0 908 0 0 4041 4041
    4089 4089 4139 4139 4139 4139 4139 4139 4139 4139 4139 4139 4139
    4139 4139 4139 4139 4139 4139 4139 4139 4139 4190 4190 4190 4190
    4139 4139 4139 4139 4190 4190 4190 4190 4190 4190 4190 4190 4190
    4139 4139 3120 854 0 0 0 0 0 0 920 918 918 918 920 935 935 943 946
    962 0 0 0 0 0 0 0 0 0 0 0 0 0 839 837 831 829 829 829 827 825 823
    821 821 821 821 819 817 817 823 829 831 833 837 841 845 854 854 856
    858 860 871 878 880 880 887 891 896 898 901 906 908 0 0 1713 1713
    4089 4089 4089 4089 4139 4139 4139 4139 4139 4139 4139 4139 4139
    4139 4139 4139 4139 4139 4139 4139 4139 4139 4139 4190 4190 4190
    4190 4139 4139 4139 4139 4190 4190 4190 4190 4190 4190 4190 4139
    4139 4139 4139 3120 0 0 0 0 0 0 0 920 920 920 920 930 938 938 943
    946 0 0 0 0 0 0 0 0 0 0 0 0 0 0 835 833 831 831 829 829 827 825 823
    821 821 821 821 819 817 817 821 827 831 831 835 839 845 849 854 854
    856 860 871 875 880 880 885 889 894 896 898 903 908 908 906 1713
    1713 1713 1713 1722 4089 4139 4139 4139 4139 4139 4139 4139 4139
    4139 4139 4190 4190 4139 4139 4139 4139 4139 4139 4139 4139 4190
    4190 4190 4190 4139 4139 4139 4190 4190 4190 4190 4190 4190 4190
    4139 4139 4139 4139 4089 0 0 0 0 0 0 0 0 0 0 935 935 0 0 0 0 0 0 0 0
    0 0 0 0 0 0 0 0 841 837 835 833 831 831 831 829 827 825 823 821 821
    821 821 819 819 819 821 827 831 831 833 837 845 847 851 854 854 862
    864 869 873 878 880 885 889 891 896 901 906 906 906 0 1713 1705 1705
    1713 1722 1722 4139 4139 4139 4139 4139 4139 4139 4139 4139 4190
    4190 4139 4139 4139 4139 4139 4139 4139 4139 4139 4190 4190 4190
    4190 4139 4139 4190 4139 4139 4190 4190 4190 4190 4139 4139 4139
    4139 4139 0 0 0 0 0 0 0 0 0 0 0 0 0 0 0 0 0 0 0 0 0 0 0 0 0 0 0 0
    837 835 835 835 831 831 831 829 827 825 823 823 823 823 821 821 819
    819 821 825 827 831 831 835 841 843 847 849 854 860 862 867 871 875
    878 882 885 887 891 894 903 903 908 908 1705 1705 1705 1713 1713
    1713 1748 1748 1757 1766 4139 4139 4139 4139 4190 4190 4190 4139
    4139 4139 4139 4139 4139 4139 4139 4139 4190 4139 4139 4139 4139
    4190 4139 4139 4139 4190 4190 4190 4190 4139 4139 4139 4139 4139 0 0
    0 0 0 0 0 0 0 0 0 0 0 0 0 0 0 0 0 0 0 0 0 0 0 0 0 839 837 835 835
    833 833 831 831 829 829 827 825 823 823 823 823 821 821 821 821 821
    825 829 831 833 839 841 843 847 851 858 862 864 867 873 875 880 882
    885 889 891 898 903 906 906 910 910 1722 1722 1713 1713 1748 1748
    1757 1757 1766 4190 4190 4190 4190 4190 4190 4139 4139 4139 4139
    4139 4139 4139 4139 4139 4190 4139 4139 4139 4139 4190 4139 4139
    4139 4190 4190 4190 4190 4139 4139 4139 4139 4139 0 0 0 0 0 0 0 0 0
    0 0 0 0 0 0 0 0 0 0 0 0 0 0 0 0 0 839 837 837 837 837 833 833 831
    831 829 829 829 827 825 823 823 823 823 821 819 819 819 821 825 827
    833 837 839 841 845 847 854 858 860 864 871 873 875 880 882 887 889
    894 898 903 903 908 908 908 1739 1739 1739 1757 1757 1757 1757 1766
    1785 1794 1804 1804 4190 4190 4139 4139 4139 4139 4139 4139 4139
    4190 4190 4190 4139 4139 4190 4190 4190 4190 4190 4190 4190 4190
    4190 4139 4139 4139 4139 4139 4139 0 0 0 0 0 0 0 0 0 0 0 0 0 0 0 0 0
    0 0 0 0 0 0 0 0 843 839 837 837 835 835 835 835 831 831 829 829 829
    829 827 825 823 823 823 821 819 819 819 821 823 825 831 835 837 839
    843 845 851 854 856 860 864 871 873 875 880 885 889 891 896 901 903
    908 908 908 1739 1739 1739 1748 1757 1757 1766 1766 1785 1794 1804
    1804 1804 1843 4139 4139 4089 4089 4089 4139 4190 4190 4190 4190
    4190 4190 4190 4190 4190 4190 4190 4190 4190 4190 4190 4139 4139
    4139 4139 4139 4139 0 0 0 0 0 0 0 0 0 0 0 0 0 0 0 0 0 0 0 0 0 0 839
    839 843 843 841 837 837 835 835 835 835 833 831 831 831 829 829 829
    825 825 823 823 821 819 819 819 819 821 825 829 833 835 837 841 843
    847 851 854 858 862 867 871 873 875 882 887 891 894 896 901 908 908
    910 910 0 1748 1748 1757 1757 1766 1794 1794 1794 1804 1804 1804
    1843 1843 1843 4089 4089 4089 4139 4190 4139 4139 4190 4190 4190
    4190 4190 4190 4190 4190 4190 4241 4241 4241 4139 4139 4139 4139
    4139 4139 0 0 0 0 0 0 0 0 0 0 0 0 0 0 0 0 0 0 0 0 0 845 839 839 843
    841 841 839 837 837 837 835 835 833 831 831 831 831 829 829 827 825
    823 823 821 819 819 819 819 821 823 827 831 833 835 839 843 847 849
    854 856 860 864 869 871 873 878 885 889 891 894 898 908 910 910 0
    910 913 4089 4089 4089 4089 1823 1804 1804 4089 4089 1843 1843 1843
    1843 4139 4139 4139 4139 4190 4139 4139 4190 4190 4241 4241 4190
    4190 4241 4241 4241 4241 2143 4139 4139 4139 4139 4139 4139 4139 0 0
    0 0 0 0 0 0 0 0 0 0 0 0 0 0 0 0 0 0 845 845 843 843 843 841 841 839
    837 837 837 835 835 833 831 831 831 831 829 829 827 827 825 825 821
    819 819 819 821 821 821 825 829 831 833 837 841 845 847 849 854 856
    862 867 871 871 875 880 887 889 891 896 906 910 910 0 0 0 0 0 4089
    4089 4089 4041 4041 4089 4139 4139 4139 4139 4139 4139 3903 3903
    3903 4190 4190 4190 4190 4190 4241 4241 4241 4241 4241 4241 4241 0
    2143 2129 2129 4190 4190 4139 4139 4139 0 0 0 0 0 0 0 0 0 0 0 0 0 0
    0 0 0 0 849 845 845 845 843 843 843 841 841 839 837 837 837 837 837
    837 835 833 831 831 829 829 829 827 827 825 821 821 821 821 821 821
    821 821 825 827 831 835 839 841 845 847 851 854 858 862 869 871 873
    875 880 887 891 894 901 908 910 913 913 0 0 0 4139 4089 4089 4089
    4089 4139 4139 4139 4139 4139 4139 3948 3903 3903 3903 4041 4041
    4041 4241 4241 4241 4241 4241 4295 4295 4295 0 2143 2143 2129 2129
    2143 2143 4190 4139 4139 0 0 0 0 0 0 0 0 0 0 0 0 0 0 0 0 0 845 845
    845 845 845 845 845 843 843 841 839 839 837 837 837 837 837 835 833
    831 831 829 829 829 827 827 827 823 821 821 821 821 821 821 821 821
    823 827 831 835 839 843 845 849 851 856 858 864 869 871 873 878 880
    889 891 896 903 906 910 0 906 0 0 0 4089 4089 4089 4139 4139 4139
    4190 4139 4139 4139 3948 3903 3903 4041 4041 4041 4041 4139 4190 0
    4139 0 0 4139 0 0 0 2143 2129 2129 2129 2129 2129 2129 2143 0 0 0 0
    0 0 0 0 0 0 0 0 0 0 0 0 849 845 845 847 845 845 845 845 843 843 841
    839 839 839 839 839 837 837 835 835 831 831 829 829 829 829 829 825
    823 823 821 821 821 819 819 819 819 821 825 831 833 837 839 843 845
    849 854 856 860 864 869 871 873 878 882 889 894 896 901 906 906 0 0
    0 0 4139 4139 4139 4139 4139 4139 4139 4139 4139 4139 4089 4089 4089
    4041 4041 4041 4041 4139 4190 4139 4139 4139 0 0 0 0 2129 2129 2129
    2129 2129 2129 2129 2129 2143 0 0 0 0 0 0 0 0 0 0 0 0 0 0 0 854 849
    847 847 849 849 849 847 847 845 843 843 841 839 839 839 839 839 837
    837 835 833 833 831 831 829 829 829 825 823 823 821 821 821 819 819
    819 819 819 821 827 831 835 839 839 843 847 851 854 858 862 864 869
    871 873 875 882 891 896 898 903 903 903 0 0 0 0 4139 4139 4139 4139
    4139 4139 4139 4139 4139 4139 4139 4089 4089 4139 4041 4041 4139
    4139 4139 4139 4139 4139 4139 4139 4139 2129 2129 2129 2129 2129
    2129 2129 2143 2143 0 0 0 0 0 0 0 0 0 0 0 0 0 0 0 854 854 851 851
    851 851 849 849 847 845 845 843 841 841 841 841 839 839 837 837 835
    833 833 831 831 831 829 829 825 823 823 823 821 821 821 819 819 819
    819 821 823 829 833 837 839 841 845 849 851 856 860 862 867 871 873
    873 878 887 894 894 901 903 903 908 0 0 0 0 4139 4139 4139 4139 4139
    4139 4139 4139 4139 4139 4139 4139 4139 4139 4139 4139 4139 4139
    4139 4139 4139 4139 4139 4139 4139 2143 2143 2143 2129 2129 2143
    2143 2143 0 0 0 0 0 0 0 0 0 0 0 0 0 860 860 858 856 854 851 851 851
    851 851 849 845 845 843 841 841 841 841 839 839 839 837 837 837 835
    833 831 831 831 829 827 825 825 823 821 821 821 821 819 819 819 819
    821 823 829 833 837 839 843 845 849 854 856 860 864 869 873 873 878
    882 889 891 896 901 908 908 0 0 0 0 0 4190 4139 4139 4139 4139 4139
    4139 4139 4139 4139 4139 4139 4139 4139 4139 4139 4139 4139 4139
    4139 4139 4139 4139 4139 4139 2143 2143 2143 2143 2143 2143 2143 0 0
    0 0 0 0 0 0 0 0 0 0 858 858 860 858 856 854 851 851 851 851 851 849
    847 845 845 843 841 841 841 839 839 839 839 837 837 837 835 833 831
    831 831 829 827 825 823 823 823 821 821 819 819 819 819 821 821 823
    829 833 835 839 845 845 849 856 858 862 867 871 871 875 882 885 891
    894 898 908 908 908 0 0 0 0 4190 4089 4089 4089 4139 4139 4139 4139
    4139 4139 4139 4139 4139 4139 4139 4139 4139 4139 4139 4139 4139
    4139 4139 4139 4139 2156 2156 2143 2143 2143 2143 2143 0 0 0 0 0 0 0
    0 0 0 862 860 858 858 860 860 858 856 851 851 851 849 849 849 847
    847 845 843 843 841 841 843 841 841 839 837 837 837 835 833 831 831
    831 829 827 825 825 823 823 821 821 819 819 819 819 821 821 823 827
    829 831 837 843 845 847 854 856 858 864 867 869 873 880 882 889 891
    896 908 908 908 0 0 0 0 0 4041 4041 4089 4139 4139 4139 4139 4139
    4139 4139 4139 4139 4139 4139 4139 4139 4139 4139 4139 4139 4139
    4139 4139 4190 4190 2156 2143 2143 2143 2143 2143 0 0 0 0 0 0 0 0 0
    862 862 860 860 860 860 860 858 856 856 854 851 849 849 849 847 847
    845 845 843 843 845 845 843 841 839 837 837 837 835 835 831 831 831
    829 827 825 825 825 825 823 821 821 819 819 819 819 819 821 825 827
    829 833 839 841 845 849 851 856 860 864 869 871 878 882 887 891 894
    901 906 906 906 0 0 0 0 4041 4041 4089 4139 4139 4139 4139 4139 4139
    4139 4139 4139 4139 4139 4139 4139 4139 4139 4139 4139 4139 4139
    4139 4139 4139 2170 2156 2143 2143 2156 2156 0 0 0 0 0 0 0 867 867
    862 862 860 860 860 860 860 858 858 858 856 854 851 849 849 849 847
    847 845 843 843 845 845 843 841 841 839 837 837 835 835 833 831 831
    829 827 827 825 825 825 823 821 821 819 819 819 819 819 821 821 823
    825 827 833 841 845 847 849 854 858 862 864 869 873 880 880 889 891
    896 903 906 906 0 0 0 0 0 4139 4139 4139 4139 4139 4139 4139 4139
    4139 4139 4139 4139 4139 4139 4139 4139 4139 4139 4139 4139 4139
    4139 4139 4139 4139 2156 2143 2143 2156 2156 0 0 0 0 0 0 0 867 867
    864 862 862 862 860 860 860 858 858 858 856 854 854 851 851 849 847
    847 847 845 845 845 845 843 841 841 839 837 837 835 835 833 833 831
    829 827 827 825 825 825 825 823 821 819 819 819 819 819 821 821 823
    825 825 831 835 839 843 845 851 854 856 864 867 873 875 880 885 891
    894 898 903 903 0 0 0 0 0 0 4190 4190 4139 4139 4139 4139 4139 4139
    4139 4139 4139 4139 4139 4139 4139 4139 4139 4139 4139 4139 4139
    4139 4139 4139 2156 2156 2156 2143 2143 0 0 0 0 0 0 864 864 867 867
    864 864 862 860 860 860 858 858 858 856 854 854 851 851 851 849 849
    845 845 845 845 845 843 841 839 839 839 837 837 837 835 833 833 831
    829 827 827 827 825 825 823 821 819 819 819 819 819 821 821 821 821
    823 829 835 835 839 845 849 854 854 858 867 869 871 875 885 889 891
    896 903 903 906 0 0 0 0 0 4241 4139 4139 4139 4139 4139 4139 4139
    4139 4139 4139 4139 4139 4139 4139 4139 4139 4139 4139 4139 4139
    4139 4139 4139 4139 4139 4139 2143 2143 0 0 0 0 0 0 864 864 867 869
    867 864 864 860 860 858 858 858 856 856 854 854 854 851 851 849 849
    845 845 845 845 845 845 841 839 839 839 837 837 837 835 835 833 833
    831 829 827 827 825 825 823 823 821 821 819 819 819 819 819 819 819
    823 827 833 833 837 843 845 851 854 856 864 867 869 873 878 882 885
    889 894 901 903 908 0 0 0 0 0 4139 4139 4139 4139 4139 4139 4139
    4139 4139 4139 4139 4139 4139 4139 4139 4139 4139 4139 4139 4139
    4139 4139 4139 4139 4089 4089 4089 2170 0 0 0 0 0 0 864 864 867 869
    867 864 862 860 860 858 858 858 856 856 854 854 854 854 851 851 851
    847 845 845 847 845 843 841 839 839 839 837 837 837 835 835 835 833
    833 829 829 827 827 825 823 823 821 821 819 819 819 819 819 817 817
    821 825 827 833 833 841 843 845 851 856 862 864 867 871 875 880 882
    887 891 896 901 906 906 0 0 0 0 0 4139 4139 4139 4139 4139 4139 4139
    4139 4139 4139 4139 4139 4139 4139 4139 4139 4139 4139 4139 4139
    4139 4139 4139 4089 4089 4089 4089 0 0 0 0 0 869 867 867 867 867 867
    864 862 860 860 860 860 858 856 856 854 854 854 854 851 851 851 849
    845 845 847 845 843 841 839 839 839 837 837 837 837 837 835 835 835
    831 829 829 827 825 823 823 821 821 821 821 819 819 817 817 817 821
    823 827 831 831 837 839 841 847 854 860 862 864 869 871 878 880 885
    889 891 894 903 903 903 0 0 0 0 4139 4139 4089 4089 4139 4139 4139
    4139 4139 4139 4139 4139 4139 4139 4139 4139 4139 4139 4139 4139
    4139 4139 4139 4139 4139 4089 4089 0 0 0 869 869 869 867 867 869 867
    867 864 862 860 860 860 860 860 858 856 854 854 854 854 851 851 851
    849 847 847 847 845 845 843 841 839 839 839 839 837 837 837 835 835
    835 831 829 829 827 825 823 823 823 821 821 821 819 819 817 817 817
    819 821 825 829 831 835 837 839 843 847 851 858 862 867 871 875 875
    882 887 891 891 898 903 903 0 0 0 0 0 4089 4089 4089 4139 4139 4139
    4139 4139 4139 4139 4139 4139 4139 4139 4139 4139 4139 4089 4089
    4139 4139 4139 4139 4139 4089 4089 0 0 878 869 869 869 869 869 869
    869 867 864 862 860 860 860 860 860 858 856 856 854 854 854 851 851
    851 851 849 849 847 845 845 843 843 841 841 839 839 839 837 837 835
    835 835 831 831 829 829 827 825 823 823 823 821 821 821 819 819 817
    817 819 821 823 823 829 833 837 839 841 843 849 854 860 862 867 871
    875 880 887 889 889 894 898 903 906 0 0 0 0 4089 4089 4089 4139 4139
    4139 4139 4139 4139 4139 4139 4139 4139 4139 4139 4139 4139 4089
    4089 4139 4139 4139 4139 4139 4139 4089 0 0 878 873 871 869 869 869
    871 869 869 867 862 862 862 862 860 860 860 858 858 856 856 854 851
    851 851 849 849 849 847 845 845 845 843 843 841 841 839 839 837 837
    837 835 835 833 831 829 829 827 827 825 823 823 823 821 821 821 819
    817 817 819 819 821 821 825 831 833 837 839 843 849 854 856 860 864
    867 871 875 882 885 887 891 894 898 903 908 0 0 0 0 4089 4089 4139
    4139 4139 4139 4139 4139 4139 4139 4139 4139 4139 4139 4139 4139
    4139 4139 4139 4139 4139 4139 4139 4139 4139 885 885 885 875 873 871
    871 871 871 871 869 867 862 862 862 862 860 860 860 860 860 856 856
    854 851 851 851 849 847 847 849 847 847 845 845 845 843 841 839 839
    839 837 837 835 833 833 831 831 829 827 827 825 823 823 823 823 823
    821 819 817 817 817 817 817 819 821 827 831 835 837 839 847 851 856
    858 862 867 867 871 878 882 885 889 891 896 901 906 908 0 0 0 0 4139
    4139 4139 4139 4139 4139 4139 4139 4139 4139 4139 4139 4139 4139
    4139 4139 4139 4139 4139 4139 4139 4089 4089 4139 885 885 889 875
    873 871 871 873 871 871 869 867 867 864 864 862 860 860 860 860 860
    858 858 854 851 851 851 849 847 847 847 847 845 845 845 845 845 843
    841 839 839 837 837 835 833 833 831 831 829 829 827 827 825 825 823
    823 823 821 821 817 817 815 815 815 819 819 823 825 831 835 837 843
    849 856 856 858 862 864 867 875 880 882 887 889 894 896 903 908 913
    0 0 0 0 4139 4139 4139 4139 4139 4139 4139 4139 4139 4139 4139 4139
    4139 4139 4139 4139 4139 4139 4139 4089 4089 4089 4139 887 887 887
    887 880 875 875 873 871 871 871 869 867 864 864 862 862 862 862 862
    860 860 858 856 854 854 851 851 847 847 847 847 845 845 845 845 845
    843 841 839 839 837 837 837 833 833 831 831 829 829 827 827 825 825
    823 823 823 821 821 819 817 815 815 815 817 819 823 823 827 831 835
    839 843 854 854 856 860 862 867 871 875 880 882 887 891 894 901 903
    908 0 0 0 0 0 4089 4089 4089 4089 4139 4139 4139 4139 4139 4139 4139
    4139 4139 4139 4139 4139 4139 4139 4089 4089 4089 4139 887 887 887
    887 878 878 875 873 871 871 871 869 869 867 864 864 862 862 862 862
    860 860 858 856 854 854 851 851 849 849 849 847 847 847 845 845 845
    843 841 839 839 839 837 837 833 833 831 831 829 829 827 827 827 825
    825 823 823 821 821 819 817 815 815 815 815 817 819 821 827 831 833
    839 841 847 851 856 858 858 862 867 873 875 880 882 887 889 896 901
    908 910 0 0 0 0 4089 4089 4089 4089 4139 4139 4139 4139 4139 4139
    4139 4089 4089 4139 4139 4139 4089 4089 4089 4089 4089 4089 882 882
    882 882 878 878 875 875 873 871 871 869 869 869 864 864 864 862 862
    862 862 860 858 856 854 854 851 851 849 849 849 849 847 847 845 845
    845 845 843 841 839 839 839 837 833 833 831 831 831 829 829 827 827
    825 825 823 823 821 821 819 817 815 815 815 815 815 817 817 823 827
    831 837 841 843 847 854 856 858 860 864 869 871 878 880 885 887 891
    898 903 906 0 0 0 0 0 4089 4089 4089 4139 4139 4089 4089 4089 4089
    4089 4089 4089 4089 4139 4139 4089 4089 4089 4089 4089 4089 880 880
    880 880 878 878 875 875 873 871 871 871 869 869 867 867 864 864 864
    864 862 860 860 858 854 854 851 851 849 849 851 849 847 847 847 845
    845 845 843 843 841 839 839 837 835 833 833 831 831 831 829 829 827
    825 825 823 823 821 821 821 819 817 815 815 815 815 815 817 821 825
    829 835 839 839 843 849 856 858 860 862 867 869 875 878 882 885 889
    894 898 903 906 0 0 0 0 4139 4089 4089 4139 4139 4089 4089 4089 4089
    4089 4089 4089 4089 4089 4139 4139 4139 4089 4089 4089 4089 878 880
    880 882 878 878 878 875 875 873 871 869 869 869 867 867 864 864 864
    864 862 860 860 858 856 856 854 854 851 851 854 851 851 849 847 847
    845 845 843 843 841 839 839 837 837 835 835 831 831 831 831 829 829
    827 827 825 823 821 821 821 819 817 817 815 815 815 815 817 819 821
    825 831 837 839 841 843 851 856 858 860 864 869 873 875 878 882 885
    889 896 898 903 0 0 0 0 0 4089 4089 4139 4139 4089 4089 4089 4089
    4089 4089 4089 4089 4089 4089 4139 4139 4139 4139 4139 4139 878 880
    880 882 880 878 878 875 875 873 871 869 869 869 867 867 867 867 864
    864 862 862 862 860 858 858 856 856 851 851 854 854 854 851 849 847
    845 845 843 843 843 841 839 839 837 835 833 833 831 831 831 831 829
    829 827 825 825 823 821 821 819 817 817 815 815 815 815 817 817 819
    823 829 835 837 839 841 843 851 856 858 862 867 873 875 878 880 882
    887 891 894 898 0 0 0 0 0 0 4139 4139 4139 4139 4139 4089 4089 4089
    4089 4089 4089 4089 4089 4139 4139 4139 4139 4139 4139 0 0 882 882
    880 880 878 878 875 873 871 869 869 869 869 867 867 867 864 864 862
    862 862 860 860 858 858 856 854 854 854 854 854 851 849 847 845 845
    845 845 843 841 839 839 837 837 833 833 831 831 831 831 829 829 827
    825 825 823 823 821 821 817 817 817 817 815 815 817 817 817 821 825
    831 835 837 839 841 847 854 856 858 862 871 873 875 878 882 885 891
    894 898 901 0 0 0 0 0 4139 4139 4139 4139 4139 4089 4089 4089 4089
    4089 4089 4089 4089 4089 4139 4139 4139 4139 4139 0 0 882 880 880
    880 878 878 875 873 871 871 871 871 869 867 867 867 864 864 862 862
    860 860 860 858 858 856 854 854 854 854 854 851 851 847 845 845 845
    845 845 843 841 839 837 837 833 833 831 831 831 831 829 829 829 827
    825 823 823 821 821 819 817 817 817 817 817 817 815 815 819 823 827
    833 837 839 841 845 849 851 854 858 867 871 873 875 880 885 889 891
    894 901 0 0 0 0 0 0 4139 4139 4139 4139 4089 4089 4089 4089 4089
    4089 4089 4089 4089 4089 4089 4139 4139 4139 0 0 880 880 880 880 880
    878 878 873 871 871 871 871 871 869 867 867 867 864 864 862 860 860
    860 858 858 856 854 854 854 854 854 851 851 849 847 847 845 845 845
    843 841 841 839 837 835 833 831 831 831 831 831 829 829 829 827 823
    823 823 821 819 817 817 817 817 815 815 815 815 815 823 825 831 833
    837 839 843 847 849 851 854 856 864 869 871 880 880 885 887 894 898
    0 0 0 0 0 0 4139 4089 4089 4089 4089 4089 4139 4089 4089 4089 4089
    4089 4089 4089 4089 4139 4139 4089 0 0 880 880 880 880 880 878 878
    875 873 873 873 873 871 869 867 867 864 864 864 862 862 860 860 858
    858 856 854 854 856 854 854 851 851 849 847 847 847 845 845 843 841
    841 839 839 837 835 833 833 833 831 831 831 829 829 827 825 823 823
    821 821 819 819 817 817 815 815 815 815 815 819 821 825 827 831 835
    841 843 845 849 854 854 860 867 869 878 880 882 885 891 898 901 0 0
    0 0 0 4139 4089 4089 4089 4089 4089 4139 4089 4089 4089 4089 4089
    4089 4089 4089 4089 4089 4089 0 0 880 880 880 880 880 878 878 875
    873 873 873 873 871 871 867 867 864 864 864 862 860 860 860 858 858
    858 856 856 856 856 854 854 854 854 849 849 847 845 845 843 841 841
    839 839 839 835 835 833 833 831 831 831 829 827 827 825 823 823 821
    821 821 821 821 819 817 815 815 815 815 817 819 821 823 827 833 837
    839 841 847 849 854 854 864 869 873 878 880 880 887 894 901 901 0 0
    0 0 0 4089 4089 4089 4089 4089 4139 4089 4089 4089 4089 4089 4089
    4089 4089 4089 4089 4089 0 0 885 885 882 882 880 878 878 875 875 873
    871 871 873 871 867 867 867 864 864 862 860 860 860 858 858 858 858
    856 856 856 854 854 854 854 849 849 847 847 845 843 841 841 839 839
    839 837 837 835 833 831 831 831 829 827 827 825 825 823 823 821 821
    821 821 819 817 815 815 815 815 817 817 817 821 827 833 833 837 839
    845 847 849 854 856 864 871 873 875 880 885 894 898 901 901 0 0 0 0
    0 4089 4089 4089 4089 4089 4089 4089 4089 4089 4089 4089 4089 4089
    4089 4089 4089 0 0 885 882 882 882 880 878 878 875 875 873 871 871
    871 871 869 867 867 867 864 864 860 860 860 858 858 858 858 858 856
    856 856 854 854 854 851 849 847 847 845 845 841 841 839 839 839 839
    837 837 835 833 831 831 831 829 827 827 825 823 823 823 821 821 821
    819 817 817 815 815 815 817 817 817 819 825 831 831 835 837 845 847
    849 854 854 864 867 871 873 875 880 887 891 894 898 901 901 0 0 0 0
    4089 4089 4089 4089 4089 4089 4139 4139 4139 4089 4089 4089 4089
    4089 4089 0 0 882 882 882 882 882 880 878 875 875 875 873 871 871
    871 869 867 867 867 867 864 862 860 860 860 860 858 858 858 858 858
    856 854 854 854 851 849 847 847 845 845 845 843 841 839 839 839 839
    837 835 833 833 833 831 829 827 827 825 823 823 823 821 821 821 821
    819 819 817 815 815 817 817 817 819 823 827 831 831 835 843 847 849
    851 854 858 864 867 871 873 878 882 887 889 894 901 901 901 0 0 0 0
    0 4089 4089 4089 4089 4139 4139 4139 4089 4089 4089 4089 4089 4089 0
    0 880 880 880 882 882 880 878 878 878 875 873 871 871 871 869 869
    869 869 867 864 862 862 862 862 860 858 858 858 858 858 856 856 856
    854 851 851 849 847 847 845 845 845 843 841 841 839 839 837 837 835
    835 833 833 829 829 827 827 827 825 823 823 821 821 821 819 819 819
    815 815 817 817 817 817 819 823 829 831 833 839 843 847 849 851 856
    860 864 867 869 875 880 885 887 891 898 901 901 901 0 0 0 0 4089
    4089 4089 4089 4089 4089 4089 4089 4089 4089 4089 4089 4089 0 0 880
    880 880 880 880 880 878 878 875 875 873 871 871 871 871 869 869 869
    869 867 862 862 862 862 860 858 858 858 858 858 856 856 856 854 854
    851 849 847 847 845 845 845 843 841 841 839 839 839 837 837 835 835
    833 831 829 827 827 827 825 825 823 823 821 821 821 819 819 817 817
    817 817 817 817 817 819 825 831 833 837 839 843 847 849 854 858 862
    864 867 873 878 880 885 889 894 901 901 901 0 0 0 0 0 4139 4139 4089
    4089 4089 4089 4089 4089 4089 4089 4089 4089 0 0 0 880 880 880 880
    880 878 878 875 875 875 871 871 871 871 871 869 869 869 867 864 862
    862 862 862 860 858 858 858 858 856 854 854 854 854 851 851 849 847
    845 845 845 843 843 841 841 839 839 837 837 837 835 833 831 829 829
    829 827 827 825 825 823 823 821 821 819 819 817 817 817 817 817 817
    817 817 821 825 831 835 839 841 845 847 851 856 858 860 864 871 875
    878 882 885 889 896 903 903 903 0 0 0 0 4139 4139 4089 4089 4089
    4089 4089 4089 4089 4089 4089 4089 0 0 0 0 882 880 880 880 880 878
    875 875 875 871 871 871 871 871 871 869 869 867 864 862 862 862 860
    860 860 860 858 858 856 854 854 856 854 854 851 849 849 845 845 845
    843 843 841 841 839 839 839 837 837 835 835 833 831 831 829 829 827
    825 825 823 823 821 821 819 819 819 819 817 817 817 817 817 817 819
    823 825 831 837 839 841 845 849 854 858 858 862 867 871 875 880 882
    885 891 896 903 903 0 0 0 0 0 4139 4089 4089 4089 4089 4089 4089
    4089 4089 4089 4089 0 0 0 0 0 880 880 880 880 880 878 875 875 875
    873 873 873 871 871 871 869 867 867 862 862 862 860 860 860 860 858
    858 856 854 854 854 854 854 851 851 849 847 847 845 843 843 841 841
    841 839 839 837 837 835 835 833 831 831 829 829 827 827 827 825 823
    821 821 819 819 819 819 817 817 817 817 817 817 819 823 823 829 835
    837 841 843 847 851 854 858 860 864 867 873 875 880 882 887 891 896
    908 908 0 0 0 0 4139 4139 4139 4089 4089 4089 4089 4089 4089 4089
    4089 0 0 0 0 0 0 0 882 882 882 882 878 878 875 875 873 873 871 871
    871 869 867 867 864 864 862 862 860 860 860 858 858 856 856 854 854
    854 854 851 851 851 847 845 845 845 845 843 843 841 839 839 839 837
    837 835 833 831 831 829 829 829 827 827 825 823 821 821 819 819 819
    819 819 817 817 817 817 817 817 821 823 825 827 835 839 841 843 849
    851 856 858 860 864 871 875 878 880 885 889 894 896 903 0 0 0 0 0
    4139 4139 4089 4089 4089 4089 4089 4089 4089 4089 0 0 0 0 0 0 0 887
    885 885 887 880 878 878 878 875 873 871 871 871 869 869 869 867 867
    864 862 862 862 862 860 858 856 856 856 854 854 854 851 851 851 847
    845 845 845 845 843 843 841 839 839 839 839 837 837 833 833 831 831
    829 829 829 827 825 825 821 821 821 819 819 819 819 817 817 817 817
    817 817 819 821 823 825 831 835 839 841 845 847 854 856 860 864 867
    871 873 875 880 889 891 894 896 0 0 0 0 0 4139 4139 4089 4089 4089
    4089 4089 4089 4089 4089 0 0 0 0 0 0 0 0 887 887 885 880 880 880 878
    878 875 871 871 871 871 869 869 867 867 864 862 862 862 862 862 860
    856 856 856 854 854 854 851 851 851 851 847 845 845 845 843 843 841
    839 839 839 839 837 837 833 833 831 831 829 829 829 829 827 825 823
    821 821 821 821 821 819 817 817 817 817 817 817 817 819 821 825 829
    833 835 839 841 845 847 854 858 862 864 869 871 875 878 885 889 889
    894 898 901 0 0 0 4190 4139 4089 4089 4041 4041 4089 4089 4089 4089
    0 0 0 0 0 0 0 0 0 885 882 880 880 880 878 878 875 873 871 871 871
    869 869 869 867 864 862 862 860 860 862 862 860 860 858 856 856 856
    854 851 851 849 847 847 847 845 845 843 841 839 839 839 839 837 837
    835 835 833 831 831 829 829 829 827 825 823 823 823 821 821 821 819
    817 817 817 817 817 817 817 817 819 821 827 829 833 837 839 841 847
    849 856 858 862 867 869 873 878 885 887 887 889 891 901 906 0 0 0
    4139 4139 4089 4041 4041 4089 4089 4089 4089 0 0 0 0 0 0 0 0 0 885
    882 880 880 880 878 875 875 873 873 871 871 871 871 869 867 864 862
    862 860 860 862 862 862 862 862 856 856 856 854 851 851 849 849 849
    847 845 845 845 843 841 841 839 839 837 837 837 835 835 831 831 831
    829 829 827 825 823 823 823 823 821 821 819 819 819 817 817 817 815
    815 815 815 817 823 827 833 835 839 841 843 847 854 856 860 864 867
    869 873 882 885 887 889 891 898 903 0 0 0 0 0 4089 4089 4089 4089
    4089 4089 4089 0 0 0 0 0 0 0 0 0 0 880 880 882 880 878 875 873 873
    873 871 871 871 871 869 867 864 862 862 862 862 862 864 862 862 862
    856 856 856 856 854 851 851 851 849 849 847 845 845 845 843 841 839
    839 839 837 837 837 835 833 831 831 831 829 829 825 823 823 823 823
    823 823 819 819 819 817 817 817 815 815 815 815 817 819 825 829 833
    837 839 841 843 849 854 858 860 864 867 873 878 882 885 887 889 894
    898 903 0 0 0 0 4139 4089 4089 4089 4089 4089 4089 0 0 0 0 0 0 0 0 0
    0 880 880 880 880 875 873 873 873 873 873 873 871 871 869 867 867
    867 864 864 864 864 864 862 862 862 858 858 856 856 854 851 851 851
    851 849 847 847 845 845 843 841 841 841 841 839 839 837 835 833 831
    831 831 829 829 827 825 825 823 823 823 823 821 819 819 817 817 815
    815 815 815 815 815 817 823 823 829 837 839 841 843 845 851 856 858
    862 864 867 869 882 885 885 887 891 894 901 906 906 0 0 0 4139 4089
    4089 4089 4089 4089 0 0 0 0 0 0 0 0 0 0 882 880 880 880 875 873 873
    873 873 873 873 871 871 871 869 869 867 867 864 864 864 864 864 862
    862 860 858 858 858 858 856 854 854 851 849 849 847 845 845 845 843
    843 843 841 841 839 837 835 835 833 831 831 829 829 827 827 825 823
    823 823 823 823 821 819 819 817 815 815 815 815 815 815 817 819 819
    825 831 837 839 841 841 847 854 856 858 862 864 867 880 882 885 887
    889 891 901 906 908 0 0 0 0 4139 4089 4089 4089 4089 0 0 0 0 0 0 0 0
    0 0 885 882 880 880 878 878 875 875 873 873 875 873 871 871 869 869
    869 867 864 864 864 864 864 862 862 860 860 858 858 858 856 854 854
    851 849 849 847 845 845 845 843 843 841 841 839 839 839 837 835 833
    831 831 829 829 829 827 827 825 823 823 823 823 821 819 819 817 815
    815 815 815 815 815 817 817 819 821 825 831 835 839 839 845 849 854
    856 860 862 867 873 878 882 885 887 889 901 906 906 908 0 0 0 0 4139
    4089 4089 4089 0 0 0 0 0 0 0 0 0 0 885 882 880 880 878 878 878 875
    875 875 873 873 871 871 871 869 869 867 864 864 864 864 864 862 862
    860 860 858 858 858 856 856 854 854 851 849 847 845 845 845 843 843
    841 841 839 839 839 839 837 835 833 831 831 829 829 829 827 825 825
    823 823 823 823 821 819 817 817 815 815 815 815 815 815 817 817 821
    823 827 833 835 835 841 847 851 854 858 860 864 871 878 880 882 885
    885 898 903 906 906 0 0 0 0 0 4139 4089 4089 0 0 0 0 0 0 0 0 0 0 0
    885 882 880 880 880 880 878 878 878 873 873 871 871 871 871 869 869
    864 864 864 864 864 862 862 860 860 858 858 858 856 856 854 854 851
    849 847 847 847 845 845 843 843 841 841 839 839 839 837 837 835 831
    831 829 829 829 829 827 825 825 825 825 823 823 821 819 817 817 815
    815 815 815 815 817 817 817 819 823 829 831 833 837 845 849 849 856
    858 862 867 875 880 880 882 885 894 901 903 903 0 0 0 0 0 4139 4089
    4089 0 0 0 0 0 0 0 0 0 0 0 0 0 882 880 880 878 878 878 875 873 873
    871 871 871 869 869 869 867 867 867 864 864 864 862 860 860 858 858
    858 856 856 854 854 851 851 847 847 847 847 845 845 843 841 841 839
    839 839 837 837 837 833 831 831 829 829 829 829 827 825 825 825 825
    825 823 821 819 817 817 817 817 815 815 817 817 817 817 819 823 829
    831 833 835 847 849 854 856 858 860 873 875 880 880 885 887 896 901
    903 0 0 0 0 0 0 4089 4089 0 0 0 0 0 0 0 0 0 0 0 0 0 0 880 880 878
    878 878 875 873 873 871 871 871 869 869 869 869 869 869 867 864 864
    862 862 860 858 858 858 856 856 854 854 854 851 849 847 847 847 845
    845 845 843 843 841 839 839 837 837 837 835 833 831 829 829 829 829
    829 825 825 825 825 825 823 821 819 819 817 817 817 815 815 815 815
    817 817 817 819 825 831 831 835 839 847 851 854 856 858 869 873 878
    880 882 885 889 898 901 901 901 0 0 0 0 4089 4089 0 0 0 0 0 0 0 0 0
    0 0 0 0 0 875 875 878 878 875 875 875 873 873 871 871 871 869 869
    869 869 869 867 864 864 864 862 862 860 860 858 856 856 854 854 854
    851 849 849 847 847 847 845 845 843 843 841 839 839 837 837 837 835
    833 831 831 831 831 831 829 827 827 825 825 825 823 823 819 819 819
    817 817 815 815 815 815 817 817 817 817 825 829 831 831 833 843 849
    854 854 858 862 867 871 875 880 882 885 894 901 901 901 0 0 0 0 0
    4089 0 0 0 0 0 0 0 0 0 0 0 0 0 0 875 875 878 878 875 875 875 873 873
    871 871 871 869 869 869 869 871 869 867 867 864 864 862 862 860 858
    856 856 854 854 854 854 851 849 849 847 847 845 845 843 843 841 839
    839 839 837 837 837 835 831 831 831 831 831 831 829 827 827 825 825
    823 823 821 821 819 817 817 817 817 817 817 817 817 817 817 823 825
    831 831 833 841 845 849 854 856 860 864 869 871 875 880 882 885 891
    898 901 901 0 0 0 0 0 0 0 0 0 0 3816 3816 0 0 0 0 0 0 0 875 875 878
    878 878 878 875 875 873 873 871 871 869 869 869 869 871 869 867 867
    864 864 864 862 862 860 858 856 856 854 854 854 851 851 851 849 847
    847 845 843 843 841 839 839 839 839 837 837 837 833 831 831 831 831
    831 829 829 827 825 825 823 823 821 821 821 819 817 817 817 817 817
    817 815 815 815 819 823 829 831 833 839 841 847 851 856 858 862 867
    869 873 880 882 885 887 894 898 901 901 0 0 0 0 0 0 0 0 0 3816 3816
    0 0 0 0 0 0 0 875 875 878 878 878 878 875 875 873 873 871 871 871
    869 869 869 871 869 867 867 867 864 864 862 862 860 858 856 856 854
    854 854 851 851 851 849 847 847 847 845 845 841 839 839 839 839 837
    837 837 833 833 833 831 831 829 829 829 827 825 825 825 823 823 823
    823 821 819 817 817 817 817 817 815 815 815 817 821 829 831 835 837
    839 843 849 851 856 858 864 867 871 875 878 882 885 889 891 898 898
    903 0 0 0 0 0 0 0 0 3859 3859 3774 3774 3816 0 0 0 0 0 0 0 880 878
    875 875 875 875 873 871 871 871 871 869 869 871 869 869 867 867 864
    864 862 862 860 858 856 856 856 854 854 854 851 851 849 849 847 847
    845 845 841 839 839 839 839 837 837 837 835 833 833 831 831 829 829
    831 827 825 825 825 825 823 823 823 821 819 819 817 817 817 817 815
    815 815 815 819 823 827 831 837 837 841 847 849 851 856 858 864 869
    873 875 878 882 887 891 894 898 903 903 0 0 0 0 0 0 0 3948 3859 3774
    3774 3816 3859 0 0 0 0 0 0 880 878 875 875 875 875 875 873 871 871
    871 869 869 871 871 869 867 867 864 864 862 862 860 858 858 856 856
    856 854 854 854 851 851 849 849 847 847 845 843 841 841 839 839 837
    837 837 835 835 833 831 831 831 831 831 829 827 825 825 825 823 823
    823 821 821 819 817 817 817 817 815 815 815 815 817 821 823 827 831
    835 839 843 847 849 851 856 860 864 871 873 875 878 882 887 891 896
    903 903 0 0 0 0 0 0 0 3948 3948 3903 3903 3859 3859 0 0 0 0 0 0 0
    871 871 873 873 878 875 875 873 873 873 871 871 873 871 871 869 867
    864 864 862 862 860 858 858 856 856 856 854 854 854 851 851 849 849
    847 847 845 843 843 841 839 839 837 837 839 837 837 835 833 831 831
    831 831 829 827 827 827 825 825 823 823 823 821 819 819 817 817 817
    815 815 815 815 815 817 821 825 829 835 837 841 843 847 849 851 858
    862 871 873 873 875 880 885 889 894 901 903 0 0 0 0 0 0 0 3948 3948
    3948 3948 3903 3903 0 0 0 0 0 0 0 871 871 873 873 875 873 873 873
    873 873 871 871 873 871 871 869 867 867 864 864 862 862 860 858 856
    856 856 854 854 854 854 854 851 851 849 847 845 845 845 843 839 839
    839 837 837 837 837 835 833 833 831 831 831 831 831 829 829 825 825
    825 823 823 821 819 819 817 817 817 815 815 815 815 815 817 819 823
    827 833 835 839 839 845 847 849 854 858 867 873 873 875 878 882 887
    891 898 903 908 0 0 0 0 0 0 3994 3948 3948 3948 3903 3903 0 0 0 0 0
    0 0 0 873 873 873 875 873 871 871 873 875 871 871 873 871 871 869
    867 867 864 864 864 862 862 860 858 858 856 856 856 856 854 854 854
    851 849 847 845 845 845 843 841 841 839 837 837 837 837 837 835 833
    831 831 831 831 831 829 829 827 825 825 823 823 823 821 819 819 817
    817 815 815 815 815 815 815 817 821 823 827 831 835 835 841 845 849
    854 856 862 869 871 873 875 880 885 887 894 898 906 913 0 0 0 0 0
    3994 3994 3948 3948 3903 3903 3903 0 0 0 0 0 0 0 0 875 875 875 873
    871 871 873 873 873 873 873 871 871 871 869 867 864 864 864 862 862
    860 858 858 856 856 856 856 854 854 854 851 849 847 847 845 845 845
    843 841 839 839 839 839 837 837 835 833 833 831 831 831 831 831 831
    827 825 825 823 823 823 821 821 819 817 817 817 815 815 815 815 815
    815 817 823 825 829 833 835 837 841 845 849 851 856 864 869 871 873
    875 880 885 894 898 901 903 0 0 0 0 0 3994 3994 3994 3948 3903 3903
    3903 3948 0 0 0 0 0 0 0 878 878 878 875 873 873 873 873 873 873 873
    871 871 871 869 869 867 864 864 862 862 862 860 860 858 858 858 856
    856 854 854 851 849 847 847 847 845 845 843 843 841 839 839 839 837
    837 835 835 833 831 831 833 831 831 831 829 827 827 825 823 823 823
    821 819 819 817 817 815 815 815 815 813 813 815 817 823 829 833 833
    835 837 841 847 851 851 856 864 871 873 875 875 882 889 894 896 898
    0 0 0 0 0 3994 3994 3994 3994 3948 3948 3948 3948 3948 0 0 0 0 0 0 0
    0 878 878 875 875 875 873 873 873 873 873 873 871 871 871 869 867
    864 862 862 862 862 862 860 858 856 856 854 854 851 851 851 847 847
    847 847 845 845 843 841 839 839 839 839 837 837 835 835 833 833 833
    831 831 831 829 829 827 825 825 823 823 823 821 821 817 817 815 815
    815 815 813 813 815 815 821 825 829 833 833 835 839 845 849 851 856
    862 867 871 873 875 882 887 891 894 896 0 0 0 0 0 3994 3994 3994
    3994 3994 3994 3994 3948 3903 3903 0 0 0 0 0 0 0 878 878 878 878 875
    873 873 873 873 873 873 871 871 871 869 867 864 864 864 864 862 862
    860 858 856 856 854 854 851 851 851 847 847 847 847 847 845 843 841
    841 839 839 839 837 837 835 835 833 833 833 833 833 831 829 829 827
    825 825 823 823 823 821 821 817 817 817 815 815 815 813 813 813 813
    813 817 825 833 833 835 835 841 845 849 851 856 862 867 871 873 882
    885 887 889 891 0 0 0 0 0 3994 3994 3994 3994 3994 3994 3994 3994
    3859 3859 0 0 0 0 0 0 0 878 878 880 878 878 873 871 871 873 873 873
    873 871 871 869 867 864 864 864 864 862 860 860 858 858 856 856 854
    854 854 854 849 849 847 847 847 845 843 843 841 839 839 839 839 837
    837 835 835 835 833 833 833 831 829 829 829 827 825 825 823 823 823
    821 817 817 817 817 815 815 815 813 813 813 813 813 817 831 833 833
    833 837 843 849 849 851 858 860 864 871 875 882 885 887 887 0 0 0 0
    0 3994 3994 3994 3994 3994 3994 3994 3994 3859 3859 0 0 0 0 0 0 0 0
    878 878 878 878 873 871 871 873 873 873 873 871 871 869 867 864 864
    864 864 862 860 860 858 858 858 856 856 854 854 854 851 851 847 847
    847 845 845 845 843 841 841 839 839 839 837 837 837 835 833 833 833
    831 831 831 829 827 825 825 825 823 823 821 819 817 817 817 815 815
    815 813 813 813 813 813 817 823 831 831 833 835 839 843 847 849 856
    856 860 867 873 878 882 885 887 0 0 0 0 0 3994 3994 3994 3994 3994
    3948 3948 3948 3903 3903 0 0 0 0 0 0 0 0 878 878 878 878 875 873 873
    873 873 873 873 871 871 869 869 864 864 864 862 862 860 860 860 860
    858 856 856 854 854 854 854 851 849 847 847 847 845 845 843 843 841
    841 839 839 839 839 837 837 835 833 833 833 831 831 829 827 827 825
    825 823 823 821 819 817 817 817 817 815 815 815 815 815 815 815 815
    817 825 831 831 833 837 841 845 847 851 854 858 864 869 873 882 885
    887 0 0 0 0 0 4041 4041 3994 3994 3994 3948 3948 3948 3903 3903 0 0
    0 0 0 0 0 0 0 878 875 875 878 875 875 875 873 873 873 871 871 869
    869 867 864 864 862 862 860 860 860 860 858 858 856 856 856 854 854
    851 851 849 847 847 847 845 843 843 841 841 841 841 839 839 837 837
    835 833 833 833 833 831 829 829 827 827 825 825 823 823 821 819 819
    817 817 817 815 815 815 815 815 815 815 817 819 827 827 831 835 841
    841 845 849 854 856 860 867 869 882 887 0 0 0 0 0 0 4041 4041 4041
    4041 3994 3994 3994 3948 3903 3903 3903 0 0 0 0 0 0 0 0 0 875 875
    878 875 875 875 873 873 873 873 871 871 869 867 864 864 864 862 862
    860 860 860 858 858 856 856 856 856 856 856 854 851 847 847 847 845
    843 843 841 841 841 841 839 839 837 837 837 837 835 835 833 831 829
    829 829 827 827 825 825 823 823 821 819 817 817 817 815 815 815 815
    815 815 815 817 819 821 823 827 833 839 839 843 845 854 854 858 864
    867 0 0 0 0 0 0 0 0 4041 4041 4041 4041 3994 3994 3994 3994 3948
    3903 3903 3903 0 0 0 0 0 0 0 0 0 878 878 875 875 878 875 875 873 873
    871 871 867 867 867 864 864 862 862 862 862 862 860 858 858 856 856
    856 856 856 854 854 849 849 847 845 845 845 843 843 841 841 839 839
    839 839 839 837 835 835 833 833 831 831 831 829 827 827 825 823 823
    823 821 819 817 817 815 815 815 815 815 815 815 815 817 819 821 823
    833 837 837 841 843 849 854 856 858 867 0 0 0 0 0 0 0 0 4089 4041
    4041 3994 3994 3994 3994 3994 3948 3948 3903 3903 3948 3948 0 0 0 0
    0 0 0 0 875 873 873 875 875 875 873 873 871 871 867 867 867 864 864
    864 864 864 864 862 862 860 858 856 856 856 856 856 854 854 849 849
    847 847 845 845 843 843 841 841 841 841 839 839 839 839 835 835 833
    833 831 831 831 829 829 827 825 825 823 823 823 819 819 817 817 815
    815 815 815 815 815 815 815 817 819 821 831 831 835 839 841 845 854
    854 858 0 0 0 3948 0 0 0 0 0 4089 4089 4041 3994 3994 3994 3994 3994
    3994 3994 3948 3948 3948 3859 3859 0 0 0 0 0 0 0 871 871 871 875 875
    875 873 873 873 871 869 869 869 867 867 864 864 864 864 862 862 860
    858 858 856 856 856 856 854 854 851 849 847 847 847 845 845 843 843
    841 841 841 841 841 839 839 837 835 833 833 833 831 831 829 829 827
    825 825 825 823 823 821 821 819 817 815 815 815 815 815 813 813 815
    815 817 819 823 829 831 831 839 841 854 854 0 0 0 3948 3948 0 0 0 0
    0 4139 4089 4041 3994 3994 3994 3994 3994 3994 3994 3994 3948 3948
    3859 3859 0 0 0 0 0 0 0 871 871 871 878 878 875 873 873 873 871 871
    869 869 867 867 867 864 864 862 862 862 860 860 858 856 856 856 856
    854 854 851 851 849 847 847 845 845 845 843 843 841 841 841 841 839
    837 837 837 835 833 833 831 831 831 829 829 825 825 825 823 823 823
    821 819 817 815 815 815 815 815 813 813 813 815 815 817 823 825 827
    831 833 841 0 0 0 0 0 3948 3948 0 0 0 0 0 4139 4089 4041 4041 3994
    3994 3994 3994 3994 3994 3994 3994 3948 3903 3859 3859 0 0 0 0 0 0 0
    873 873 878 878 875 873 873 873 871 871 869 869 867 867 867 864 864
    862 862 862 860 860 860 858 858 856 856 854 854 851 851 849 847 847
    845 845 845 843 843 841 841 841 841 839 837 837 837 837 835 835 831
    831 831 831 829 827 825 825 825 823 823 823 819 819 817 815 815 815
    815 815 813 813 813 815 817 821 825 825 827 829 0 0 0 0 0 0 3948
    3948 0 0 0 0 0 4139 4089 3994 3994 3994 3994 3994 3994 3994 3994
    3994 3994 3948 3903 3859 3859 0 0 0 0 0 0 0 0 880 880 878 875 873
    873 873 871 871 871 869 869 869 869 864 864 864 862 862 862 862 860
    860 860 858 856 854 854 854 851 849 847 847 845 845 845 843 843 843
    841 839 839 839 839 837 837 837 835 835 833 833 831 831 829 827 825
    825 825 823 823 823 821 819 817 817 817 815 815 815 813 813 813 815
    817 821 823 825 825 825 0 0 0 0 0 0 3994 3994 0 0 0 0 0 4139 4041
    3994 3994 3994 3994 3994 3994 3994 3994 3994 3994 3948 3903 3859
    3859 3903 0 0 0 0 0 0 0 880 880 878 878 875 873 873 871 871 871 869
    869 869 869 867 864 864 864 864 862 862 862 860 860 858 856 854 854
    854 854 849 849 847 845 845 845 843 843 843 841 839 839 839 839 837
    837 837 837 835 833 833 831 831 829 829 829 827 825 825 823 823 821
    819 817 817 817 815 815 815 815 813 813 813 815 819 823 825 825 825
    0 0 0 0 0 3994 3994 3994 0 0 0 0 0 4139 4041 4041 3994 3994 4041
    4041 3994 3994 3994 3994 3994 3948 3948 3948 3903 3903 0 0 0 0 0 0 0
    880 880 878 878 878 873 873 871 871 871 871 871 871 869 867 867 864
    864 864 864 862 862 860 860 858 856 854 854 854 854 851 849 849 847
    845 845 845 843 843 841 841 841 841 839 839 837 837 837 835 835 833
    833 831 831 829 829 827 825 825 823 823 823 821 819 819 819 817 817
    815 815 813 813 813 815 819 823 825 825 0 0 0 0 0 3994 3994 3994
    3994 0 0 0 0 0 4139 4139 4089 4041 4041 4041 4041 3994 3994 3994
    3994 3994 3948 3948 3948 3948 3948 0 0 0 0 0 0 0 0 0 878 878 878 875
    873 873 871 871 871 871 871 871 869 869 867 864 864 864 862 862 860
    858 858 856 854 854 854 854 854 851 851 849 847 845 845 843 843 841
    841 841 841 839 837 837 837 837 835 835 833 833 831 831 829 829 827
    825 825 823 823 823 821 819 819 819 817 817 815 815 813 813 813 815
    819 825 825 0 0 0 0 0 0 3948 3948 3994 3994 0 0 0 0 0 4190 4139 4139
    4089 4089 4041 4041 4041 3994 3994 3994 3994 3948 3948 3903 3859
    3859 0 0 0 0 0 0 0 0 0 0 882 880 878 875 873 871 871 871 871 871 871
    869 869 867 864 864 864 862 862 860 858 858 856 854 854 854 854 854
    851 851 849 849 847 845 845 845 841 841 841 841 839 837 837 837 837
    837 837 835 833 833 831 829 829 827 825 825 823 823 823 823 819 819
    819 819 819 815 815 813 813 813 817 825 825 825 0 0 0 0 0 0 3948
    3948 3948 3994 0 0 0 0 0 4190 4139 4139 4089 4089 4041 4041 4041
    4041 3994 3994 3994 3948 3948 3903 3859 3859 3859 3903 0 0 0 0 0 0 0
    0 0 880 880 878 873 873 871 871 871 871 871 869 869 867 864 864 864
    862 862 862 858 858 856 856 856 856 854 851 851 849 849 849 847 847
    845 845 843 843 841 841 839 839 837 837 839 839 837 835 833 833 831
    829 829 827 825 825 825 825 825 823 823 821 819 819 819 815 815 815
    815 815 827 829 825 825 0 0 0 0 0 0 3948 3948 3948 3994 0 0 0 0 0
    4190 4190 4139 4139 4089 4089 4041 4041 4041 4041 3994 3948 3948
    3948 3948 3859 3859 3859 3903 3903 3994 0 0 0 0 0 0 0 0 878 878 873
    873 873 871 871 871 871 869 869 869 867 864 864 862 862 862 860 858
    856 856 856 856 854 851 851 849 849 849 847 847 847 845 843 843 841
    841 839 839 839 839 839 839 837 835 833 833 831 831 829 829 827 827
    825 825 825 823 823 823 821 819 817 817 815 815 815 821 829 829 825
    825 0 0 3948 3948 0 0 3948 3948 3994 3994 0 0 0 0 0 4241 4190 4190
    4139 4139 4089 4041 4041 4041 4041 3994 3948 3948 3948 3948 3859
    3859 3903 3903 3903 3859 3859 0 0 0 0 0 0 0 878 875 875 873 873 871
    871 871 871 869 869 869 867 867 864 862 862 862 860 860 858 858 856
    856 854 851 851 849 849 849 847 847 847 845 845 843 843 841 841 839
    839 839 839 839 837 835 835 833 833 833 831 831 829 827 827 825 825
    825 823 823 823 817 815 815 815 815 815 829 829 829 829 829 4089
    3994 3948 3948 4089 3994 3948 3948 3948 3948 0 0 0 0 0 4241 4190
    4190 4139 4139 4089 4041 4041 4041 4041 3994 3948 3948 3948 3948
    3903 3903 3903 3859 3859 3859 3859 0 0 0 0 0 0 0 878 875 875 873 873
    873 871 871 871 869 869 869 867 867 864 864 862 862 862 860 858 858
    856 856 854 854 854 851 851 849 847 847 847 845 845 845 843 843 841
    839 839 839 839 839 837 835 835 833 833 833 833 831 831 829 827 825
    825 825 823 823 823 817 815 815 815 815 0 3994 3994 3994 4041 4041
    4041 3994 3948 3948 3948 3948 3948 3948 3948 3948 0 0 0 0 0 4241
    4190 4190 4139 4139 4089 4089 4089 4041 4041 4041 3948 3948 3948
    3948 3948 3948 3903 3859 3859 3859 3859 0 0 0 0 0 0 0 885 878 875
    873 873 873 871 871 871 871 869 869 869 867 864 864 864 862 862 862
    858 858 856 856 854 854 854 851 851 849 847 847 847 847 845 845 845
    843 843 841 839 839 839 839 837 837 835 833 833 833 833 831 831 829
    827 825 825 825 823 823 823 819 815 815 815 0 0 0 3994 3994 4041
    4041 4041 3994 3948 3948 3948 3948 3948 3948 3948 3948</data></Depth15706>
</opencv_storage>
