<?xml version="1.0"?>
<opencv_storage>
<Depth1516 type_id="opencv-matrix">
  <rows>101</rows>
  <cols>64</cols>
  <dt>w</dt>
  <data>
    3903 3859 995 995 998 1001 998 998 998 998 998 1001 1001 1001 1001
    3653 3653 3653 3614 3614 3614 3614 3576 3576 3539 3539 3539 3539
    3539 3539 3503 3503 3468 3468 3468 3433 3433 3433 3433 3399 3399
    3399 3399 3365 3365 3365 3365 3333 3300 3300 3300 3300 3238 3238
    3269 3238 3238 3208 3149 3149 3149 3178 3149 3120 995 995 995 995
    998 998 995 995 998 998 998 1001 1001 1001 1001 1004 1004 1007 1007
    3614 3614 1013 1013 1013 1013 1016 1016 1016 3576 3539 3503 3503
    3468 3468 3468 3468 3468 3468 3433 3399 3399 3399 3365 3365 3333
    3333 3333 3333 3333 3300 3300 3269 3238 3238 3238 3238 3238 3208
    3149 3149 3149 3149 3149 3120 995 995 995 995 995 995 995 995 998
    998 998 1001 1001 1001 1004 1004 1004 1007 1007 1010 1010 1010 1013
    1013 1013 1016 1016 1016 1019 1019 1019 1019 1019 1022 1025 3468
    3468 3468 3433 3399 3399 3399 3365 1031 1031 1034 1038 1031 1031
    1031 1031 1041 1041 1038 1038 1038 3208 3208 3149 3149 3120 3120
    3120 3120 1016 1001 995 995 995 995 995 995 995 998 998 1001 1001
    1004 1004 1004 1004 1007 1007 1010 1010 1010 1013 1013 1016 1016
    1016 1016 1016 1019 1019 1019 1019 1022 1022 1025 1025 1025 1025
    1025 1028 1028 1028 1031 1031 1034 1034 1031 1031 1031 1031 1034
    1038 1038 1038 1038 1038 1038 1038 1041 1047 3120 3120 3120 1016
    1004 992 992 992 995 995 995 995 998 998 1001 1001 1001 1004 1004
    1007 1007 1010 1010 1010 1013 1013 1013 1016 1016 1016 1016 1016
    1019 1019 1022 1022 1022 1022 1025 1025 1025 1025 1025 1028 1028
    1028 1031 1031 1034 1034 1031 1031 1031 1031 1034 1034 1038 1038
    1038 1038 1038 1038 1041 1044 1047 1047 3037 0 992 992 992 992 995
    995 998 998 1001 1001 1001 1001 1001 1004 1007 1007 1007 1010 1010
    1010 1013 1013 1013 1013 1013 1016 1016 1016 1019 1019 1022 1022
    1022 1025 1025 1025 1025 1025 1028 1028 1028 1028 1028 1031 1031
    1034 1031 1031 1034 1034 1034 1034 1034 1034 1038 1038 1038 1041
    1041 1044 1044 1044 1044 1001 992 992 992 992 995 998 998 998 1001
    1001 1001 1004 1004 1004 1004 1004 1007 1010 1010 1010 1013 1013
    1013 1013 1013 1013 1016 1016 1019 1019 1022 1022 1022 1022 1022
    1025 1025 1025 1025 1025 1025 1028 1028 1031 1031 1034 1031 1031
    1034 1034 1034 1034 1034 1034 1038 1038 1038 1038 1041 1044 1044
    1044 1044 995 992 992 992 992 995 998 1001 1001 1001 1001 1001 1004
    1004 1004 1004 1004 1004 1007 1010 1010 1013 1013 1013 1013 1013
    1013 1016 1016 1016 1019 1019 1022 1022 1022 1022 1025 1025 1025
    1025 1025 1025 1028 1031 1031 1034 1034 1031 1031 1034 1034 1034
    1034 1034 1034 1038 1038 1038 1038 1038 1041 1044 1044 1044 995 992
    992 992 992 995 998 1001 1001 1001 1001 1004 1004 1004 1004 1004
    1004 1004 1007 1010 1010 1010 1013 1013 1013 1013 1013 1016 1016
    1016 1019 1019 1022 1022 1022 1022 1025 1025 1025 1025 1025 1028
    1028 1031 1031 1034 1034 1031 1031 1031 1034 1034 1034 1034 1038
    1038 1038 1038 1038 1038 1041 1044 1044 1044 995 992 992 992 992 995
    995 998 998 1001 1001 1001 1004 1004 1004 1004 1004 1004 1007 1010
    1010 1010 1013 1013 1013 1013 1013 1016 1016 1016 1019 1019 1019
    1022 1022 1025 1025 1025 1025 1025 1028 1028 1028 1031 1031 1031
    1034 1031 1031 1031 1034 1034 1034 1034 1038 1038 1038 1038 1038
    1038 1041 1044 1044 0 0 992 992 992 992 995 995 998 998 1001 1001
    1001 1004 1004 1004 1004 1004 1004 1010 1010 1013 1013 1013 1013
    1013 1013 1013 1016 1016 1016 1019 1019 1019 1022 1022 1025 1025
    1025 1025 1028 1028 1028 1028 1028 1031 1031 1031 1031 1031 1034
    1034 1034 1034 1034 1034 1038 1038 1038 1038 1038 1041 1044 1044 0 0
    992 992 992 992 995 998 998 998 1001 1001 1001 1004 1004 1004 1004
    1004 1004 1007 1010 1013 1013 1013 1013 1013 1013 1013 1016 1016
    1016 1019 1019 1019 1019 1022 1022 1025 1025 1028 1028 1028 1028
    1028 1028 1031 1031 1031 1031 1031 1034 1034 1034 1034 1034 1034
    1038 1038 1038 1038 1038 1041 1044 1044 0 0 992 992 992 992 995 998
    998 1001 1001 1001 1001 1001 1004 1004 1004 1004 1004 1007 1007 1010
    1013 1013 1013 1013 1013 1013 1016 1016 1016 1019 1019 1019 1019
    1022 1022 1025 1025 1028 1028 1028 1028 1028 1028 1031 1031 1031
    1031 1031 1034 1034 1034 1034 1034 1034 1038 1038 1038 1038 1038
    1041 1044 0 0 0 992 992 992 992 995 998 998 1001 1001 1001 1001 1001
    1004 1004 1004 1004 1004 1007 1007 1010 1013 1013 1013 1013 1013
    1013 1016 1016 1016 1019 1019 1019 1019 1022 1022 1025 1025 1028
    1028 1028 1028 1028 1028 1031 1031 1034 1031 1031 1031 1034 1034
    1034 1034 1034 1038 1038 1038 1038 1038 1041 1044 1044 0 0 992 992
    992 992 995 998 998 1001 1001 1001 1001 1001 1001 1004 1004 1004
    1004 1007 1007 1010 1010 1013 1013 1013 1013 1013 1016 1016 1016
    1019 1019 1019 1019 1022 1022 1025 1025 1028 1028 1028 1028 1028
    1028 1031 1031 1034 1031 1031 1031 1034 1034 1034 1034 1034 1038
    1034 1034 1038 1038 1041 1044 0 0 0 992 992 992 992 995 998 998 998
    1001 1001 1001 1001 1001 1004 1004 1004 1007 1007 1010 1010 1010
    1010 1010 1010 1013 1013 1016 1016 1016 1019 1019 1019 1019 1022
    1022 1025 1025 1028 1028 1028 1028 1028 1028 1031 1034 1034 1031
    1031 1031 1034 1034 1034 1034 1034 1034 1034 1034 1038 1038 1041
    1044 0 0 1001 992 992 992 992 995 998 998 998 1001 1001 1001 1001
    1001 1001 1004 1004 1007 1007 1007 1010 1010 1010 1010 1010 1013
    1013 1016 1016 1016 1016 1016 1019 1019 1022 1022 1025 1025 1028
    1028 1028 1028 1028 1028 1031 1031 1034 1031 1031 1031 1031 1034
    1034 1034 1034 1034 1034 1034 1038 1038 1041 1044 0 0 998 995 992
    992 992 995 995 998 1001 1001 1001 1001 1001 1001 1001 1004 1004
    1007 1007 1007 1010 1010 1010 1013 1013 1013 1013 1013 1016 1016
    1016 1016 1019 1019 1022 1022 1025 1025 1025 1025 1028 1028 1028
    1028 1028 1028 1031 1031 1031 1031 1031 1034 1034 1034 1034 1034
    1034 1034 1038 1038 1038 1041 0 0 998 992 992 992 992 995 995 998
    1001 1001 1001 1001 1001 1001 1001 1004 1004 1007 1007 1007 1010
    1010 1013 1013 1013 1013 1013 1013 1016 1016 1016 1019 1019 1019
    1022 1022 1025 1025 1025 1025 1028 1028 1028 1028 1028 1028 1031
    1031 1031 1031 1031 1034 1034 1034 1034 1034 1034 1034 1038 1038
    1038 1038 0 0 995 992 992 992 992 992 995 998 1001 1001 1001 1001
    1001 1001 1001 1004 1004 1004 1004 1007 1010 1013 1013 1013 1013
    1013 1013 1016 1016 1016 1016 1019 1019 1019 1022 1022 1022 1022
    1025 1025 1025 1025 1028 1028 1028 1028 1031 1031 1031 1031 1031
    1034 1034 1034 1034 1034 1034 1034 1038 1038 1038 1038 0 0 995 992
    992 992 992 992 995 998 1001 1001 1001 1001 1001 1001 1001 1001 1004
    1004 1004 1007 1010 1013 1013 1013 1013 1013 1013 1016 1016 1016
    1016 1019 1019 1019 1022 1022 1022 1022 1025 1025 1025 1025 1025
    1028 1028 1028 1031 1031 1031 1031 1031 1034 1034 1034 1034 1034
    1034 1038 1038 1038 1038 1038 1038 0 0 992 992 992 992 992 995 998
    998 998 1001 1001 1001 1001 1001 1001 1004 1004 1004 1007 1010 1010
    1013 1013 1013 1013 1016 1016 1016 1016 1016 1019 1019 1022 1022
    1022 1022 1022 1025 1025 1025 1025 1025 1028 1028 1028 1031 1031
    1031 1031 1031 1034 1034 1034 1034 1034 1034 1038 1038 1038 1038
    1038 1038 0 0 992 992 992 992 992 995 998 998 998 998 1001 1001 1001
    1001 1001 1004 1004 1007 1007 1010 1010 1010 1010 1013 1013 1013
    1016 1016 1016 1016 1016 1019 1022 1022 1022 1022 1022 1025 1025
    1025 1025 1025 1028 1028 1028 1031 1031 1031 1031 1031 1034 1034
    1034 1034 1034 1034 1038 1038 1041 1041 1041 1041 0 995 992 992 992
    992 992 992 995 995 998 998 1001 1001 1001 1001 1004 1004 1007 1007
    1007 1010 1007 1007 1010 1010 1013 1013 1016 1016 1016 1016 1016
    1016 1019 1019 1022 1022 1022 1025 1025 1025 1025 1025 1028 1028
    1028 1031 1031 1031 1031 1031 1034 1034 1034 1034 1034 1034 1034
    1038 1038 1041 1044 1044 0 992 992 992 992 992 992 992 992 995 998
    1001 1001 1001 1001 1001 1004 1004 1007 1007 1007 1007 1007 1007
    1010 1010 1013 1013 1016 1016 1016 1016 1016 1016 1019 1019 1022
    1022 1025 1025 1025 1025 1025 1025 1028 1028 1028 1031 1031 1031
    1031 1031 1031 1031 1034 1034 1034 1034 1034 1038 1038 1041 1041
    1041 0 992 992 992 992 992 992 992 992 992 998 1001 1001 1001 1001
    1001 1004 1004 1004 1007 1007 1007 1007 1007 1010 1010 1013 1013
    1016 1016 1016 1016 1016 1016 1019 1019 1019 1022 1025 1025 1025
    1025 1025 1025 1028 1028 1028 1028 1028 1028 1031 1031 1031 1031
    1034 1034 1034 1034 1034 1038 1038 1038 1041 1041 0 992 992 992 992
    992 992 992 992 992 998 998 1001 1001 1001 1001 1004 1004 1004 1007
    1007 1007 1010 1010 1010 1010 1013 1013 1013 1016 1016 1016 1016
    1016 1019 1019 1019 1022 1025 1025 1025 1025 1025 1025 1028 1028
    1028 1028 1025 1025 1028 1028 1031 1031 1034 1034 1034 1034 1034
    1038 1038 1038 1038 1038 0 992 992 992 992 992 992 992 995 995 998
    998 1001 1001 1001 1001 1001 1004 1004 1004 1007 1010 1010 1010 1010
    1010 1013 1013 1013 1016 1016 1016 1016 1019 1019 1019 1022 1022
    1025 1025 1028 1028 1028 1028 1028 1028 1028 1028 1025 1025 1028
    1028 1031 1031 1034 1034 1034 1034 1034 1038 1038 1038 1038 0 0 995
    992 992 992 992 992 992 995 995 998 998 998 1001 1001 1001 1001 1004
    1004 1004 1007 1010 1010 1010 1010 1010 1013 1013 1013 1013 1016
    1016 1016 1019 1019 1019 1022 1022 1025 1025 1025 1025 1025 1028
    1028 1028 1028 1028 1025 1025 1028 1028 1031 1031 1034 1034 1034
    1034 1034 1034 1038 1038 1038 1038 0 995 992 992 992 992 992 992 995
    995 998 998 998 1001 1001 1001 1001 1004 1004 1004 1004 1010 1010
    1013 1010 1010 1013 1013 1013 1013 1016 1016 1016 1016 1019 1019
    1022 1022 1022 1025 1025 1025 1025 1028 1028 1028 1028 1028 1025
    1025 1028 1028 1028 1031 1034 1034 1034 1034 1034 1034 1038 1038
    1038 1038 0 992 992 992 992 992 992 992 995 995 995 998 998 1001
    1001 1001 1004 1004 1004 1004 1004 1010 1010 1013 1013 1013 1013
    1013 1013 1013 1016 1016 1016 1016 1019 1019 1019 1019 1022 1022
    1025 1025 1025 1025 1028 1028 1028 1028 1028 1028 1028 1028 1028
    1031 1034 1034 1034 1034 1034 1034 1038 1038 1038 1038 0 992 992 992
    992 992 992 992 995 995 995 995 998 1001 1001 1001 1004 1004 1004
    1004 1004 1007 1010 1013 1013 1013 1013 1013 1013 1013 1016 1016
    1016 1016 1016 1016 1019 1019 1022 1022 1025 1025 1025 1025 1028
    1028 1028 1028 1025 1025 1028 1028 1031 1031 1034 1034 1034 1034
    1034 1034 1038 1038 1038 1038 0 992 992 992 992 992 992 992 995 995
    995 995 998 1001 1001 1001 1004 1004 1004 1004 1004 1007 1007 1010
    1010 1013 1013 1013 1013 1013 1016 1016 1016 1016 1016 1016 1019
    1019 1019 1022 1022 1025 1025 1025 1028 1028 1028 1028 1025 1025
    1028 1028 1028 1031 1034 1034 1034 1034 1034 1034 1034 1038 1038
    1038 0 992 992 992 992 992 992 995 995 995 998 998 998 1001 1001
    1001 1004 1004 1004 1004 1004 1007 1007 1007 1010 1010 1013 1013
    1013 1013 1016 1016 1016 1016 1016 1016 1019 1019 1019 1022 1022
    1025 1025 1025 1028 1028 1028 1028 1025 1025 1028 1028 1028 1031
    1031 1034 1034 1034 1034 1034 1034 1034 1038 1038 0 992 992 992 992
    992 992 992 992 995 998 998 998 1001 1001 1001 1004 1004 1004 1004
    1007 1004 1004 1007 1007 1010 1013 1013 1013 1013 1013 1016 1016
    1016 1016 1016 1019 1022 1022 1022 1025 1025 1025 1025 1025 1028
    1028 1028 1025 1025 1025 1028 1028 1028 1031 1031 1031 1031 1031
    1034 1034 1034 1038 1038 0 992 992 992 992 992 992 992 992 992 995
    998 998 1001 1001 1001 1001 1004 1004 1004 1004 1004 1004 1007 1007
    1010 1013 1013 1013 1013 1013 1016 1016 1016 1016 1019 1019 1022
    1022 1022 1025 1025 1025 1025 1025 1028 1028 1028 1025 1025 1025
    1028 1028 1028 1028 1031 1031 1031 1031 1034 1034 1034 1038 1038 0
    989 989 989 989 989 992 992 992 992 995 995 998 1001 1001 1001 1001
    1004 1004 1004 1004 1007 1007 1007 1007 1010 1010 1013 1013 1013
    1013 1016 1016 1016 1016 1019 1019 1022 1022 1022 1025 1025 1025
    1025 1025 1025 1028 1028 1025 1025 1025 1028 1025 1025 1028 1028
    1031 1031 1031 1034 1034 1034 1038 1038 0 989 989 989 989 989 992
    992 992 992 995 995 998 998 1001 1001 1001 1004 1004 1004 1004 1007
    1007 1007 1007 1007 1010 1013 1013 1013 1013 1013 1013 1013 1016
    1019 1019 1019 1022 1022 1025 1025 1025 1025 1025 1025 1025 1028
    1025 1025 1025 1025 1025 1025 1028 1028 1031 1031 1031 1034 1034
    1038 1038 1038 0 992 992 989 989 989 992 992 992 992 995 995 995 998
    998 1001 1001 1004 1004 1004 1004 1004 1007 1007 1007 1007 1010 1013
    1013 1013 1013 1013 1013 1013 1016 1016 1016 1019 1022 1022 1025
    1025 1025 1025 1025 1025 1025 1028 1025 1025 1025 1025 1025 1025
    1028 1031 1031 1031 1031 1034 1034 1038 1034 1034 0 992 992 992 992
    992 992 992 992 992 992 995 995 998 998 1001 1001 1004 1004 1004
    1004 1004 1007 1007 1010 1010 1010 1013 1013 1013 1013 1013 1013
    1013 1016 1016 1016 1019 1019 1019 1022 1025 1025 1025 1025 1025
    1025 1028 1025 1025 1025 1025 1025 1028 1031 1031 1031 1031 1031
    1034 1034 1034 1034 1034 0 992 992 992 992 992 992 992 992 992 992
    992 995 995 998 1001 1001 1004 1004 1004 1004 1004 1004 1007 1010
    1010 1010 1013 1013 1013 1013 1013 1013 1016 1016 1016 1016 1019
    1019 1019 1022 1022 1025 1025 1025 1025 1025 1028 1025 1025 1025
    1025 1028 1028 1031 1031 1031 1031 1031 1034 1034 1034 1034 1034 0
    989 989 992 992 992 992 992 992 992 992 992 995 995 998 1001 1001
    1004 1004 1004 1004 1004 1004 1007 1010 1010 1010 1010 1013 1013
    1013 1013 1013 1016 1016 1016 1016 1019 1019 1019 1022 1022 1025
    1025 1025 1025 1025 1028 1025 1025 1025 1025 1028 1028 1031 1031
    1031 1034 1034 1034 1034 1034 1034 1034 0 989 989 992 989 989 992
    992 992 992 995 995 995 998 998 1001 1001 1004 1004 1004 1004 1004
    1004 1007 1010 1010 1010 1010 1013 1013 1013 1013 1016 1016 1016
    1019 1016 1016 1016 1019 1019 1022 1025 1025 1025 1025 1025 1028
    1025 1025 1025 1025 1025 1028 1028 1028 1031 1031 1031 1034 1034
    1034 1034 1034 0 989 989 992 989 989 992 992 992 992 995 995 995 998
    998 1001 1001 1004 1004 1004 1004 1004 1004 1007 1007 1007 1010 1010
    1013 1013 1013 1013 1016 1016 1016 1016 1016 1016 1016 1019 1019
    1022 1025 1025 1025 1025 1025 1025 1025 1025 1025 1025 1025 1025
    1025 1025 1028 1028 1031 1034 1034 1034 1034 1034 0 989 989 992 992
    992 992 992 992 992 995 995 995 998 998 1001 1001 1001 1004 1004
    1004 1004 1004 1007 1007 1007 1007 1007 1010 1013 1013 1013 1013
    1016 1016 1016 1016 1016 1016 1019 1022 1022 1022 1022 1022 1025
    1025 1025 1025 1025 1025 1025 1025 1025 1025 1025 1028 1028 1028
    1034 1034 1034 1034 1034 0 0 992 992 992 992 992 992 992 992 992 995
    995 995 998 1001 1001 1001 1001 1004 1004 1004 1004 1004 1004 1004
    1004 1007 1010 1013 1013 1013 1013 1016 1016 1016 1016 1016 1016
    1019 1019 1019 1022 1022 1022 1025 1025 1025 1025 1025 1025 1025
    1025 1028 1025 1025 1028 1028 1028 1034 1034 1034 1034 1034 0 0 992
    992 992 992 992 992 992 992 992 995 995 995 998 998 1001 1001 1001
    1004 1004 1004 1004 1004 1004 1004 1004 1007 1010 1013 1013 1013
    1013 1016 1016 1016 1016 1016 1016 1019 1019 1019 1022 1022 1022
    1025 1025 1025 1022 1022 1025 1025 1025 1028 1028 1028 1028 1028
    1031 1031 1034 1034 1034 1034 0 0 989 989 989 989 992 992 992 992
    992 995 995 995 998 998 1001 1001 1001 1004 1004 1004 1004 1004 1004
    1004 1007 1007 1010 1010 1013 1013 1013 1016 1016 1016 1016 1016
    1019 1019 1022 1022 1022 1022 1022 1025 1025 1025 1022 1022 1025
    1025 1025 1028 1028 1028 1028 1028 1031 1031 1031 1034 1034 1034 0 0
    984 984 987 989 992 992 992 992 992 995 995 995 998 1001 1001 1001
    1001 1004 1004 1004 1004 1004 1004 1004 1007 1007 1010 1010 1013
    1013 1013 1016 1016 1016 1016 1016 1019 1019 1022 1022 1022 1022
    1022 1025 1025 1025 1022 1022 1025 1025 1025 1025 1028 1028 1028
    1028 1031 1031 1031 1031 1034 1034 0 987 984 984 987 989 989 992 992
    992 992 992 995 995 998 1001 1001 1001 1001 1004 1004 1004 1004 1004
    1007 1007 1010 1010 1010 1010 1013 1013 1013 1016 1016 1016 1016
    1016 1019 1019 1019 1022 1022 1022 1022 1025 1025 1025 1022 1022
    1025 1025 1025 1025 1025 1028 1028 1028 1028 1028 1028 1031 1031
    1031 1031 987 984 984 987 989 989 992 992 992 992 992 995 995 998
    1001 1001 1001 1001 1004 1004 1004 1004 1004 1007 1007 1010 1013
    1013 1013 1013 1013 1016 1016 1016 1016 1016 1016 1016 1019 1019
    1019 1022 1022 1022 1025 1025 1022 1022 1022 1025 1025 1025 1025
    1025 1028 1028 1028 1028 1028 1028 1031 1031 1031 0 987 984 984 987
    987 989 989 992 992 992 992 995 995 998 1001 1001 1001 1001 1004
    1004 1004 1004 1004 1004 1007 1010 1013 1013 1013 1013 1013 1016
    1016 1016 1016 1016 1016 1016 1016 1016 1019 1019 1022 1022 1025
    1025 1022 1022 1022 1022 1025 1025 1025 1025 1025 1025 1028 1028
    1028 1031 1031 1031 0 1034 989 984 984 987 987 989 989 989 992 992
    992 995 995 998 1001 1001 1001 1001 1001 1004 1004 1004 1004 1004
    1007 1010 1013 1013 1013 1013 1013 1016 1016 1016 1016 1016 1016
    1016 1016 1016 1016 1019 1022 1022 1025 1025 1022 1022 1022 1022
    1025 1025 1025 1025 1025 1025 1028 1028 1028 1031 1031 1031 1034
    1034 989 987 987 987 989 989 989 989 992 992 992 995 995 998 998 998
    1001 1001 1001 1004 1004 1004 1004 1004 1007 1010 1010 1010 1010
    1013 1013 1013 1016 1016 1016 1016 1016 1016 1016 1016 1016 1019
    1022 1025 1025 1025 1022 1022 1022 1022 1025 1025 1025 1025 1025
    1025 1028 1028 1028 1031 1031 1034 1034 1038 989 987 987 987 989 989
    989 989 992 992 995 995 995 998 998 998 998 1001 1001 1004 1004 1004
    1004 1004 1004 1007 1010 1010 1010 1010 1013 1013 1013 1016 1016
    1016 1016 1016 1016 1016 1019 1019 1022 1022 1022 1025 1022 1022
    1022 1022 1025 1025 1025 1025 1025 1025 1025 1028 1028 1031 1031
    1034 1034 1038 989 987 987 989 989 989 989 992 992 992 995 995 995
    995 995 998 998 1001 1001 1004 1004 1004 1004 1004 1004 1004 1007
    1007 1007 1010 1013 1013 1013 1013 1016 1016 1016 1016 1016 1016
    1019 1019 1019 1022 1022 1025 1022 1022 1022 1022 1025 1025 1025
    1025 1025 1025 1025 1028 1028 1028 1031 1034 1034 1038 989 987 987
    989 989 989 989 992 992 992 992 995 995 995 995 998 1001 1001 1001
    1001 1004 1004 1004 1004 1004 1004 1007 1007 1007 1010 1013 1013
    1013 1013 1016 1016 1016 1016 1016 1016 1016 1019 1019 1019 1022
    1022 1022 1022 1022 1022 1025 1025 1025 1025 1025 1028 1028 1028
    1028 1028 1031 1031 1034 1034 989 987 987 989 989 989 989 992 992
    992 992 992 995 995 995 998 998 1001 1001 1001 1001 1004 1004 1004
    1004 1004 1007 1007 1007 1010 1013 1013 1013 1013 1016 1016 1016
    1016 1016 1016 1016 1016 1016 1019 1022 1022 1022 1022 1022 1022
    1022 1025 1025 1025 1025 1025 1025 1025 1028 1028 1028 1031 1031
    1031 989 987 987 989 989 989 989 992 992 992 992 992 995 995 995 998
    998 1001 1001 1001 1001 1001 1004 1004 1004 1004 1007 1007 1007 1010
    1013 1013 1013 1013 1016 1016 1016 1016 1016 1016 1016 1016 1016
    1019 1022 1022 1022 1022 1022 1022 1022 1025 1025 1025 1025 1025
    1025 1025 1028 1028 1028 1031 1031 1031 0 0 989 989 989 989 989 989
    992 992 992 992 995 995 995 998 998 998 1001 1001 1001 1001 1004
    1004 1004 1004 1004 1007 1007 1010 1013 1013 1013 1016 1016 1016
    1016 1016 1016 1019 1019 1019 1019 1019 1022 1022 1022 1022 1022
    1022 1022 1025 1025 1025 1025 1025 1025 1025 1028 1031 1031 1031
    1034 1034 0 981 981 981 989 989 989 989 989 992 992 992 995 995 995
    998 998 998 1001 1001 1001 1001 1004 1004 1004 1004 1004 1007 1007
    1010 1013 1013 1013 1016 1016 1016 1016 1016 1016 1019 1019 1022
    1022 1022 1025 1025 1022 1022 1022 1022 1022 1025 1025 1025 1025
    1025 1025 1025 1028 1031 1031 1031 1031 1031 0 981 981 981 989 989
    989 989 989 992 992 992 992 992 995 998 998 1001 1001 1001 1001 1004
    1004 1004 1004 1004 1004 1007 1007 1010 1013 1013 1013 1013 1016
    1016 1016 1016 1016 1016 1019 1022 1022 1022 1025 1025 1022 1022
    1022 1022 1022 1025 1025 1025 1025 1025 1028 1028 1028 1031 1031
    1031 1031 1031 992 987 984 984 989 989 989 989 989 989 992 992 992
    992 995 998 998 1001 1001 1001 1001 1004 1004 1004 1004 1004 1004
    1007 1010 1010 1010 1010 1010 1013 1016 1016 1016 1016 1016 1016
    1019 1022 1022 1022 1022 1022 1022 1022 1022 1022 1022 1025 1025
    1025 1025 1028 1028 1028 1031 1031 1031 1031 1031 1034 992 987 984
    984 989 989 989 989 989 989 992 992 992 992 995 998 998 1001 1001
    1001 1001 1001 1001 1004 1004 1004 1007 1007 1010 1010 1010 1010
    1010 1013 1013 1016 1016 1016 1016 1016 1019 1022 1022 1022 1022
    1022 1022 1022 1022 1022 1022 1025 1025 1025 1025 1028 1028 1028
    1031 1031 1031 1031 1031 1031 992 987 984 984 987 989 989 989 989
    989 989 992 992 992 995 998 998 1001 1001 1001 1001 1001 1001 1004
    1004 1004 1004 1007 1007 1010 1010 1010 1010 1013 1013 1016 1016
    1016 1016 1016 1019 1019 1022 1022 1022 1022 1022 1022 1022 1022
    1022 1025 1025 1025 1025 1025 1028 1028 1031 1031 1031 1031 1031
    1031 992 987 984 984 987 989 989 989 989 989 989 992 992 992 995 998
    998 998 1001 1001 1001 1001 1001 1001 1004 1004 1004 1007 1007 1010
    1010 1010 1010 1013 1013 1016 1016 1016 1016 1016 1016 1019 1019
    1022 1022 1022 1022 1022 1022 1022 1022 1025 1025 1025 1025 1025
    1025 1025 1028 1031 1031 1031 1031 1031 992 987 984 984 987 987 989
    989 989 989 992 992 992 995 995 995 998 998 1001 1001 1001 1001 1001
    1001 1004 1004 1004 1004 1007 1010 1010 1013 1013 1013 1013 1016
    1016 1016 1016 1016 1016 1019 1019 1022 1022 1022 1022 1022 1022
    1022 1022 1025 1025 1025 1025 1025 1025 1025 1025 1031 1031 1031
    1031 1031 992 987 987 987 987 987 989 989 989 989 992 992 992 992
    995 995 998 998 1001 1001 1001 1001 1001 1001 1004 1004 1004 1004
    1004 1007 1010 1013 1013 1013 1013 1013 1016 1016 1016 1016 1016
    1019 1019 1019 1019 1022 1022 1022 1022 1022 1022 1025 1025 1025
    1025 1025 1025 1025 1025 1028 1031 1031 1031 0 0 987 987 987 987 987
    989 989 989 989 992 992 992 992 995 998 998 998 1001 1001 1001 1001
    1001 1001 1004 1004 1004 1004 1004 1007 1010 1013 1013 1013 1013
    1013 1013 1013 1016 1016 1016 1019 1019 1019 1019 1022 1022 1022
    1022 1022 1022 1025 1025 1025 1025 1025 1025 1025 1025 1028 1031
    1031 1031 0 0 0 987 987 987 987 989 989 989 989 989 992 992 995 998
    998 998 1001 1001 1001 1001 1001 1001 1001 1004 1004 1004 1004 1004
    1007 1007 1010 1010 1013 1013 1013 1013 1013 1016 1016 1016 1019
    1019 1019 1019 1019 1022 1022 1022 1022 1022 1025 1025 1025 1025
    1025 1025 1025 1025 1028 1031 1031 1031 0 0 0 0 987 987 987 989 989
    989 989 989 992 992 995 998 998 998 998 1001 1001 1001 1001 1001
    1004 1004 1004 1004 1004 1004 1007 1007 1007 1010 1010 1013 1013
    1013 1013 1013 1016 1016 1019 1019 1019 1019 1019 1022 1022 1022
    1022 1022 1022 1022 1025 1025 1025 1025 1025 1025 1028 1031 1031
    1031 0 0 0 0 984 984 987 989 989 989 989 992 992 992 995 995 998 998
    998 1001 1001 1001 1001 1001 1004 1004 1004 1004 1004 1004 1007 1007
    1007 1010 1010 1013 1013 1013 1013 1013 1016 1016 1019 1019 1019
    1019 1019 1022 1022 1022 1022 1022 1022 1022 1025 1025 1025 1025
    1025 1025 1028 1028 1031 1031 0 0 0 984 984 984 987 989 989 989 992
    992 992 992 995 995 998 998 998 1001 1001 1001 1001 1001 1004 1004
    1004 1004 1004 1004 1007 1007 1010 1010 1010 1013 1013 1013 1013
    1013 1016 1016 1016 1019 1019 1019 1022 1022 1022 1022 1022 1022
    1022 1022 1025 1025 1025 1025 1025 1025 1025 1028 1031 1031 0 0 0
    984 981 981 987 989 989 989 992 992 992 992 995 995 998 998 998 1001
    1001 1001 1001 1001 1004 1004 1004 1004 1004 1004 1007 1010 1010
    1010 1010 1010 1013 1013 1013 1013 1016 1016 1016 1019 1019 1019
    1022 1022 1022 1022 1022 1022 1022 1022 1025 1025 1025 1025 1025
    1025 1025 1025 1028 1031 0 0 0 987 981 981 987 989 989 992 992 992
    992 992 992 998 998 998 1001 1001 1001 1001 1001 1001 1004 1004 1004
    1007 1004 1004 1007 1010 1010 1010 1010 1010 1013 1013 1013 1013
    1016 1016 1016 1016 1019 1019 1019 1019 1019 1022 1022 1022 1025
    1025 1025 1025 1025 1025 1025 1025 1025 1025 1028 1028 0 0 0 987 981
    981 987 987 989 992 992 992 992 992 992 995 998 998 998 998 1001
    1001 1001 1001 1001 1004 1004 1004 1007 1007 1007 1007 1010 1010
    1010 1010 1013 1013 1013 1013 1016 1016 1016 1016 1019 1019 1019
    1019 1019 1019 1022 1022 1025 1025 1025 1025 1025 1025 1025 1025
    1025 1028 1028 1028 0 0 0 987 984 984 987 987 989 989 989 989 992
    992 992 995 998 998 998 998 1001 1001 1001 1001 1001 1004 1004 1004
    1004 1004 1007 1007 1010 1010 1010 1010 1013 1013 1013 1013 1016
    1016 1016 1016 1019 1019 1019 1019 1019 1019 1019 1022 1022 1022
    1025 1025 1025 1025 1025 1025 1025 1028 1028 1031 1031 0 987 984 984
    984 987 989 989 989 989 989 992 992 992 995 995 998 998 998 998 998
    1001 1001 1001 1004 1004 1004 1004 1004 1004 1007 1010 1010 1010
    1010 1013 1013 1013 1013 1016 1016 1016 1016 1019 1019 1022 1019
    1019 1019 1019 1022 1022 1022 1022 1025 1025 1025 1025 1025 1028
    1028 1031 1031 1031 0 987 984 984 987 989 989 989 989 989 989 992
    992 992 995 995 998 998 998 998 998 1001 1001 1001 1004 1004 1004
    1004 1004 1004 1007 1010 1010 1010 1010 1013 1013 1013 1016 1016
    1016 1019 1019 1019 1019 1022 1022 1022 1022 1022 1022 1022 1022
    1022 1022 1025 1025 1025 1025 1028 1028 1031 1031 1031 0 989 984 984
    989 989 989 989 989 989 989 992 992 992 995 995 998 998 1001 1001
    1001 1001 1001 1001 1001 1004 1004 1004 1004 1004 1007 1010 1010
    1010 1013 1013 1013 1013 1013 1016 1016 1016 1016 1016 1019 1022
    1019 1019 1019 1022 1022 1022 1022 1022 1022 1025 1025 1025 1025
    1028 1028 1031 1031 1031 0 989 987 987 989 989 989 989 989 989 989
    992 992 992 995 995 995 998 998 1001 1001 1001 1001 1001 1001 1004
    1004 1004 1004 1004 1007 1010 1010 1010 1013 1013 1013 1013 1013
    1016 1016 1016 1016 1016 1019 1019 1019 1019 1019 1019 1022 1022
    1022 1022 1022 1022 1025 1025 1025 1028 1031 1031 1031 1031 992 989
    987 987 989 989 989 989 989 989 989 992 992 992 995 995 995 998 998
    1001 998 998 998 1001 1001 1004 1004 1004 1004 1004 1007 1007 1010
    1010 1010 1010 1013 1013 1013 1013 1013 1016 1016 1016 1019 1019
    1019 1019 1019 1019 1019 1022 1022 1022 1022 1022 1025 1025 1025
    1028 1031 1031 1031 1031 992 987 987 987 989 989 989 989 989 989 989
    992 992 992 992 995 995 998 998 998 998 998 998 1001 1001 1004 1004
    1004 1004 1004 1004 1007 1007 1007 1010 1010 1013 1013 1013 1013
    1013 1016 1016 1016 1019 1019 1019 1019 1019 1019 1019 1022 1022
    1022 1022 1022 1025 1025 1025 1028 1031 1034 1034 1034 989 987 987
    987 989 989 989 989 989 989 989 992 992 992 992 995 995 998 998 998
    998 998 998 1001 1001 1004 1004 1004 1004 1004 1004 1004 1004 1007
    1007 1010 1013 1013 1013 1013 1013 1016 1016 1016 1016 1019 1019
    1019 1019 1019 1019 1022 1022 1022 1022 1022 1025 1025 1025 1028
    1031 1034 1034 1038 989 987 987 987 987 989 989 989 989 989 989 992
    992 992 992 995 995 998 998 998 998 1001 1001 1001 1001 1004 1004
    1004 1004 1004 1004 1004 1004 1007 1007 1010 1013 1013 1013 1016
    1016 1016 1016 1016 1016 1019 1016 1016 1019 1019 1022 1022 1022
    1022 1022 1025 1025 1025 1025 1025 1031 1031 1034 1038 981 981 981
    984 984 984 987 989 989 989 989 992 992 992 992 995 995 998 995 995
    998 1001 1001 1001 1001 1004 1004 1004 1004 1004 1004 1004 1004 1007
    1007 1010 1013 1013 1013 1013 1016 1016 1016 1016 1016 1019 1016
    1016 1019 1019 1022 1022 1022 1022 1025 1025 1025 1025 1025 1025
    1028 1031 1034 1034 978 978 981 981 981 984 987 989 989 989 989 989
    989 992 992 995 995 995 995 995 998 1001 1001 1001 1001 1004 1004
    1004 1004 1004 1004 1004 1007 1007 1010 1010 1013 1013 1013 1013
    1013 1016 1016 1016 1016 1019 1019 1019 1019 1022 1022 1022 1022
    1022 1022 1022 1025 1025 1025 1028 1028 1028 1028 1034 978 978 978
    981 981 984 987 989 989 989 989 989 989 992 992 992 992 995 995 995
    998 1001 1001 1001 1001 1004 1004 1004 1004 1004 1004 1007 1007 1007
    1010 1010 1013 1013 1013 1013 1013 1013 1016 1016 1016 1019 1019
    1019 1019 1019 1022 1022 1022 1022 1022 1022 1025 1025 1025 1028
    1028 1025 1025 1025 978 978 978 981 981 984 987 989 989 989 989 989
    989 992 992 992 992 995 995 995 998 1001 1001 1001 1001 1004 1004
    1004 1004 1004 1004 1007 1007 1007 1010 1010 1010 1013 1013 1013
    1013 1013 1016 1016 1019 1019 1019 1019 1019 1019 1019 1022 1022
    1022 1022 1022 1025 1025 1025 1028 1028 1022 1022 1022 981 981 981
    981 981 987 987 987 987 987 989 989 989 992 992 992 992 995 995 998
    998 998 998 1001 1001 1004 1004 1004 1004 1004 1004 1007 1007 1007
    1010 1010 1010 1013 1013 1013 1013 1013 1016 1016 1019 1019 1019
    1019 1019 1019 1019 1022 1022 1022 1022 1025 1025 1025 1025 1028
    1025 1022 1022 1022 981 981 981 981 981 987 987 987 987 987 989 989
    989 992 992 992 992 995 995 998 998 998 998 998 1001 1004 1004 1004
    1004 1004 1004 1004 1007 1007 1010 1010 1010 1013 1013 1013 1013
    1013 1013 1016 1016 1019 1019 1019 1019 1019 1022 1022 1022 1022
    1022 1025 1025 1025 1025 1025 1025 1025 1025 1025 984 984 981 981
    984 984 984 984 984 984 987 989 989 989 992 992 992 995 998 998 998
    998 998 998 1001 1001 1001 1004 1004 1004 1004 1004 1004 1007 1010
    1010 1013 1013 1013 1013 1013 1013 1013 1016 1016 1019 1019 1019
    1019 1019 1022 1022 1022 1022 1025 1025 1025 1025 1025 1025 1025
    1025 1025 0 984 984 984 981 981 981 981 981 984 984 987 989 989 989
    992 992 995 998 998 998 998 998 998 1001 1001 1001 1001 1004 1004
    1004 1004 1004 1004 1007 1010 1010 1013 1013 1013 1013 1013 1013
    1013 1016 1016 1019 1019 1019 1019 1019 1022 1022 1022 1022 1022
    1025 1025 1025 1025 1025 1025 1025 1025 3092 987 981 981 981 981 981
    981 981 984 984 984 987 987 989 989 992 995 995 998 998 998 998 998
    1001 1001 1001 1001 1004 1004 1004 1004 1004 1007 1007 1010 1010
    1013 1013 1016 1016 1016 1016 1019 1019 1019 1019 1019 1019 1019
    1022 1022 1022 1022 1022 1022 1022 1025 1025 1025 1025 1025 3120
    3120 3092 3816 981 981 981 981 981 981 984 984 984 984 987 987 989
    989 992 995 995 998 1001 1001 998 998 1001 1001 1001 1001 1004 1004
    1007 1007 3365 3365 3365 1010 1010 1013 1013 1019 3399 3399 3365
    3365 3269 3365 3365 3365 3333 1025 1025 1022 1022 1022 1022 1022
    1022 1025 1025 3178 3178 3149 3120 3120 3092 3816 3774 3692 3692 981
    981 981 989 987 987 987 987 987 989 989 3614 3653 3653 3653 3614
    1001 1001 1001 1004 1004 3539 3539 3539 3208 3208 3208 3208 3208
    3365 3399 3399 3399 3399 3399 3365 3365 3365 3269 0 0 0 3365 3333
    3269 3269 3238 3208 3208 3208 3208 3208 3208 3178 3178 3178 3149
    3120 3120 3092 3816 3816 3816 3774 3774 3774 3732 3732 3692 3692
    3692 3692 3692 3692 3614 3614 3614 3614 3614 3576 3576 3576 1010
    1010 1013 3539 0 0 0 3208 3208 3208 3208 3365 3399 3399 3399 3399
    3365 3365 3269 3269 3269 0 0 3333 3333 3300 3269 3269 3269 3208 3208
    3208 3208 3208 3208 3178 3178 3178 3149 3120 3120 3092 3816 3816
    3816 3774 3774 3774 3732 3732 3692 3692 3692 3692 3692 0 0 3576 3576
    3576 3614 3576 3576 1016 1010 1010 1016 3539 0 0 0 3208 3208 3208
    3208 3365 3399 3399 3399 3399 3365 3365 3269 3269 3269 0 3269 0 3269
    3269 3269 3269 3269 3208 3208 3208 3178 3178 3208 3178 3149 3149
    3149 3120 3120 3092 3816 3816 3816 3816 3816 3816 3774 3732 3732
    3692 3692 3692 3692 0 0 3576 3576 3576 3614 3576 3576 1016 1013 1013
    1019 3539 0 0 0 3333 0 3333 3333 3365 3399 3399 3399 3399 3365 3333
    3300 3300 0 0 0 3269 3269 3269 3269 3269 3269 3208 3208 3208 3178
    3178 3178 3178 3149 3149 3120 3120 3120 3092 3816 3816 3816 3774
    3774 3774 3774 3732 3732 3653 3653 3653 3653 0 0 3576 3576 3576 3614
    3576 3576 1016 1013 1013 3539 3539 0 0 0 0 0 3333 3333 3365 3399
    3399 3399 3399 3365 3333 3333 0 0 0 0 3269 3269 3269 3269 3269 3269
    3208 3208 3208 3208 3208 3178 3178 3149 3149 3120 3120 3120 3092
    3774 3774 3816 3774 3774 3774 3774 3732 3732 3653 3653 3653 3653 0 0
    3614 3614 3614 3653 3614 3576 1016 1010 1010 3503 3503 0 0 0 0 0 0
    3399 3399 3399 3399 3399 3399 3365 3333 3333 0 0 0 0 3269 3269 3269
    3269 3269 3238 3208 3208 3208 3208 3208 3178 3178 3149 3149 3120
    3120 3120 3092</data></Depth1516>
</opencv_storage>
