<?xml version="1.0"?>
<opencv_storage>
<Depth14133 type_id="opencv-matrix">
  <rows>49</rows>
  <cols>83</cols>
  <dt>w</dt>
  <data>
    5640 5640 5640 5640 5640 5548 5374 5374 5374 5374 5374 1785 1785
    1785 1785 1757 1757 5374 5374 5374 5374 5374 5374 5291 5291 5210
    5210 5210 5210 5210 5132 5056 5056 5056 5056 5056 4983 4983 4983
    4983 4983 4983 4983 4983 4983 4911 4842 4842 4774 4774 4774 4774
    4774 4774 4774 4774 4708 4708 4708 4645 4645 4645 4582 4582 4582
    4522 4522 4463 4463 4522 4522 4522 4522 4463 4405 4349 4349 4349
    4349 4295 4295 4295 4295 5640 5640 5640 5640 5640 5460 5374 5374
    5374 5374 5374 1776 1776 1776 1766 1757 1757 1757 1766 1766 5374
    5374 5374 5374 5291 5291 5210 5210 5210 5210 5132 5056 5056 5056
    5056 5056 4983 4983 4983 4983 5056 5056 5056 4983 4983 4983 4911
    4842 4842 4842 4774 4774 4774 4774 4774 4774 4708 4708 4708 4708
    4645 4645 4582 4582 4582 4582 4522 4522 4522 4522 4522 4522 4463
    4463 4405 4405 4405 4405 4349 4295 4295 4295 4295 5734 5734 5734
    5640 5640 5460 5374 1696 1696 1705 1739 1766 1766 1766 1757 1757
    1757 1748 1748 1766 1757 1757 1757 1757 5291 5291 5132 5132 5210
    5210 5132 5056 5056 5056 5056 5056 5056 5056 5056 5056 5056 5056
    5056 4983 4983 4983 4983 4983 4842 4842 4842 4842 4774 4774 4774
    4774 4708 4708 4708 4708 4645 4645 4582 4582 4582 4582 4522 4522
    4522 4522 4522 4522 4463 4463 4463 4463 4405 4405 4349 4349 4295
    4295 4295 5832 5734 5734 5734 5734 1639 1639 1647 1639 1639 1647
    1655 1722 1722 1748 1748 1748 1748 1748 1766 1757 1757 1757 1748
    1748 1748 1748 5132 5210 5056 5056 5056 5056 5056 5056 5056 5056
    5056 5056 5056 5056 5056 5056 5056 5056 5056 4983 4983 4911 4911
    4842 4842 4842 4774 4774 4774 4774 4774 4774 4708 4645 4645 4582
    4582 4582 4582 4582 4522 4522 4522 4522 4522 4522 4463 4463 4463
    4405 4405 4349 4349 4349 4349 4349 5832 5734 5734 5734 1647 1639
    1639 1639 1639 1639 1647 1655 1671 1680 1680 1696 1705 1713 1713
    1739 1748 1748 1748 1748 1748 1748 1748 1739 1739 5056 5056 5056
    5056 5056 5056 5056 5056 5056 5056 5056 5132 5056 5056 5056 5056
    5056 4983 4983 4911 4911 4911 4842 4842 4842 4774 4774 4774 4708
    4708 4708 4645 4645 4582 4582 4582 4582 4582 4522 4522 4522 4522
    4522 4463 4463 4463 4463 4522 4463 4463 4349 4349 4349 4349 5832
    5734 5734 1647 1647 1639 1639 1639 1632 1632 1639 1655 1663 1671
    1671 1671 1680 1680 1688 1696 1713 1713 1722 1731 1739 1739 1748
    1739 1739 1748 1748 5056 5056 5056 5056 5056 5056 5056 5056 5056
    5056 5056 5056 5056 5056 5056 4983 4983 4983 4911 4911 4842 4842
    4842 4842 4842 4774 4708 4708 4708 4645 4645 4645 4645 4582 4582
    4582 4582 4582 4522 4522 4522 4463 4463 4463 4522 4522 4522 4463
    4349 4349 4349 4349 5832 5832 5832 1647 1647 1647 1639 1639 1632
    1632 1639 1647 1655 1655 1655 1655 1655 1655 1671 1680 1680 1688
    1680 1680 1688 1713 1713 1731 1731 1731 1731 1739 1739 1739 1739
    5056 5056 5056 5056 5056 5056 5056 5056 5056 5056 5056 5056 4983
    4983 4983 4983 4911 4911 4911 4842 4842 4842 4774 4774 4708 4708
    4708 4645 4645 4645 4645 4582 4582 4582 4522 4522 4522 4463 4463
    4463 4522 4522 4522 4463 4349 4349 4349 4349 5832 5832 5832 1647
    1647 1639 1639 1639 1639 1639 1639 1639 1647 1647 1639 1639 1639
    1639 1655 1663 1663 1663 1663 1663 1671 1680 1688 1713 1713 1722
    1713 1713 1722 1722 1731 1731 1739 1731 1731 1722 1722 5132 5056
    5056 5056 5056 5056 5056 4983 4983 4983 4911 4911 4911 4911 4842
    4842 4774 4774 4774 4708 4708 4645 4645 4645 4645 4582 4582 4582
    4522 4522 4522 4463 4463 4463 4522 4522 4522 4405 4405 4405 4405
    4405 6038 6038 1647 1647 1647 1639 1639 1639 1639 1639 1639 1639
    1639 1639 1639 1639 1639 1639 1639 1647 1647 1647 1647 1647 1663
    1663 1671 1680 1688 1705 1696 1696 1705 1705 1722 1722 1731 1722
    1722 1722 1713 1713 1713 5056 5056 5056 5056 4983 4983 4983 4983
    4911 4911 4911 4911 4842 4842 4774 4774 4774 4774 4708 4645 4645
    4645 4645 4645 4582 4582 4582 4522 4522 4522 4522 4522 4522 4582
    4522 4405 4405 4405 4405 4463 6038 1647 1647 1647 1639 1639 1639
    1639 1639 1639 1639 1632 1632 1632 1624 1624 1624 1632 1639 1639
    1632 1632 1632 1632 1655 1655 1663 1663 1663 1671 1671 1680 1688
    1688 1696 1705 1713 1713 1713 1713 1705 1705 1713 1705 1705 1713
    1713 4983 4983 4983 4983 4911 4911 4911 4911 4911 4842 4842 4774
    4774 4774 4708 4708 4708 4708 4708 4645 4582 4582 4582 4582 4582
    4582 4582 4582 4582 4522 4522 4463 4463 4463 4463 4463 5933 1655
    1647 1647 1639 1639 1639 1639 1639 1632 1632 1632 1624 1624 1616
    1616 1616 1624 1632 1632 1616 1616 1616 1616 1624 1632 1639 1647
    1647 1663 1663 1671 1671 1663 1663 1671 1671 1696 1696 1705 1705
    1705 1705 1705 1705 1705 1705 1713 1713 1713 1713 1713 4983 4911
    4911 4911 4842 4842 4842 4774 4774 4774 4708 4708 4708 4708 4708
    4645 4582 4582 4582 4582 4582 4582 4582 4582 4522 4522 4522 4522
    4463 4463 4405 5933 1655 1647 1647 1639 1639 1639 1639 1639 1632
    1632 1632 1624 1616 1616 1616 1616 1616 1624 1616 1609 1609 1616
    1616 1616 1616 1624 1624 1632 1639 1647 1655 1655 1647 1647 1647
    1647 1663 1663 1671 1671 1680 1696 1696 1696 1696 1696 1705 1705
    1713 1713 1705 1696 1688 1688 1688 4911 4842 4842 4774 4774 4774
    4774 4774 4774 4774 4708 4708 4582 4582 4582 4582 4582 4582 4582
    4582 4582 4522 4522 4522 4463 4463 4405 1655 1655 1647 1647 1639
    1639 1639 1639 1639 1632 1632 1632 1624 1616 1616 1616 1616 1616
    1616 1616 1609 1609 1609 1609 1601 1601 1601 1601 1609 1609 1616
    1624 1624 1624 1624 1632 1639 1655 1655 1655 1655 1663 1680 1680
    1688 1688 1688 1696 1696 1705 1705 1696 1688 1688 1688 1688 1688
    4911 4842 4774 4774 4774 4774 4774 4774 4774 4774 4708 4582 4582
    4582 4582 4582 4582 4522 4522 4522 4522 4582 4522 4522 4522 4522
    1663 1663 1647 1647 1639 1639 1639 1639 1639 1632 1632 1632 1624
    1616 1616 1616 1616 1616 1616 1609 1609 1609 1609 1609 1601 1594
    1594 1594 1594 1594 1594 1594 1594 1601 1609 1609 1609 1639 1639
    1647 1647 1647 1655 1655 1663 1680 1688 1688 1696 1696 1696 1696
    1688 1688 1688 1688 1688 1688 1688 1688 4774 4774 4774 4842 4774
    4774 4774 4708 4582 4582 4582 4582 4582 4582 4522 4522 4522 4522
    4582 4522 4522 4522 4522 6038 1647 1647 1647 1647 1647 1639 1639
    1639 1639 1632 1632 1624 1616 1616 1616 1616 1616 1616 1609 1609
    1609 1601 1601 1594 1594 1594 1586 1586 1586 1586 1586 1594 1594
    1594 1594 1594 1616 1624 1632 1639 1639 1647 1647 1663 1671 1671
    1671 1671 1680 1680 1680 1688 1688 1688 1680 1680 1680 1680 1680
    1680 4774 4774 4774 4774 4708 4708 4708 4708 4708 4582 4522 4522
    4582 4522 4522 4522 4582 4582 4522 4522 4522 3653 0 1663 1663 1663
    1647 1647 1647 1647 1639 1639 1639 1632 1624 1616 1616 1616 1616
    1616 1616 1609 1609 1609 1601 1601 1594 1594 1594 1586 1586 1586
    1586 1586 1586 1586 1586 1586 1586 1601 1601 1616 1616 1616 1624
    1632 1632 1647 1647 1655 1655 1671 1663 1663 1671 1671 1680 1671
    1671 1671 1671 1680 1680 1680 4774 4774 4774 4708 4708 4645 4645
    4708 4582 4522 4522 4582 4582 4582 4582 4582 4582 4582 4582 4582
    3614 1671 1663 1663 1663 1655 1647 1647 1647 1639 1639 1639 1632
    1624 1624 1616 1616 1616 1616 1616 1616 1616 1609 1609 1601 1594
    1594 1594 1586 1586 1586 1586 1586 1586 1579 1579 1579 1579 1594
    1594 1594 1601 1601 1601 1601 1594 1594 1616 1616 1632 1632 1647
    1647 1647 1647 1655 1663 1663 1663 1663 1671 1680 1688 1688 4842
    4774 4708 4708 4645 4645 4708 4645 4522 4522 4582 4582 4582 4582
    4582 4582 4582 4582 4582 3614 1671 1671 1671 1671 1663 1655 1647
    1647 1647 1639 1639 1639 1632 1624 1624 1624 1624 1616 1616 1616
    1616 1609 1609 1601 1594 1594 1594 1586 1586 1586 1586 1586 1586
    1579 1579 1579 1579 1586 1586 1586 1586 1586 1586 1594 1586 1586
    1594 1601 1616 1616 1624 1624 1624 1624 1624 1632 1647 1647 1647
    1663 1655 1655 1680 1680 4708 4708 4708 4708 4708 4708 4645 4522
    4522 4645 4582 4582 4582 4582 4582 4582 4582 4582 3653 1663 1663
    1671 1671 1663 1655 1647 1647 1647 1639 1639 1639 1632 1624 1624
    1624 1624 1616 1616 1616 1616 1609 1609 1601 1594 1594 1594 1594
    1594 1586 1586 1586 1579 1579 1579 1579 1579 1579 1579 1586 1586
    1586 1586 1586 1586 1586 1586 1594 1601 1601 1609 1609 1616 1616
    1616 1624 1632 1624 1616 1609 1609 1639 1632 1632 1632 4708 4708
    4708 4708 4708 4708 4645 4645 4645 4645 4645 4645 4645 4645 4708
    4708 3692 3614 1663 1663 1671 1671 1663 1655 1647 1647 1647 1639
    1639 1639 1632 1632 1624 1624 1624 1624 1616 1616 1616 1609 1609
    1601 1601 1601 1601 1594 1594 1586 1586 1586 1579 1579 1579 1579
    1579 1579 1579 1579 1579 1579 1572 1572 1572 1572 1579 1579 1586
    1586 1586 1586 1586 1594 1601 1609 1609 1609 1601 1594 1594 1609
    1624 1616 1616 1616 4774 4774 4708 4708 4708 4645 4645 4645 4645
    4708 4708 4645 4645 3614 3614 3614 3614 1663 1663 1671 1671 1671
    1655 1647 1647 1647 1647 1647 1639 1639 1639 1632 1632 1632 1624
    1616 1616 1616 1616 1609 1601 1601 1601 1601 1594 1594 1586 1586
    1586 1579 1579 1579 1579 1579 1572 1572 1572 1564 1564 1564 1564
    1564 1564 1572 1572 1572 1572 1579 1572 1572 1579 1586 1586 1594
    1594 1579 1579 1579 1579 1609 1609 1609 1609 1616 1624 1639 4774
    4708 4708 4645 4645 4645 4645 4645 4708 4774 3576 3576 3614 3614
    1671 1671 1671 1671 1671 1655 1655 1647 1647 1647 1647 1647 1639
    1639 1639 1632 1632 1624 1616 1616 1616 1616 1609 1609 1601 1601
    1601 1594 1594 1586 1586 1586 1586 1579 1579 1579 1579 1572 1572
    1564 1564 1564 1564 1564 1564 1564 1564 1564 1564 1564 1557 1557
    1564 1564 1572 1572 1579 1579 1572 1564 1564 1564 1564 1586 1594
    1594 1616 1624 1639 1639 1639 4774 4645 4645 4582 4522 1639 1632
    1632 3576 3576 3614 3614 1680 1671 1671 1671 1671 1663 1655 1647
    1647 1647 1647 1647 1647 1647 1639 1639 1632 1632 1616 1616 1616
    1616 1616 1609 1609 1609 1601 1601 1601 1594 1586 1586 1586 1579
    1579 1579 1579 1572 1572 1564 1564 1564 1564 1564 1557 1557 1564
    1564 1557 1557 1550 1550 1557 1564 1564 1572 1564 1564 1557 1557
    1557 1557 1557 1564 1594 1594 1624 1632 1639 1632 1624 1624 1632
    1632 1655 1632 1632 1624 1624 1624 3614 3614 3614 1680 1680 1680
    1671 1671 1663 1663 1655 1647 1647 1647 1647 1647 1647 1639 1639
    1639 1632 1616 1616 1616 1616 1616 1609 1609 1609 1609 1609 1601
    1594 1594 1586 1586 1579 1579 1579 1579 1572 1572 1564 1564 1564
    1564 1564 1557 1557 1557 1557 1557 1550 1543 1543 1550 1557 1557
    1557 1557 1557 1557 1557 1543 1543 1550 1550 1550 1639 1639 1632
    1632 1624 1624 1624 1624 1632 1624 1624 1616 1609 1609 1609 3774
    3774 3774 1680 1680 1680 1671 1671 1663 1663 1655 1655 1655 1655
    1647 1647 1647 1647 1639 1639 1632 1624 1624 1616 1616 1616 1609
    1609 1609 1609 1601 1601 1594 1594 1586 1586 1579 1579 1579 1579
    1572 1572 1564 1564 1564 1564 1564 1564 1564 1557 1557 1557 1550
    1543 1543 1550 1550 1550 1550 1550 1536 1536 1536 1536 1536 1536
    1516 1516 1639 1632 1624 1624 1624 1624 1624 1624 1624 1616 1609
    1601 1586 1572 1572 1564 1564 1564 6375 6375 6375 6375 1671 1671
    1671 1663 1655 1655 1655 1647 1647 1647 1647 1639 1639 1632 1632
    1624 1624 1616 1616 1609 1609 1609 1609 1601 1601 1594 1594 1594
    1586 1579 1579 1579 1579 1579 1579 1572 1572 1564 1564 1564 1564
    1564 1557 1557 1557 1550 1543 1543 1543 1543 1543 1543 1536 1536
    1536 1536 1536 1529 1523 1516 1516 1632 1624 1624 1624 1624 1624
    1624 1624 1624 1616 1594 1579 1564 1550 1550 1557 1557 1557 6497
    6497 6375 6375 1688 1680 1671 1671 1663 1663 1655 1655 1647 1647
    1647 1647 1639 1639 1639 1639 1624 1624 1616 1616 1609 1609 1609
    1601 1601 1601 1594 1594 1594 1586 1586 1579 1579 1586 1579 1572
    1572 1572 1572 1564 1564 1564 1564 1557 1557 1550 1543 1543 1543
    1536 1536 1536 1536 1536 1536 1536 1529 1529 1516 1516 1516 1516
    1609 1609 1616 1616 1616 1624 1616 1616 1594 1586 1572 1550 1543
    1543 1543 1543 1543 6497 6497 6375 6375 6375 6259 1680 1671 1663
    1663 1663 1655 1647 1647 1647 1647 1639 1639 1639 1639 1632 1624
    1616 1616 1616 1609 1609 1609 1609 1609 1601 1601 1601 1594 1594
    1586 1586 1586 1586 1579 1579 1572 1572 1572 1564 1564 1564 1557
    1557 1550 1550 1550 1543 1536 1536 1536 1536 1529 1529 1529 1529
    1529 1516 1516 1516 1516 1601 1601 1609 1609 1616 1624 1616 1601
    1586 1579 1557 1543 1536 1536 1536 1536 1529 6497 6497 6497 6375
    6375 6259 6259 6259 6146 6146 6146 6146 1655 1639 1639 1639 1639
    1639 1639 1639 1632 1624 1616 1616 1616 1616 1609 1609 1609 1609
    1601 1601 1601 1594 1594 1586 1586 1586 1586 1579 1579 1579 1579
    1572 1572 1564 1564 1557 1557 1557 1550 1550 1543 1543 1543 1536
    1536 1529 1529 1529 1529 1529 1523 1523 1523 1523 1594 1594 1601
    1609 1609 1609 1609 1586 1572 1557 1550 1536 1536 1529 1529 1529
    1529 6497 6497 6497 6375 6375 6375 6259 6259 6146 6146 6146 6146
    6259 1639 1639 1639 1639 1639 1647 1639 1639 1632 1624 1616 1616
    1616 1616 1616 1609 1609 1609 1609 1601 1601 1601 1586 1586 1586
    1586 1586 1579 1579 1579 1572 1572 1564 1564 1564 1557 1557 1550
    1550 1550 1543 1543 1536 1536 1536 1536 1529 1529 1529 1523 1523
    1529 1529 1594 1594 1594 1594 1594 1594 1594 1572 1564 1550 1543
    1536 1536 1529 1529 1529 1529 6497 6497 6497 6497 6497 6375 6375
    6259 6146 6146 6146 6259 6259 6146 6146 6146 6146 6038 1647 1639
    1639 1632 1632 1624 1616 1616 1616 1616 1616 1609 1609 1609 1601
    1601 1601 1594 1594 1594 1586 1586 1586 1586 1579 1572 1572 1564
    1564 1564 1564 1557 1550 1550 1550 1550 1550 1536 1536 1536 1536
    1529 1529 1529 1523 1523 1529 1594 1594 1594 1586 1586 1586 1586
    1586 1564 1557 1550 1543 1536 1536 1529 1529 1529 1529 6497 6497
    6497 6497 6497 6497 6375 6259 6259 6259 6259 6146 6146 6146 6146
    6146 6146 6146 6146 1647 1639 1632 1632 1632 1624 1616 1616 1616
    1616 1609 1609 1609 1601 1601 1601 1594 1594 1594 1594 1594 1586
    1586 1586 1579 1572 1564 1564 1564 1564 1557 1557 1557 1550 1550
    1550 1550 1543 1536 1529 1529 1529 1529 1529 1529 1529 1624 1616
    1601 1586 1586 1579 1579 1586 1564 1557 1543 1536 1536 1536 1529
    1529 1529 1529 6497 6497 6497 6497 6497 6497 6375 6375 6375 6259
    6259 6146 6146 6146 6146 6146 6146 6146 6146 6146 1639 1632 1632
    1632 1624 1624 1616 1616 1616 1609 1609 1609 1609 1601 1601 1594
    1594 1594 1594 1594 1586 1586 1586 1586 1579 1572 1572 1564 1564
    1557 1557 1557 1550 1550 1550 1550 1543 1536 1529 1529 1529 1529
    1529 1655 1647 1647 1632 1632 1594 1586 1579 1579 1572 1564 1557
    1543 1536 1536 1536 1536 1529 1529 1529 6622 6497 6497 6497 6497
    6497 6497 6375 6375 6375 6375 6259 6259 6146 6146 6146 6146 6146
    6146 6146 6146 6038 1639 1639 1639 1632 1624 1616 1616 1616 1609
    1609 1609 1609 1601 1601 1601 1594 1594 1594 1586 1586 1586 1586
    1579 1579 1572 1572 1564 1564 1557 1557 1557 1550 1550 1550 1543
    1543 1536 1536 1536 1529 1529 1647 1647 1647 1639 1639 1647 1639
    1579 1579 1572 1557 1557 1543 1543 1536 1536 1536 1536 1536 1529
    6622 6497 6497 6497 6622 6622 6497 6497 6497 6497 6375 6375 6259
    6259 6259 6146 6146 6146 6146 6146 6146 6038 6038 6038 6038 6038
    6038 6038 1616 1609 1609 1609 1609 1609 1601 1601 1601 1601 1594
    1594 1586 1586 1586 1586 1586 1579 1579 1579 1572 1564 1564 1557
    1557 1557 1557 1550 1543 1543 1536 1536 1536 1536 1536 1639 1639
    1639 1639 1639 1639 1639 1624 1601 1572 1557 1557 1550 1543 1543
    1536 1536 1536 1536 1536 6622 6622 6497 6497 6622 6622 6497 6497
    6497 6497 6375 6375 6259 6259 6259 6259 6146 6146 6146 6146 6146
    6146 6038 6038 6038 6038 6038 6038 5933 1609 1609 1609 1609 1609
    1609 1609 1609 1601 1594 1594 1586 1586 1594 1586 1586 1579 1579
    1579 1579 1564 1564 1564 1557 1557 1557 1550 1543 1543 1543 1543
    1543 1543 1624 1624 1632 1624 1624 1632 1632 1632 1616 1601 1564
    1557 1557 1550 1543 1543 1543 1536 1536 1536 1536 6753 6753 6622
    6622 6622 6622 6622 6622 6497 6497 6497 6375 6375 6375 6259 6259
    6259 6146 6146 6146 6146 6146 6038 6038 6038 6038 6038 6038 5933
    5832 5832 1609 1609 1609 1609 1609 1609 1601 1594 1594 1586 1586
    1594 1594 1586 1579 1579 1586 1579 1564 1564 1564 1564 1564 1557
    1550 1550 1550 1550 1550 1550 1550 1616 1624 1624 1624 1624 1624
    1624 1616 1601 1579 1564 1557 1557 1550 1550 1543 1543 1543 1543
    1543 1543 6889 6889 6753 6753 6622 6622 6622 6622 6622 6497 6497
    6497 6497 6375 6375 6259 6259 6259 6146 6146 6146 6146 6038 6038
    6038 6038 6038 5933 5933 5933 5933 5933 5933 1609 1609 1609 1609
    1609 1601 1594 1594 1594 1594 1594 1594 1586 1586 1586 1579 1564
    1564 1564 1557 1557 1557 1557 1550 1550 1557 1557 1557 1572 1609
    1609 1609 1609 1616 1616 1616 1609 1594 1579 1564 1564 1557 1550
    1550 1550 1550 1550 1550 1543 1543 6889 6889 6889 6753 6753 6622
    6622 6622 6622 6622 6497 6497 6497 6497 6375 6259 6259 6259 6146
    6146 6146 6146 6038 6038 6038 6038 6038 5933 5933 5933 5933 5933
    5933 5933 5832 5832 1616 1609 1609 1601 1594 1594 1594 1594 1594
    1586 1586 1586 1586 1564 1564 1564 1557 1557 1557 1557 1557 1550
    1550 1557 1564 1594 1609 1609 1609 1609 1616 1616 1616 1601 1586
    1572 1564 1564 1557 1557 1557 1557 1550 1550 1550 1550 1550 6889
    6889 6889 6753 6622 6622 6622 6622 6622 6622 6497 6497 6497 6497
    6375 6375 6259 6259 6259 6146 6146 6146 6038 6038 6038 6038 6038
    5933 5933 6038 6038 5933 5933 5832 5832 5832 5832 5734 1609 1609
    1594 1594 1586 1586 1586 1594 1586 1586 1586 1564 1564 1564 1564
    1564 1564 1557 1557 1550 1543 1543 1609 1609 1609 1609 1601 1601
    1616 1616 1609 1601 1586 1572 1564 1564 1564 1564 1564 1557 1557
    1557 1557 1557 1557 6889 6889 6889 6753 6622 6622 6622 6622 6622
    6622 6622 6497 6497 6497 6375 6375 6259 6259 6375 6259 6259 6146
    6146 6146 6038 6038 6038 6038 6038 6038 6038 5933 5933 5832 5832
    5832 5832 5734 5734 5832 5933 5832 1586 1586 1586 1586 1594 1586
    1586 1579 1572 1564 1564 1564 1564 1557 1557 1536 1536 1543 1543
    5460 5460 5460 1601 1601 1616 1616 1609 1594 1586 1572 1572 1564
    1564 1564 1557 1557 1557 1557 1557 1557 1557 6889 6889 6889 6753
    6753 6622 6622 6622 6622 6622 6622 6622 6497 6497 6375 6375 6375
    6375 6375 6375 6259 6146 6146 6146 6146 6146 6146 6038 6038 6038
    6038 5933 5933 5933 5933 5933 5832 5734 5734 5734 5832 5832 5832
    5734 1586 1586 1594 1594 1594 1586 1579 1572 1564 1564 1564 1557
    1557 1536 1536 1536 5460 5460 5460 5460 1616 1616 1616 1609 1601
    1586 1579 1572 1572 1564 1564 1564 1557 1557 1557 1557 1557 1557
    1557 7030 6889 6889 6889 6753 6622 6622 6622 6622 6622 6622 6622
    6622 6497 6497 6497 6375 6375 6497 6375 6375 6259 6259 6259 6146
    6146 6146 6146 6146 6146 6038 6038 6038 5933 5933 5933 5832 5734
    5734 5734 5832 5832 5832 5734 5734 5640 5640 5640 1601 1586 1579
    1572 1564 1564 1564 1564 1564 1564 1564 5374 5374 5374 5374 5374
    5374 1601 1601 1601 1594 1586 1579 1572 1572 1572 1564 1564 1564
    1564 1564 1564 1564 1557 1557 7030 6889 6889 6889 6753 6753 6622
    6622 6622 6622 6622 6622 6622 6497 6497 6497 6497 6497 6497 6375
    6375 6259 6259 6259 6146 6146 6146 6146 6146 6146 6038 6038 6038
    6038 5933 5933 5832 5832 5832 5832 5832 5832 5832 5734 5734 5734
    5640 5640 5640 1594 1586 1572 1564 1564 1564 1564 1564 1564 5374
    5374 5374 5374 5374 5374 0 0 1594 1594 1594 1586 1586 1579 1579 1572
    1572 1564 1564 1564 1564 1572 1572 1564 1557 7030 6889 6889 6889
    6889 6753 6753 6753 6753 6622 6622 6622 6622 6622 6622 6497 6497
    6497 6497 6375 6375 6375 6259 6259 6146 6146 6146 6146 6146 6038
    6038 6038 6038 6038 5933 5933 5832 5832 5832 5832 5832 5832 5832
    5734 5734 5734 5734 5734 5640 5548 5460 1572 1564 1564 1564 1564
    1564 1564 5374 5291 5291 5374 5374 5374 0 1594 1594 1594 1594 1586
    1579 1579 1579 1572 1572 1564 1564 1564 1564 1579 1579 1586 0 7030
    7030 7030 7030 6889 6889 6753 6753 6753 6753 6622 6622 6622 6622
    6622 6497 6497 6497 6497 6497 6497 6375 6375 6259 6259 6146 6146
    6146 6146 6038 6038 6038 6038 6038 6038 5933 5933 5933 5933 5933
    5832 5832 5832 5734 5734 5734 5734 5734 5640 5548 5548 5460 1564
    1564 1564 5460 5460 5460 5374 5291 5291 5291 5291 4190 4190 1594
    1594 1594 1594 1586 1579 1579 1579 1572 1572 1564 1564 1557 1557 0 0
    0 0 7030 7030 7030 7030 7030 6889 6889 6753 6753 6753 6753 6753 6622
    6622 6622 6622 6497 6497 6497 6497 6497 6375 6375 6259 6259 6146
    6146 6146 6146 6038 6038 6038 6038 6146 6038 6038 5933 5933 5933
    6038 5832 5832 5832 5832 5832 5832 5832 5734 5640 5640 5548 5460
    5374 5374 5460 5460 5460 5460 5374 5374 5374 5374 4139 4190 4190
    4190 1594 1594 1594 1586 1586 1579 1579 1564 1564 1564 1564 1557
    1557 0 0 0 0 7030 7030 7030 7030 7030 6889 6889 6889 6753 6753 6753
    6753 6622 6622 6497 6497 6497 6497 6497 6497 6497 6375 6375 6259
    6259 6146 6146 6146 6146 6146 6146 6146 6146 6146 6038 6038 6038
    6038 5933 5933 5933 5832 5832 5832 5832 5832 5832 5734 5640 5640
    5548 5548 5548 5548 5548 5548 5548 5460 5374 5374 5374 4139 4139
    4190 4190 4139 4139 1594 1594 1594 1586 1579 1572 1564 1557 1557 0 0
    0 0 0 0 0 7030 7030 7030 7030 7030 6889 6889 6889 6889 6753 6753
    6753 6622 6622 6497 6497 6497 6497 6497 6497 6497 6375 6375 6375
    6259 6259 6259 6146 6146 6146 6146 6146 6146 6146 6038 6038 6038
    6038 5933 5933 5933 5832 5832 5933 5832 5832 5832 5832 5734 5734
    5640 5640 5734 5640 5548 5548 5460 5460 5460 5460 4295 4139 4139
    4190 4190 4139 4139 1594 1594 1594 1586 1579 1572 1564 1557 1557 0 0
    0 0 0 0 0</data></Depth14133>
</opencv_storage>
