<?xml version="1.0"?>
<opencv_storage>
<Depth5364 type_id="opencv-matrix">
  <rows>60</rows>
  <cols>58</cols>
  <dt>w</dt>
  <data>
    4774 4774 4774 4774 4842 4842 4842 4842 4842 4842 4911 4911 4911
    4911 4983 5056 5056 5056 5132 5132 5132 5132 5056 5056 5132 1804
    1804 1804 1804 5291 1833 1833 1833 1843 1853 1853 1853 5210 5210
    5210 5132 5132 5056 5056 5056 5056 4983 4983 4911 4911 4911 4911
    4911 4911 4911 4911 4842 4842 4774 4774 4774 4774 4842 4842 4842
    4842 4911 4911 4911 4911 4911 4911 4983 5056 5056 5056 5132 5132
    5132 5132 5132 1823 1804 1804 1804 1804 1804 1833 1833 1833 1843
    1843 1863 1853 1853 1853 5210 5210 5132 5132 5132 5056 5056 5056
    5056 4983 4911 4911 4911 4911 4911 4911 4911 4911 4842 4842 4774
    4842 4774 4774 4842 4842 4842 4842 4911 4911 4842 4842 4842 4842
    4911 4983 5056 5056 5132 5132 5132 1804 1804 1804 1794 1794 1804
    1804 1813 1833 1833 1833 1843 1843 1853 1843 1843 1843 5210 5210
    5132 5132 5132 5056 5056 5132 5056 5056 4983 4983 4911 4911 4911
    4911 4911 4842 4842 4842 4774 4774 4842 4842 4842 4842 4842 4842
    4911 4911 4842 4842 4842 4842 4911 4983 5056 1757 1757 1757 1766
    1776 1785 1794 1794 1794 1804 1804 1823 1823 1833 1833 1833 1843
    1843 1843 1843 1843 1843 5210 5132 5132 5132 5132 5132 5132 5056
    5056 4983 4983 4983 4911 4911 4911 4911 4842 4842 4842 4708 4774
    4774 4774 4774 4774 4842 4842 4842 4911 4842 4842 4842 4842 5056
    5056 1757 1757 1757 1757 1757 1766 1785 1794 1794 1794 1804 1804
    1823 1823 1833 1833 1833 1843 1843 1833 1833 1843 1843 1843 5132
    5132 5132 5132 5132 5132 5132 5056 4983 4983 4983 4911 4911 4911
    4911 4911 4842 4842 4708 4774 4774 4774 4774 4774 4774 4842 1731
    1731 1722 1722 1722 1739 1739 1739 1748 1748 1757 1757 1757 1766
    1776 1785 1794 1794 1804 1804 1804 1804 1823 1833 1833 1843 1843
    1833 1833 1843 1843 1843 5132 5132 5132 5132 5132 5132 5132 5056
    5056 4983 4983 4911 4911 4911 4911 4911 4911 4911 4708 4774 4774
    4774 4774 4774 4774 4842 1731 1713 1713 1722 1722 1739 1739 1739
    1748 1748 1748 1748 1757 1757 1766 1785 1785 1794 1804 1804 1804
    1804 1813 1823 1823 1833 1833 1833 1833 1843 1843 1843 5210 5132
    5056 5056 5132 5132 5132 5132 5056 5056 4983 4911 4911 4911 4911
    4911 4911 4911 4708 4774 4774 4774 4774 4774 4774 1696 1696 1705
    1713 1713 1722 1722 1731 1731 1731 1739 1748 1748 1757 1757 1766
    1766 1776 1794 1794 1794 1804 1804 1804 1813 1813 1823 1833 1833
    1833 1833 1843 1843 1843 5132 5056 5056 5132 5132 5132 5132 5132
    5132 5056 4983 4983 4911 4911 4911 4911 4911 4708 4774 1713 1705
    1705 1696 1688 1688 1688 1696 1705 1713 1722 1722 1731 1731 1731
    1739 1748 1748 1748 1748 1766 1766 1766 1794 1794 1794 1804 1804
    1804 1804 1813 1823 1833 1833 1833 1833 1833 1843 1843 1843 5056
    5056 5132 5132 5132 5132 5132 5132 5132 4983 4983 4911 4911 4911
    4911 4911 4842 1713 1705 1705 1696 1688 1688 1688 1688 1696 1705
    1705 1713 1713 1722 1722 1722 1739 1739 1748 1748 1748 1757 1766
    1766 1785 1785 1785 1785 1794 1804 1804 1813 1823 1833 1833 1833
    1833 1833 1833 1833 1833 5056 5056 5056 5132 5132 5132 5132 5132
    5056 5056 4983 4983 4911 4911 4911 4911 4582 1713 1705 1705 1696
    1688 1688 1688 1688 1696 1696 1696 1713 1713 1713 1722 1722 1739
    1739 1748 1748 1757 1757 1766 1766 1785 1776 1776 1785 1794 1794
    1804 1804 1813 1833 1833 1833 1833 1843 1833 1833 1843 5056 5056
    5056 5132 5132 5132 5132 5056 5056 5056 5056 4983 4911 4911 4911
    4911 1713 1713 1705 1705 1688 1688 1688 1688 1688 1696 1696 1696
    1705 1705 1713 1722 1722 1722 1722 1739 1748 1748 1757 1757 1766
    1776 1776 1776 1776 1785 1794 1804 1804 1813 1823 1833 1833 1843
    1843 1833 1833 1843 1843 5056 5056 5132 5132 5132 5132 5056 5056
    5056 5056 4983 4911 4911 4911 4911 1713 1713 1705 1705 1688 1688
    1688 1688 1688 1696 1705 1705 1705 1705 1713 1713 1722 1722 1722
    1739 1739 1748 1757 1757 1766 1766 1766 1776 1776 1785 1794 1804
    1804 1813 1813 1823 1833 1833 1843 1843 1843 1843 1843 1843 5132
    5132 5132 5132 5132 5056 5056 5056 5056 4983 4983 4911 4911 4911
    1722 1713 1713 1705 1688 1688 1688 1688 1688 1696 1696 1713 1713
    1713 1713 1713 1722 1722 1722 1731 1731 1748 1757 1757 1766 1766
    1766 1776 1776 1785 1794 1804 1804 1804 1804 1804 1823 1823 1833
    1833 1833 1833 1833 1833 1833 5132 5132 5132 5132 5056 5056 5056
    4983 4983 4983 4911 4911 4911 1722 1713 1713 1705 1696 1688 1688
    1688 1688 1696 1696 1688 1688 1705 1713 1713 1722 1722 1722 1731
    1731 1739 1757 1757 1766 1766 1766 1766 1766 1776 1785 1804 1804
    1804 1804 1804 1813 1823 1823 1833 1833 1833 1833 1833 1833 5132
    5132 5132 5132 5132 5132 5056 4983 4983 4983 4911 4911 4911 1722
    1722 1713 1713 1696 1688 1688 1688 1688 1688 1696 1688 1688 1696
    1705 1713 1713 1713 1722 1722 1731 1731 1748 1757 1766 1766 1766
    1766 1766 1766 1776 1785 1794 1794 1804 1804 1804 1813 1813 1823
    1823 1833 1843 1843 1843 1843 5132 5132 5132 5132 5132 5132 5056
    5056 4983 4983 4983 4911 1739 1722 1713 1713 1696 1688 1688 1688
    1688 1688 1696 1688 1688 1696 1696 1713 1713 1713 1722 1722 1722
    1722 1739 1757 1766 1766 1766 1766 1766 1766 1766 1776 1785 1794
    1804 1804 1804 1813 1813 1823 1823 1833 1833 1833 1843 1843 1843
    5210 5210 5132 5132 5132 5056 5056 4983 4983 4983 4983 1748 1739
    1731 1722 1713 1705 1696 1688 1688 1688 1688 1688 1696 1696 1696
    1705 1705 1705 1713 1713 1713 1722 1739 1748 1766 1766 1766 1757
    1757 1766 1766 1766 1785 1794 1804 1804 1804 1813 1823 1823 1823
    1833 1833 1833 1843 1843 1843 5132 5132 5132 5132 5132 5056 5056
    5056 4983 4983 4983 1748 1748 1748 1731 1722 1713 1696 1696 1688
    1688 1688 1688 1688 1696 1696 1696 1696 1696 1713 1713 1713 1713
    1731 1731 1757 1748 1748 1757 1757 1766 1766 1766 1785 1794 1794
    1804 1813 1813 1823 1823 1823 1833 1833 1833 1833 1843 1843 5056
    5056 5056 5132 5132 5132 5056 5056 4983 4983 4983 1757 1757 1748
    1748 1722 1713 1696 1696 1688 1680 1680 1680 1688 1688 1696 1696
    1696 1696 1713 1713 1713 1713 1731 1731 1748 1748 1748 1757 1757
    1757 1766 1766 1776 1776 1785 1794 1804 1804 1813 1813 1823 1823
    1823 1823 1833 1833 1843 1843 5056 5056 5132 5132 5132 5132 5056
    4983 4983 4983 1739 1739 1739 1748 1722 1713 1705 1696 1688 1680
    1680 1680 1688 1688 1696 1688 1688 1688 1713 1713 1722 1722 1722
    1722 1722 1731 1739 1757 1757 1757 1766 1766 1766 1766 1766 1766
    1794 1794 1804 1804 1804 1813 1823 1823 1833 1833 1843 1843 5056
    5056 5056 5132 5132 5132 5056 4983 4983 4983 1739 1739 1739 1748
    1722 1713 1705 1696 1688 1680 1680 1680 1680 1688 1696 1688 1688
    1688 1713 1713 1713 1713 1722 1722 1722 1731 1739 1757 1757 1757
    1766 1766 1766 1766 1766 1766 1794 1794 1794 1794 1804 1813 1813
    1823 1833 1833 1843 1843 4911 4911 4911 5132 5132 5132 5056 4983
    4983 4983 4522 1748 1748 1748 1722 1722 1722 1713 1688 1688 1680
    1680 1680 1696 1696 1688 1688 1696 1713 1713 1713 1713 1722 1722
    1722 1731 1731 1739 1757 1757 1766 1766 1766 1766 1766 1766 1794
    1794 1794 1794 1813 1813 1813 1823 1833 1833 1833 1833 1833 4911
    4911 5132 5132 5132 5056 5056 4983 4983 4522 4349 1748 1748 1731
    1722 1722 1713 1696 1688 1680 1680 1680 1696 1688 1688 1688 1696
    1705 1705 1713 1713 1722 1731 1722 1722 1731 1739 1748 1757 1757
    1766 1766 1766 1766 1776 1794 1794 1794 1794 1813 1813 1804 1804
    1823 1823 1833 1833 1833 1833 5132 5132 5132 5132 5056 5056 5056
    5056 4349 4349 4349 1748 1731 1722 1722 1713 1696 1688 1688 1680
    1680 1688 1688 1688 1688 1696 1705 1705 1705 1713 1722 1731 1722
    1722 1731 1739 1748 1757 1757 1766 1766 1766 1766 1766 1785 1794
    1794 1794 1804 1804 1804 1804 1823 1823 1833 1833 1833 1833 1833
    5132 5132 5132 5132 5132 5056 5056 4349 4349 4349 1739 1739 1731
    1722 1713 1713 1688 1688 1688 1680 1680 1688 1688 1688 1696 1696
    1705 1705 1713 1722 1722 1722 1731 1731 1731 1739 1757 1757 1757
    1766 1766 1766 1766 1766 1776 1794 1794 1804 1804 1804 1804 1823
    1823 1833 1833 1833 1833 1833 5056 5056 5056 5132 5132 5132 5056
    4405 4405 4405 1748 1748 1739 1731 1722 1713 1713 1688 1688 1680
    1671 1671 1688 1688 1688 1696 1696 1696 1705 1713 1722 1722 1731
    1731 1731 1739 1748 1748 1757 1757 1766 1766 1766 1766 1776 1785
    1794 1794 1804 1794 1794 1813 1823 1823 1833 1833 1833 1833 1833
    5056 5056 5132 5132 5132 5132 4405 4405 4405 1757 1757 1748 1739
    1722 1722 1713 1713 1688 1680 1671 1671 1688 1688 1688 1688 1688
    1688 1705 1713 1722 1722 1722 1731 1731 1739 1748 1748 1748 1757
    1757 1766 1766 1766 1776 1785 1794 1794 1804 1794 1794 1804 1813
    1823 1833 1833 1833 1833 1833 1833 5132 5132 5132 5132 5132 4405
    4405 4405 1757 1757 1748 1748 1731 1722 1713 1713 1688 1680 1680
    1680 1680 1688 1688 1688 1688 1688 1688 1705 1722 1722 1722 1722
    1722 1731 1739 1739 1748 1757 1757 1766 1766 1766 1766 1794 1794
    1794 1794 1794 1794 1804 1813 1813 1823 1833 1833 1833 1823 1823
    5132 5132 5132 5132 5056 4463 4463 4463 4463 1757 1757 1748 1739
    1722 1713 1713 1688 1680 1680 1680 1680 1671 1671 1680 1680 1688
    1688 1705 1713 1713 1713 1722 1722 1731 1731 1739 1739 1757 1757
    1757 1766 1766 1766 1776 1785 1785 1794 1794 1794 1804 1804 1813
    1823 1833 1843 1833 1823 1823 1823 5132 5132 5132 5056 4463 4463
    4463 4463 4463 1757 1757 1748 1731 1722 1713 1688 1688 1680 1680
    1671 1671 1671 1680 1680 1688 1688 1696 1705 1713 1713 1713 1722
    1722 1722 1731 1739 1739 1748 1757 1757 1757 1757 1776 1776 1776
    1785 1794 1794 1804 1804 1813 1823 1833 1833 1833 1823 1823 1823
    1823 5132 5132 5056 4463 4463 4463 4463 4463 4463 1748 1748 1731
    1722 1722 1696 1688 1680 1680 1671 1671 1680 1680 1680 1680 1688
    1696 1705 1713 1713 1713 1713 1722 1722 1722 1731 1731 1748 1748
    1757 1757 1757 1766 1766 1766 1766 1776 1794 1794 1794 1804 1813
    1823 1833 1833 1833 1833 1843 1843 5132 5132 5056 4463 4405 4405
    4405 4463 4463 1757 1757 1739 1722 1722 1713 1696 1680 1680 1680
    1680 1680 1680 1680 1680 1680 1696 1696 1705 1713 1713 1713 1713
    1713 1722 1731 1731 1739 1748 1748 1757 1757 1766 1766 1766 1766
    1776 1785 1794 1794 1804 1804 1813 1813 1823 1823 1833 1843 1843
    1843 5132 5056 4405 4405 4405 4405 4463 4349 4349 1757 1748 1739
    1731 1713 1696 1688 1680 1680 1680 1680 1680 1680 1680 1680 1688
    1696 1705 1705 1705 1713 1713 1713 1722 1731 1731 1739 1748 1748
    1757 1757 1766 1766 1766 1766 1776 1785 1794 1794 1804 1804 1804
    1813 1813 1823 1833 1843 1843 1843 5210 5056 4405 4463 4463 4463
    4463 4349 4241 4241 1748 1739 1731 1722 1705 1688 1680 1680 1671
    1663 1663 1671 1680 1680 1688 1688 1696 1705 1705 1705 1713 1713
    1722 1722 1731 1731 1731 1748 1757 1757 1766 1766 1766 1776 1776
    1785 1794 1794 1804 1804 1804 1813 1813 1813 1823 1833 1843 1843
    5132 5132 4405 4463 4463 4463 4463 4349 4241 4241 4241 1748 1748
    1722 1705 1696 1688 1680 1671 1663 1663 1663 1671 1671 1680 1688
    1688 1696 1705 1705 1705 1713 1722 1722 1722 1731 1731 1739 1757
    1757 1757 1766 1766 1776 1776 1785 1785 1794 1794 1804 1804 1804
    1804 1813 1813 1823 1833 1833 5132 5132 4405 4405 4405 4463 4463
    4463 4463 4463 4463 1748 1748 1722 1713 1713 1696 1680 1680 1671
    1663 1655 1655 1671 1680 1688 1688 1696 1696 1696 1696 1696 1713
    1722 1722 1731 1731 1739 1757 1757 1757 1757 1766 1766 1766 1776
    1785 1785 1794 1794 1804 1804 1804 1813 1813 1813 1833 1843 1843
    5132 4405 4405 4405 4405 4463 4463 4463 4463 4463 1739 1739 1731
    1713 1713 1696 1688 1680 1671 1663 1655 1655 1655 1671 1688 1688
    1688 1696 1696 1696 1696 1696 1713 1722 1722 1722 1739 1739 1757
    1757 1757 1757 1757 1757 1766 1766 1785 1794 1794 1804 1804 1804
    1804 1804 1813 1823 1833 1833 5132 4405 4405 4405 4405 4463 4463
    4463 4522 4582 4582 1739 1731 1722 1713 1705 1696 1688 1680 1663
    1655 1655 1655 1663 1688 1688 1688 1696 1696 1696 1696 1696 1713
    1722 1722 1722 1739 1739 1748 1757 1757 1757 1757 1757 1757 1766
    1776 1785 1794 1794 1794 1804 1804 1804 1804 1823 1833 1833 1833
    4349 4349 4349 4405 4463 4463 4349 4349 4522 4522 1731 1731 1713
    1713 1705 1696 1688 1680 1671 1663 1663 1663 1663 1671 1680 1680
    1688 1688 1696 1696 1696 1705 1713 1713 1722 1731 1731 1731 1739
    1748 1748 1757 1757 1748 1748 1766 1766 1776 1794 1794 1804 1804
    1804 1804 1813 1823 1823 1823 4349 4349 4349 4405 4405 4349 4349
    4349 4349 4582 4582 1731 1713 1713 1705 1696 1688 1680 1680 1671
    1663 1663 1663 1663 1680 1680 1688 1688 1696 1696 1696 1705 1713
    1713 1722 1731 1731 1731 1739 1739 1748 1757 1748 1748 1748 1757
    1766 1776 1776 1776 1785 1794 1794 1804 1804 1804 1804 1813 4349
    4349 4405 4405 4405 4349 4349 4349 4349 4405 4405 1731 1731 1722
    1713 1696 1688 1680 1680 1671 1671 1663 1663 1663 1680 1680 1688
    1688 1688 1696 1696 1705 1713 1713 1722 1731 1731 1731 1739 1739
    1748 1757 1748 1748 1748 1757 1766 1766 1776 1776 1776 1785 1794
    1804 1804 1804 1804 1804 4349 4349 4405 4405 4405 4349 4349 4349
    4349 4405 4463 4463 1731 1722 1713 1705 1688 1688 1688 1680 1671
    1663 1663 1663 1671 1680 1688 1688 1688 1688 1696 1705 1713 1722
    1722 1722 1722 1722 1731 1739 1739 1748 1757 1757 1757 1757 1766
    1766 1776 1776 1776 1785 1785 1804 1804 1813 1813 1804 4349 4349
    4349 4405 4349 4349 4349 4349 4349 4405 4463 4463 1731 1731 1722
    1705 1696 1688 1688 1680 1671 1671 1663 1663 1671 1680 1680 1688
    1688 1688 1696 1705 1705 1713 1722 1722 1722 1722 1731 1731 1739
    1739 1748 1757 1757 1757 1766 1766 1776 1776 1776 1776 1776 1794
    1804 1813 1813 1823 4349 4349 4349 4349 4349 4349 4349 4405 4405
    4405 4463 4463 1739 1739 1722 1713 1705 1696 1688 1680 1680 1671
    1671 1671 1671 1671 1680 1688 1688 1688 1696 1696 1705 1713 1713
    1713 1713 1713 1722 1731 1731 1739 1748 1748 1757 1757 1757 1766
    1776 1776 1776 1776 1776 1794 1804 1813 1813 5132 4349 4349 4349
    4349 4405 4405 4405 4405 4405 4405 4405 4405 4405 1731 1731 1722
    1705 1696 1688 1688 1680 1680 1671 1671 1671 1671 1671 1680 1680
    1688 1696 1696 1696 1705 1705 1713 1713 1713 1722 1722 1722 1731
    1739 1748 1748 1748 1757 1766 1776 1766 1766 1766 1766 1794 1813
    1813 5210 5132 4349 4349 4349 4349 4405 4405 4405 4405 4405 4405
    4405 4405 4405 4349 1731 1731 1713 1705 1696 1688 1688 1688 1680
    1663 1663 1663 1663 1680 1680 1688 1688 1696 1696 1696 1696 1705
    1713 1713 1713 1713 1713 1722 1731 1739 1748 1748 1757 1766 1776
    1766 1766 1766 1766 1766 5291 5210 5210 5132 4349 4349 4349 4349
    4349 4349 4349 4349 4349 4349 4405 4349 4349 4349 1731 1731 1722
    1713 1705 1696 1688 1688 1680 1663 1655 1655 1663 1663 1663 1663
    1688 1688 1688 1696 1696 1705 1713 1713 1705 1705 1713 1713 1722
    1731 1739 1748 1748 1757 1766 1766 1766 1766 5291 5291 5210 5132
    5132 5132 4295 4295 4349 4349 4349 4349 4349 4349 4349 4349 4405
    4349 4349 4349 1731 1731 1722 1713 1713 1696 1688 1688 1688 1663
    1655 1655 1663 1663 1663 1663 1680 1680 1688 1688 1696 1696 1705
    1705 1705 1705 1713 1713 1722 1731 1731 1731 1731 1757 1766 1766
    1776 1776 5291 5210 5132 5132 5132 5132 4295 4295 4295 4295 4349
    4349 4349 4349 4349 4405 4463 4349 4349 4405 4405 1731 1722 1722
    1713 1696 1688 1688 1688 1680 1663 1655 1655 1655 1663 1663 1671
    1680 1680 1688 1688 1696 1696 1696 1705 1705 1713 1722 1722 1731
    1731 1731 1731 1757 1766 1776 1776 1776 5210 5210 5132 5132 5132
    5132 4241 4295 4295 4295 4349 4349 4349 4349 4349 4349 4405 4405
    4349 4349 4349 1722 1722 1722 1722 1705 1688 1688 1688 1680 1663
    1655 1655 1655 1663 1663 1671 1680 1680 1680 1680 1680 1696 1696
    1696 1705 1713 1722 1722 1722 1731 1731 1731 1748 1748 1776 1776
    1776 5210 5210 5132 5132 5132 5132 4241 4295 4295 4295 4295 4349
    4349 4349 4349 4349 4405 4405 4349 4295 4295 4295 1722 1722 1722
    1713 1705 1696 1696 1688 1663 1663 1655 1655 1655 1663 1671 1671
    1671 1671 1680 1680 1696 1696 1696 1696 1713 1722 1722 1722 1731 0
    1748 1748 1748 1766 1766 1766 1766 5210 5132 5132 5132 5132 4295
    4295 4295 4295 4295 4349 4349 4349 4349 4405 4405 4405 4349 4295
    4295 4139 4139 4139 1731 1722 1713 1705 1696 1688 1688 1663 1663
    1655 1655 1663 1663 1671 1671 1671 1680 1688 1688 1696 1696 1696
    1722 1722 1722 1722 0 0 0 1748 1748 1766 1766 1766 1766 5210 5210
    5132 5132 5132 4241 4241 4295 4295 4295 4349 4349 4349 4349 4349
    4349 4349 4405 4349 4295 4139 4139 4139 1722 1722 1713 1705 1696
    1696 1688 1663 1655 1655 1655 1655 1663 1663 1663 1663 1663 1688
    1688 1696 1696 1696 1722 1722 0 0 0 0 0 0 5132 1766 1766 1766 5056
    5056 5210 5210 5132 5132 4190 4190 4241 4295 4295 4295 4349 4349
    4349 4349 4349 4349 4349 4349 4349 4241 4241 4241 1722 1722 1713
    1713 1705 1696 1688 1680 1655 1655 1655 1655 1663 1663 1663 1663
    1663 1688 1688 1696 1696 0 0 0 0 0 0 0 0 0 0 1766 1766 1766 1776
    4911 5210 5210 5132 5132 4139 4190 4241 4295 4295 4295 4349 4349
    4349 4349 4349 4349 4349 4349 4349 4295 4295 4295 4405 1713 1713
    1713 1705 1696 1688 1680 1655 1655 1655 1655 1655 1655 1655 1663
    1663 1680 1688 1705 0 0 0 0 0 0 0 0 0 0 0 0 1766 1766 1776 4911 4842
    4842 5132 5132 4139 4139 4190 4295 4295 4295 4295 4349 4349 4295
    4295 4349 4349 4349 4349 4295 4295 4405 4405 1713 1713 1713 1713
    1696 1688 1688 1663 1663 1663 1663 1655 1655 1655 1663 1663 1680 0 0
    0 0 0 0 0 0 0 0 0 0 0 0 0 4911 4911 4911 4842 4842 1757 1757 4139
    4139 4190 4295 4295 4295 4295 4349 4349 4295 4295 4349 4349 4349
    4349 4349 4349 4349 4349 1713 1713 1713 1713 1705 1688 1688 1680
    1671 1663 1663 1655 1655 1655 1671 0 0 0 0 0 0 0 0 0 0 0 0 0 0 0 0
    1722 1722 1748 1748 1748 1748 1748 1748 4139 4139 4241 4241 4241
    4241 4295 4295 4349 4295 4295 4349 4349 4349 4349 4349 4349 4349
    4349 4463 4463 1713 1713 1713 1696 1688 1688 1680 1663 1663 1655
    1655 0 0 0 0 0 0 0 0 0 0 0 0 0 0 0 0 1722 1722 1722 1722 1722 1731
    1731 1731 1748 1748 4139 4139 4241 4241 4241 4241 4241 4295 4295
    4295 4349 4349 4349 4349 4349 4349 4349 4349 4349 4349 4349 1722
    1713 1713 1705 1688 1688 1688 1663 1663 1663 0 0 0 0 0 0 0 0 0 0 0 0
    0 0 0 0 1696 1696 1713 1713 1722 1722 1722 1731 1731 1739 1739</data></Depth5364>
</opencv_storage>
