<?xml version="1.0"?>
<opencv_storage>
<Depth1399 type_id="opencv-matrix">
  <rows>87</rows>
  <cols>35</cols>
  <dt>w</dt>
  <data>
    3064 3064 3037 3037 3037 3037 3037 3037 3037 3037 3010 3010 3010
    3010 3010 3010 3010 2984 2984 1138 1134 1130 1126 1123 1115 1115
    2933 2933 2933 2908 2908 2908 2908 2908 2908 3064 3064 3037 3037
    3037 3037 3037 1149 1149 1149 1149 3010 3010 3010 3037 3037 3010
    2958 1134 1134 1134 1130 1126 1123 1115 1115 1119 3010 2933 2908
    2908 2908 2908 2908 2908 3037 3037 3037 3037 3037 3037 1149 1149
    1145 1145 1134 1130 1126 1126 1126 1126 3010 2958 1126 1126 1130
    1130 1126 1119 1119 1119 1119 1119 1119 2933 2933 2908 2908 2908
    2908 3037 1134 1134 1134 1134 1138 1138 1141 1141 1138 1134 1130
    1126 1126 1126 1126 1123 1123 1123 1123 1123 1123 1123 1119 1119
    1119 1119 1119 1119 1119 2933 2933 2908 2908 2908 1134 1134 1134
    1134 1134 1134 1134 1134 1134 1134 1130 1126 1126 1126 1126 1123
    1123 1123 1123 1123 1123 1123 1123 1119 1119 1119 1119 1119 1119
    1134 1134 2933 2933 2908 2908 1134 1134 1134 1134 1134 1130 1130
    1130 1130 1130 1130 1126 1126 1123 1123 1123 1123 1123 1123 1119
    1119 1119 1119 1119 1119 1119 1119 1119 1123 1126 0 1126 0 2933 2933
    1134 1134 1134 1134 1134 1130 1130 1130 1130 1130 1130 1126 1126
    1123 1123 1123 1123 1123 1119 1119 1119 1119 1119 1119 1119 1119
    1119 1119 1123 1126 0 0 0 0 0 1138 1138 1138 1134 1134 1134 1130
    1130 1130 1130 1126 1126 1126 1126 1126 1123 1123 1123 1119 1119
    1119 1119 1119 1119 1119 1119 1119 1123 1126 1126 0 0 0 0 0 1138
    1138 1138 1134 1134 1134 1134 1130 1130 1126 1126 1126 1126 1126
    1123 1123 1123 1123 1119 1119 1119 1119 1115 1115 1115 1115 1119
    1119 1126 1134 0 0 0 0 0 1134 1134 1134 1134 1134 1134 1130 1130
    1130 1126 1126 1126 1126 1126 1123 1123 1123 1123 1119 1119 1119
    1119 1115 1115 1115 1115 1119 1119 1126 1141 0 0 0 0 0 1134 1134
    1134 1134 1134 1130 1130 1130 1130 1126 1126 1126 1126 1123 1123
    1123 1123 1123 1123 1119 1119 1119 1115 1115 1115 1115 1119 1119
    1130 1141 0 0 0 0 0 1134 1134 1134 1134 1134 1130 1130 1130 1130
    1126 1126 1123 1123 1123 1123 1123 1123 1123 1123 1119 1119 1119
    1115 1115 1115 1115 1119 1119 1138 1149 1165 0 0 0 0 1134 1134 1134
    1134 1134 1134 1130 1130 1130 1130 1126 1123 1123 1123 1123 1123
    1123 1123 1123 1119 1119 1119 1115 1115 1115 1115 1119 1119 1161
    1165 1165 1169 0 0 0 1141 1134 1134 1134 1134 1134 1130 1130 1130
    1130 1126 1123 1123 1123 1123 1123 1123 1119 1119 1119 1119 1119
    1115 1115 1115 1115 1115 1119 1169 1165 1165 1169 0 0 0 1138 1134
    1134 1134 1134 1134 1130 1130 1130 1126 1126 1123 1123 1123 1123
    1123 1123 1119 1119 1119 1119 1119 1115 1115 1115 1115 1115 1119
    1119 1165 1165 0 0 0 0 1138 1134 1134 1134 1134 1130 1130 1130 1130
    1126 1126 1123 1123 1123 1123 1123 1123 1119 1119 1119 1119 1115
    1115 1115 1119 1119 1119 1119 1119 1161 1165 0 0 0 0 1134 1134 1134
    1134 1134 1130 1130 1130 1126 1126 1126 1123 1123 1123 1123 1123
    1123 1119 1119 1119 1119 1115 1115 1115 1119 1119 1119 1123 1123
    1153 1157 0 0 0 0 0 1134 1134 1134 1134 1130 1130 1130 1126 1126
    1126 1123 1123 1123 1123 1123 1123 1119 1119 1119 1119 1115 1115
    1115 1115 1115 1119 1119 1119 1145 1153 0 0 0 0 0 1134 1134 1134
    1134 1130 1130 1130 1126 1126 1126 1123 1123 1123 1123 1123 1119
    1119 1119 1119 1119 1115 1115 1115 1115 1115 1115 1112 1112 1145
    1153 0 0 0 0 0 1134 1134 1134 1134 1130 1130 1130 1126 1123 1123
    1123 1123 1123 1123 1123 1119 1119 1119 1119 1119 1115 1115 1115
    1115 1112 1112 1097 1097 1153 1153 0 0 0 0 0 1134 1134 1130 1130
    1130 1130 1130 1126 1123 1123 1123 1123 1123 1123 1123 1119 1119
    1119 1119 1119 1119 1115 1115 1112 1112 1112 1097 1097 1097 0 0 0 0
    0 0 0 1134 1130 1130 1130 1130 1130 1126 1123 1123 1123 1123 1123
    1123 1123 1119 1119 1115 1115 1115 1115 1115 1115 1112 1112 1112
    1112 1112 1169 1169 0 0 0 0 0 0 1134 1130 1130 1130 1130 1130 1126
    1123 1123 1123 1123 1123 1123 1123 1119 1119 1115 1115 1115 1115
    1115 1115 1112 1112 1112 1112 1112 1161 1165 1169 0 0 0 0 0 1134
    1130 1130 1130 1130 1130 1130 1126 1123 1123 1123 1123 1123 1123
    1119 1119 1119 1119 1115 1115 1115 1115 1112 1112 1112 1112 1112
    1161 1161 1169 0 0 0 0 0 1134 1130 1130 1130 1130 1130 1130 1126
    1123 1123 1123 1123 1119 1119 1119 1119 1119 1119 1115 1115 1115
    1115 1112 1112 1112 1112 1112 1161 1161 1165 0 0 0 0 0 1138 1134
    1134 1134 1134 1130 1130 1126 1123 1123 1123 1123 1119 1119 1119
    1119 1119 1119 1119 1115 1115 1115 1115 1112 1112 1115 1115 1161
    1161 1165 0 0 0 0 0 1138 1134 1134 1134 1130 1130 1130 1130 1123
    1123 1123 1123 1119 1119 1119 1119 1119 1119 1115 1115 1115 1115
    1115 1112 1112 1112 1112 1161 1161 1165 1165 0 0 0 0 1138 1134 1134
    1134 1130 1126 1126 1126 1123 1123 1123 1123 1123 1119 1119 1119
    1119 1119 1115 1115 1115 1115 1115 1112 1112 1112 1112 1161 1161
    1165 1165 0 0 0 0 1134 1134 1130 1130 1126 1126 1126 1126 1123 1123
    1123 1123 1123 1119 1119 1119 1119 1115 1115 1115 1115 1115 1115
    1115 1112 1112 1115 1153 1153 1161 0 0 0 0 0 1134 1134 1130 1130
    1126 1126 1126 1123 1123 1123 1123 1123 1123 1119 1119 1119 1119
    1115 1115 1112 1112 1115 1112 1112 1112 1108 1108 1153 1153 1153 0 0
    0 0 0 1134 1134 1130 1130 1126 1126 1126 1123 1123 1123 1123 1119
    1119 1119 1119 1119 1119 1115 1115 1112 1112 1112 1112 1112 1108
    1105 1105 1153 1153 1153 0 0 0 0 0 1134 1134 1130 1130 1130 1130
    1126 1123 1123 1123 1123 1119 1119 1119 1119 1119 1119 1115 1115
    1112 1112 1112 1108 1108 1108 1105 1105 1153 1153 1153 0 0 0 0 0
    1134 1134 1130 1130 1130 1130 1123 1123 1123 1123 1123 1119 1119
    1119 1119 1119 1119 1115 1115 1112 1112 1108 1108 1108 1108 1105
    1105 1157 1153 1153 0 0 0 0 0 0 1130 1130 1130 1130 1130 1123 1123
    1123 1123 1123 1119 1119 1119 1119 1119 1119 1115 1115 1115 1112
    1108 1108 1108 1108 1105 1105 1157 1157 1157 0 0 0 0 0 0 1130 1130
    1130 1126 1126 1123 1123 1123 1123 1123 1119 1119 1119 1119 1119
    1119 1119 1115 1115 1112 1108 1108 1108 1108 1108 1112 1153 1153
    1157 0 0 0 0 0 1126 1126 1126 1130 1126 1126 1123 1123 1123 1123
    1123 1123 1119 1119 1119 1119 1115 1115 1115 1115 1112 1112 1108
    1108 1108 1112 1123 1153 1153 1157 1177 0 0 0 0 1126 1126 1126 1126
    1126 1123 1123 1123 1123 1123 1123 1123 1123 1119 1119 1115 1112
    1112 1112 1115 1112 1112 1108 1108 1108 1115 1123 1141 1189 1177
    1177 1193 1193 0 0 1126 1126 1126 1126 1123 1123 1123 1123 1123 1123
    1123 1119 1119 1119 1119 1115 1112 1112 1112 1112 1112 1112 1108
    1108 1112 1115 1123 1138 1145 1185 1185 1185 1185 0 0 0 1126 1126
    1126 1123 1123 1123 1123 1123 1123 1119 1119 1119 1119 1119 1115
    1115 1112 1112 1112 1112 1112 1108 1108 1108 1112 1130 1138 1145
    1185 1185 1185 1185 0 0 0 1130 1130 1126 1126 1123 1123 1123 1123
    1119 1119 1119 1119 1119 1119 1115 1115 1112 1112 1112 1112 1108
    1108 1108 1108 1108 1112 1141 1145 1189 1189 1197 1197 0 0 0 1130
    1130 1126 1126 1123 1123 1123 1123 1119 1119 1119 1119 1119 1119
    1119 1115 1115 1112 1112 1112 1108 1108 1108 1108 1108 1112 1112
    1185 1185 1185 1202 1202 0 0 0 1130 1130 1126 1126 1123 1123 1123
    1119 1119 1119 1119 1119 1119 1119 1119 1115 1115 1112 1112 1112
    1112 1112 1108 1108 1108 1108 1108 1108 1181 1181 0 0 0 1138 0 1130
    1130 1126 1126 1123 1123 1123 1119 1119 1119 1119 1119 1119 1119
    1119 1115 1115 1112 1112 1112 1112 1112 1108 1108 1108 1108 1108
    1108 1181 1181 0 0 0 1138 1138 1130 1126 1126 1126 1123 1123 1123
    1119 1119 1119 1119 1119 1119 1119 1119 1115 1115 1112 1112 1112
    1112 1112 1108 1108 1112 1112 1112 1112 0 0 0 0 0 1138 1134 1134
    1126 1126 1126 1123 1123 1123 1119 1119 1119 1119 1119 1119 1119
    1119 1119 1115 1112 1112 1108 1108 1108 1108 1108 1112 1112 1112 0 0
    0 0 0 0 1134 1134 1130 1130 1126 1126 1126 1123 1123 1123 1119 1119
    1119 1119 1119 1119 1119 1119 1115 1112 1112 1108 1108 1108 1108
    1108 1112 1112 1119 0 0 0 0 0 0 1130 0 1130 1126 1126 1126 1126 1123
    1123 1123 1119 1119 1119 1115 1115 1115 1119 1119 1115 1112 1108
    1108 1108 1108 1112 1112 1112 1108 1108 1157 1157 0 0 0 0 0 0 1134
    1126 1126 1123 1123 1123 1123 1123 1119 1119 1119 1115 1115 1115
    1115 1115 1112 1112 1108 1108 1108 1108 1112 1112 1112 1105 1105
    1153 1153 0 0 0 0 0 0 1126 1126 1126 1123 1123 1123 1123 1119 1119
    1119 1119 1119 1115 1115 1115 1115 1112 1108 1108 1108 1108 1108
    1108 1108 1108 1105 1105 1145 1145 0 0 0 0 0 0 1123 1123 1123 1123
    1123 1123 1123 1119 1119 1119 1119 1119 1115 1115 1115 1115 1112
    1108 1108 1108 1108 1108 1108 1108 1108 1108 1108 1145 1145 0 0 0 0
    0 0 1123 1123 1123 1123 1123 1123 1123 1123 1119 1119 1119 1119 1115
    1115 1115 1115 1112 1112 1108 1108 1108 1108 1108 1108 1108 1112
    1112 1138 1145 0 0 0 0 0 0 1123 1123 1123 1123 1123 1123 1123 1119
    1119 1119 1119 1119 1115 1115 1115 1115 1112 1112 1108 1108 1108
    1108 1108 1108 1108 1112 1112 1134 0 0 0 0 0 0 0 1123 1123 1123 1123
    1123 1123 1119 1119 1119 1119 1119 1119 1115 1115 1115 1115 1115
    1112 1108 1108 1108 1108 1108 1108 1108 1108 1112 1134 1134 0 0 0 0
    0 0 1126 1123 1123 1123 1123 1123 1119 1119 1119 1119 1119 1119 1115
    1112 1112 1112 1112 1112 1108 1108 1108 1108 1108 1108 1108 1108
    1112 1134 1134 0 0 0 0 0 0 1126 1123 1123 1123 1123 1123 1119 1119
    1119 1119 1119 1119 1115 1112 1112 1112 1112 1112 1108 1108 1108
    1108 1108 1108 1108 1108 1112 1138 1138 0 0 0 0 0 0 1126 1123 1123
    1123 1123 1123 1119 1119 1119 1119 1119 1119 1115 1115 1115 1115
    1112 1112 1108 1108 1108 1108 1105 1105 1105 1108 1112 1138 1138 0 0
    0 0 0 0 1126 1123 1123 1123 1123 1123 1119 1119 1119 1119 1119 1119
    1119 1115 1115 1115 1112 1112 1108 1108 1108 1108 1105 1105 1105
    1108 1112 1138 0 0 0 0 0 0 0 1126 1123 1123 1123 1123 1123 1119 1119
    1119 1119 1119 1119 1115 1115 1115 1112 1112 1108 1108 1108 1108
    1108 1108 1105 1105 1108 1112 1130 1134 0 0 0 0 0 0 1123 1123 1123
    1123 1123 1119 1119 1119 1119 1119 1119 1115 1115 1115 1112 1112
    1112 1108 1108 1108 1108 1108 1108 1105 1105 1108 1112 1130 1130
    1130 0 0 0 0 0 1123 1123 1123 1123 1119 1119 1119 1119 1119 1119
    1119 1115 1112 1112 1112 1112 1112 1112 1108 1108 1108 1108 1108
    1105 1105 1108 1112 1134 1130 1130 0 0 0 0 0 1123 1123 1123 1123
    1119 1119 1119 1119 1119 1119 1119 1115 1112 1112 1112 1112 1112
    1112 1108 1108 1108 1108 1108 1105 1105 1108 1108 1134 1134 1141 0 0
    0 0 0 1123 1123 1123 1123 1119 1119 1119 1119 1119 1119 1119 1115
    1115 1112 1112 1112 1112 1112 1108 1108 1108 1108 1108 1105 1105
    1105 1108 1134 1141 1141 0 0 0 0 0 1123 1123 1123 1123 1123 1119
    1119 1119 1119 1119 1119 1115 1115 1112 1112 1112 1112 1108 1108
    1108 1108 1108 1108 1105 1105 1105 1108 1134 1145 1145 0 0 3037 0
    1123 1123 1123 1123 1123 1123 1119 1119 1119 1119 1119 1119 1115
    1115 1112 1112 1112 1112 1108 1108 1108 1108 1108 1108 1105 1105
    1105 1108 1153 1141 1141 1145 0 3037 0 1123 1123 1123 1123 1123 1123
    1119 1119 1119 1119 1119 1119 1115 1115 1112 1112 1112 1112 1108
    1108 1108 1108 1108 1108 1108 1105 1105 1108 1115 1141 1141 1145
    1214 0 0 1123 1123 1123 1123 1123 1123 1123 1119 1119 1119 1119 1119
    1115 1115 1112 1112 1112 1112 1108 1108 1108 1108 1108 1108 1108
    1108 1108 1112 1115 1141 1141 1214 1214 0 1123 1123 1123 1123 1123
    1123 1123 1123 1119 1119 1119 1119 1119 1119 1115 1115 1112 1112
    1112 1108 1108 1108 1108 1108 1108 1108 1108 1108 1108 1112 1119
    1214 1214 1214 0 1123 1123 1123 1123 1123 1123 1123 1119 1119 1119
    1119 1119 1119 1119 1115 1115 1115 1112 1108 1108 1108 1108 1108
    1108 1108 1105 1105 1108 1108 1112 1112 1161 1210 1210 0 0 1123 1123
    1123 1123 1123 1119 1119 1119 1119 1119 1119 1119 1119 1115 1115
    1112 1112 1108 1108 1108 1108 1108 1108 1108 1105 1105 1105 1108
    1108 1112 1149 1161 1210 0 1123 1123 1123 1123 1123 1119 1119 1119
    1119 1119 1119 1119 1119 1119 1115 1115 1112 1112 1108 1108 1108
    1108 1108 1108 1108 1105 1105 1105 1108 1108 1119 1149 1161 1214 0 0
    1123 1123 1123 1123 1119 1119 1119 1119 1119 1119 1119 1119 1115
    1115 1112 1112 1108 1108 1108 1108 1108 1105 1105 1105 1105 1105
    1105 1105 1108 1153 1153 1161 1214 0 0 1123 1123 1123 1123 1119 1119
    1119 1119 1119 1119 1119 1119 1115 1112 1112 1108 1108 1108 1108
    1108 1108 1105 1105 1105 1105 1105 1105 1105 1108 1108 1219 1210
    1210 3120 0 1123 0 1123 1123 1119 1119 1119 1119 1119 1119 1119 1115
    1112 1108 1108 1108 1108 1108 1108 1108 1108 1108 1105 1105 1105
    1105 1105 1105 1108 1177 1173 1173 1202 0 0 0 0 1123 1123 1123 1119
    1119 1119 1119 1119 1115 1115 1112 1108 1108 1108 1108 1108 1108
    1108 1108 1108 1105 1105 1105 1105 1105 1105 1108 1177 1173 1173
    1202 0 0 0 0 1123 1123 1123 1119 1119 1119 1119 1119 1115 1115 1112
    1112 1112 1112 1108 1108 1108 1108 1108 1105 1105 1105 1105 1105
    1105 1105 1108 1173 1173 1173 1206 0 0 0 0 1119 1119 1119 1119 1119
    1119 1119 1119 1115 1115 1112 1112 1112 1112 1108 1108 1108 1108
    1108 1105 1105 1105 1105 1105 1105 1105 1108 1130 1141 1165 1210 0 0
    0 0 1119 1119 1119 1119 1119 1119 1119 1119 1115 1115 1112 1112 1112
    1112 1108 1108 1108 1108 1108 1105 1105 1105 1105 1105 1105 1105
    1108 1130 1141 1165 0 0 0 0 0 1119 1119 1119 1119 1119 1119 1119
    1119 1115 1115 1112 1112 1112 1112 1108 1108 1108 1108 1108 1105
    1105 1105 1105 1105 1105 1105 1108 1108 1145 0 0 0 0 0 0 1123 1119
    1119 1119 1119 1119 1119 1119 1115 1115 1112 1112 1112 1112 1108
    1108 1108 1108 1108 1105 1105 1105 1101 1101 1101 1105 1105 1105 0 0
    0 0 0 0 0 1123 1119 1119 1119 1119 1119 1119 1115 1115 1112 1112
    1112 1112 1108 1108 1108 1108 1108 1105 1105 1105 1105 1101 1097
    1097 1101 1101 1101 0 0 0 0 0 0 0 1123 1119 1119 1119 1119 1119 1119
    1115 1115 1112 1112 1112 1112 1108 1108 1108 1108 1108 1105 1105
    1105 1105 1101 1097 1097 1101 1101 1101 0 0 0 0 0 0 0 1123 1123 1119
    1119 1119 1119 1119 1115 1115 1112 1112 1112 1112 1108 1108 1108
    1108 1108 1105 1105 1105 1105 1101 1097 1097 1101 1094 1094 0 0 0
    3037 0 0 0 1123 1123 1119 1119 1119 1119 1115 1115 1115 1115 1112
    1112 1112 1108 1108 1108 1108 1108 1105 1105 1105 1105 1101 1101
    1101 1101 1094 1094 0 0 0 3120 0 0 1123 1123 1123 1123 1119 1119
    1119 1115 1115 1115 1115 1112 1112 1108 1108 1108 1108 1108 1108
    1105 1105 1105 1101 1101 1101 1101 1101 1094 1094 0 0 0 3064 0 0
    1123 1123 1123 1123 1119 1115 1115 1115 1112 1112 1115 1115 1112
    1108 1108 1108 1108 1108 1105 1105 1101 1101 1101 1101 1101 1101
    1101 1101 1101 0 0 0 3064 3092 3149 1119 1119 1119 1119 1119 1115
    1115 1115 1112 1112 1112 1112 1115 1112 1108 1108 1108 1105 1105
    1101 1101 1097 1097 1101 1101 1101 1101 1101 1101 0 0 0 3092 3092
    3149 3120 1119 1119 1119 1115 1115 1115 1115 1112 1112 1112 1112
    1112 1105 1105 1105 1105 1105 1101 1097 1097 1097 1097 1101 1101
    1101 1101 1101 1101 0 0 0</data></Depth1399>
</opencv_storage>
