<?xml version="1.0"?>
<opencv_storage>
<Depth6691 type_id="opencv-matrix">
  <rows>93</rows>
  <cols>63</cols>
  <dt>w</dt>
  <data>
    0 0 0 0 0 0 0 0 0 0 0 0 0 0 0 0 0 0 0 0 0 0 0 0 0 0 0 0 0 0 0 0 0 0
    0 0 0 0 0 0 0 0 0 0 1105 1105 1101 1101 1097 1094 1094 1094 1094
    1094 1087 1087 0 0 0 0 3948 3948 3903 4139 4139 0 4139 4139 4190
    4190 4241 0 4190 4190 0 0 0 0 0 0 0 0 4190 4190 0 0 0 0 0 0 0 0 0 0
    0 0 0 1105 1105 1108 1108 1108 1108 1105 1105 1108 1105 1105 1101
    1101 1101 1097 1097 1097 1094 1094 1094 1087 1087 1090 0 0 0 3948
    3948 3948 4139 4139 4139 4139 4139 4190 4190 4241 4241 4190 4190
    4139 4139 4190 0 0 4089 4089 4139 4139 4190 0 0 0 0 0 0 0 0 0 0 0 0
    1119 1105 1105 1108 1105 1105 1105 1105 1105 1108 1105 1105 1101
    1101 1097 1097 1097 1097 1097 1094 1094 1090 1090 1090 1094 0 0 0
    3948 3948 4139 4139 4139 4139 4139 4190 4190 4190 4190 4089 4089
    4089 4139 4139 4139 4041 4041 4041 4089 4139 4139 4139 0 0 0 0 0 0 0
    1108 1108 1115 1115 1115 1108 1108 1105 1105 1105 1105 1105 1105
    1105 1105 1101 1101 1097 1097 1097 1097 1097 1094 1094 1090 1090
    1090 1094 1094 0 0 0 3994 3994 4139 4139 4139 4139 4139 4190 4190
    4139 4089 4089 4089 4089 4139 4139 4139 4041 1134 1134 1134 1130
    1130 1119 1115 1115 1115 1119 1119 1115 1115 1108 1108 1115 1112
    1108 1108 1108 1105 1105 1105 1105 1105 1105 1105 1101 1101 1101
    1097 1097 1097 1097 1094 1094 1094 1090 1090 1090 1094 1097 1097 0 0
    3994 3994 4139 4139 4139 4139 1161 1161 1157 1157 4089 4089 4089
    4241 1141 1138 1134 1134 1130 1130 1130 1130 1126 1119 1115 1115
    1115 1119 1119 1115 1115 1115 1115 1112 1112 1108 1108 1108 1105
    1105 1105 1105 1101 1101 1097 1097 1097 1097 1097 1094 1094 1094
    1094 1090 1090 1087 1087 1087 1087 1090 1090 0 3948 3948 3948 4139
    4139 4139 1157 1157 1161 1157 1157 4089 4089 1138 1138 1138 1134
    1134 1134 1130 1130 1130 1126 1123 1123 1119 1119 1119 1115 1115
    1115 1115 1112 1112 1112 1108 1108 1108 1108 1105 1105 1105 1105
    1101 1101 1097 1097 1097 1094 1094 1094 1094 1094 1090 1090 1087
    1084 1084 1084 1084 1090 0 0 0 3948 3948 4139 1153 1153 1149 1149
    1153 1145 1138 1138 1134 1134 1138 1134 1134 1134 1130 1130 1130
    1130 1126 1123 1123 1119 1119 1115 1115 1115 1115 1115 1112 1112
    1108 1108 1108 1108 1108 1105 1105 1101 1101 1101 1101 1097 1097
    1097 1094 1094 1094 1094 1094 1090 1090 1087 1084 1084 1084 1080
    1080 0 0 0 3948 3948 1157 1153 1149 1149 1149 1149 1141 1138 1138
    1134 1134 1134 1134 1134 1130 1130 1126 1126 1130 1126 1123 1123
    1119 1115 1112 1112 1112 1115 1112 1108 1108 1105 1105 1105 1105
    1105 1105 1101 1101 1101 1097 1097 1097 1097 1097 1094 1094 1094
    1094 1094 1090 1087 1087 1084 1084 1080 1080 1080 0 0 0 3994 3994
    1149 1149 1149 1149 1145 1138 1138 1138 1138 1134 1134 1134 1134
    1130 1130 1126 1126 1126 1123 1123 1119 1119 1119 1115 1112 1112
    1112 1112 1112 1108 1108 1105 1105 1105 1105 1105 1105 1101 1101
    1101 1097 1097 1097 1097 1097 1094 1094 1094 1090 1090 1090 1087
    1087 1084 1084 1080 1077 1077 0 0 0 3994 3994 1149 1149 1145 1145
    1145 1138 1134 1134 1134 1134 1130 1130 1130 1130 1130 1126 1126
    1123 1123 1119 1119 1119 1115 1112 1112 1112 1112 1112 1108 1108
    1108 1105 1105 1105 1101 1101 1101 1101 1097 1097 1094 1094 1097
    1097 1094 1094 1090 1090 1087 1087 1084 1084 1084 1084 1084 1080
    1077 1077 1077 0 0 3994 3994 1149 1145 1145 1145 1141 1138 1134 1134
    1134 1134 1130 1126 1126 1126 1126 1126 1123 1123 1119 1119 1119
    1115 1115 1112 1112 1112 1112 1108 1108 1108 1108 1105 1101 1101
    1101 1101 1097 1097 1094 1094 1094 1094 1094 1094 1094 1090 1090
    1090 1087 1087 1084 1084 1080 1080 1080 1080 1077 1077 0 0 0 4041
    4041 1145 1141 1141 1141 1138 1134 1134 1134 1134 1130 1130 1126
    1123 1123 1123 1123 1123 1123 1119 1119 1119 1115 1115 1112 1112
    1112 1108 1108 1108 1105 1105 1105 1101 1101 1097 1097 1094 1094
    1094 1094 1094 1094 1094 1094 1090 1090 1090 1087 1084 1084 1084
    1080 1080 1080 1080 1077 1077 1077 0 0 0 0 3994 1145 1141 1141 1138
    1138 1134 1134 1134 1134 1130 1126 1123 1123 1123 1123 1123 1123
    1123 1119 1115 1115 1112 1112 1112 1112 1108 1105 1105 1105 1105
    1105 1105 1101 1101 1097 1097 1094 1094 1094 1094 1090 1090 1090
    1090 1087 1087 1087 1087 1084 1084 1080 1080 1080 1080 1080 1077
    1077 1077 0 0 0 0 3994 1138 1138 1138 1138 1134 1134 1134 1130 1130
    1130 1126 1123 1123 1123 1123 1123 1119 1119 1115 1112 1112 1112
    1112 1108 1108 1108 1105 1105 1105 1105 1105 1101 1101 1101 1094
    1094 1094 1094 1094 1094 1090 1090 1090 1087 1084 1084 1084 1084
    1084 1084 1080 1077 1077 1077 1080 1077 1073 1070 1070 0 0 0 4041
    1134 1134 1138 1138 1134 1134 1130 1130 1130 1126 1123 1123 1123
    1123 1123 1123 1119 1119 1112 1112 1112 1108 1108 1108 1108 1105
    1105 1105 1105 1101 1101 1101 1097 1097 1094 1094 1094 1094 1090
    1090 1087 1087 1090 1087 1084 1084 1084 1084 1084 1080 1080 1077
    1073 1073 1077 1073 1073 1070 1070 0 0 0 0 1134 1134 1138 1138 1134
    1134 1130 1130 1126 1126 1123 1123 1119 1119 1123 1119 1119 1115
    1112 1108 1108 1108 1108 1108 1108 1105 1105 1105 1105 1101 1101
    1097 1094 1094 1094 1094 1094 1090 1090 1090 1084 1084 1087 1084
    1084 1084 1084 1084 1084 1080 1077 1073 1073 1073 1073 1073 1073
    1070 1070 0 0 0 0 1134 1134 1138 1134 1134 1130 1130 1130 1126 1123
    1123 1123 1119 1119 1119 1119 1119 1112 1112 1108 1108 1108 1108
    1105 1105 1105 1105 1105 1105 1101 1097 1094 1094 1094 1094 1094
    1094 1090 1090 1087 1084 1084 1084 1084 1084 1084 1084 1080 1080
    1077 1077 1070 1070 1070 1070 1073 1070 1070 1070 0 0 0 0 1138 1138
    1138 1134 1134 1130 1126 1126 1123 1123 1123 1123 1119 1119 1119
    1119 1119 1112 1108 1108 1105 1105 1105 1105 1105 1105 1105 1105
    1101 1097 1094 1094 1094 1090 1090 1090 1090 1090 1087 1084 1084
    1084 1084 1084 1084 1084 1080 1080 1080 1077 1077 1070 1070 1070
    1070 1070 1067 1067 1070 0 0 0 3994 1138 1134 1134 1134 1130 1126
    1126 1123 1123 1123 1123 1119 1119 1119 1115 1115 1115 1112 1108
    1108 1105 1105 1105 1101 1101 1101 1101 1101 1097 1094 1094 1094
    1090 1090 1090 1090 1090 1087 1084 1084 1080 1080 1084 1084 1080
    1080 1080 1077 1077 1077 1073 1070 1070 1070 1067 1067 1067 1067 0 0
    0 0 3994 1138 1134 1134 1130 1126 1126 1123 1123 1123 1119 1119 1119
    1119 1115 1115 1112 1112 1108 1105 1105 1105 1105 1105 1101 1101
    1101 1097 1097 1097 1094 1094 1094 1090 1090 1090 1090 1087 1087
    1084 1080 1080 1080 1084 1080 1080 1080 1077 1077 1077 1077 1073
    1070 1067 1067 1067 1067 1067 1067 0 0 0 0 3994 1134 1134 1134 1126
    1126 1123 1123 1119 1119 1119 1119 1119 1115 1115 1112 1112 1108
    1108 1105 1105 1105 1101 1101 1101 1101 1101 1097 1097 1097 1094
    1094 1090 1090 1087 1087 1090 1087 1087 1080 1080 1080 1080 1080
    1080 1080 1077 1077 1077 1077 1073 1070 1070 1067 1067 1067 1063
    1063 1067 0 0 0 0 3994 1130 1130 1130 1123 1123 1123 1119 1119 1119
    1119 1119 1119 1115 1115 1112 1108 1108 1105 1105 1105 1105 1101
    1101 1101 1097 1097 1094 1094 1094 1094 1090 1090 1090 1087 1087
    1087 1087 1084 1080 1080 1077 1077 1080 1080 1077 1077 1073 1073
    1073 1070 1070 1067 1067 1067 1067 1063 1063 1067 1067 1067 0 3994
    3994 1126 1126 1126 1123 1123 1123 1119 1119 1119 1115 1115 1115
    1115 1115 1112 1108 1108 1105 1101 1101 1101 1105 1105 1101 1097
    1094 1094 1094 1094 1090 1090 1090 1090 1087 1087 1084 1084 1080
    1080 1080 1077 1077 1080 1080 1077 1073 1073 1070 1070 1070 1067
    1067 1067 1067 1063 1063 1063 1063 1067 0 0 0 0 1123 1123 1123 1123
    1123 1119 1119 1119 1119 1115 1112 1112 1112 1112 1112 1108 1105
    1105 1101 1101 1101 1101 1101 1097 1094 1094 1094 1094 1094 1090
    1090 1087 1084 1084 1084 1084 1084 1080 1080 1080 1077 1077 1080
    1077 1073 1073 1070 1070 1070 1067 1067 1067 1067 1063 1063 1063
    1063 1063 1067 1067 0 0 0 1123 1123 1123 1123 1123 1119 1119 1119
    1119 1115 1112 1112 1112 1112 1108 1105 1105 1105 1101 1101 1097
    1097 1097 1097 1094 1094 1094 1090 1090 1090 1090 1087 1084 1080
    1080 1080 1080 1080 1080 1080 1077 1077 1080 1077 1073 1070 1070
    1070 1070 1067 1067 1063 1063 1060 1060 1060 1060 1060 1063 1063 0 0
    0 1123 1119 1119 1123 1123 1119 1119 1115 1115 1112 1108 1108 1108
    1108 1108 1105 1105 1105 1101 1097 1097 1094 1094 1094 1094 1090
    1090 1090 1090 1087 1087 1084 1080 1080 1080 1080 1080 1077 1077
    1077 1077 1077 1080 1077 1073 1070 1070 1070 1070 1067 1063 1063
    1063 1060 1057 1057 1057 1057 1057 1057 1057 0 3903 1123 1119 1119
    1119 1119 1119 1115 1115 1112 1108 1108 1108 1108 1108 1105 1105
    1105 1101 1101 1097 1094 1094 1094 1090 1090 1090 1090 1090 1087
    1087 1084 1080 1080 1080 1080 1080 1080 1077 1077 1077 1073 1073
    1077 1073 1070 1070 1070 1067 1067 1063 1063 1060 1060 1057 1057
    1057 1057 1057 1057 1057 0 0 0 0 1115 1115 1119 1119 1115 1115 1112
    1108 1108 1108 1105 1105 1105 1105 1101 1097 1097 1097 1094 1094
    1090 1090 1090 1090 1090 1090 1090 1087 1084 1084 1080 1080 1080
    1080 1077 1077 1077 1077 1073 1073 1073 1073 1073 1070 1070 1070
    1067 1063 1063 1060 1057 1057 1057 1054 1054 1057 1057 1057 1057 0 0
    0 0 1115 1115 1119 1119 1115 1112 1108 1108 1108 1105 1105 1105 1105
    1101 1097 1094 1094 1094 1094 1090 1090 1090 1090 1090 1090 1090
    1087 1084 1084 1080 1080 1080 1077 1077 1077 1077 1077 1077 1073
    1070 1070 1070 1070 1070 1067 1067 1067 1063 1060 1060 1057 1057
    1057 1054 1054 1054 1054 1054 1054 0 0 0 0 1115 1115 1115 1115 1112
    1108 1108 1108 1105 1105 1105 1105 1105 1097 1097 1094 1094 1094
    1094 1090 1090 1090 1090 1090 1090 1090 1084 1084 1080 1080 1080
    1077 1077 1077 1077 1077 1077 1073 1073 1070 1070 1070 1070 1067
    1067 1067 1067 1063 1060 1060 1057 1057 1057 1054 1054 1054 1054
    1054 1054 1054 0 3859 1123 1115 1115 1115 1112 1112 1108 1108 1105
    1105 1105 1105 1105 1101 1097 1094 1094 1094 1094 1090 1090 1090
    1090 1090 1090 1087 1087 1084 1080 1080 1080 1077 1077 1077 1077
    1077 1077 1073 1073 1070 1070 1070 1070 1067 1067 1067 1067 1063
    1063 1057 1057 1057 1057 1054 1054 1054 1054 1054 1050 1050 0 0 0
    1123 1119 1115 1112 1112 1108 1108 1108 1105 1105 1101 1101 1101
    1101 1097 1094 1094 1094 1090 1090 1090 1090 1090 1090 1087 1087
    1084 1080 1080 1080 1080 1077 1077 1073 1073 1073 1073 1070 1067
    1067 1067 1067 1067 1067 1063 1063 1063 1060 1060 1057 1057 1057
    1054 1054 1054 1054 1054 1054 1050 1050 1050 0 0 1123 1115 1115 1112
    1108 1108 1108 1105 1105 1105 1101 1101 1101 1097 1094 1094 1094
    1090 1090 1090 1090 1090 1087 1087 1084 1080 1080 1080 1080 1077
    1077 1077 1077 1073 1073 1070 1070 1070 1067 1067 1063 1063 1067
    1063 1060 1060 1060 1060 1057 1057 1054 1054 1054 1054 1050 1050
    1050 1050 1050 1050 1050 0 0 1126 1115 1112 1108 1108 1108 1105 1105
    1105 1101 1101 1101 1097 1094 1094 1090 1090 1090 1090 1090 1090
    1087 1087 1087 1084 1080 1080 1080 1080 1077 1077 1073 1073 1073
    1073 1070 1070 1070 1067 1063 1063 1063 1063 1060 1060 1060 1057
    1057 1057 1054 1054 1054 1054 1050 1050 1050 1050 1050 1047 1044
    1044 1044 0 1123 1108 1108 1105 1105 1105 1105 1105 1101 1101 1097
    1097 1094 1094 1090 1090 1090 1090 1087 1087 1087 1087 1087 1084
    1080 1080 1080 1080 1077 1077 1073 1070 1070 1070 1070 1070 1070
    1067 1067 1063 1063 1063 1063 1057 1057 1057 1057 1057 1054 1054
    1054 1054 1050 1050 1047 1047 1047 1047 1047 1044 1044 0 0 1123 1108
    1108 1105 1105 1105 1105 1105 1101 1097 1097 1097 1094 1094 1090
    1090 1090 1090 1087 1084 1084 1084 1084 1084 1080 1080 1077 1077
    1077 1077 1070 1070 1067 1067 1067 1067 1067 1067 1067 1063 1063
    1063 1060 1057 1057 1057 1057 1057 1054 1054 1054 1054 1050 1050
    1047 1047 1047 1047 1044 1044 1044 0 0 1108 1108 1108 1105 1105 1105
    1105 1101 1101 1097 1094 1094 1094 1090 1090 1090 1087 1087 1087
    1084 1084 1084 1084 1084 1080 1077 1077 1077 1077 1077 1070 1070
    1067 1067 1067 1067 1067 1067 1063 1063 1063 1063 1060 1057 1057
    1057 1057 1057 1054 1054 1054 1050 1050 1047 1044 1044 1044 1044
    1041 1041 1044 0 0 1105 1105 1108 1105 1105 1105 1101 1097 1097 1094
    1094 1094 1094 1090 1090 1087 1084 1084 1084 1080 1080 1080 1080
    1080 1077 1077 1073 1073 1073 1073 1070 1070 1067 1063 1063 1063
    1063 1063 1060 1060 1060 1060 1060 1057 1057 1057 1054 1054 1054
    1050 1050 1050 1047 1047 1044 1044 1041 1041 1041 1041 1041 0 0 1105
    1105 1105 1105 1105 1101 1101 1094 1094 1094 1094 1094 1094 1090
    1090 1087 1084 1084 1080 1080 1080 1080 1077 1077 1077 1077 1073
    1073 1070 1070 1067 1067 1067 1063 1063 1063 1063 1063 1060 1057
    1057 1057 1057 1057 1057 1057 1054 1054 1054 1050 1047 1047 1047
    1044 1044 1044 1041 1041 1041 1038 1038 0 0 1105 1105 1105 1105 1105
    1101 1097 1094 1094 1094 1094 1090 1090 1090 1087 1084 1084 1080
    1077 1077 1077 1077 1077 1077 1077 1077 1073 1070 1070 1067 1067
    1067 1067 1063 1063 1063 1063 1060 1057 1057 1054 1054 1057 1054
    1054 1054 1054 1054 1050 1047 1044 1044 1044 1044 1044 1044 1041
    1041 1041 1038 1038 0 0 1105 1105 1105 1101 1101 1097 1094 1094 1090
    1090 1090 1090 1087 1087 1084 1084 1080 1080 1077 1077 1077 1077
    1077 1077 1073 1073 1073 1070 1070 1067 1067 1067 1063 1063 1060
    1060 1060 1057 1054 1054 1054 1054 1057 1054 1054 1054 1054 1054
    1050 1047 1044 1044 1044 1044 1044 1044 1041 1041 1038 1034 1034 0 0
    1097 1097 1097 1097 1097 1094 1094 1094 1090 1090 1090 1090 1087
    1084 1084 1080 1080 1080 1077 1077 1077 1073 1073 1073 1073 1073
    1073 1070 1067 1067 1063 1063 1063 1063 1060 1060 1057 1057 1054
    1054 1054 1054 1054 1054 1054 1054 1054 1050 1047 1044 1044 1044
    1041 1041 1041 1041 1041 1041 1038 1034 1034 0 0 1097 1097 1094 1094
    1094 1094 1094 1094 1090 1090 1090 1087 1084 1084 1080 1080 1080
    1080 1077 1077 1077 1073 1073 1073 1070 1070 1070 1070 1067 1063
    1063 1063 1063 1060 1057 1057 1057 1054 1054 1054 1054 1054 1054
    1050 1050 1050 1050 1047 1044 1044 1044 1041 1041 1038 1038 1038
    1041 1041 1038 1031 1031 0 0 1097 1094 1094 1094 1094 1094 1090 1090
    1090 1090 1087 1084 1084 1080 1080 1080 1080 1077 1077 1077 1077
    1073 1073 1070 1070 1070 1067 1067 1067 1063 1063 1063 1060 1060
    1057 1054 1054 1054 1054 1054 1054 1054 1050 1050 1050 1050 1050
    1047 1044 1044 1044 1041 1041 1038 1038 1038 1038 1038 1034 1031
    1031 0 0 1097 1094 1094 1094 1094 1090 1090 1090 1087 1087 1087 1080
    1080 1080 1080 1077 1077 1077 1077 1073 1073 1073 1070 1070 1067
    1067 1067 1063 1063 1063 1063 1060 1060 1057 1054 1054 1054 1054
    1054 1050 1050 1050 1047 1047 1047 1047 1047 1044 1044 1041 1041
    1041 1041 1038 1038 1038 1034 1034 1031 1031 1031 0 0 1097 1094 1094
    1090 1090 1090 1087 1087 1084 1084 1084 1080 1080 1080 1080 1077
    1077 1073 1070 1070 1070 1067 1067 1067 1067 1067 1063 1063 1063
    1063 1060 1060 1057 1054 1054 1054 1050 1050 1050 1050 1050 1050
    1047 1047 1044 1044 1044 1044 1041 1041 1041 1041 1041 1038 1038
    1038 1034 1031 1031 1031 1031 0 0 1094 1094 1094 1090 1090 1090 1087
    1087 1084 1084 1080 1080 1080 1077 1077 1077 1073 1070 1070 1067
    1067 1067 1067 1063 1063 1063 1060 1060 1060 1060 1060 1057 1054
    1054 1054 1050 1050 1050 1050 1050 1047 1047 1044 1044 1044 1044
    1044 1044 1041 1041 1041 1041 1038 1038 1034 1034 1031 1031 1031
    1031 1031 0 0 1094 1094 1090 1090 1090 1087 1087 1084 1080 1080 1080
    1080 1080 1077 1077 1073 1070 1070 1067 1067 1067 1067 1063 1063
    1063 1060 1057 1057 1057 1054 1054 1054 1054 1054 1050 1050 1050
    1050 1047 1047 1044 1044 1044 1044 1044 1044 1041 1041 1041 1041
    1041 1038 1038 1034 1034 1031 1031 1031 1031 1031 1031 0 0 1094 1090
    1090 1090 1087 1087 1084 1084 1080 1080 1080 1077 1077 1077 1073
    1070 1070 1070 1067 1067 1063 1063 1063 1063 1063 1060 1057 1054
    1054 1054 1054 1054 1050 1050 1050 1047 1047 1047 1047 1044 1041
    1041 1044 1044 1044 1044 1041 1041 1041 1038 1038 1034 1034 1034
    1031 1031 1031 1031 1028 1028 0 0 0 1090 1090 1090 1087 1084 1084
    1084 1080 1080 1080 1077 1077 1077 1073 1070 1070 1067 1067 1067
    1063 1063 1063 1063 1063 1060 1057 1054 1054 1054 1054 1050 1050
    1050 1050 1050 1047 1047 1047 1044 1044 1041 1041 1044 1041 1041
    1041 1038 1038 1038 1038 1034 1031 1031 1031 1028 1028 1028 1028
    1028 1028 0 0 0 1090 1090 1087 1087 1084 1084 1080 1080 1080 1077
    1077 1077 1077 1073 1070 1067 1067 1067 1067 1063 1063 1063 1063
    1060 1060 1057 1054 1054 1054 1050 1050 1050 1050 1050 1047 1047
    1050 1047 1044 1044 1041 1041 1041 1041 1041 1038 1038 1038 1034
    1031 1031 1031 1031 1028 1028 1028 1028 1028 1028 1028 1031 0 0 1090
    1087 1087 1084 1080 1080 1080 1080 1077 1077 1077 1073 1073 1070
    1067 1067 1067 1067 1067 1063 1060 1060 1060 1057 1057 1054 1054
    1054 1054 1050 1050 1050 1047 1047 1044 1044 1044 1044 1044 1041
    1038 1038 1041 1041 1041 1038 1038 1034 1031 1031 1031 1031 1031
    1028 1025 1025 1025 1025 1028 1028 1028 0 0 1090 1087 1084 1080 1080
    1080 1077 1077 1077 1077 1073 1070 1070 1070 1067 1067 1067 1067
    1063 1063 1060 1060 1057 1057 1054 1054 1054 1054 1050 1050 1050
    1050 1047 1044 1044 1044 1041 1041 1041 1041 1038 1038 1041 1041
    1038 1034 1034 1034 1031 1031 1031 1031 1031 1028 1025 1022 1022
    1022 1025 1025 1028 0 0 1090 1084 1084 1080 1077 1077 1077 1077 1077
    1077 1073 1070 1067 1067 1067 1067 1067 1063 1063 1063 1057 1057
    1057 1057 1054 1054 1050 1050 1050 1050 1050 1047 1044 1044 1041
    1041 1041 1041 1041 1041 1038 1038 1038 1038 1034 1034 1034 1034
    1031 1031 1028 1028 1028 1028 1025 1022 1022 1022 1022 1022 0 0 0
    1087 1080 1080 1080 1077 1077 1077 1077 1073 1073 1070 1067 1067
    1067 1067 1063 1063 1063 1063 1060 1057 1057 1054 1054 1054 1050
    1050 1050 1050 1050 1047 1047 1044 1041 1041 1041 1041 1041 1041
    1041 1038 1038 1038 1034 1031 1031 1031 1031 1031 1031 1028 1028
    1028 1025 1022 1022 1022 1019 1019 1019 0 0 0 1084 1080 1080 1080
    1077 1077 1077 1077 1073 1070 1067 1067 1067 1063 1063 1063 1063
    1063 1063 1060 1057 1057 1054 1054 1054 1050 1050 1050 1050 1050
    1047 1047 1041 1041 1041 1041 1041 1041 1041 1038 1038 1038 1034
    1031 1031 1031 1031 1031 1031 1028 1028 1028 1025 1025 1022 1022
    1022 1019 1016 1016 1016 0 0 1080 1080 1080 1080 1077 1077 1077 1073
    1073 1070 1067 1063 1063 1063 1063 1060 1060 1060 1060 1060 1057
    1054 1054 1054 1050 1050 1050 1050 1050 1047 1044 1041 1041 1041
    1038 1038 1041 1038 1038 1034 1034 1034 1031 1031 1031 1031 1031
    1028 1028 1028 1028 1028 1025 1022 1022 1022 1019 1019 1016 1016
    1016 0 0 1080 1080 1077 1077 1077 1073 1073 1073 1070 1067 1067 1063
    1063 1063 1063 1060 1060 1060 1057 1057 1054 1054 1054 1054 1050
    1047 1047 1044 1044 1044 1041 1041 1041 1041 1038 1038 1038 1038
    1038 1031 1031 1034 1031 1031 1031 1031 1028 1028 1028 1028 1028
    1025 1022 1022 1019 1019 1019 1019 1016 1016 1016 0 0 1073 1073 1077
    1077 1073 1070 1070 1070 1070 1067 1063 1063 1060 1060 1060 1060
    1060 1057 1054 1054 1054 1054 1050 1050 1047 1047 1044 1044 1041
    1041 1041 1041 1041 1041 1038 1038 1038 1038 1034 1031 1031 1031
    1031 1031 1031 1028 1028 1028 1028 1025 1025 1022 1022 1019 1019
    1019 1019 1016 1016 1016 1016 0 0 1073 1073 1073 1073 1070 1070 1067
    1067 1067 1067 1063 1063 1060 1060 1060 1057 1057 1054 1054 1054
    1054 1050 1050 1047 1047 1044 1041 1041 1041 1041 1041 1041 1038
    1038 1038 1038 1038 1034 1034 1028 1028 1031 1031 1031 1028 1028
    1028 1025 1025 1025 1022 1022 1019 1019 1019 1016 1016 1016 1016
    1016 1016 0 0 1070 1070 1073 1073 1070 1067 1067 1063 1063 1063 1063
    1063 1060 1060 1060 1057 1054 1054 1054 1050 1050 1050 1047 1047
    1044 1044 1041 1041 1041 1041 1038 1038 1038 1038 1034 1034 1034
    1034 1034 1028 1028 1028 1028 1028 1028 1028 1028 1025 1025 1022
    1019 1019 1019 1019 1016 1016 1016 1016 1016 1016 1016 0 0 1070 1070
    1073 1073 1070 1067 1063 1063 1063 1063 1060 1060 1060 1057 1054
    1054 1050 1050 1050 1050 1050 1050 1047 1047 1044 1044 1041 1041
    1041 1038 1038 1038 1038 1034 1034 1034 1034 1031 1028 1028 1028
    1028 1028 1028 1028 1028 1025 1025 1022 1022 1019 1019 1019 1016
    1016 1016 1016 1016 1016 1013 1013 1013 0 1073 1073 1073 1070 1067
    1063 1063 1063 1063 1060 1060 1060 1057 1057 1054 1054 1050 1050
    1050 1047 1047 1044 1044 1044 1041 1041 1041 1041 1041 1038 1038
    1034 1031 1031 1031 1031 1028 1028 1028 1028 1028 1028 1028 1028
    1028 1025 1025 1022 1019 1019 1019 1019 1019 1016 1016 1016 1013
    1013 1013 1010 1010 1010 0 1070 1070 1070 1070 1067 1063 1063 1060
    1060 1057 1054 1054 1054 1054 1054 1054 1050 1050 1050 1047 1044
    1044 1044 1044 1041 1041 1038 1038 1038 1038 1034 1031 1031 1028
    1028 1028 1028 1028 1028 1025 1025 1028 1028 1025 1025 1022 1022
    1019 1019 1019 1019 1019 1019 1016 1013 1013 1013 1010 1010 1010
    1010 1010 0 1067 1067 1067 1067 1067 1063 1063 1060 1057 1057 1054
    1054 1054 1054 1054 1050 1050 1050 1050 1047 1044 1041 1041 1041
    1041 1041 1038 1038 1038 1034 1034 1031 1028 1028 1028 1025 1025
    1025 1025 1025 1025 1028 1025 1025 1022 1022 1019 1019 1019 1016
    1016 1016 1016 1016 1013 1013 1013 1010 1010 1010 1010 1010 0 1067
    1067 1067 1067 1067 1063 1060 1060 1057 1054 1054 1054 1050 1050
    1050 1050 1050 1050 1047 1044 1041 1041 1041 1041 1041 1041 1038
    1038 1038 1034 1034 1031 1028 1028 1025 1025 1025 1025 1025 1022
    1022 1022 1022 1022 1022 1019 1019 1019 1019 1016 1016 1016 1016
    1016 1016 1013 1013 1010 1010 1007 1007 1007 1007 1067 1063 1063
    1063 1063 1063 1060 1057 1057 1054 1054 1050 1050 1050 1050 1050
    1047 1047 1047 1044 1041 1041 1041 1041 1038 1038 1038 1038 1038
    1034 1031 1028 1028 1025 1025 1025 1025 1025 1025 1022 1022 1022
    1022 1022 1019 1019 1019 1019 1019 1016 1016 1013 1013 1013 1013
    1010 1010 1007 1007 1007 1007 1007 1007 1067 1063 1063 1063 1060
    1060 1057 1057 1054 1054 1054 1050 1050 1050 1047 1047 1047 1047
    1047 1041 1041 1038 1038 1038 1038 1038 1038 1038 1034 1034 1031
    1028 1028 1025 1025 1025 1025 1025 1022 1022 1022 1022 1019 1019
    1019 1019 1019 1016 1016 1016 1013 1010 1010 1010 1010 1010 1010
    1007 1007 1007 1007 1007 1007 1067 1067 1063 1060 1060 1057 1057
    1054 1054 1054 1050 1050 1050 1050 1047 1047 1047 1044 1044 1041
    1041 1038 1038 1038 1038 1038 1034 1034 1031 1031 1028 1028 1025
    1025 1025 1025 1025 1022 1022 1022 1022 1019 1019 1019 1019 1019
    1016 1016 1016 1016 1010 1007 1007 1007 1007 1007 1004 1004 1004
    1004 1004 1004 1004 1067 1067 1063 1060 1057 1057 1054 1054 1054
    1054 1050 1050 1050 1047 1047 1047 1044 1044 1041 1041 1038 1038
    1038 1038 1034 1034 1031 1028 1028 1028 1028 1025 1025 1025 1025
    1022 1022 1022 1019 1019 1019 1019 1019 1019 1019 1016 1016 1016
    1016 1013 1010 1007 1007 1007 1007 1007 1004 1004 1004 1001 1001
    1001 1007 1070 1063 1060 1057 1057 1054 1054 1054 1054 1054 1050
    1050 1047 1047 1047 1044 1044 1041 1041 1041 1038 1038 1038 1038
    1034 1034 1031 1028 1028 1028 1025 1025 1025 1022 1022 1019 1019
    1019 1019 1019 1019 1019 1019 1019 1016 1016 1016 1013 1013 1013
    1010 1007 1007 1007 1007 1004 1004 1004 1001 1001 1001 1001 1007
    1070 1060 1057 1057 1057 1054 1054 1050 1050 1050 1050 1047 1047
    1047 1047 1044 1044 1041 1041 1038 1038 1034 1034 1034 1034 1031
    1028 1028 1025 1025 1025 1025 1025 1022 1022 1019 1019 1019 1019
    1019 1019 1019 1019 1016 1016 1016 1016 1013 1010 1007 1007 1007
    1007 1007 1007 1004 1004 1001 1001 998 998 995 995 0 1057 1057 1054
    1054 1054 1050 1050 1050 1050 1047 1044 1044 1044 1044 1044 1041
    1041 1041 1038 1038 1034 1034 1034 1034 1031 1028 1025 1025 1025
    1025 1025 1025 1022 1019 1019 1019 1019 1016 1016 1016 1016 1016
    1016 1016 1013 1013 1013 1010 1007 1007 1007 1007 1007 1004 1004
    1004 1001 998 998 995 995 995 0 1054 1054 1054 1054 1054 1050 1050
    1050 1047 1047 1044 1044 1044 1041 1041 1041 1038 1038 1038 1034
    1034 1031 1031 1031 1028 1028 1025 1025 1025 1025 1025 1022 1019
    1016 1016 1016 1016 1016 1016 1016 1016 1016 1013 1013 1013 1013
    1010 1007 1007 1007 1007 1004 1004 1004 1004 1001 998 998 998 995
    995 995 0 1054 1054 1054 1054 1050 1050 1050 1047 1047 1044 1044
    1041 1041 1041 1041 1038 1038 1038 1038 1034 1031 1031 1028 1028
    1028 1028 1025 1025 1025 1025 1022 1022 1019 1016 1016 1016 1016
    1016 1016 1016 1016 1013 1013 1013 1013 1013 1010 1007 1007 1007
    1007 1004 1004 1004 1004 1001 998 998 998 998 995 995 0 1054 1054
    1054 1054 1050 1050 1047 1047 1044 1044 1044 1041 1041 1041 1041
    1038 1038 1038 1034 1034 1031 1031 1028 1028 1025 1025 1025 1025
    1025 1022 1022 1019 1019 1016 1016 1016 1016 1016 1013 1013 1013
    1013 1010 1010 1010 1010 1010 1010 1007 1007 1007 1004 1004 1004
    1001 998 998 998 998 998 995 995 0 1054 1054 1054 1054 1050 1050
    1047 1047 1044 1044 1044 1041 1041 1038 1038 1038 1034 1034 1034
    1034 1031 1028 1028 1028 1025 1025 1025 1025 1022 1019 1019 1019
    1016 1016 1016 1013 1013 1013 1013 1013 1013 1010 1010 1010 1010
    1010 1010 1007 1007 1004 1004 1004 1004 1001 1001 998 995 995 998
    998 995 995 0 1054 1054 1054 1050 1050 1047 1044 1044 1044 1041 1041
    1041 1041 1038 1038 1038 1034 1031 1031 1031 1028 1028 1025 1025
    1025 1025 1025 1022 1022 1019 1019 1019 1016 1016 1016 1013 1013
    1013 1013 1013 1010 1010 1010 1010 1010 1007 1007 1004 1004 1004
    1004 1004 1001 1001 998 998 995 995 995 995 995 995 0 1050 1050 1050
    1050 1050 1047 1044 1044 1041 1041 1041 1038 1038 1038 1034 1034
    1031 1031 1028 1028 1028 1028 1025 1025 1025 1025 1022 1022 1022
    1019 1016 1016 1016 1016 1013 1013 1013 1013 1010 1010 1010 1010
    1010 1010 1007 1007 1004 1004 1004 1004 1001 1001 1001 998 998 998
    995 995 995 995 995 995 0 1050 1050 1050 1044 1044 1044 1044 1044
    1041 1041 1038 1038 1038 1038 1034 1034 1031 1031 1028 1028 1028
    1025 1025 1022 1022 1022 1019 1019 1019 1019 1016 1016 1016 1013
    1013 1013 1013 1013 1010 1010 1010 1007 1007 1007 1007 1007 1004
    1004 1001 1001 1001 998 998 998 998 995 995 995 992 992 995 995 1050
    1050 1050 1047 1044 1044 1041 1041 1041 1041 1038 1038 1038 1038
    1034 1034 1031 1031 1031 1028 1028 1028 1025 1025 1022 1022 1022
    1019 1019 1019 1016 1016 1016 1016 1013 1013 1013 1013 1013 1010
    1010 1010 1007 1007 1007 1007 1004 1004 1004 1001 1001 998 998 998
    998 998 995 995 995 992 992 995 995 1050 1050 1047 1044 1044 1041
    1041 1041 1041 1041 1038 1038 1038 1034 1034 1034 1031 1031 1031
    1031 1031 1028 1028 1025 1022 1022 1022 1019 1019 1019 1016 1016
    1013 1013 1013 1013 1013 1010 1010 1010 1010 1010 1007 1007 1007
    1007 1004 1004 1004 1001 1001 998 998 998 998 998 998 995 995 995
    995 995 995 1050 1050 1047 1044 1044 1041 1041 1041 1038 1038 1038
    1038 1038 1034 1034 1034 1034 1034 1034 1031 1031 1028 1028 1025
    1022 1022 1022 1022 1022 1022 1016 1016 1013 1013 1013 1013 1013
    1010 1010 1010 1010 1010 1007 1007 1007 1007 1007 1004 1004 1004
    1001 998 998 998 998 998 995 995 995 995 995 995 995 1050 1050 1047
    1047 1044 1041 1041 1041 1038 1038 1038 1038 1038 1038 1034 1034
    1034 1034 1034 1034 1034 1031 1028 1028 1028 1025 1025 1028 1025
    1025 1019 1016 1016 1016 1016 1013 1013 1013 1010 1010 1010 1013
    1010 1010 1010 1010 1007 1004 1004 1004 1004 1001 1001 998 998 998
    995 995 995 995 995 995 995 1047 1047 1047 1047 1044 1044 1041 1041
    1041 1041 1041 1041 1038 1038 1038 1038 1034 1034 1038 1034 1034
    1031 1031 1028 1028 1028 1028 1028 1028 1028 1019 1019 1022 0 0 0
    1019 1019 1019 1019 1019 1028 1041 1041 1031 1031 1031 1004 1004
    1004 1004 1044 1044 1044 1047 1044 995 995 995 995 995 995 0 1047
    1044 1044 1047 1044 1044 1041 1041 1041 1041 1044 1041 1041 1041
    1038 1038 1038 1038 1038 1034 1028 1028 1031 1031 1031 1031 1031
    1031 1031 1047 1047 1047 1047 0 0 0 0 0 0 1031 1031 1031 1044 1044
    1044 1044 1094 1044 1044 1047 1044 1044 1044 1054 1050 1047 1044
    1044 1044 1094 1097 0 0 1044 1044 1041 1041 1044 1044 1041 1041 1050
    1047 1044 1044 1044 1041 1041 1041 1041 1047 1047 1047 1028 1028
    1031 1031 1034 1031 1031 1031 1031 1060 1060 1060 0 0 0 0 0 0 0 0
    2835 2835 2835 1097 1097 1094 1094 1094 1094 1094 1094 1087 1087
    1087 1087 1047 1047 1094 1094 1094 1097 1097 0 1044 1044 1041 1041
    1041 3816 1060 1060 1060 1054 1050 1050 1050 1050 1105 1101 1097
    1094 1090 1090 1090 1034 1034 1034 1034 1034 1034 2744 0 0 0 0 0 0 0
    0 0 0 0 0 0 2835 2835 2835 1097 1094 1094 1094 1094 1094 1094 1094
    1090 1090 1090 1090 1094 1094 1094 1094 1094 1097 1097 3816 3774
    3774 3816 3816 3816 3816 1138 1138 1138 1054 1054 1054 1123 1105
    1101 1097 1097 1090 1090 1112 1119 1031 1031 1034 1038 2744 2744 0 0
    0 0 0 0 0 0 0 0 0 0 2812 2835 2835 2835 1101 1097 1097 1097 1094
    1094 1094 1094 1090 1090 1094 1094 1094 1094 1094 1094 1094 1094 0
    3816 3774 3774 3816 3816 3816 3816 1149 1138 1138 1138 1134 1130
    1123 1115 1115 1108 1105 1105 1112 1112 1119 1031 1031 1034 2812
    2744 2723 2723 0 0 0 0 0 0 0 0 2812 2812 2812 2812 2812 2812 2812
    1101 1101 1097 1097 1097 1094 1094 1094 2883 2883 2908 2933 1097
    1094 1094 1094 1094 2933 2933 3816 3774 3774 3816 3816 3816 3774
    1149 1138 1138 1138 1134 1130 1126 1119 1119 1119 1112 1112 1119
    1119 1119 2835 2835 2812 2812 2767 2723 2723 0 0 0 0 0 0 0 2835 2812
    2812 2812 2812 2812 2812 2812 2812 2812 2812 2859 2859 2859 2859
    2859 2859 2883 2908 2933 2933 2933 2933 2933 2933 2933 2933 3816
    3816 3816 3816 3816 3816 3774 1149 1141 1138 1138 1134 1130 1130
    1126 1126 1123 1119 1119 1119 1119 2835 1038 1038 2812 2789 2789
    2767 2767 0 0 0 0 0 0 0 2812 2812 2812 2812 2789 2789 2812 2812 2812
    2812 2812 2835 2835 2835 2835 2835 2859 2883 2908 2933 2933 2933
    2933 2933 2933 2933 2933</data></Depth6691>
</opencv_storage>
