<?xml version="1.0"?>
<opencv_storage>
<Depth9846 type_id="opencv-matrix">
  <rows>63</rows>
  <cols>100</cols>
  <dt>w</dt>
  <data>
    5548 5640 5640 5640 5640 5640 5640 5548 5548 5548 5548 5548 5460
    5460 5460 5460 5460 5460 5460 5460 5374 5374 5374 5374 5374 5374
    5374 5374 5374 5374 5374 5291 5291 5291 5291 5291 5291 5291 5210
    5210 5210 5210 5291 5291 5291 5291 5210 5210 5132 5132 5132 5132
    5132 5056 5056 5056 5056 5056 5056 5056 3903 3903 3903 3948 3903
    3859 3859 3859 3859 3859 0 0 0 0 0 0 1087 1087 1087 0 1094 1094 1097
    1101 1097 1090 1090 1087 1087 1090 0 0 0 0 0 0 0 0 0 0 5548 5640
    5640 5640 5640 5640 5548 5548 5548 5548 5548 5548 5374 5374 5460
    5460 5460 5460 5460 5460 5374 5374 5374 5374 5374 5374 5374 5374
    5291 5291 5291 5291 5291 5291 5291 5291 5291 5210 5210 5210 5132
    5132 5291 5291 5291 5210 5210 5132 5132 5056 5056 5056 5056 5056
    5056 5056 5056 4983 4983 4983 3903 3903 3948 3948 3903 3859 3859
    3859 3859 3859 1087 1087 1094 1090 1087 1087 1087 1087 1087 1090
    1090 1094 1094 1094 1090 1090 1087 1087 1087 1084 1080 1080 1084 0 0
    0 0 0 0 0 5548 5640 5548 5548 5640 5548 5548 5460 5460 5460 5460
    5460 5374 5374 5374 5374 5374 5374 5374 5374 5374 5374 5374 5374
    5374 5374 5374 5374 5291 5291 5291 5291 5291 5291 5291 5291 5210
    5210 5210 5210 5132 5132 5291 5291 5291 5210 5210 5132 5056 4911
    4911 4911 5056 5056 5056 5056 4983 4983 4983 4983 4983 3948 1112
    1105 1101 1101 1105 1101 1097 1090 1087 1087 1090 1090 1087 1087
    1087 1087 1090 1087 1087 1084 1084 1087 1087 1087 1084 1084 1080
    1077 1073 1073 1077 0 0 0 0 0 0 0 5548 5548 5548 5548 5548 5548 5548
    5460 5460 5460 5460 5460 5374 5374 5374 5374 5374 5374 5374 5374
    5374 5374 5374 5374 5291 5291 5291 5291 5291 5291 5291 5210 5210
    5291 5291 5291 5210 5210 5210 5210 5132 5132 5210 5210 5291 5210
    5210 5132 5056 1115 1115 1115 5056 1097 1090 1090 4983 4983 1112
    1108 1108 1105 1101 1101 1101 1101 1101 1097 1097 1090 1087 1087
    1090 1087 1087 1087 1084 1084 1084 1080 1080 1077 1077 1077 1077
    1077 1073 1073 1070 1067 1063 1063 1063 1063 1063 0 0 0 0 0 5548
    5548 5548 5460 5460 5460 5460 5460 5460 5460 5460 5460 5374 5374
    5374 5374 5374 5374 5374 5374 5374 5374 5291 5291 5291 5291 5291
    5291 5291 5210 5210 5210 5210 5210 5210 5210 5132 5132 5132 5056
    5056 5132 5210 5210 5291 5210 1112 1108 1108 1112 1112 1112 1105
    1097 1090 1090 1105 1101 1101 1105 1105 1101 1097 1097 1094 1094
    1094 1090 1087 1087 1084 1084 1084 1084 1080 1080 1077 1077 1077
    1073 1073 1073 1070 1067 1067 1063 1063 1063 1063 1057 1054 1054
    1054 1054 1057 0 0 0 0 0 5548 5548 5548 5460 5460 5460 5460 5460
    5460 5374 5374 5374 5374 5374 5374 5374 5374 5291 5291 5291 5374
    5291 5210 5210 5210 5210 5291 5291 1119 1119 1119 1123 1123 1126
    1126 1123 1123 1126 1126 5056 1119 1119 1115 1115 1115 1115 1112
    1108 1108 1112 1112 1108 1101 1101 1097 1097 1101 1097 1097 1097
    1094 1090 1087 1087 1084 1084 1084 1080 1080 1080 1077 1077 1077
    1073 1073 1070 1067 1067 1067 1070 1067 1067 1060 1060 1057 1057
    1054 1054 1050 1050 1050 1050 1050 1050 1050 1050 0 0 0 0 5460 5460
    5460 5548 5548 5460 5460 5460 5374 5374 5374 5374 5374 5374 5291
    5291 5374 1141 1138 1138 1138 1138 1126 1126 1130 1126 1126 1119
    1115 1115 1115 1119 1119 1123 1119 1115 1115 1119 1123 1123 1119
    1119 1115 1115 1115 1115 1108 1108 1105 1101 1101 1101 1097 1097
    1094 1094 1094 1090 1090 1084 1080 1080 1080 1077 1077 1073 1073
    1073 1070 1070 1070 1070 1070 1070 1067 1060 1060 1060 1060 1060
    1057 1057 1054 1054 1054 1050 1050 1047 1044 1044 1041 1041 1041
    1041 1041 1025 1025 0 0 0 5460 5460 5460 5548 5548 5548 5460 5460
    1153 1153 1145 1141 1138 1138 1138 1138 1138 1138 1134 1130 1130
    1126 1123 1123 1123 1126 1126 1119 1112 1112 1112 1112 1115 1112
    1112 1108 1108 1112 1112 1108 1108 1108 1108 1108 1108 1105 1101
    1097 1097 1094 1090 1090 1090 1087 1087 1087 1087 1087 1084 1077
    1077 1073 1073 1073 1070 1070 1070 1067 1067 1063 1063 1060 1060
    1057 1057 1057 1057 1054 1050 1050 1050 1047 1047 1047 1044 1044
    1041 1038 1038 1038 1038 1034 1034 1031 1031 1025 1022 1022 0 0 5460
    5460 5460 5548 5548 1149 1149 1145 1145 1138 1138 1138 1138 1138
    1138 1138 1134 1134 1130 1130 1126 1123 1115 1115 1115 1115 1119
    1112 1112 1112 1112 1101 1101 1101 1101 1097 1097 1097 1097 1101
    1097 1097 1094 1090 1090 1087 1087 1090 1090 1087 1087 1087 1084
    1084 1080 1080 1080 1077 1077 1073 1073 1070 1067 1063 1063 1063
    1060 1057 1054 1054 1050 1050 1050 1047 1047 1047 1047 1047 1044
    1044 1044 1044 1044 1041 1038 1038 1038 1034 1031 1031 1028 1028
    1028 1022 1022 1022 1016 1016 1022 0 5460 5460 1141 1141 1141 1141
    1141 1138 1134 1134 1134 1130 1130 1130 1130 1130 1130 1126 1123
    1119 1119 1119 1112 1112 1112 1112 1108 1108 1105 1105 1105 1094
    1094 1094 1094 1090 1090 1094 1094 1094 1090 1087 1087 1087 1084
    1084 1080 1077 1077 1077 1077 1080 1077 1077 1073 1073 1073 1070
    1067 1067 1067 1063 1060 1057 1057 1054 1054 1050 1047 1047 1047
    1044 1044 1041 1038 1038 1038 1038 1041 1038 1038 1038 1038 1034
    1031 1031 1031 1028 1025 1025 1022 1019 1019 1016 1013 1013 1013
    1013 1016 0 5460 5460 1141 1141 1138 1138 1134 1130 1126 1126 1126
    1126 1123 1123 1123 1123 1115 1115 1112 1112 1112 1112 1101 1101
    1101 1101 1101 1101 1097 1090 1087 1087 1084 1084 1087 1084 1084
    1087 1084 1084 1077 1077 1077 1077 1077 1073 1073 1070 1070 1070
    1067 1060 1060 1057 1057 1057 1060 1057 1054 1050 1050 1054 1054
    1050 1050 1047 1047 1044 1044 1041 1041 1041 1041 1034 1034 1031
    1031 1031 1034 1034 1034 1034 1034 1031 1028 1025 1022 1016 1016
    1016 1016 1013 1010 1010 1007 1007 1007 1004 998 998 1141 1141 1141
    1138 1134 1130 1126 1123 1123 1119 1119 1119 1115 1112 1112 1108
    1108 1108 1108 1108 1105 1101 1097 1097 1097 1094 1094 1090 1090
    1084 1080 1080 1080 1080 1080 1080 1080 1080 1077 1077 1070 1067
    1067 1067 1063 1063 1063 1063 1063 1063 1057 1054 1054 1054 1050
    1047 1044 1044 1044 1044 1044 1047 1047 1047 1044 1044 1041 1041
    1041 1038 1034 1031 1031 1028 1028 1025 1025 1025 1028 1028 1025
    1025 1022 1022 1019 1016 1013 1010 1010 1007 1007 1004 1001 1001
    1001 1001 998 995 995 998 1141 1141 1138 1134 1130 1123 1119 1119
    1115 1112 1112 1112 1108 1105 1101 1101 1101 1101 1101 1097 1097
    1094 1094 1094 1087 1087 1084 1084 1084 1077 1077 1077 1077 1077
    1077 1073 1073 1073 1070 1067 1063 1063 1060 1060 1060 1057 1054
    1054 1054 1050 1050 1050 1047 1047 1041 1041 1038 1038 1038 1034
    1034 1034 1031 1031 1034 1034 1028 1028 1025 1025 1025 1025 1028
    1022 1022 1019 1019 1019 1016 1013 1013 1010 1010 1010 1010 1010
    1007 1007 1004 1001 1001 998 995 995 995 995 992 992 989 989 1138
    1138 1138 1130 1130 1123 1115 1112 1108 1108 1105 1105 1105 1097
    1097 1094 1094 1094 1094 1090 1090 1090 1090 1084 1080 1077 1077
    1077 1077 1073 1070 1070 1070 1070 1070 1063 1063 1063 1060 1060
    1057 1057 1054 1054 1054 1054 1047 1044 1041 1034 1034 1041 1041
    1034 1031 1028 1028 1025 1025 1028 1025 1025 1019 1016 1016 1019
    1016 1016 1022 1022 1019 1019 1016 1010 1010 1010 1010 1010 1010
    1010 1007 1004 1004 1001 1001 1004 1001 1001 998 995 992 992 989 989
    989 989 989 987 987 987 1138 1138 1138 1130 1130 1101 1097 1097 1097
    1097 1097 1094 1090 1087 1087 1084 1084 1084 1084 1080 1080 1077
    1077 1073 1070 1070 1070 1070 1067 1067 1063 1063 1063 1060 1057
    1054 1054 1057 1057 1050 1050 1047 1047 1047 1047 1038 1038 1034
    1034 1034 1034 1034 1028 1028 1025 1022 1022 1022 1019 1019 1016
    1013 1010 1010 1010 1010 1010 1010 1007 1004 1004 1007 1007 1004
    1004 1004 1007 1007 1007 1004 1001 998 998 998 998 998 992 989 987
    987 987 987 987 984 984 984 981 981 973 970 1141 1141 1138 1138 1134
    1094 1090 1087 1087 1087 1087 1087 1080 1080 1077 1073 1073 1073
    1073 1073 1073 1070 1067 1067 1063 1063 1063 1060 1060 1060 1057
    1054 1050 1047 1047 1047 1047 1047 1047 1047 1044 1041 1041 1038
    1034 1031 1028 1028 1028 1025 1025 1025 1022 1019 1019 1019 1019
    1019 1016 1013 1010 1007 1007 1007 1007 1007 1004 1001 998 998 998
    995 995 995 995 998 995 995 998 995 992 992 992 992 992 989 987 984
    984 984 984 981 978 978 973 973 970 970 964 964 1141 1141 1141 1138
    1138 1084 1080 1080 1080 1080 1077 1077 1073 1073 1070 1070 1070
    1070 1067 1067 1063 1063 1063 1063 1057 1054 1050 1047 1047 1050
    1047 1044 1044 1044 1038 1038 1038 1034 1034 1034 1031 1031 1028
    1025 1025 1022 1022 1022 1022 1019 1019 1019 1013 1013 1013 1013
    1013 1010 1010 1007 1004 1001 1001 998 998 998 998 995 992 992 989
    989 989 992 989 987 984 984 987 987 989 987 987 984 984 975 975 978
    978 975 975 973 973 970 970 967 967 967 962 962 0 1141 1141 1138
    1070 1070 1073 1073 1073 1067 1067 1067 1067 1067 1067 1063 1060
    1057 1057 1057 1057 1057 1054 1050 1044 1044 1044 1044 1044 1041
    1041 1041 1038 1038 1034 1034 1034 1031 1028 1025 1022 1022 1022
    1019 1019 1019 1019 1016 1013 1013 1013 1010 1007 1007 1004 1004
    1004 998 998 998 998 995 992 992 992 992 992 989 987 987 984 984 981
    981 981 978 978 981 981 978 975 970 970 975 975 973 973 973 973 970
    970 967 964 964 964 964 956 956 954 954 0 1145 1145 1060 1057 1057
    1057 1057 1054 1054 1057 1057 1057 1060 1060 1057 1054 1047 1047
    1044 1044 1044 1041 1041 1041 1041 1041 1038 1038 1034 1031 1031
    1028 1028 1025 1025 1025 1025 1022 1019 1019 1016 1016 1016 1016
    1016 1013 1010 1007 1007 1007 1004 1004 1004 1001 1001 998 992 989
    987 987 987 987 987 984 984 984 984 981 978 978 975 975 973 973 973
    973 973 973 970 967 967 967 967 964 964 967 967 967 967 964 962 959
    959 959 956 956 954 954 954 0 1054 1054 1054 1054 1050 1050 1047
    1047 1044 1044 1044 1044 1044 1044 1047 1044 1044 1041 1041 1041
    1038 1034 1031 1031 1031 1031 1031 1031 1025 1022 1022 1019 1016
    1016 1016 1016 1016 1016 1016 1013 1010 1010 1010 1010 1007 1004
    1001 1001 1001 998 992 992 992 995 992 989 984 984 981 978 978 981
    981 981 981 978 975 973 970 970 970 970 967 967 964 964 964 962 962
    962 962 962 962 959 959 956 951 951 954 954 959 954 951 951 951 951
    946 943 943 0 0 1050 1050 1050 1047 1047 1044 1041 1041 1038 1038
    1038 1038 1028 1028 1028 1028 1034 1034 1034 1031 1031 1028 1028
    1025 1019 1019 1022 1019 1016 1016 1013 1010 1007 1007 1010 1010
    1010 1010 1007 1007 1004 1001 1001 998 998 998 995 992 989 987 987
    987 987 987 981 978 978 978 975 975 975 975 975 975 970 967 964 964
    964 964 964 962 962 959 956 956 959 959 962 959 956 954 951 951 948
    946 946 943 940 940 940 940 946 946 943 940 935 935 0 0 1050 1050
    1041 1041 1041 1041 1038 1034 1031 1031 1028 1025 1022 1022 1019
    1019 1019 1019 1019 1016 1016 1022 1019 1016 1016 1016 1013 1013
    1013 1013 1010 1007 1004 1004 1007 1004 1004 1004 1001 1001 998 998
    995 992 992 989 987 987 984 984 984 981 978 978 975 973 973 973 970
    970 967 967 964 964 962 962 959 959 959 959 959 956 956 954 954 954
    954 951 948 948 948 946 946 946 943 943 938 938 935 935 933 933 933
    933 933 935 930 930 0 0 1031 1031 1031 1031 1025 1025 1031 1028 1028
    1022 1019 1019 1019 1016 1016 1016 1016 1013 1013 1010 1007 1007
    1007 1004 1004 1004 1007 1004 1004 1004 1004 1001 998 998 998 995
    995 995 992 992 989 989 987 984 981 978 978 981 978 978 975 973 973
    970 970 967 964 964 964 964 964 962 959 956 954 954 954 951 951 951
    951 951 951 948 948 948 948 946 943 943 940 940 940 940 940 938 935
    933 930 930 930 928 928 925 925 923 923 923 5132 0 0 0 1016 1016
    1016 1016 1019 1019 1019 1016 1016 1013 1013 1013 1013 1010 1010
    1004 1004 1004 1001 1001 998 998 998 998 989 987 987 992 989 989 987
    987 987 987 987 987 987 978 978 978 978 975 975 975 975 973 970 967
    967 967 967 967 962 962 962 959 959 959 956 954 954 954 951 951 948
    946 946 946 943 943 940 940 940 943 938 938 938 935 935 935 933 933
    933 933 933 930 925 925 923 923 920 918 918 918 918 918 5132 0 0
    1010 1010 1010 1010 1010 1010 1013 1013 1013 1010 1007 1004 1004
    1001 1001 1001 998 998 992 992 992 992 992 987 987 984 984 984 981
    981 978 975 975 981 981 981 981 978 975 973 973 973 973 973 970 970
    967 964 962 962 962 962 962 959 959 956 954 951 946 946 946 946 946
    946 946 943 940 940 938 933 933 933 933 933 933 933 933 933 930 928
    925 925 925 925 925 925 923 920 920 918 915 915 913 913 913 913 913
    5132 1161 1157 1007 1007 1007 1007 1007 1007 1004 1001 998 998 998
    995 995 992 992 992 989 989 984 984 984 984 981 981 981 978 978 975
    973 973 973 970 970 973 973 970 970 973 973 970 967 964 964 962 962
    962 959 959 956 956 956 956 954 951 951 948 948 946 943 940 940 938
    938 938 938 938 938 933 933 933 930 930 928 928 925 925 925 925 925
    923 920 920 918 918 920 918 915 915 915 915 913 910 908 908 908 908
    908 5132 1161 1157 1157 1007 1007 1004 1004 1004 1001 995 992 992
    992 992 989 987 987 984 984 984 981 981 978 975 975 975 975 973 970
    970 967 964 964 962 962 964 962 956 956 956 956 956 956 959 956 954
    954 954 954 954 954 951 948 946 943 943 943 940 940 940 938 935 935
    933 933 933 933 930 930 930 930 928 925 925 923 923 923 923 923 920
    920 918 915 915 915 915 913 913 913 913 913 910 908 906 903 903 903
    901 901 1157 1157 1153 1153 1007 1007 1001 995 995 992 989 989 987
    984 984 984 981 981 978 978 978 978 975 973 973 970 970 967 964 964
    962 962 959 959 956 956 956 954 954 951 951 951 948 948 946 946 946
    948 951 951 951 948 946 943 940 940 940 938 938 935 935 933 933 933
    930 928 925 925 925 925 923 923 923 920 920 918 918 920 918 918 915
    915 913 913 910 910 908 908 908 906 906 896 894 894 896 896 896 896
    894 894 1157 1153 1153 1153 1149 1149 989 984 981 981 984 981 978
    978 975 973 973 973 973 970 970 973 970 967 964 964 964 962 962 959
    959 956 956 956 954 954 951 951 951 948 948 943 940 940 938 938 938
    935 935 935 933 933 938 935 935 938 938 933 930 930 928 928 928 928
    925 923 920 920 920 915 915 913 913 913 910 910 910 910 910 908 908
    908 908 906 906 903 903 903 901 896 894 894 894 894 894 894 889 889
    889 891 1153 1153 1153 1149 1149 1149 989 981 975 973 973 973 970
    970 970 967 967 967 967 967 967 962 959 959 959 956 956 956 956 951
    951 951 948 948 948 948 946 946 946 943 940 938 935 935 933 933 930
    928 928 928 928 925 925 923 923 928 925 925 925 925 923 923 923 920
    920 920 918 918 915 910 910 908 908 906 906 906 906 906 906 906 903
    903 901 901 898 898 898 898 896 894 894 894 891 891 889 889 889 887
    887 889 1153 1153 1153 1149 1149 1145 1141 975 973 970 970 970 964
    964 964 962 962 962 959 956 954 954 954 954 951 951 948 948 948 946
    946 946 943 943 940 940 938 938 935 935 935 933 930 930 930 928 925
    925 925 923 923 920 918 918 915 915 915 915 915 918 915 915 913 910
    910 910 910 910 910 906 906 903 903 903 901 901 901 901 901 898 898
    896 896 896 896 896 896 896 894 894 894 894 891 891 889 889 889 887
    887 887 1153 1153 1153 1149 1149 1145 975 975 973 970 964 962 959
    959 959 959 959 956 951 951 946 946 946 943 943 946 940 940 935 935
    935 935 935 935 935 935 935 933 933 930 930 930 928 928 925 923 920
    918 918 918 915 913 913 913 913 910 910 908 908 908 908 906 906 906
    903 903 903 903 903 903 903 901 901 898 898 896 896 898 898 898 898
    896 896 896 896 896 896 894 894 894 894 894 891 891 889 889 889 887
    887 887 4983 973 973 978 978 970 970 970 967 962 962 956 956 954 954
    954 951 951 948 946 940 940 943 940 940 940 935 933 933 933 933 933
    930 930 930 930 930 928 928 925 925 925 923 920 920 915 913 913 913
    913 910 910 910 908 908 908 908 908 908 906 906 903 903 903 903 903
    903 903 901 901 901 901 901 898 898 896 896 896 896 896 896 896 896
    896 896 894 894 894 894 894 894 894 891 891 889 889 889 887 887 887
    0 0 973 973 967 967 954 951 951 951 951 951 951 951 951 948 946 946
    943 943 940 940 940 938 938 935 933 930 928 928 925 923 923 923 923
    925 923 923 920 918 918 920 918 918 915 913 913 910 910 910 910 910
    908 908 906 906 906 906 906 906 903 903 903 903 903 903 903 903 901
    901 901 898 898 898 898 896 896 896 896 896 896 896 896 896 894 894
    894 894 894 894 894 894 894 894 891 891 891 889 887 887 0 0 970 970
    964 959 951 948 948 946 946 946 938 938 938 940 940 940 938 938 935
    933 930 930 930 928 928 928 925 923 923 920 920 918 918 920 918 918
    915 915 915 915 915 913 913 913 910 910 910 910 910 910 908 908 906
    903 903 906 906 906 903 903 903 903 903 903 903 901 901 901 901 898
    898 898 898 896 896 898 896 896 896 896 896 896 894 894 894 894 894
    894 894 894 894 894 891 891 891 891 887 887 0 951 959 959 956 951
    946 943 943 940 940 935 933 933 933 933 930 930 930 928 928 928 925
    925 923 923 923 923 923 920 920 918 918 918 918 920 918 915 915 915
    915 915 913 913 913 910 910 910 910 910 910 910 908 908 906 903 903
    906 906 906 903 903 903 903 903 903 903 901 901 901 901 898 898 898
    898 896 896 898 898 898 898 898 898 898 896 896 896 896 896 894 894
    894 894 894 894 894 891 891 889 889 948 951 951 951 948 948 940 940
    940 938 933 930 930 930 928 928 928 925 925 923 923 925 923 923 920
    920 920 920 920 920 918 918 918 918 918 918 915 915 915 915 915 915
    913 913 913 910 910 910 910 910 910 910 910 908 906 906 906 906 906
    908 906 906 903 903 903 903 903 901 901 901 901 901 901 901 898 898
    898 901 901 901 901 898 898 898 898 896 896 896 896 896 894 894 896
    896 894 894 894 891 889 889 948 948 948 948 946 943 940 935 935 933
    930 930 930 930 928 925 925 925 925 923 923 923 923 923 920 920 920
    920 920 920 918 918 918 915 915 918 915 915 915 915 915 915 915 913
    913 910 910 910 910 910 910 910 910 910 908 908 908 908 908 908 908
    906 903 903 903 903 903 901 901 903 901 901 903 901 901 898 898 901
    903 903 901 901 901 898 898 898 896 896 896 896 896 896 896 896 894
    894 894 891 891 891 948 948 948 948 946 943 940 935 935 933 930 928
    928 928 928 925 925 925 925 923 923 923 923 923 920 920 920 920 920
    920 918 918 918 915 915 918 918 918 918 918 915 915 915 913 913 913
    910 910 910 910 910 910 910 910 908 908 908 908 910 910 908 908 906
    903 903 903 903 903 903 903 903 903 903 903 901 901 901 903 903 903
    901 901 901 901 901 901 898 898 896 896 896 898 896 896 896 896 894
    894 891 891 948 948 948 948 946 943 940 938 935 933 930 928 928 928
    928 928 925 925 925 923 923 923 923 923 923 920 920 920 920 920 920
    920 918 918 918 918 918 918 918 918 918 915 915 915 915 913 913 913
    913 913 913 910 910 910 910 910 910 910 910 910 910 908 908 908 903
    903 906 906 906 906 903 903 903 903 903 903 903 903 903 903 903 903
    903 901 901 901 901 898 898 898 898 898 898 896 896 896 896 894 894
    894 951 948 948 948 946 943 940 940 938 933 930 928 928 928 928 928
    928 928 925 925 925 925 923 923 923 920 920 920 920 920 920 920 918
    918 918 918 918 918 918 918 918 918 918 918 918 915 913 913 913 913
    913 913 913 913 913 910 910 910 910 910 910 910 908 908 903 903 906
    906 906 906 906 906 906 903 903 903 903 906 906 906 903 903 903 903
    903 903 901 898 898 898 898 898 898 898 896 896 894 894 894 894 948
    948 948 946 946 943 940 938 935 933 930 928 928 928 930 930 928 928
    928 928 925 925 923 923 923 923 920 920 920 920 920 920 920 918 918
    918 920 920 920 920 918 918 918 918 918 915 915 913 913 913 913 913
    913 913 913 910 910 910 910 910 910 910 910 908 908 908 908 908 908
    908 908 906 906 906 903 903 903 906 906 906 906 903 903 903 903 903
    903 901 901 901 901 898 898 898 896 896 894 894 894 894 951 951 948
    946 946 943 940 938 935 933 930 930 930 930 930 930 930 930 930 928
    928 925 925 923 923 923 920 920 920 920 920 920 920 920 920 920 920
    920 920 920 920 920 918 918 918 918 918 913 913 915 915 915 913 913
    913 910 910 910 913 913 910 910 910 910 910 910 908 908 908 908 908
    908 906 906 906 903 903 906 906 906 906 906 903 903 903 903 903 901
    901 901 901 898 898 898 896 896 896 894 894 894 4983 948 948 946 946
    940 938 938 935 933 933 930 930 930 930 930 930 930 930 930 928 928
    925 923 923 925 923 923 920 920 920 920 920 920 920 920 920 920 920
    920 920 920 920 918 918 918 918 913 913 915 915 915 915 915 913 910
    910 910 913 913 910 910 910 910 910 910 908 908 908 908 908 908 906
    906 906 903 903 906 906 906 906 906 906 906 903 903 903 901 901 901
    901 898 898 898 898 898 896 896 894 894 4983 0 948 948 946 940 938
    938 935 933 930 930 930 933 930 930 930 930 930 930 928 928 925 925
    925 928 925 925 923 923 923 920 920 920 920 923 920 920 920 920 920
    920 920 920 918 918 918 918 918 915 915 915 915 913 913 913 910 910
    913 913 910 910 910 910 910 910 910 910 910 910 908 908 908 908 906
    906 906 906 906 906 906 906 906 906 903 903 903 903 903 903 903 898
    898 898 898 898 896 896 896 896 5132 5132 5291 0 951 940 938 935 935
    933 930 930 930 933 933 930 930 930 930 930 928 928 928 928 928 928
    928 925 925 923 923 920 920 920 920 923 923 920 920 920 920 920 920
    920 920 920 920 918 918 918 915 915 913 913 913 913 913 913 913 913
    913 910 910 910 910 913 913 910 910 910 910 910 908 908 908 908 908
    910 906 906 906 906 908 906 906 903 903 903 903 903 903 901 898 898
    898 898 896 896 896 896 5132 5291 5291 0 0 940 938 935 935 933 933
    933 933 933 933 930 930 930 930 930 930 930 930 928 928 928 928 925
    925 923 923 920 920 920 920 923 923 923 920 920 920 923 920 920 920
    920 920 918 918 918 915 915 913 913 913 913 913 913 913 913 913 910
    910 910 910 913 913 913 910 910 908 908 908 908 908 908 908 910 910
    910 908 908 908 906 906 903 903 903 903 903 903 901 901 901 898 898
    896 896 896 896 5210 5291 5291 0 938 0 938 938 935 935 935 935 935
    933 933 933 930 930 930 930 930 930 930 930 928 928 928 928 928 925
    925 925 923 920 920 923 923 923 923 923 923 923 923 920 920 920 920
    918 918 918 915 915 915 913 913 915 913 913 913 913 913 913 913 913
    913 913 913 913 910 910 908 908 908 910 910 908 908 910 910 910 910
    908 908 908 906 903 903 903 903 903 903 903 903 901 898 898 896 896
    896 896 5132 5374 5374 0 0 0 940 938 938 938 935 935 938 935 933 933
    933 930 930 930 930 930 930 930 930 930 930 930 928 928 928 925 925
    923 923 923 923 925 923 923 923 923 923 923 923 920 920 920 920 920
    918 918 918 915 915 915 913 913 913 913 913 913 913 913 913 913 913
    913 913 910 910 910 910 910 910 910 910 913 913 913 910 908 908 910
    908 906 906 903 903 903 903 903 903 901 901 901 898 896 896 896 5132
    0 5132 0 0 0 940 938 938 938 938 938 938 938 938 935 935 935 933 930
    930 930 930 930 930 930 930 930 930 928 928 928 925 923 923 925 925
    925 925 925 923 923 925 923 923 923 923 923 920 920 918 918 918 915
    915 915 913 913 913 913 913 913 915 915 913 913 913 913 913 910 910
    910 910 910 910 910 910 913 913 913 913 910 910 910 908 908 906 906
    906 906 903 903 903 903 903 903 898 896 896 896 4842 0 0 0 0 940 940
    940 938 938 938 938 938 938 938 935 935 935 935 933 933 930 930 930
    930 930 930 928 928 928 928 928 928 925 925 928 928 928 928 928 925
    925 925 925 923 923 923 923 923 923 923 920 920 918 918 918 915 915
    915 915 915 915 915 915 913 913 915 915 915 913 913 913 913 913 913
    910 910 913 913 913 913 913 913 913 908 908 908 908 906 906 903 903
    903 903 903 903 901 898 898 898 4842 0 4842 0 0 0 940 940 938 938
    938 938 938 938 938 935 935 935 935 933 933 933 933 930 930 930 930
    928 928 928 928 928 928 928 928 930 930 930 928 928 928 925 925 925
    923 923 923 923 923 923 923 923 923 920 920 920 918 918 918 918 915
    915 915 918 918 915 915 915 915 915 913 913 913 913 913 910 910 913
    913 913 913 913 913 913 908 908 908 908 908 906 906 906 906 903 903
    903 903 901 898 898 4842 4842 4842 0 951 946 946 943 940 940 940 940
    940 938 938 935 935 935 935 935 935 935 935 933 933 933 930 930 930
    930 928 928 928 928 928 930 930 930 928 928 928 925 925 925 925 925
    925 923 923 923 923 923 923 923 923 923 923 923 920 918 918 918 918
    918 918 918 915 915 915 915 915 913 913 913 913 913 913 915 913 913
    915 913 913 910 910 908 908 908 908 908 906 906 906 906 906 903 903
    901 898 898 4842 4842 4842 0 951 951 948 946 943 943 943 940 940 940
    938 938 938 938 935 935 935 935 935 935 935 933 933 930 930 930 930
    928 928 928 928 930 930 930 928 928 928 925 925 928 928 925 925 923
    923 923 923 923 923 923 923 923 923 923 920 920 920 920 920 920 920
    918 915 915 915 915 918 918 918 915 915 915 915 915 915 915 915 913
    913 910 910 908 908 908 910 908 908 908 906 906 906 903 903 901 898
    898 4708 4708 4708 0 951 951 948 948 946 943 943 940 940 940 938 938
    938 938 938 938 935 935 935 935 935 935 935 933 930 930 930 930 928
    928 928 930 930 930 930 928 928 928 928 930 928 925 925 925 925 923
    923 923 923 923 923 923 923 923 920 920 920 920 920 920 920 920 918
    918 918 918 918 918 918 915 915 915 915 915 915 915 913 913 913 913
    913 910 910 910 910 908 908 908 906 906 906 903 903 901 901 901 4582
    4463 4463 4463 4463 948 948 948 948 946 943 940 940 940 940 938 938
    938 940 938 938 938 935 935 935 935 935 933 933 930 930 930 928 928
    930 930 930 930 930 928 928 928 928 930 930 928 928 925 925 925 925
    923 923 923 923 923 923 923 923 923 923 920 920 920 920 920 920 920
    920 918 918 918 918 918 918 918 918 915 915 915 913 913 913 913 913
    913 910 910 910 908 908 908 906 906 906 903 901 901 901 901 4582
    4463 4463 4463 4463 948 948 948 948 946 943 940 940 940 940 940 940
    940 940 938 938 938 935 935 935 935 935 935 933 933 933 930 930 930
    930 930 930 933 930 930 930 930 930 930 930 928 928 928 930 928 925
    925 925 925 925 923 923 923 923 923 923 920 920 920 920 920 920 920
    920 920 918 918 918 920 918 918 918 915 915 915 913 913 913 913 913
    913 913 913 910 910 908 906 906 906 903 903 901 901 901 901 4582
    4463 4463 4463 4463 951 951 946 946 946 943 940 940 940 940 940 940
    940 940 938 938 938 938 935 935 935 935 935 935 933 933 933 930 930
    930 933 933 933 933 930 930 930 930 930 930 930 930 930 930 930 925
    925 925 925 925 925 925 925 925 925 923 920 920 920 920 920 920 923
    920 920 920 920 920 920 918 915 915 915 915 915 915 915 913 913 913
    913 913 913 910 910 906 901 901 901 901 901 898 898 901 901 4708
    4463 4463 4522 4522 954 954 946 946 948 946 943 940 940 940 940 940
    940 940 940 938 938 938 938 938 938 938 938 938 935 935 935 933 933
    933 933 933 933 933 933 933 930 930 930 930 930 930 930 930 930 928
    928 928 928 928 928 928 928 928 925 923 920 920 920 923 923 923 923
    923 920 920 920 920 920 918 915 915 915 915 918 915 915 913 913 913
    913 913 910 910 906 898 898 901 901 901 901 898 898 901 901 4708
    4522 4522 4522 4522 951 951 948 948 948 946 946 943 940 940 940 940
    940 940 940 940 940 938 938 938 938 938 938 938 935 935 935 933 933
    933 933 933 933 933 933 933 933 933 930 930 930 930 930 930 928 928
    928 928 928 928 928 928 928 928 925 925 920 920 920 923 923 923 923
    923 920 920 920 920 920 918 918 920 920 3433 920 920 915 913 913 913
    910 910 910 908 906 898 898 0 0 0 0 0 0 0 0 4708 4708 4708 4708 4708
    946 946 946 948 948 948 948 946 943 940 940 940 943 940 940 940 940
    938 938 938 938 938 938 938 935 935 935 935 933 933 933 933 935 935
    933 933 933 933 930 930 930 930 930 930 928 928 928 928 928 930 930
    930 930 928 928 928 4405 923 923 923 923 923 923 925 925 4405 4349
    4349 4405 3433 3433 3433 3433 3433 3399 3399 3399 3433 3433 3433 910
    910 910 908 908 0 0 0 0 0 0 0 0 0 0 4708 4708 4708 4708 4708 4708
    946 946 946 946 948 948 946 943 943 943 943 943 940 938 938 940 940
    940 940 938 938 935 935 938 938 935 935 933 933 933 933 933 935 935
    935 933 933 930 930 930 930 930 930 930 4349 4349 4349 4349 4405
    4463 4463 4463 4463 4463 4405 4349 4295 4295 4295 4295 4349 4349
    4405 4405 4405 4349 4349 4349 3433 3433 3433 3433 3433 3399 3399
    3399 3399 3433 3433 3399 3399 3399 3468 0 0 0 0 0 0 0 0 0 0 0 4708
    4708 4708 4708 4708 4708 4645 946 946 946 948 948 946 943 943 943
    943 943 940 938 938 940 940 940 940 938 938 935 935 938 938 935 935
    935 935 933 933 933 4349 4295 4295 933 933 4405 4349 4349 4349 4405
    4349 4349 4349 4349 4349 4349 4349 4405 4405 4405 4405 4405 4405
    4349 4295 4295 4295 4295 4295 4295 4349 4405 4405 4349 4349 4349
    4349 3365 3365 3399 3433 3433 3399 3399 3399 3433 3433 3399 3399
    3399 0 0 0 0 0 0 0 0 0 0 0 0</data></Depth9846>
</opencv_storage>
