<?xml version="1.0"?>
<opencv_storage>
<Depth16419 type_id="opencv-matrix">
  <rows>114</rows>
  <cols>52</cols>
  <dt>w</dt>
  <data>
    2286 2301 2317 2333 1112 1097 1094 1090 1090 1090 1090 1041 1041
    1041 1025 1025 1025 0 0 0 0 0 0 0 0 0 0 0 0 0 0 0 0 3994 3994 3994
    4089 4139 4190 4190 4139 4139 4190 4190 4190 4190 4190 4241 4190
    4190 4190 4241 2286 2301 2301 1112 1112 1090 1090 1084 1084 1084
    1013 1038 1038 1034 1025 1019 1013 1013 0 0 0 0 0 0 0 0 0 0 0 0 0 0
    0 0 0 0 4190 4190 4190 4190 4190 4190 4190 4190 4190 4190 4190 4241
    4190 4190 4190 4190 2286 2301 2301 2301 1090 1090 1090 1084 1084
    1084 1013 1013 1007 1007 1025 1019 1013 1013 0 0 0 0 0 0 0 0 0 0 0 0
    0 0 0 0 0 0 948 954 4190 4190 4190 4190 4139 918 918 915 915 4241
    4190 4190 4190 4190 2301 2301 2301 0 1090 1090 1090 1087 1087 1087
    1013 1010 1004 1004 1028 1019 1019 0 0 0 0 0 0 0 0 0 0 0 0 0 0 0 0 0
    0 0 948 954 951 951 4190 4190 4139 913 910 910 913 4241 4190 4190
    4190 4405 2301 2301 0 0 1090 1090 1087 1080 1054 1054 1054 1007 1004
    973 970 964 964 0 0 0 0 0 0 0 0 0 0 0 0 0 0 0 0 0 967 948 948 954
    951 951 954 918 918 913 910 910 913 4241 4241 4241 4241 4405 2317
    2317 2286 2286 1090 1090 1087 1063 1054 1054 1054 1007 1001 973 964
    962 951 951 0 0 0 0 0 0 0 0 0 0 0 0 0 0 0 0 967 948 948 948 948 943
    925 918 918 913 910 910 908 908 908 903 903 4405 2317 2286 2286 2286
    0 1090 1087 1060 1054 1047 1047 1047 1001 1001 964 962 948 946 946 0
    0 0 0 0 889 889 889 887 887 887 887 889 889 891 891 894 896 896 898
    938 925 913 910 910 908 908 908 906 903 903 903 906 2301 2286 2286 0
    0 1090 1087 1060 1054 1047 1047 1047 1001 1001 964 962 948 940 940
    913 898 896 889 889 887 887 889 887 887 887 887 889 889 891 891 894
    896 896 898 898 898 898 906 906 906 906 906 906 903 903 903 906 2286
    2286 2286 0 0 1087 1077 1063 1054 1044 1034 1010 992 992 967 964 951
    940 940 898 896 894 889 887 885 885 887 887 887 887 887 889 889 891
    894 896 896 896 896 896 898 898 903 903 906 906 906 906 903 903 903
    906 2286 2286 0 0 0 1087 1077 1063 1050 1044 1034 1010 989 981 967
    962 951 938 928 898 896 891 889 887 885 885 887 887 889 889 889 889
    889 891 894 896 896 896 896 896 898 898 903 903 906 906 906 906 906
    908 908 908 0 2333 1087 0 0 1087 1084 1063 1050 1041 1034 1016 987
    978 967 962 951 933 925 920 896 891 889 887 885 885 887 887 889 889
    889 889 891 891 896 896 896 896 896 898 898 901 903 903 906 906 908
    908 908 908 908 910 0 0 0 0 0 1090 1087 1063 1054 1041 1034 1031 987
    978 970 956 948 933 925 920 896 891 889 887 885 885 887 887 889 889
    889 891 891 894 896 896 896 898 898 898 898 898 903 903 906 906 908
    908 908 910 910 910 0 0 0 0 0 1090 1087 1063 1047 1041 1034 1031 987
    978 970 956 948 930 925 920 898 891 889 887 887 887 887 887 889 889
    889 891 891 896 896 896 896 898 898 898 898 898 903 903 906 906 908
    908 910 910 910 910 0 2317 0 0 0 1094 1090 1063 1047 1038 1034 1031
    987 978 973 959 951 930 918 908 898 891 889 887 887 887 887 889 889
    889 889 891 891 894 896 896 896 898 898 898 901 901 903 903 906 906
    908 908 910 910 910 908 2317 0 0 0 1105 1097 1094 1060 1047 1038
    1025 1013 989 978 973 956 951 933 915 908 898 891 889 887 887 887
    887 889 889 889 891 891 891 894 896 896 896 898 898 901 901 901 903
    903 906 906 908 908 910 910 910 908 2317 2333 0 0 1105 1101 1077
    1057 1047 1038 1022 1013 992 981 967 956 951 938 915 906 898 894 889
    889 889 889 889 889 891 891 891 891 891 894 896 896 898 898 901 901
    901 903 906 906 906 906 908 908 910 913 910 910 2317 2333 0 0 1105
    1097 1073 1057 1047 1038 1022 1013 1007 987 964 954 948 938 915 906
    898 894 889 889 889 889 889 891 894 894 894 894 894 896 896 898 898
    898 901 901 903 903 906 906 906 908 908 910 913 913 910 910 2333
    2333 2333 1101 1101 1094 1073 1057 1047 1034 1025 1016 1007 989 964
    954 948 938 918 908 898 896 889 889 889 889 891 891 894 894 894 894
    894 896 896 898 898 901 901 903 903 906 906 906 908 908 908 910 913
    913 913 913 2349 2349 0 1101 1101 1094 1080 1070 1050 1034 1025 1007
    1004 975 967 956 948 948 920 908 896 894 889 889 889 891 891 894 894
    894 894 896 896 896 898 898 898 903 903 906 906 906 906 906 908 908
    908 910 913 915 913 913 2381 2381 1101 1101 1101 1097 1080 1067 1050
    1038 1025 1004 1001 975 967 959 946 940 920 908 896 894 889 889 889
    889 891 894 894 894 894 896 896 896 898 898 898 903 903 906 906 906
    906 906 908 908 908 910 913 915 913 913 2381 2381 1101 1101 1097
    1090 1080 1067 1050 1044 1044 1004 1001 978 967 956 946 933 923 906
    898 894 889 889 889 889 891 891 894 894 894 896 896 898 898 898 901
    903 903 903 903 906 906 908 908 908 910 910 913 915 913 913 2381
    2381 1097 1097 1097 1090 1080 1067 1050 1038 1025 1004 1001 978 967
    951 943 933 923 906 898 896 891 889 889 889 889 891 894 894 894 896
    896 898 898 898 901 903 903 903 903 906 906 908 908 910 910 913 913
    915 913 913 2398 0 1094 1094 1094 1090 1080 1070 1054 1038 1022 1010
    1001 989 989 948 943 933 923 906 898 896 889 889 889 889 889 891 894
    894 896 896 898 898 898 901 903 903 906 906 906 906 906 908 908 910
    913 913 913 915 913 913 2415 0 1094 1094 1094 1090 1084 1070 1047
    1038 1019 1013 1004 995 987 948 943 930 920 906 898 896 889 889 889
    891 891 894 894 894 896 896 898 898 898 901 903 903 906 906 906 906
    906 908 910 910 913 913 915 915 915 915 2415 2415 1094 1094 1094
    1090 1080 1073 1047 1038 1019 1013 992 989 984 948 943 928 918 906
    898 896 889 889 889 891 894 894 894 894 896 898 898 898 901 903 903
    906 906 906 906 908 908 908 910 910 913 913 915 915 915 915 2415
    2415 1097 1097 1097 1090 1080 1070 1070 1038 1019 1013 992 989 967
    948 946 928 918 908 901 896 891 889 889 891 894 896 896 896 896 898
    898 898 901 903 906 906 906 906 906 908 908 910 910 910 913 915 915
    915 915 915 2415 2415 0 1094 1094 1090 1080 1070 1050 1034 1022 1013
    995 978 967 948 946 930 918 906 901 896 891 891 891 891 894 896 896
    896 896 898 898 901 903 903 906 906 906 906 908 908 908 908 910 910
    913 915 915 915 915 915 2415 2415 0 1094 1094 1087 1080 1070 1050
    1034 1022 1013 995 978 967 948 946 933 920 906 898 896 894 891 891
    894 894 896 896 896 896 898 901 901 903 903 906 906 906 906 908 908
    908 908 910 910 913 918 918 915 915 915 2415 2415 1119 1097 1097
    1087 1077 1067 1060 1060 1022 1016 995 978 970 948 946 933 923 906
    898 896 894 891 891 894 896 896 898 898 898 901 901 901 903 906 906
    906 906 908 908 908 908 910 910 913 915 918 918 915 915 915 2450
    2450 1119 1119 1097 1087 1077 1067 1060 1060 1022 1013 995 984 967
    948 946 923 915 910 898 896 894 894 894 896 896 898 898 898 898 901
    901 901 903 906 906 906 908 908 908 908 908 910 910 913 915 918 918
    918 918 918 2467 0 1115 1115 1101 1087 1077 1067 1063 1063 1019 1013
    998 987 967 946 943 923 915 910 903 898 894 894 894 896 896 896 898
    898 898 901 901 903 903 906 906 906 908 908 908 908 910 910 910 913
    915 918 918 918 918 918 2485 0 1105 1105 1101 1090 1084 1067 1067
    1031 1019 1013 995 987 967 946 943 925 915 910 903 898 896 894 894
    896 896 896 898 898 901 903 903 903 906 906 906 906 908 908 910 910
    913 913 913 913 915 915 918 918 918 918 2485 0 1105 1105 1097 1094
    1087 1077 1077 1028 1019 1004 995 984 964 956 943 925 915 910 906
    896 896 894 894 896 898 898 898 898 901 903 903 906 906 906 906 908
    908 908 910 910 913 913 913 913 915 915 918 918 918 918 0 0 0 1105
    1097 1090 1087 1077 1041 1028 1022 1001 998 984 964 956 943 925 918
    910 901 896 896 896 896 898 898 898 898 898 901 903 903 906 906 906
    906 908 908 910 910 913 913 913 913 913 915 915 918 918 918 918 0 0
    0 1105 1094 1090 1084 1063 1041 1028 1022 1001 998 998 970 956 946
    928 918 910 898 896 896 896 896 896 898 898 898 901 903 903 903 906
    906 906 906 908 908 910 913 913 913 913 913 913 915 915 920 918 918
    0 0 0 0 1105 1094 1090 1084 1063 1050 1034 1019 1004 995 995 970 956
    948 925 918 910 898 896 896 896 896 896 898 898 901 903 903 903 903
    906 906 908 908 908 908 913 913 913 913 913 913 913 915 918 920 918
    918 0 0 0 0 1119 1101 1094 1084 1084 1050 1028 1019 1007 995 978 970
    956 948 925 918 908 901 896 896 896 896 896 898 901 901 903 903 903
    903 906 906 908 908 908 910 913 913 913 915 915 913 913 915 918 920
    920 920 0 0 0 0 1119 1101 1094 1084 1070 1047 1028 1016 1007 995 978
    964 956 951 928 925 908 901 896 896 896 896 898 898 901 901 903 903
    903 903 906 906 908 908 908 913 913 913 913 915 915 915 915 918 920
    920 923 0 0 0 0 0 1119 1101 1094 1084 1070 1047 1028 1016 1007 995
    987 964 956 951 928 920 910 901 898 896 896 898 898 898 901 901 903
    903 903 903 906 906 910 910 910 913 913 915 915 915 915 915 915 918
    920 920 920 0 0 0 0 0 1119 1101 1094 1080 1070 1047 1028 1016 1004
    995 987 964 954 946 930 920 908 898 898 898 898 898 898 898 901 901
    903 906 903 903 906 906 910 910 910 913 913 915 915 915 915 918 918
    918 920 920 920 920 0 0 0 0 1115 1101 1094 1077 1070 1047 1028 1013
    1004 992 987 987 954 946 940 918 908 898 898 898 898 898 898 898 901
    903 903 906 906 906 908 908 910 910 910 913 915 915 915 915 915 918
    918 918 923 918 918 920 0 0 0 0 1115 1105 1097 1077 1063 1057 1028
    1013 1004 989 984 973 956 946 940 918 906 898 898 898 898 898 898
    901 901 903 903 906 906 906 908 908 910 910 910 913 915 915 915 918
    918 918 918 920 923 918 918 0 0 0 0 0 1115 1105 1094 1077 1063 1057
    1041 1016 1004 989 981 973 956 946 933 918 906 898 898 898 898 898
    898 901 903 903 903 906 906 906 908 908 910 913 913 913 915 915 915
    918 918 918 920 923 923 920 920 0 0 2560 0 1119 1119 1101 1094 1077
    1063 1054 1025 1016 1004 987 981 967 959 948 928 920 906 901 898 898
    898 898 898 901 903 906 906 906 906 908 908 908 910 913 913 913 915
    915 915 918 918 918 918 920 923 920 920 0 0 2560 0 1115 1115 1101
    1094 1080 1063 1054 1025 1016 1004 987 978 967 959 948 928 920 908
    901 898 898 898 898 898 901 903 906 906 906 906 908 908 908 910 913
    913 915 918 918 918 918 918 918 918 920 923 920 920 0 0 0 0 1115
    1115 1101 1094 1084 1063 1060 1025 1016 1001 989 975 964 959 948 933
    915 908 901 898 898 898 898 901 903 903 906 906 906 906 908 908 908
    908 913 913 915 915 918 918 918 918 918 918 920 923 920 920 0 0 0
    1130 1115 1115 1101 1090 1084 1063 1057 1025 1016 1001 1001 970 964
    959 948 946 910 906 903 898 898 898 898 901 903 903 903 906 906 906
    908 908 908 908 913 913 915 915 915 918 918 918 918 918 920 923 925
    925 925 0 0 1130 1130 1115 1101 1090 1084 1063 1054 1025 1022 1022
    1022 970 959 956 951 948 910 906 903 901 898 898 901 903 903 903 903
    906 906 906 908 908 910 910 913 915 915 915 915 918 918 918 918 920
    923 925 925 925 925 0 0 1130 1130 1119 1101 1090 1073 1063 1050 1028
    1028 1028 1028 956 956 956 951 946 913 908 903 901 898 898 901 903
    903 903 906 906 906 908 908 908 913 913 915 915 915 915 915 918 920
    918 918 923 923 925 925 925 0 0 0 1105 1105 1105 1101 1087 1070 1063
    1050 1028 1022 1010 1010 1010 956 954 948 946 913 908 903 901 898
    898 901 903 906 906 906 906 906 908 910 910 913 913 915 915 915 918
    918 918 920 920 920 923 925 925 925 925 0 0 0 0 1105 1105 1101 1084
    1067 1060 1050 1028 1022 1010 1001 1001 959 954 948 946 913 908 903
    901 898 898 901 903 906 906 906 906 906 908 910 913 913 915 915 915
    918 918 918 918 920 920 920 923 925 925 925 925 0 0 2618 0 1101 1101
    1101 1080 1067 1060 1050 1025 1019 1010 998 978 978 954 946 946 913
    908 906 901 901 901 901 903 906 906 906 908 908 910 910 913 915 915
    915 915 918 918 918 918 920 920 920 923 925 925 928 928 0 0 2618 0 0
    1108 1108 1080 1073 1063 1054 1025 1019 1010 989 978 973 956 946 946
    946 906 906 901 901 901 901 906 906 908 908 908 908 910 913 913 915
    915 915 915 918 918 918 918 920 923 923 925 928 928 928 928 0 0 0 0
    0 0 1101 1080 1077 1063 1054 1022 1019 1019 987 978 973 959 935 930
    908 906 906 903 901 901 903 906 908 908 908 908 908 910 913 915 915
    915 915 915 918 918 918 920 920 923 923 925 928 928 928 928 0 0 2618
    0 1119 1101 1101 1084 1077 1063 1050 1022 1019 1019 987 978 973 959
    935 928 908 906 906 903 901 901 903 903 906 908 908 908 908 910 913
    915 915 915 915 918 918 918 918 920 923 925 925 925 928 928 928 0 0
    0 2618 0 1119 1119 1101 1084 1077 1067 1050 1022 1019 1019 984 978
    973 959 935 928 910 908 906 903 901 901 903 903 906 908 908 908 910
    910 913 913 915 915 915 918 918 920 920 920 923 925 925 925 928 928
    928 0 0 0 2618 0 1115 1115 1101 1090 1077 1067 1028 1022 1019 1019
    978 975 973 959 935 925 918 908 906 903 903 903 906 906 908 908 908
    908 910 913 913 913 915 915 915 918 918 920 920 923 925 925 925 925
    928 928 930 0 0 0 1123 1123 1115 1115 1105 1090 1077 1063 1028 1025
    1019 1019 978 975 967 946 935 925 920 910 906 906 906 906 906 906
    908 908 908 908 910 913 915 915 915 915 918 918 918 920 920 925 925
    925 925 928 928 928 930 0 0 0 1123 1123 1123 1115 1105 1090 1080
    1063 1047 1025 1019 1019 981 975 967 946 943 925 920 910 908 906 906
    906 906 906 908 908 908 908 910 913 915 915 915 918 918 920 920 920
    920 925 925 925 925 928 928 933 933 935 935 0 1123 1123 1123 1112
    1105 1097 1084 1057 1047 1028 1025 1025 984 975 964 948 943 928 920
    910 908 906 906 906 908 908 908 908 908 910 913 915 915 915 915 918
    918 920 920 923 923 925 925 925 925 928 928 933 933 935 935 0 2639
    1134 1112 1112 1105 1094 1087 1057 1047 1028 1010 998 984 975 962
    946 940 928 918 910 908 906 906 906 908 908 908 908 908 910 913 915
    915 915 915 918 918 920 923 923 923 925 925 925 925 928 930 933 933
    935 935 0 0 1134 1134 1112 1105 1094 1087 1060 1047 1028 1010 998
    987 978 956 946 938 928 918 910 908 906 906 906 908 908 910 910 910
    915 915 915 915 915 915 918 920 920 923 923 925 925 925 925 925 928
    930 933 933 933 935 0 0 1123 1123 1115 1105 1094 1087 1063 1047 1022
    1010 998 987 978 954 948 938 928 918 908 906 906 906 906 908 908 910
    910 913 915 915 915 915 915 915 918 920 920 923 923 925 925 925 925
    928 928 933 933 933 933 0 0 0 1123 1123 1115 1101 1094 1087 1063
    1050 1013 1010 998 987 975 954 948 938 928 918 908 906 906 906 906
    908 908 910 913 913 915 915 915 915 915 918 918 920 920 923 923 925
    925 925 928 928 930 933 933 933 0 0 0 0 1123 1123 1115 1101 1094
    1087 1063 1050 1013 1004 998 987 975 954 951 951 925 918 908 908 906
    906 908 908 910 910 913 915 915 915 915 915 915 918 920 920 923 923
    923 925 925 925 928 928 930 933 930 930 0 0 0 0 0 1123 1115 1105
    1097 1087 1063 1050 1016 1004 998 987 975 956 948 948 925 918 910
    908 908 908 908 908 910 910 913 913 915 915 918 918 918 918 920 920
    923 923 925 925 928 928 928 928 933 933 928 928 0 0 1496 0 1123 1123
    1115 1108 1097 1077 1063 1054 1019 1013 1001 995 975 956 946 935 923
    918 910 908 908 908 908 910 910 913 913 913 915 915 918 918 918 918
    920 923 923 925 925 925 925 928 928 928 933 933 928 928 0 0 1496 0
    1130 1123 1115 1108 1097 1073 1067 1050 1022 1013 1004 989 975 959
    938 935 923 915 910 908 908 908 908 910 910 913 913 915 915 915 918
    918 918 918 920 923 925 925 925 925 925 928 928 930 933 933 930 930
    930 1489 1489 0 1130 1123 1119 1112 1090 1073 1063 1050 1025 1016
    1004 989 975 970 938 935 920 915 908 908 908 908 908 910 910 913 913
    915 915 915 918 918 920 920 923 923 925 925 925 928 928 928 928 930
    933 933 930 930 930 1489 1483 0 1130 1123 1119 1112 1090 1073 1063
    1054 1025 1016 1001 987 975 970 954 933 920 913 908 908 908 908 908
    910 910 913 913 915 915 915 918 918 920 920 923 925 925 925 928 928
    928 928 928 930 933 935 933 933 933 1489 1470 0 0 1119 1115 1108
    1090 1073 1063 1054 1025 1019 992 984 975 962 943 933 920 913 908
    908 908 908 908 910 910 913 913 915 915 915 918 918 920 920 923 925
    925 925 928 928 928 928 930 930 935 935 930 930 930 1470 1470 0 0
    1115 1112 1105 1090 1077 1063 1054 1034 1001 992 984 975 962 940 935
    923 913 908 908 908 908 908 910 910 913 913 915 915 915 918 918 920
    923 923 925 925 928 928 928 928 928 930 933 935 935 930 930 935 935
    1464 0 0 1115 1112 1105 1094 1080 1063 1047 1028 1001 995 981 978
    956 940 935 923 913 908 908 908 908 908 910 910 913 913 915 918 918
    918 920 920 923 923 925 925 928 928 928 928 930 930 933 935 935 933
    933 935 935 1464 0 0 1115 1108 1105 1094 1077 1063 1047 1028 1010
    998 981 975 954 943 935 920 915 910 908 908 908 910 913 913 913 915
    915 918 918 920 920 923 923 925 925 925 928 928 928 928 930 933 935
    935 935 933 933 933 933 1464 0 0 1126 1108 1101 1087 1073 1063 1041
    1031 1004 998 992 970 954 948 935 920 915 910 910 910 910 910 913
    915 915 918 918 918 918 920 923 923 923 925 925 925 928 928 928 930
    930 933 935 935 935 935 935 0 0 0 0 0 1126 1115 1101 1084 1073 1063
    1041 1028 1004 998 989 970 954 954 954 918 915 913 910 910 910 913
    915 915 918 918 918 918 920 920 923 925 925 925 925 928 928 928 930
    930 933 933 935 935 935 935 935 935 0 0 0 1134 1130 1119 1101 1080
    1073 1063 1041 1028 1004 998 989 962 954 951 946 918 915 913 910 910
    910 913 915 918 918 918 918 918 920 920 923 925 925 928 928 928 928
    930 933 933 933 935 935 935 935 935 935 0 0 0 1134 1134 1130 1119
    1097 1080 1073 1067 1041 1025 1004 998 987 962 954 948 938 920 915
    913 913 913 913 915 915 918 918 918 918 918 920 920 923 925 925 928
    928 928 928 930 933 935 935 935 935 935 935 935 935 0 0 0 0 1134
    1123 1115 1097 1080 1077 1067 1038 1025 1013 998 987 973 954 948 935
    920 918 913 913 913 913 915 918 918 918 918 918 918 920 923 923 925
    925 928 928 928 928 930 935 935 935 935 935 938 935 935 938 0 0 0 0
    1119 1119 1112 1101 1087 1080 1044 1034 1028 1013 1001 987 973 954
    943 930 920 918 915 913 913 915 915 918 918 918 918 918 920 923 925
    925 925 925 928 928 928 928 930 935 935 935 938 938 938 938 938 0 0
    0 0 0 0 1119 1105 1094 1090 1080 1041 1034 1028 1013 998 989 975 956
    943 930 923 918 915 915 915 915 915 918 918 918 918 918 920 923 925
    925 925 928 928 928 930 930 933 935 935 935 938 938 940 940 940 0 0
    0 0 0 0 1123 1105 1094 1090 1080 1041 1031 1025 1019 998 989 981 959
    943 920 918 915 915 915 915 915 915 918 918 918 918 920 923 925 925
    925 928 928 928 930 933 933 935 935 935 935 938 938 943 940 940 0 0
    0 0 0 0 0 1105 1097 1090 1080 1047 1031 1022 1013 995 984 978 959
    954 920 918 915 915 915 915 915 915 918 918 920 920 920 923 925 925
    928 928 928 928 930 933 935 935 935 935 935 938 940 943 940 940 0 0
    0 0 2286 0 1094 1094 1094 1094 1080 1080 1080 1016 1010 995 981 975
    962 962 920 918 918 915 915 915 915 915 918 918 920 920 923 925 925
    925 928 928 928 928 930 933 935 935 935 938 938 938 943 943 940 940
    0 0 0 0 0 2301 0 0 1094 1094 1080 1080 1080 1016 1010 1010 975 973
    962 962 920 918 918 915 915 915 915 918 918 920 920 920 923 925 925
    925 928 928 928 930 930 933 935 935 935 938 938 938 943 943 940 940
    0 0 0 0 2301 0 0 0 1101 1101 1101 1101 0 1016 1013 1010 975 973 962
    946 920 918 918 915 915 915 915 918 918 920 920 920 923 925 925 925
    928 928 928 930 933 935 935 935 935 938 938 938 943 943 943 943 0 0
    0 0 2301 0 0 0 0 0 0 0 0 1016 1013 1010 975 973 962 946 928 920 918
    915 915 915 915 918 918 920 920 923 923 925 925 925 928 928 928 933
    933 935 935 938 938 938 938 938 943 943 943 943 0 0 0 0 2301 2317
    2349 0 0 0 0 0 0 1019 1013 1013 978 975 954 946 928 920 918 918 915
    915 918 918 920 923 923 923 923 925 925 925 928 928 930 933 935 935
    935 938 938 938 938 938 940 943 943 943 0 0 0 0 2301 2301 2301 0 0 0
    0 0 0 1022 1010 992 984 978 948 943 938 925 918 918 915 915 918 918
    920 923 923 923 925 925 925 928 928 928 930 933 935 935 938 938 938
    938 940 940 940 943 943 943 0 0 0 0 2301 2301 2301 2317 0 0 0 0 0
    1022 1010 992 987 981 946 938 935 928 920 918 915 915 918 918 923
    923 923 923 925 925 925 928 928 930 930 933 935 935 935 938 938 938
    940 940 943 943 943 943 0 0 0 0 2317 2317 2301 2301 0 0 0 0 0 0 0
    995 989 978 946 938 935 928 920 918 915 915 918 920 923 923 923 923
    925 925 925 928 928 930 930 933 935 935 935 938 938 938 940 940 943
    943 946 946 0 0 0 0 2317 2317 2301 2301 0 0 0 0 0 0 0 1001 995 978
    948 935 930 928 923 918 918 918 918 920 923 923 923 925 925 928 928
    928 928 930 933 935 935 935 935 938 938 938 940 940 943 943 943 948
    0 0 0 0 2317 2333 2317 2317 0 0 0 0 0 0 1010 1001 1001 967 956 935
    930 928 925 920 920 920 920 923 923 923 923 925 925 928 928 928 928
    930 933 935 935 938 938 938 938 938 940 940 943 943 943 948 0 0 0 0
    2333 2333 2333 2333 0 0 0 0 0 0 1010 1004 1004 964 956 935 930 928
    925 923 920 920 920 923 925 925 925 925 928 928 928 928 928 933 933
    935 935 938 938 938 938 940 940 940 943 946 943 943 0 0 0 0 2333
    2333 2333 2317 2317 0 0 0 0 1016 1010 1010 1010 964 959 951 930 928
    925 923 920 920 920 923 925 925 925 925 928 928 928 928 928 933 933
    935 938 938 938 938 938 940 940 943 943 946 943 943 0 0 0 0 2333
    2317 2317 2301 2301 0 0 0 0 1016 1013 1010 1010 964 959 951 933 928
    925 923 920 920 923 925 925 925 925 925 928 928 928 928 928 933 933
    935 938 938 938 940 940 940 943 943 946 946 946 0 0 0 0 0 2286 2286
    2286 2286 2286 0 0 0 0 0 967 967 967 967 962 951 935 928 925 920 920
    920 923 925 925 925 925 925 928 928 928 928 930 933 933 935 935 938
    938 940 940 943 946 946 946 946 946 0 0 0 0 0 2256 2256 2271 2286
    2286 0 0 0 0 0 0 0 962 962 962 951 935 925 925 920 920 920 923 925
    925 925 925 928 928 928 928 930 930 933 933 935 935 938 938 938 940
    943 946 946 948 946 946 0 0 0 0 0 2226 2212 2212 2286 2286 0 0 0 0 0
    0 954 954 956 956 956 928 925 923 920 920 923 923 925 925 925 925
    928 928 928 928 930 930 933 933 935 935 938 938 938 940 943 943 946
    946 948 948 0 0 0 0 0 2212 2212 2212 2212 1105 1094 1094 0 1090 0
    1090 954 954 951 951 951 928 923 923 920 920 923 923 925 925 925 928
    928 928 930 930 933 933 935 935 935 938 938 938 938 940 943 943 946
    946 948 951 0 0 0 0 0 2212 2212 1101 1101 1101 1090 1090 1090 1090
    1090 1090 1090 954 951 951 943 928 923 923 920 920 923 923 925 925
    925 928 928 928 933 933 933 935 935 935 935 938 938 938 940 940 943
    943 946 946 948 948 0 0 0 0 0 2212 2212 1090 1090 1090 1087 1087
    1090 1090 1090 1090 1090 1090 954 951 943 933 925 923 920 920 920
    923 925 925 925 928 928 930 933 933 935 935 935 935 935 938 938 940
    940 940 943 943 946 946 946 946 0 0 0 0 0 2241 1084 1084 1084 1084
    1087 1087 1087 1087 1090 1087 1087 1087 954 954 954 933 925 923 920
    920 920 923 925 925 925 928 930 930 933 933 935 935 935 935 938 938
    938 940 940 943 943 943 946 946 946 946 0 0 0 0 2241 2256 1077 1077
    1077 1080 1080 1077 1077 1077 1077 1080 1080 1080 1080 930 930 930
    925 923 923 923 923 923 925 925 925 928 928 930 933 933 935 935 938
    938 935 935 938 938 943 946 946 946 946 946 946 946 0 0 0 2241 2241
    0 1077 1077 1077 1077 1077 1063 1063 1067 1067 1070 1073 1073 0 0
    925 925 923 923 923 923 923 923 923 925 925 928 928 930 933 933 933
    935 935 938 935 935 935 938 938 938 938 943 943 943 943 946 946 0
    2170 2184 2184 0 1073 1073 1073 1077 1063 1060 1060 1060 1063 1063
    1063 1063 0 0 925 925 923 923 923 923 923 923 923 925 925 928 928
    930 933 933 933 933 935 938 935 935 935 938 938 938 938 943 943 943
    943 2116 2116 2170 2170 2170 2170 0 0 1073 1073 1063 1060 1054 1054
    1054 1054 1054 1057 1057 1047 1054 925 925 920 918 918 918 920 923
    923 923 923 925 928 930 933 933 933 933 935 938 935 935 1070 1070
    2078 2078 2078 2116 2129 2129 2116 2116 2170 2170 2170 2156 2156 0 0
    0 1063 1054 1050 1044 1041 1041 1047 1047 1047 1047 1047 1054 1010
    925 920 918 918 918 920 923 923 923 923 925 1054 933 933 1054 1050
    1050 1054 1057 1060 1060 1060 1063 1063 2078 2078 2116 2129 2129
    2116 2116 2143 2143 2156 2143 2143 0 0 0 1054 1050 1044 1041 1038
    1034 1034 1038 1038 1038 1038 1041 1010 928 920 920 1044 1044 1044
    1047 1050 1050 1050 1050 1047 1044 1044 1047 1047 1050 1054 1054
    1057 1054 1054 1057 1057 2129 2129 2129 2129 2129 2129 2129 2129
    2129 2129 2129 2103 0 0 0 1054 1050 1044 1038 1031 1028 1028 1028
    1028 1028 1028 1022 923 923 925 1034 1034 1041 1041 1041 1041 1044
    1044 1044 1041 1041 1041 1041 1041 1044 1044 1044 1047 1047 1047
    1044 1044 1044 2103 2103 2090 2090 2103 2103 2116 2116 2116 2103
    2090 0 0 0 1057 1050 1044 1028 1022 1019 1016 1016 1016 1019 1022
    1019 923 923 925 1025 1028 1028 1025 1025 1031 1034 1038 1038 1034
    1034 1034 1034 1034 1034 1038 1038 1038 1041 1041 1038 1038 1038
    2103 2103 2078 2078 2078 2090 2090 2103 2090 2090 2078 0 0 0 1054
    1050 1044 1025 1019 1016 1013 1013 1013 1013 1016 1016 1013 1013
    1019 1019 1022 1022 1022 1022 1022 1022 1022 1022 1022 1031 1031
    1031 1031 1031 1031 1038 1038 1038 1034 1034 1025 1025 1025 2078
    2078 2065 2065 2090 2090 2090 2078 2065 2065 0 0 0 1050 1047 1044
    1025 1016 1010 1010 1007 1007 1007 1010 1010 1010 1010 1013 1013
    1016 1016 1013 1013 1013 1013 1013 1016 1016 1016 1016 1016 1016
    1025 1028 1034 1025 1025 1025 1022 1019 1019 1019 1013 2053 2053
    2053 0 2090 2090 2040 2040 2065 0 0 0 1050 1047 1044 1044 1016 1010
    1010 1007 1007 1007 1010 1010 1010 1010 1013 1013 1016 1016 1013
    1013 1013 1013 1013 1016 1016 1016 1016 1016 1016 1016 1016 1019
    1019 1016 1016 1016 1016 1016 1013 1013 0 2053 2053 0 0 0 2028 2028
    2065</data></Depth16419>
</opencv_storage>
