<?xml version="1.0"?>
<opencv_storage>
<Depth1264 type_id="opencv-matrix">
  <rows>61</rows>
  <cols>42</cols>
  <dt>w</dt>
  <data>
    3539 3539 3539 3539 3503 3503 3503 3503 3503 3468 3468 3468 3468
    3468 3468 3468 3433 3399 3399 3399 3365 1572 1564 1564 1564 1557
    1550 1543 1543 1550 1550 1557 1564 1564 1564 1564 1557 1557 1564
    1564 3208 3208 3539 1757 1731 1731 1731 3503 1705 1688 1688 1688
    1663 1655 1647 1632 1624 1616 1616 3399 1609 1594 1586 1572 1564
    1564 1564 1557 1550 1543 1543 1543 1543 1550 1564 1564 1564 1564
    1557 1557 1564 1572 3269 3238 1748 1731 1731 1722 1713 1713 1696
    1688 1680 1680 1663 1655 1647 1624 1624 1616 1609 1609 1601 1594
    1586 1579 1572 1564 1564 1550 1536 1536 1536 1536 1536 1543 1557
    1564 1564 1564 1564 1564 1564 1572 1572 3238 1748 1731 1731 1722
    1713 1705 1696 1688 1680 1680 1663 1655 1647 1624 1624 1616 1609
    1609 1601 1586 1586 1579 1572 1564 1564 1550 1536 1536 1536 1536
    1536 1543 1557 1564 1564 1564 1564 1564 1564 1564 1564 3238 1739
    1739 1731 1722 1713 1705 1696 1696 1688 1680 1663 1655 1639 1632
    1624 1624 1616 1616 1601 1586 1586 1579 1572 1564 1564 1550 1536
    1536 1536 1536 1536 1543 1550 1557 1557 1557 1564 1564 1564 1564
    1564 1572 1739 1739 1731 1731 1722 1713 1696 1696 1688 1680 1663
    1655 1639 1632 1624 1624 1616 1616 1601 1586 1586 1579 1572 1564
    1564 1550 1543 1536 1536 1536 1536 1543 1543 1550 1557 1557 1557
    1564 1564 1572 1572 1572 1739 1731 1731 1731 1722 1713 1696 1696
    1688 1680 1663 1655 1639 1632 1632 1624 1616 1609 1601 1586 1586
    1579 1572 1564 1557 1550 1543 1536 1536 1536 1536 1543 1543 1550
    1550 1557 1557 1564 1564 1572 1564 1564 1739 1731 1731 1722 1722
    1713 1705 1696 1688 1680 1671 1655 1639 1632 1632 1624 1616 1609
    1601 1594 1586 1579 1572 1564 1557 1550 1543 1543 1543 1543 1543
    1543 1543 1550 1550 1557 1557 1564 1572 1572 1564 1564 3576 1731
    1722 1722 1722 1713 1705 1696 1688 1680 1671 1663 1647 1639 1632
    1624 1616 1609 1601 1594 1586 1579 1572 1564 1564 1543 1543 1543
    1543 1543 1543 1543 1543 1550 1557 1564 1564 1564 1572 1572 1572
    1572 3503 1731 1722 1722 1722 1713 1696 1696 1688 1680 1671 1663
    1647 1639 1632 1632 1616 1609 1601 1594 1594 1579 1572 1572 1564
    1543 1543 1543 1543 1543 1543 1543 1550 1550 1557 1564 1564 1564
    1572 1572 1572 1572 3503 1731 1731 1722 1722 1705 1696 1696 1688
    1688 1671 1663 1647 1639 1632 1632 1624 1609 1601 1594 1594 1579
    1572 1564 1564 1543 1543 1543 1543 1543 1543 1543 1550 1550 1557
    1564 1564 1564 1572 1572 1572 1572 1731 1731 1731 1722 1722 1705
    1696 1696 1688 1688 1671 1663 1655 1639 1639 1632 1624 1609 1609
    1601 1594 1579 1572 1564 1564 1543 1543 1543 1543 1543 1543 1543
    1550 1557 1557 1564 1564 1564 1572 1572 1564 1564 1731 1731 1731
    1722 1722 1713 1696 1696 1688 1680 1671 1663 1655 1639 1639 1632
    1624 1609 1609 1601 1594 1579 1572 1564 1564 1543 1543 1543 1543
    1543 1543 1543 1550 1557 1564 1564 1564 1564 1572 1572 1564 1564
    1739 1739 1731 1731 1722 1713 1696 1696 1688 1680 1671 1663 1655
    1639 1639 1632 1624 1609 1601 1601 1594 1579 1572 1564 1557 1543
    1543 1543 1543 1543 1543 1550 1550 1557 1564 1564 1564 1564 1564
    1572 1572 1572 1739 1739 1731 1731 1722 1713 1705 1696 1688 1680
    1671 1663 1655 1639 1639 1632 1616 1609 1601 1601 1594 1579 1579
    1572 1557 1543 1543 1543 1543 1543 1543 1550 1550 1557 1564 1564
    1564 1564 1564 1572 1572 1572 1748 1739 1731 1731 1722 1713 1705
    1696 1688 1680 1671 1663 1655 1647 1639 1632 1616 1609 1601 1601
    1594 1586 1579 1572 1557 1543 1543 1543 1543 1543 1543 1550 1550
    1557 1564 1564 1564 1564 1564 1572 1572 1579 1748 1739 1731 1731
    1722 1713 1705 1696 1688 1680 1671 1663 1655 1647 1632 1624 1616
    1609 1601 1601 1594 1586 1579 1564 1557 1543 1543 1543 1543 1543
    1543 1543 1550 1557 1564 1564 1564 1564 1564 1572 1572 1572 1748
    1739 1731 1731 1722 1713 1696 1696 1688 1688 1680 1663 1655 1647
    1632 1624 1616 1609 1601 1601 1594 1586 1579 1564 1557 1550 1543
    1543 1543 1543 1543 1543 1550 1557 1564 1564 1564 1564 1564 1572
    1579 3238 1748 1739 1731 1722 1722 1713 1696 1696 1688 1688 1680
    1663 1655 1647 1639 1632 1624 1609 1601 1601 1594 1586 1579 1572
    1557 1550 1543 1543 1543 1543 1543 1550 1550 1557 1564 1564 1564
    1564 1572 1572 1572 3238 1748 1739 1731 1722 1722 1713 1705 1696
    1688 1688 1671 1663 1663 1647 1639 1632 1624 1609 1601 1601 1594
    1586 1579 1564 1557 1550 1543 1543 1543 1543 1550 1550 1550 1557
    1564 1564 1564 1564 1572 1572 1572 1572 1748 1739 1731 1731 1722
    1713 1705 1696 1688 1688 1671 1663 1663 1639 1639 1632 1624 1609
    1601 1601 1594 1586 1579 1564 1557 1550 1543 1543 1543 1543 1550
    1557 1557 1557 1557 1564 1564 1564 1572 1572 1572 1579 1739 1739
    1731 1731 1722 1713 1705 1696 1688 1688 1680 1663 1663 1639 1632
    1632 1624 1616 1601 1601 1594 1586 1572 1564 1557 1550 1543 1543
    1543 1543 1550 1557 1557 1557 1557 1564 1564 1564 1572 1572 1572
    1579 1739 1739 1731 1731 1722 1713 1705 1696 1688 1688 1680 1671
    1647 1639 1632 1632 1624 1616 1601 1594 1594 1579 1572 1564 1557
    1550 1543 1543 1543 1543 1543 1557 1557 1557 1564 1564 1564 1564
    1572 1572 1572 1572 1739 1739 1739 1731 1722 1722 1705 1696 1688
    1688 1680 1663 1647 1639 1632 1632 1624 1616 1601 1594 1594 1579
    1572 1564 1557 1550 1543 1543 1543 1543 1543 1557 1557 1564 1564
    1564 1572 1572 1572 1572 1572 1586 1739 1739 1739 1731 1731 1722
    1705 1696 1688 1680 1671 1663 1663 1639 1632 1632 1624 1616 1609
    1594 1594 1586 1579 1564 1557 1550 1543 1543 1543 1543 1543 1557
    1557 1564 1564 1564 1572 1572 1572 1579 1579 1586 1739 1739 1739
    1731 1731 1722 1705 1696 1688 1680 1671 1663 1663 1647 1639 1632
    1624 1616 1609 1594 1594 1586 1579 1564 1564 1550 1543 1543 1543
    1543 1543 1557 1557 1564 1564 1572 1572 1572 1579 1579 1586 1586
    1748 1748 1748 1739 1731 1713 1705 1696 1688 1680 1671 1663 1663
    1647 1639 1632 1624 1616 1609 1601 1594 1594 1579 1564 1564 1550
    1543 1543 1543 1543 1550 1557 1557 1564 1564 1572 1572 1572 1579
    1579 1586 1586 1757 1757 1748 1739 1731 1713 1705 1696 1688 1680
    1671 1663 1655 1647 1639 1632 1624 1616 1609 1601 1594 1594 1579
    1572 1564 1550 1543 1543 1543 1543 1550 1557 1564 1564 1564 1564
    1572 1572 1572 1579 1586 1586 1757 1757 1748 1739 1731 1722 1705
    1696 1688 1680 1671 1663 1655 1647 1639 1632 1624 1616 1609 1601
    1601 1594 1586 1579 1564 1550 1543 1543 1543 1543 1550 1557 1557
    1557 1564 1564 1572 1572 1572 1572 1572 1572 1757 1757 1748 1739
    1731 1722 1705 1696 1696 1688 1680 1663 1663 1647 1639 1632 1624
    1616 1609 1601 1601 1594 1586 1579 1564 1550 1550 1550 1550 1550
    1557 1557 1557 1557 1564 1564 1572 1572 1572 1572 1572 1572 1757
    1757 1748 1731 1731 1722 1713 1705 1696 1688 1680 1671 1663 1655
    1647 1639 1624 1624 1616 1601 1601 1594 1586 1579 1564 1557 1550
    1550 1557 1557 1557 1557 1557 1557 1564 1564 1572 1572 1572 1572
    1579 1579 1757 1757 1748 1731 1731 1722 1713 1705 1696 1688 1680
    1671 1663 1647 1647 1639 1632 1624 1616 1601 1601 1594 1586 1572
    1564 1557 1550 1550 1557 1557 1557 1557 1557 1564 1564 1564 1572
    1572 1572 1572 1572 1572 1757 1757 1748 1731 1731 1722 1713 1705
    1696 1688 1688 1680 1663 1647 1647 1639 1632 1624 1616 1601 1601
    1594 1586 1564 1564 1557 1550 1550 1557 1557 1557 1557 1557 1564
    1564 1572 1572 1579 1579 1572 1572 1572 1757 1757 1748 1739 1731
    1722 1713 1696 1696 1688 1688 1680 1671 1647 1639 1632 1632 1624
    1616 1601 1601 1594 1586 1564 1557 1557 1557 1550 1550 1557 1557
    1557 1564 1564 1564 1572 1572 1579 1586 1572 1572 1572 1757 1757
    1748 1739 1731 1722 1713 1696 1696 1688 1688 1680 1663 1647 1639
    1632 1624 1624 1616 1601 1601 1594 1579 1564 1557 1557 1557 1550
    1550 1557 1557 1557 1564 1564 1564 1572 1572 1579 1579 1586 1579
    1579 1757 1757 1748 1739 1731 1722 1713 1696 1696 1688 1688 1671
    1663 1647 1639 1632 1624 1616 1616 1609 1601 1594 1579 1564 1557
    1557 1557 1557 1557 1557 1564 1564 1564 1564 1572 1572 1572 1579
    1579 1586 1579 1579 1757 1757 1748 1739 1731 1722 1713 1696 1688
    1688 1688 1671 1663 1655 1647 1632 1624 1616 1616 1609 1601 1594
    1586 1564 1564 1557 1557 1557 1557 1557 1557 1564 1564 1564 1572
    1572 1579 1579 1579 1586 1586 1586 1757 1757 1748 1739 1731 1722
    1713 1696 1688 1688 1688 1671 1655 1655 1647 1632 1624 1616 1616
    1609 1601 1594 1586 1579 1564 1557 1557 1557 1557 1557 1557 1564
    1564 1564 1572 1572 1579 1579 1579 1586 1586 1586 1757 1757 1757
    1739 1731 1722 1713 1705 1696 1688 1680 1671 1655 1647 1647 1632
    1624 1616 1609 1609 1601 1594 1594 1579 1564 1564 1557 1557 1557
    1557 1557 1564 1564 1572 1572 1572 1579 1579 1579 1586 1586 1586
    1757 1757 1757 1748 1731 1722 1713 1705 1696 1688 1680 1671 1655
    1647 1647 1632 1624 1616 1609 1609 1601 1594 1594 1586 1564 1564
    1557 1557 1557 1557 1564 1564 1564 1564 1572 1572 1579 1579 1586
    1586 1586 1586 1757 1757 1757 1748 1731 1722 1713 1705 1696 1688
    1680 1663 1655 1655 1647 1639 1632 1624 1616 1609 1601 1601 1594
    1586 1564 1564 1557 1557 1557 1557 1564 1564 1564 1564 1572 1572
    1579 1579 1579 1579 1579 1579 1757 1757 1757 1748 1731 1722 1713
    1705 1696 1688 1680 1663 1663 1655 1647 1639 1632 1624 1616 1609
    1601 1601 1594 1586 1564 1564 1557 1557 1564 1564 1564 1564 1564
    1564 1572 1572 1579 1579 1579 1579 1579 3300 1757 1757 1757 1748
    1731 1722 1713 1705 1696 1688 1680 1671 1663 1655 1655 1647 1639
    1632 1624 1609 1601 1594 1586 1579 1564 1564 1557 1557 1564 1564
    1564 1564 1564 1564 1572 1572 1572 1572 1579 1579 1579 3300 1757
    1757 1757 1748 1739 1722 1722 1705 1696 1688 1680 1663 1663 1655
    1655 1647 1639 1632 1624 1609 1601 1594 1586 1579 1564 1564 1564
    1564 1564 1564 1564 1564 1564 1564 1572 1572 1572 1572 1579 1586
    1594 3300 1757 1757 1757 1748 1731 1731 1722 1705 1696 1688 1680
    1663 1663 1655 1655 1647 1639 1624 1616 1609 1601 1594 1586 1579
    1564 1564 1564 1564 1564 1564 1564 1564 1564 1564 1572 1572 1572
    1572 1579 1586 1594 3269 1757 1757 1757 1748 1731 1722 1722 1713
    1705 1696 1688 1671 1663 1663 1655 1647 1632 1624 1616 1609 1601
    1594 1586 1579 1564 1564 1557 1557 1557 1564 1564 1564 1572 1572
    1572 1572 1572 1572 1579 1586 1601 3208 1757 1757 1757 1739 1731
    1722 1722 1705 1696 1696 1680 1671 1663 1663 1655 1639 1632 1624
    1616 1609 1601 1594 1586 1572 1564 1564 1557 1557 1557 1557 1564
    1564 1572 1572 1572 1579 1579 1579 1586 1586 1594 3208 1757 1757
    1757 1739 1731 1722 1722 1705 1696 1696 1680 1671 1663 1663 1655
    1639 1632 1624 1624 1609 1601 1594 1586 1572 1564 1557 1557 1557
    1557 1557 1564 1564 1572 1572 1572 1579 1586 1586 1586 1594 1594
    1594 1757 1757 1757 1748 1731 1722 1722 1705 1696 1696 1680 1671
    1663 1663 1655 1639 1632 1624 1624 1616 1601 1594 1586 1572 1564
    1557 1557 1557 1557 1564 1564 1564 1564 1572 1572 1579 1586 1586
    1594 1594 1609 1609 1757 1757 1757 1748 1731 1722 1722 1713 1696
    1696 1671 1671 1663 1663 1647 1639 1632 1624 1624 1616 1601 1594
    1586 1572 1564 1564 1557 1557 1564 1564 1564 1564 1564 1572 1572
    1579 1586 1586 1594 1594 1609 3300 1766 1757 1757 1748 1739 1722
    1722 1713 1705 1696 1671 1671 1663 1663 1647 1639 1632 1624 1616
    1609 1601 1594 1586 1572 1564 1564 1557 1557 1564 1564 1564 1564
    1572 1572 1572 1579 1586 1586 1586 1594 1594 3300 1766 1766 1757
    1748 1739 1731 1722 1722 1713 1688 1680 1671 1663 1663 1647 1639
    1632 1624 1616 1609 1601 1594 1594 1572 1564 1564 1564 1564 1564
    1564 1564 1564 1564 1572 1572 1572 1579 1586 1586 1594 1594 3333
    1776 1766 1757 1748 1739 1731 1722 1722 1713 1688 1680 1671 1663
    1655 1647 1639 1632 1624 1616 1609 1601 1594 1579 1572 1572 1564
    1564 1564 1564 1564 1564 1564 1564 1572 1572 1572 1579 1586 1586
    1594 1594 3333 1776 1766 1757 1748 1739 1731 1722 1722 1713 1688
    1680 1671 1663 1655 1647 1639 1632 1624 1609 1601 1601 1594 1579
    1572 1572 1564 1564 1564 1564 1564 1564 1564 1564 1564 1572 1572
    1579 1586 1586 1594 1594 3333 1766 1766 1757 1748 1731 1731 1722
    1722 1713 1696 1688 1671 1663 1655 1647 1639 1632 1624 1609 1601
    1594 1594 1586 1579 1572 1564 1564 1564 1564 1564 1564 1564 1564
    1564 1572 1572 1586 1586 1586 1594 1594 3333 1766 1766 1757 1748
    1722 1722 1722 1722 1705 1696 1688 1671 1663 1655 1647 1639 1632
    1624 1609 1601 1594 1594 1586 1579 1572 1564 1564 1564 1564 1564
    1572 1572 1564 1564 1572 1572 1572 1579 1586 1594 1594 3333 3614
    1766 1757 1731 1722 1722 1722 1713 1705 1688 1688 1671 1663 1655
    1647 1647 1632 1624 1609 1601 1594 1594 1586 1579 1572 1564 1564
    1564 1564 1564 1572 1572 1572 1572 1572 1572 1572 1579 1586 1594
    1594 3333 3614 3614 3614 1731 1722 1722 1722 1713 1713 1688 1688
    1680 1663 1663 1655 1647 1632 1632 1609 1601 1594 1594 1586 1579
    1572 1564 1564 1564 1564 1564 1572 1572 1572 1572 1572 1572 1579
    1579 1586 1594 1594 1594 3614 3614 3614 3614 3614 3614 3576 3539
    3539 3614 1696 1688 1671 1663 1655 1647 1632 1632 1616 1601 1601
    1594 1579 1572 1572 1564 1564 1564 1564 1564 1564 1564 1572 1572
    1572 1572 1579 1579 1586 1586 1601 1601 3614 3614 3614 3614 3614
    3614 3614 3576 3576 3614 3539 1705 1696 1688 1671 1647 1647 1632
    1624 1601 1601 1586 1579 1572 1572 1564 1564 1564 1564 1564 1564
    1564 1572 1572 1572 1579 1579 1586 1586 1586 1601 3300 3614 3614
    3614 3614 3614 3614 3614 3614 3614 3576 3539 1705 1696 1688 1688
    3614 3539 1639 1639 1601 1601 1586 1579 1572 1572 1564 1557 1557
    1564 1564 1564 1564 1572 1572 1572 1572 1586 1586 1586 1586 3300
    3300</data></Depth1264>
</opencv_storage>
