<?xml version="1.0"?>
<opencv_storage>
<Depth2322 type_id="opencv-matrix">
  <rows>61</rows>
  <cols>43</cols>
  <dt>w</dt>
  <data>
    2241 2226 2212 2198 2184 2170 2170 2143 2103 2090 2078 2078 2065
    2040 2016 2005 2005 1993 1981 1981 1970 1959 1936 1936 1936 1926
    1894 1873 1863 1853 1853 1843 1823 1804 1794 1794 776 776 774 774
    773 762 762 2241 2226 2212 2198 2184 2170 2170 2143 2103 2090 2078
    2078 2078 2065 2040 2016 2005 1993 1981 1970 1970 1947 1936 1936
    1926 1926 1894 1883 1873 1853 1853 1843 1823 798 794 790 778 776 776
    774 771 762 762 2241 2226 2226 2212 2198 2184 2170 2143 2116 2103
    2090 2078 2065 2065 2040 2028 2016 1993 1981 1970 1970 1947 1936
    1936 1926 1915 1904 1883 1873 1863 1843 1843 803 798 794 790 787 781
    778 774 771 762 762 2241 2226 2226 2226 2212 2198 2170 2143 2129
    2103 2090 2078 2065 2053 2040 2028 2016 1993 1981 1970 1970 1947
    1936 1926 1926 1915 1894 1883 1883 1863 1843 805 803 800 796 792 789
    785 780 776 773 762 762 2241 2226 2226 2226 2212 2184 2156 2129 2129
    2103 2090 2065 2053 2053 2028 2028 2016 1993 1981 1970 1959 1947
    1926 1926 1926 1915 1894 829 827 823 821 805 803 800 796 792 789 785
    780 776 774 764 764 2241 2226 2226 2226 2198 2170 2143 2129 2129
    2116 2103 2065 2053 2053 2028 2016 2016 1993 1981 1981 1959 1947
    1926 1926 1926 1904 829 829 827 823 821 805 805 802 796 794 790 787
    781 778 774 766 766 2241 2226 2226 2212 2198 2170 2143 2143 2129
    2116 2103 2078 2065 2053 2028 2016 2005 1993 1981 1970 1959 1947
    1936 1926 1926 1904 829 829 827 823 821 813 805 802 796 794 790 787
    783 778 774 766 766 2241 2226 2226 2212 2198 2170 2143 2129 2129
    2116 2103 2078 2065 2053 2028 2016 2005 1993 1981 1970 1959 1947
    1936 1926 1915 837 831 829 827 823 819 815 807 803 798 794 790 787
    783 780 776 773 767 2241 2226 2226 2226 2198 2170 2143 2129 2129
    2129 2116 2090 2065 2053 2028 2028 2005 1993 1981 1970 1959 864 858
    849 847 837 833 831 827 823 819 817 807 803 798 794 792 789 785 781
    776 773 767 2241 2226 2226 2226 2198 2170 2156 2143 2129 2129 2103
    2078 2065 2053 2040 2028 2005 1993 1970 880 869 864 858 849 847 837
    835 831 827 823 819 817 813 805 800 796 792 789 785 781 776 774 769
    2241 2241 2226 2226 2212 2170 2143 2143 2129 2129 2090 2078 2065
    2065 2053 2028 2005 1981 878 871 869 864 858 849 847 843 837 833 829
    825 819 817 813 807 802 796 794 789 787 781 776 774 771 2241 2241
    2241 2226 2198 2170 2143 2143 2129 2116 2078 2078 2065 2065 2053
    2028 882 882 873 871 869 864 858 849 847 843 839 833 829 825 821 817
    813 807 802 796 794 790 787 783 778 774 773 2241 2241 2241 2212 2184
    2170 2156 2143 2129 2116 2078 2065 2065 2065 2053 2028 880 880 873
    871 869 867 860 849 847 845 841 835 831 829 825 821 817 807 803 798
    794 790 787 783 780 776 774 2256 2241 2241 2198 2184 2170 2170 2143
    2129 2116 2078 2065 2065 2065 2053 2028 880 880 873 871 869 867 860
    849 847 845 843 837 831 829 825 821 817 815 805 802 796 790 789 785
    780 776 774 2241 2241 2226 2198 2170 2170 2170 2143 2129 2129 2090
    2065 1001 998 995 995 882 880 878 871 869 867 862 851 847 845 841
    837 831 831 825 821 817 815 807 802 798 792 789 785 781 778 774 2241
    2241 2212 2198 2170 2170 2156 2129 2116 2116 2090 1001 998 998 992
    894 885 882 878 873 871 867 864 860 847 845 841 837 835 831 825 821
    819 815 809 802 798 794 790 785 781 778 773 2241 2226 2198 2184 2170
    2170 2156 2129 2116 2116 2103 1001 998 995 992 891 887 885 880 875
    871 867 864 862 849 845 841 837 835 831 827 823 819 813 809 802 798
    794 790 785 781 778 773 2241 2226 2198 2184 2170 2170 2156 2116 2116
    2103 2103 998 998 995 992 891 887 882 880 875 871 867 864 862 854
    847 843 837 835 831 829 825 819 813 809 802 800 796 790 785 781 778
    773 2241 2226 2198 2184 2170 2170 2156 2116 2116 2103 1004 998 998
    995 992 891 887 882 880 875 871 869 864 862 854 849 843 839 835 833
    829 825 821 811 809 802 800 794 789 785 781 778 773 2241 2226 2212
    2198 2184 2184 2184 2129 2116 2103 1004 1001 995 992 992 891 887 882
    880 875 873 869 864 862 856 851 845 839 835 833 829 825 821 811 809
    803 800 794 789 785 783 780 776 2226 2226 2226 2198 2198 2198 2198
    2198 2116 2103 1001 998 995 992 992 989 887 885 880 875 873 869 867
    858 854 851 847 841 837 833 831 825 821 813 807 802 796 792 789 787
    783 781 780 2226 2226 2226 2212 2198 2198 2170 2170 2170 1001 1001
    998 995 989 989 989 887 885 880 878 873 871 867 858 854 851 847 843
    837 835 829 823 821 813 805 800 796 792 789 787 783 781 781 2226
    2212 2212 2184 2184 2184 2170 2170 2170 998 998 995 995 989 989 987
    984 882 880 878 875 871 869 860 854 851 849 845 839 835 829 823 821
    813 803 800 798 794 790 785 783 781 781 2226 2212 2212 2184 2184
    2184 2198 2198 923 910 910 908 908 989 984 984 878 878 878 878 875
    871 869 860 854 851 849 845 841 835 829 823 821 813 803 800 798 794
    789 785 783 781 781 2241 2226 2212 2184 2184 2184 2184 2184 923 923
    910 908 906 906 984 984 873 873 873 875 873 871 869 860 856 851 847
    847 843 837 829 823 815 811 805 803 798 792 787 785 783 781 781 2256
    2241 2212 981 981 981 2184 2184 940 923 915 908 906 906 880 873 871
    869 869 873 871 871 867 860 856 851 847 845 843 839 829 825 813 811
    762 762 762 762 787 785 783 781 781 2241 984 981 981 981 981 981 987
    933 928 923 910 901 896 880 873 871 867 864 862 851 851 864 858 854
    849 847 845 843 835 829 767 767 811 761 761 759 759 787 785 783 780
    780 984 981 981 981 981 981 981 987 933 930 925 903 898 894 882 875
    871 867 862 860 847 845 839 839 839 847 847 845 841 835 764 764 764
    762 761 761 759 759 783 781 781 778 778 981 981 981 981 981 981 981
    938 933 930 928 903 898 894 882 878 871 867 862 860 847 843 837 837
    837 837 837 837 839 835 764 764 764 762 761 761 757 757 783 781 780
    776 776 978 978 978 981 981 981 981 935 933 930 928 923 903 894 882
    878 871 867 864 858 847 843 837 837 835 835 835 837 835 835 762 762
    762 762 762 762 755 755 755 781 780 776 776 978 978 978 978 978 978
    978 935 930 928 925 923 903 894 885 878 873 869 864 858 849 843 839
    837 835 835 835 833 833 835 762 759 759 759 759 762 754 752 750 749
    749 764 764 975 975 975 975 975 975 978 978 930 928 925 920 915 903
    885 878 873 869 864 858 849 843 839 835 835 833 833 833 833 833 762
    755 755 757 755 755 754 750 750 749 749 764 764 975 973 970 970 970
    973 975 975 925 923 918 915 910 908 891 878 875 871 867 858 849 843
    839 835 835 833 833 833 831 831 833 752 752 755 754 754 754 750 749
    749 750 755 764 975 970 967 967 967 967 973 973 918 918 915 910 908
    908 903 880 875 871 867 858 849 843 837 835 835 833 833 831 831 829
    746 746 749 754 754 750 749 749 747 747 744 744 746 970 967 967 964
    964 964 967 970 918 915 915 910 908 906 901 882 875 871 867 860 849
    843 837 835 835 833 831 829 829 829 744 744 749 752 752 749 749 747
    746 744 744 744 744 970 967 967 964 962 962 962 913 913 913 913 910
    906 903 898 894 878 871 867 860 849 845 837 835 835 833 831 829 827
    827 744 744 749 750 750 749 747 742 742 744 742 742 744 970 967 967
    962 959 959 959 913 913 913 913 910 901 898 896 894 885 873 867 860
    851 847 839 837 835 833 829 829 827 825 825 749 749 750 749 749 747
    742 742 742 742 742 742 967 967 962 959 959 959 959 915 915 915 915
    913 901 896 894 891 889 885 873 860 851 849 841 837 833 833 829 829
    827 825 825 821 821 821 749 749 747 744 744 742 741 741 742 967 967
    962 959 956 956 959 959 915 915 913 910 901 894 891 889 889 887 885
    871 851 851 845 841 833 833 831 829 827 827 823 821 821 821 749 749
    746 744 742 741 739 739 742 970 967 962 959 956 956 956 954 915 915
    910 903 898 891 889 887 887 887 882 882 869 854 849 843 837 833 833
    829 829 829 823 817 811 811 811 749 746 744 742 741 739 739 744 959
    959 959 956 956 956 956 954 915 910 910 903 898 891 887 882 882 882
    882 880 875 860 860 845 837 833 833 831 831 829 823 817 811 811 811
    746 746 742 742 742 742 759 759 0 959 959 956 956 956 954 948 948
    908 903 901 896 889 882 880 880 880 880 880 875 864 860 858 851 843
    839 835 831 829 823 817 811 807 807 807 746 741 741 742 742 759 759
    978 959 959 956 956 954 951 948 948 908 901 898 894 887 882 880 878
    878 880 878 873 867 862 860 854 849 843 837 833 829 823 815 811 807
    805 805 805 741 741 744 744 761 761 0 978 975 959 954 948 948 948
    946 908 901 898 894 887 882 878 878 878 878 878 871 869 864 862 858
    851 845 837 835 831 823 815 811 807 805 805 781 776 773 766 761 761
    761 0 978 975 962 951 948 948 946 946 940 901 896 894 887 882 878
    878 875 873 873 871 869 862 860 858 851 845 839 835 833 821 815 811
    807 803 798 781 776 771 767 764 762 762 0 975 973 962 948 946 946
    946 946 940 901 896 894 887 882 878 875 873 871 869 869 867 862 860
    858 851 845 839 835 831 821 815 811 807 803 798 781 771 769 767 764
    764 764 975 975 973 967 948 943 943 943 940 940 935 933 896 889 882
    878 875 871 869 867 867 867 862 858 858 849 845 839 833 825 821 817
    815 809 803 798 794 769 769 767 766 764 764 975 975 973 967 948 938
    938 940 940 940 928 928 896 889 882 880 875 871 869 867 864 864 862
    856 856 849 845 837 833 825 819 815 813 811 802 798 794 769 769 767
    766 764 764 973 973 970 970 964 933 933 938 940 940 928 923 898 887
    885 880 875 869 869 867 862 862 860 856 854 851 845 837 833 825 819
    815 813 809 802 798 794 790 769 767 764 762 762 973 973 970 970 964
    933 933 938 940 938 933 923 901 887 885 880 873 869 869 862 862 862
    860 856 854 851 845 837 833 825 821 815 811 809 802 798 794 790 771
    766 764 762 762 1004 970 970 967 967 959 940 940 940 938 938 923 901
    889 885 878 871 871 869 862 860 860 860 856 854 851 845 839 833 827
    821 815 809 807 802 798 794 792 771 766 764 761 761 989 970 970 967
    964 962 948 940 940 938 935 923 915 915 887 878 869 869 869 862 858
    858 858 854 854 851 845 839 835 825 821 815 805 802 802 798 794 794
    773 764 762 761 761 989 967 967 967 964 962 956 943 943 938 935 925
    918 915 915 915 869 869 869 860 858 854 854 851 851 849 845 839 835
    825 823 817 790 790 790 796 794 794 773 764 762 761 761 970 967 967
    964 962 959 956 948 940 935 930 928 918 915 915 915 871 871 867 860
    858 851 851 849 849 847 845 839 833 825 823 821 787 787 789 789 792
    771 764 764 761 757 757 970 967 967 964 962 959 956 954 938 933 928
    928 923 918 913 908 908 871 867 858 851 849 847 847 847 845 843 839
    827 823 821 821 785 785 783 780 771 769 764 762 759 755 755 973 970
    970 964 962 959 956 954 938 928 928 928 920 915 908 901 896 889 889
    856 851 847 845 845 845 845 843 837 827 823 821 789 785 783 781 776
    769 766 761 761 757 755 755 0 970 970 964 962 959 956 954 943 928
    928 925 920 915 908 898 891 889 889 854 849 847 845 845 845 843 843
    837 827 825 823 789 785 783 780 774 766 761 759 757 755 754 754 0
    973 970 967 962 959 954 948 946 933 930 885 885 889 891 896 891 889
    849 849 847 845 845 845 843 843 841 837 827 827 790 789 785 783 780
    774 764 759 757 754 752 750 750 987 978 970 967 962 959 954 948 946
    933 880 880 880 882 887 896 889 889 847 847 845 845 843 843 843 843
    841 839 827 827 790 789 789 785 780 776 762 759 757 754 749 749 749
    987 978 973 967 962 959 954 951 946 943 880 880 880 880 880 885 889
    889 847 847 845 843 843 841 841 841 839 837 827 796 792 792 792 798
    780 774 762 759 757 752 749 747 747 984 978 973 967 962 956 956 951
    946 943 880 880 878 878 880 880 887 889 889 847 845 841 841 841 839
    837 837 835 807 796 796 796 796 798 778 774 764 761 755 752 749 747
    747</data></Depth2322>
</opencv_storage>
