<?xml version="1.0"?>
<opencv_storage>
<Depth3995 type_id="opencv-matrix">
  <rows>172</rows>
  <cols>89</cols>
  <dt>w</dt>
  <data>
    7332 7332 549 548 546 546 545 543 543 543 540 536 536 7178 533 532
    532 532 529 529 527 526 523 522 522 521 520 518 517 517 517 514 514
    514 511 511 511 6889 6889 6889 6889 6889 506 506 512 512 512 513 514
    0 0 0 0 0 0 0 0 0 0 0 573 573 572 572 572 585 585 585 585 588 0 6753
    6622 6622 6622 6753 6622 6622 6753 6753 6753 6753 6753 6622 6497
    6497 6497 0 0 550 550 549 548 546 546 545 542 541 540 540 536 536
    534 533 532 532 532 529 529 527 526 523 522 522 521 520 518 517 517
    517 515 514 514 511 511 511 510 509 507 507 506 506 506 511 511 512
    513 514 0 0 0 0 534 534 0 0 0 547 0 572 572 572 572 574 576 581 585
    588 588 588 604 604 604 611 611 638 638 638 638 652 7332 7332 6622
    6622 0 0 0 0 550 550 549 548 546 546 544 542 541 540 540 537 536 534
    534 533 533 532 529 529 528 526 524 523 523 521 520 519 518 517 517
    516 514 514 512 511 511 510 509 507 507 506 505 505 505 505 511 513
    514 0 0 0 0 534 534 545 545 547 547 558 572 572 572 572 574 576 580
    584 588 588 600 600 604 611 611 611 631 631 637 637 652 652 652 7030
    7030 0 0 0 0 550 550 549 549 547 546 544 543 541 540 540 537 536 535
    534 534 533 532 529 529 528 527 525 524 523 522 521 520 518 517 517
    516 515 514 512 511 511 510 509 507 507 506 505 505 505 505 511 513
    514 0 0 0 535 534 534 544 545 546 558 558 558 571 571 572 575 577
    580 584 588 588 600 600 604 610 611 628 628 630 636 652 652 652 657
    657 0 0 0 0 0 551 551 550 549 548 546 545 543 542 541 540 539 537
    535 534 534 533 532 530 529 529 528 526 524 523 522 521 520 518 517
    517 517 515 514 513 512 511 510 509 507 507 506 506 505 505 505 514
    514 0 0 0 0 535 535 536 544 545 546 558 558 567 567 570 572 576 577
    581 586 587 590 603 603 604 607 607 628 628 629 636 652 652 652 654
    675 675 0 0 0 0 551 551 550 550 548 546 546 543 542 542 540 539 538
    536 534 534 533 532 530 529 529 528 526 525 523 522 521 520 519 518
    517 517 516 515 514 512 511 511 509 508 507 507 506 506 505 505 514
    514 0 0 0 0 536 536 537 544 545 545 545 561 563 565 570 572 572 582
    582 587 587 590 599 601 604 607 622 623 627 628 628 653 653 653 654
    675 675 0 0 0 0 552 551 550 550 548 547 546 545 543 542 540 540 539
    536 535 535 534 532 531 529 529 528 526 525 524 522 521 520 519 519
    518 517 516 515 514 513 511 511 510 509 508 507 506 506 506 506 0 0
    0 0 0 0 536 536 538 544 545 545 545 561 563 565 570 572 584 584 585
    586 587 599 599 601 604 606 622 623 625 625 654 652 652 653 654 654
    680 680 0 0 0 554 553 552 550 549 548 546 545 543 542 541 540 540
    537 536 535 534 533 532 530 529 529 528 525 525 523 521 520 520 519
    518 517 516 515 514 514 512 511 511 509 508 507 507 507 507 507 0 0
    0 0 0 0 537 536 536 546 546 546 562 562 564 567 570 572 584 584 585
    586 588 603 603 604 606 606 623 623 624 625 654 652 652 654 655 655
    680 680 0 0 0 554 553 552 550 549 548 546 546 544 543 541 540 540
    538 536 535 534 534 532 530 530 529 528 526 525 525 523 521 520 520
    519 518 517 515 514 514 512 511 511 509 509 507 507 507 507 508 0 0
    0 0 0 537 537 536 536 536 537 562 562 562 562 567 571 572 583 583
    585 588 588 603 603 604 606 607 622 622 623 623 653 653 653 655 657
    657 678 678 0 0 0 556 554 552 551 549 548 547 546 544 543 542 540
    540 538 537 536 535 534 532 531 530 529 528 527 526 525 523 522 521
    520 519 518 517 515 514 514 513 512 511 510 509 507 507 507 507 508
    0 0 0 0 0 537 537 537 537 537 537 548 562 562 562 573 573 573 583
    583 584 584 604 604 604 606 607 614 618 620 623 623 652 652 652 655
    657 676 678 678 0 0 0 556 554 553 552 550 549 547 546 546 544 542
    541 540 539 537 536 535 534 533 532 531 530 529 527 526 525 524 523
    521 521 519 518 517 517 515 514 514 514 513 511 510 508 507 507 507
    508 0 0 529 529 0 537 537 537 537 537 548 548 561 561 563 563 573
    573 573 584 584 596 596 603 603 603 608 614 618 618 618 652 652 652
    652 655 657 676 678 678 682 0 0 556 554 553 552 550 549 548 547 546
    545 542 542 540 539 538 536 536 535 534 532 531 530 529 527 526 525
    524 523 522 521 520 519 518 517 516 514 514 514 513 511 510 509 507
    507 507 508 0 507 529 529 529 530 534 536 537 537 548 551 552 561
    563 563 563 576 576 596 596 596 596 602 601 601 615 615 616 618 643
    643 646 650 652 657 659 675 678 680 682 0 0 556 554 554 553 551 550
    548 547 546 546 543 542 540 540 538 537 536 535 534 533 532 531 529
    528 526 525 525 524 523 521 521 520 519 518 516 514 514 514 513 512
    511 509 507 507 507 507 507 507 528 528 528 530 534 536 537 537 549
    551 552 559 565 567 571 576 576 596 596 596 597 602 601 601 615 615
    616 618 641 642 643 650 652 657 662 672 678 680 682 690 694 0 555
    554 553 552 550 549 547 546 546 543 542 541 540 539 538 536 535 534
    534 533 532 529 529 526 526 525 525 523 522 521 520 519 518 516 514
    514 514 513 511 511 510 507 507 507 507 507 525 525 526 527 529 542
    540 540 543 547 551 552 559 566 569 571 576 577 592 592 592 596 602
    601 601 614 615 616 618 641 642 643 649 653 657 664 671 675 682 684
    690 694 0 555 554 553 552 551 549 548 546 546 545 542 541 540 539
    539 536 535 534 534 533 532 529 529 527 526 525 525 523 522 522 521
    520 518 517 516 514 514 513 511 511 510 507 507 507 507 507 525 525
    526 527 529 540 540 542 546 547 551 557 560 566 568 572 575 576 591
    591 592 596 598 598 601 614 616 618 618 641 643 644 649 653 658 670
    671 672 682 686 686 0 556 555 554 554 553 552 550 548 546 546 545
    542 541 540 539 539 538 536 535 534 533 532 530 529 528 526 525 525
    524 523 522 521 520 519 517 516 515 514 514 512 511 511 507 507 507
    507 507 525 525 526 527 529 536 538 542 546 547 554 557 560 565 568
    575 575 576 591 591 592 594 598 598 613 614 616 618 618 641 643 644
    650 654 658 667 671 672 682 688 698 700 556 555 554 554 553 552 551
    549 546 546 546 543 542 541 540 540 538 536 535 534 534 532 530 529
    529 527 526 525 524 523 522 521 521 520 517 516 515 514 514 513 512
    511 507 507 507 507 525 525 525 526 527 530 535 538 540 546 547 554
    556 559 565 568 575 576 576 591 591 593 594 598 598 614 615 618 619
    642 642 644 647 650 654 658 667 672 676 680 690 698 700 557 556 555
    554 554 552 551 549 547 546 546 546 542 541 540 540 539 536 536 535
    534 532 531 529 529 528 526 525 524 523 522 522 521 519 517 517 516
    514 514 513 512 511 507 506 505 505 524 524 525 526 529 531 534 538
    540 546 548 554 556 559 565 568 576 576 577 591 591 594 595 598 598
    614 615 618 622 622 644 644 648 652 655 663 666 676 678 680 690 697
    703 557 557 556 554 554 553 551 549 548 547 546 546 543 542 540 540
    539 538 537 536 534 532 531 530 529 529 527 526 525 523 523 522 521
    519 518 517 516 515 514 514 513 512 511 506 505 505 523 522 522 528
    530 532 534 537 540 546 553 554 556 560 565 572 576 576 578 592 592
    594 597 602 602 614 616 619 622 622 644 644 647 652 659 663 666 672
    679 686 691 697 703 557 557 556 555 554 553 552 550 549 548 546 546
    544 542 540 540 539 539 537 536 535 533 532 530 529 529 528 526 525
    524 523 522 521 520 519 518 517 516 514 514 513 512 511 510 508 508
    523 522 522 529 532 533 534 537 542 547 552 554 557 560 565 573 576
    577 578 592 592 595 597 599 606 613 618 619 622 622 644 644 647 652
    662 666 667 672 684 688 691 0 0 557 557 556 555 554 554 552 550 550
    549 547 546 544 543 541 540 540 539 538 536 535 533 532 531 530 529
    528 527 525 525 524 523 522 520 519 518 517 517 515 514 513 513 511
    511 510 510 523 523 525 529 531 533 534 538 544 547 552 554 557 560
    571 573 575 577 578 593 593 597 598 598 606 613 619 621 621 621 642
    643 646 652 664 667 670 672 684 688 690 0 0 559 557 557 556 555 554
    553 551 550 549 548 546 544 543 542 541 540 539 539 537 536 534 532
    532 530 529 529 527 526 525 524 523 522 520 519 518 517 516 516 515
    514 513 512 511 511 511 522 522 529 529 531 533 535 542 546 549 552
    554 555 571 571 573 574 577 579 593 593 595 596 598 608 613 619 622
    621 621 642 643 646 664 664 667 670 672 686 688 690 0 0 559 558 557
    556 556 555 554 552 550 549 548 547 545 543 543 541 540 540 539 538
    536 534 533 532 531 529 529 527 526 526 525 523 522 521 520 519 517
    516 516 515 514 513 512 512 512 512 522 522 527 529 531 533 535 540
    546 550 552 554 555 568 570 573 574 577 593 593 594 595 596 606 610
    614 620 622 621 621 643 644 646 657 663 667 671 682 684 687 690 698
    0 0 560 558 557 556 555 554 553 551 550 548 547 546 544 543 543 541
    540 539 538 536 534 533 532 531 529 529 528 526 526 525 523 522 521
    520 519 517 516 516 515 514 514 513 512 512 512 512 527 527 529 531
    533 535 540 546 550 553 554 556 565 569 573 575 578 592 592 594 594
    606 606 610 614 621 622 622 642 642 646 647 657 662 666 668 682 684
    687 693 698 0 0 560 559 557 556 555 554 554 551 550 549 547 546 545
    543 543 541 540 540 538 537 536 533 532 532 529 529 528 527 526 525
    523 522 521 520 519 518 517 516 515 514 514 513 512 512 512 512 529
    529 529 531 533 535 543 546 550 553 554 565 565 569 575 577 579 586
    592 593 594 607 607 611 614 619 623 624 642 642 647 658 658 662 664
    668 680 687 690 693 703 0 560 560 560 558 557 556 555 554 552 550
    550 547 546 546 544 543 542 541 540 539 537 536 533 532 532 531 530
    529 529 526 525 524 522 521 521 519 518 517 517 516 515 514 512 512
    512 512 512 529 529 530 531 534 535 545 547 550 553 554 558 568 571
    575 577 580 586 591 593 597 603 607 611 614 619 623 625 643 643 646
    659 659 663 664 667 680 687 691 691 703 0 560 560 560 559 557 556
    555 554 553 552 551 549 546 546 545 543 542 541 540 539 537 536 533
    533 532 531 530 529 529 528 526 525 523 523 521 519 518 517 517 516
    516 514 512 512 512 513 529 529 529 530 531 534 535 545 547 550 554
    555 558 571 572 576 578 581 586 591 596 599 603 608 611 614 619 624
    625 643 643 646 652 661 662 663 667 682 687 690 690 700 0 560 560
    560 559 558 556 556 554 554 553 551 549 547 546 545 543 542 541 540
    539 539 536 534 533 533 532 531 529 529 528 526 525 524 523 522 521
    519 518 517 517 516 514 514 513 513 514 527 527 528 531 532 534 535
    544 547 550 554 555 571 571 572 576 579 582 585 593 596 604 604 609
    611 614 620 624 625 646 646 647 652 661 662 663 678 682 686 688 688
    700 0 561 561 561 560 559 557 556 555 554 553 552 549 547 546 546
    545 543 542 540 540 539 538 535 533 533 532 531 530 529 528 526 526
    524 523 522 522 521 519 518 517 517 515 514 514 514 514 527 527 528
    531 533 534 536 544 548 551 554 555 566 567 570 578 580 582 585 595
    597 598 604 610 611 615 624 624 625 646 646 647 652 662 663 664 676
    678 686 688 688 706 708 562 562 561 560 560 559 557 556 554 553 552
    549 548 547 546 546 543 543 541 540 540 539 537 534 534 533 532 530
    529 528 527 526 525 524 523 522 521 519 519 518 517 516 515 514 514
    514 514 528 528 530 534 538 540 541 549 552 554 555 566 567 569 577
    580 582 596 596 598 598 601 610 611 618 624 624 627 628 646 649 653
    658 663 670 676 678 687 690 690 706 707 563 562 562 561 560 559 557
    556 554 554 551 549 548 547 546 546 543 543 542 541 540 539 537 535
    534 533 532 530 529 528 527 526 525 524 523 522 521 520 519 518 517
    516 515 514 514 514 517 517 528 530 534 540 540 541 551 552 554 565
    567 568 569 577 578 582 596 596 598 598 601 610 613 618 624 624 627
    628 649 652 653 653 664 674 676 679 688 693 698 706 707 563 562 562
    561 560 560 558 556 554 554 551 550 549 547 546 546 544 543 542 541
    540 539 537 535 534 534 532 531 529 529 527 526 526 524 522 522 521
    520 519 518 517 516 515 514 514 514 516 517 529 531 534 540 540 541
    550 552 554 565 567 569 569 577 578 578 596 596 598 599 602 613 613
    618 624 625 627 630 650 652 653 653 670 675 676 680 688 693 698 703
    707 563 563 562 561 560 560 559 557 554 554 551 550 549 548 546 546
    544 543 542 541 540 539 538 535 535 534 533 532 530 529 528 527 526
    524 522 522 521 521 520 519 517 517 516 515 515 516 516 517 534 534
    538 540 540 545 548 552 554 559 565 569 569 578 580 583 601 598 598
    600 601 601 619 619 625 625 627 652 652 652 653 653 670 672 676 683
    688 694 697 701 707 563 563 562 561 560 560 559 557 555 554 552 551
    549 548 546 546 545 543 542 541 540 539 537 536 535 534 533 532 530
    529 529 528 527 524 522 522 522 521 520 520 519 517 516 515 515 516
    522 521 521 538 539 540 541 545 548 553 555 559 562 573 573 582 582
    583 601 599 599 598 598 615 619 619 625 625 627 652 652 652 654 655
    668 672 676 679 688 694 697 701 707 565 564 563 562 561 560 559 557
    555 554 553 551 550 548 547 546 546 544 543 542 541 540 537 536 535
    534 534 533 531 529 529 529 528 526 523 522 522 521 520 520 519 517
    517 515 515 516 521 521 521 537 538 540 541 546 548 553 557 559 560
    572 576 583 583 583 602 599 599 598 598 615 619 619 625 627 628 650
    650 650 654 662 668 675 676 679 693 697 698 701 707 565 564 563 562
    561 560 559 557 555 554 553 551 550 549 548 546 546 544 543 542 541
    540 538 536 535 535 534 533 531 530 529 529 528 527 524 524 522 521
    520 520 519 517 517 516 516 517 521 521 537 537 538 540 543 546 548
    554 558 559 560 572 576 581 583 583 602 600 599 598 598 615 618 619
    627 628 628 649 649 649 662 662 668 675 678 679 693 697 700 701 0
    565 565 564 563 562 560 559 557 555 554 553 552 550 549 548 547 546
    545 544 542 541 540 539 537 536 535 534 533 532 530 529 529 529 527
    526 525 523 522 521 520 519 518 517 517 517 517 521 532 532 535 537
    540 543 546 548 554 558 560 565 573 578 580 582 583 583 599 599 599
    611 615 618 619 627 628 628 649 649 649 655 666 670 676 678 682 694
    697 700 704 708 0 565 564 564 562 561 560 557 556 556 553 553 550
    549 548 547 546 546 544 543 541 540 539 537 536 535 534 534 532 531
    530 529 529 528 526 525 523 522 521 520 520 519 518 517 517 518 521
    531 531 534 537 540 544 546 548 556 559 561 565 574 578 580 582 583
    604 599 599 599 611 615 618 621 627 629 629 649 650 652 655 666 672
    676 679 683 694 696 700 706 708 568 566 565 565 563 562 560 558 557
    556 554 553 551 550 549 547 546 546 545 543 542 541 540 538 536 535
    535 534 533 532 530 529 529 528 526 525 523 522 521 520 520 519 518
    518 519 520 521 531 531 534 537 540 544 547 551 556 561 563 565 574
    578 580 583 583 604 601 601 601 614 614 616 622 627 629 648 648 650
    653 657 664 674 678 680 683 694 696 698 708 711 567 566 565 565 564
    562 561 559 558 557 556 554 553 550 549 548 546 546 545 543 542 541
    540 539 537 536 535 534 533 532 531 529 529 529 526 525 524 523 522
    521 520 519 519 518 518 520 521 531 531 534 538 539 544 547 551 555
    561 564 567 570 577 580 584 586 606 603 603 604 613 613 616 622 624
    629 648 648 652 654 658 663 674 678 683 688 693 694 696 708 711 567
    567 566 565 564 564 561 560 559 557 556 554 553 552 550 549 547 546
    546 545 543 541 540 539 537 536 535 534 533 532 531 530 529 529 526
    525 524 523 521 521 520 520 519 518 518 520 521 532 532 535 537 539
    545 548 551 555 567 567 569 570 575 580 584 588 589 606 606 606 613
    613 615 622 624 629 650 650 654 655 659 663 674 678 683 688 693 694
    694 694 711 568 567 567 565 565 564 562 560 559 557 557 554 554 553
    551 550 548 546 546 545 544 542 540 540 538 536 535 534 533 533 531
    530 530 529 526 525 524 523 521 521 521 520 519 519 519 520 520 534
    534 535 536 539 544 550 554 554 568 568 570 572 575 580 589 589 589
    609 607 607 611 611 615 623 623 650 650 650 654 654 658 664 671 680
    684 688 694 694 694 694 0 0 567 567 566 565 564 563 561 559 558 557
    556 554 553 552 550 549 547 546 546 545 543 541 540 539 538 536 535
    535 534 533 531 531 529 526 525 524 523 522 521 521 520 519 519 519
    520 529 529 532 535 536 543 544 547 554 554 568 568 570 574 576 580
    589 589 590 609 609 610 610 611 622 623 623 652 652 652 654 654 658
    666 671 678 687 690 694 694 694 694 0 570 568 567 566 565 564 563
    561 560 559 557 556 554 553 552 550 549 548 547 546 546 543 542 540
    540 539 536 535 535 534 533 532 531 529 527 526 524 523 522 522 521
    521 520 519 519 520 529 529 532 534 536 544 545 545 554 555 565 568
    572 574 576 578 590 591 592 609 609 610 610 611 622 625 629 629 653
    653 655 657 661 667 668 674 688 691 694 694 716 716 716 570 568 568
    567 565 565 563 562 560 559 557 556 554 554 553 551 549 548 547 546
    546 543 542 540 540 539 537 536 535 534 533 532 531 529 528 526 525
    524 523 523 522 521 520 520 520 521 529 530 532 534 536 544 545 545
    550 558 565 568 572 574 576 578 586 591 592 609 609 610 610 611 622
    627 629 629 629 655 657 657 661 666 668 674 691 693 694 696 714 714
    716 570 569 568 567 566 565 564 562 561 559 558 557 554 554 553 551
    549 549 548 547 546 545 542 541 540 539 538 536 535 534 533 532 532
    529 528 526 525 525 524 523 522 522 521 520 520 521 529 532 534 535
    537 544 545 546 550 560 563 568 572 574 577 584 586 591 593 607 609
    610 610 622 622 629 630 629 629 657 657 658 661 666 668 679 688 693
    696 697 714 714 716 569 568 568 567 566 565 564 564 561 559 558 557
    555 554 553 552 550 549 549 547 546 545 542 541 540 539 538 536 535
    534 534 533 532 529 528 526 525 525 524 523 523 522 521 520 520 529
    529 533 534 536 542 544 545 546 560 560 562 570 572 574 577 584 587
    587 606 606 607 609 610 611 623 628 631 631 631 657 657 659 662 666
    670 679 687 693 697 700 713 716 716 569 568 568 568 567 565 565 564
    562 560 559 557 555 554 553 552 550 549 549 548 546 546 543 541 540
    539 538 537 536 534 534 533 531 530 529 527 526 525 525 524 523 522
    521 521 521 521 534 534 536 536 542 544 545 546 560 560 562 566 575
    576 581 583 586 587 604 604 607 609 611 611 623 628 631 631 631 657
    657 659 662 667 675 680 686 694 698 700 701 714 716 0 569 569 568
    567 566 565 564 562 561 560 558 556 555 554 553 551 549 549 548 546
    546 543 542 541 540 539 537 536 535 534 533 531 530 529 529 527 526
    525 525 524 523 521 521 521 523 523 536 536 540 541 543 545 546 560
    560 563 566 575 577 581 583 586 587 604 604 607 612 612 619 622 627
    631 632 632 657 657 661 662 666 678 680 684 697 700 700 701 714 717
    0 571 570 569 567 566 565 564 564 561 560 558 556 555 554 553 552
    550 549 548 547 546 546 542 541 540 539 538 537 535 534 533 532 530
    529 529 528 526 525 525 525 523 522 522 522 523 535 535 537 539 541
    543 546 551 554 560 563 572 575 577 581 583 586 587 604 604 607 616
    616 619 622 627 634 635 636 657 659 661 662 666 678 680 684 694 700
    700 701 719 722 0 571 571 569 568 567 566 565 564 562 561 558 557
    555 554 553 552 550 549 549 547 546 546 543 542 540 540 539 538 536
    535 534 532 531 530 529 529 526 526 525 525 523 522 522 523 524 531
    531 537 538 542 545 546 551 554 559 562 573 575 577 583 584 586 587
    604 604 609 616 616 619 623 627 635 636 636 655 658 662 663 666 682
    682 684 694 700 701 703 719 720 0 571 570 569 569 567 566 565 565
    562 561 559 557 555 554 554 552 551 550 549 547 546 543 543 542 541
    540 539 539 537 536 534 533 532 531 530 529 527 527 526 525 524 523
    523 523 524 531 531 537 538 543 545 546 553 554 558 562 573 574 576
    583 584 586 587 606 606 609 613 613 619 623 627 635 636 636 655 658
    662 663 666 682 682 688 693 701 703 713 716 717 0 571 570 569 569
    567 566 565 565 562 561 559 557 556 555 554 553 552 550 549 547 546
    543 543 542 541 540 540 539 537 536 535 533 533 532 531 529 528 527
    526 525 524 523 523 523 525 536 536 536 539 543 545 549 554 554 558
    571 573 574 576 583 585 587 587 607 607 609 612 612 619 624 631 635
    636 637 657 658 662 663 676 679 683 690 693 696 706 713 716 716 0
    571 571 570 569 568 567 565 565 563 562 559 557 556 555 554 553 552
    551 550 548 546 546 543 542 542 540 540 539 538 536 535 534 533 532
    531 529 529 527 526 525 524 523 523 524 525 536 536 536 539 544 546
    548 554 555 560 565 572 574 576 583 588 589 607 607 608 609 612 612
    622 628 632 635 636 638 658 659 662 664 676 679 683 693 693 696 708
    714 717 716 573 572 572 571 569 568 567 565 565 563 561 559 557 556
    555 554 554 553 552 550 549 547 546 544 543 542 541 540 540 538 537
    536 534 533 532 531 529 529 528 527 525 525 524 523 523 525 525 534
    534 540 543 546 547 556 561 562 565 572 574 576 583 588 590 593 607
    608 610 612 613 623 628 631 635 637 638 659 659 662 668 675 679 684
    693 694 696 711 714 717 0 573 572 572 571 571 569 568 565 565 564
    561 560 558 557 556 555 554 553 552 551 549 547 546 545 544 543 541
    540 540 539 537 536 535 534 533 531 529 529 528 527 526 525 524 523
    523 524 533 533 534 542 543 547 547 556 562 562 565 571 574 576 585
    590 591 593 607 610 611 612 614 625 628 631 636 638 638 661 661 662
    670 675 680 688 693 694 703 710 717 719 722 0 572 572 571 571 570
    568 566 565 564 562 560 560 559 557 555 554 553 552 551 550 549 547
    546 545 544 542 541 540 539 538 536 535 534 533 532 530 529 529 528
    526 525 525 523 523 524 533 533 534 543 544 546 548 556 559 563 565
    571 574 577 588 591 591 592 608 611 611 613 615 625 628 631 636 638
    638 662 662 663 672 675 680 688 694 696 704 708 720 722 722 0 573
    572 572 571 570 568 566 565 565 562 561 560 560 558 556 555 554 554
    552 551 550 547 546 545 544 542 541 540 539 538 537 536 534 533 532
    530 529 529 528 526 525 525 524 524 524 524 543 543 543 544 546 548
    556 559 562 566 571 574 577 589 591 591 592 609 611 612 613 615 629
    629 632 636 637 661 662 662 668 672 676 683 690 694 703 704 706 722
    723 725 0 573 572 572 572 571 569 567 565 565 563 561 561 560 558
    557 556 554 554 552 551 550 547 546 546 545 543 541 540 540 539 538
    536 534 533 532 530 529 529 529 527 526 525 524 524 525 540 540 540
    541 542 546 553 557 559 562 568 571 574 577 589 592 592 592 610 611
    611 613 615 630 630 632 636 637 662 662 664 670 672 676 683 693 696
    703 704 706 722 723 725 0 575 574 573 572 571 569 567 566 565 564
    562 561 560 559 557 556 554 554 553 552 550 547 546 546 545 543 542
    540 540 539 539 538 534 533 533 531 530 529 529 528 526 525 525 525
    525 530 539 540 540 541 547 553 555 561 563 568 571 573 584 589 592
    592 592 610 611 611 612 614 627 631 634 636 663 663 663 664 671 674
    676 686 693 696 701 706 708 723 725 0 0 575 575 574 572 571 569 568
    567 565 564 563 561 561 559 558 557 555 554 554 552 550 547 546 546
    546 544 542 541 540 540 539 538 537 534 533 532 531 530 529 529 526
    525 525 525 526 530 535 539 540 541 553 553 555 563 564 565 572 573
    584 589 592 593 593 611 611 611 612 614 623 631 634 636 664 663 663
    666 671 672 679 686 693 696 701 706 710 723 725 0 0 575 575 574 573
    572 570 569 567 566 565 564 562 561 560 559 557 555 554 554 553 551
    549 547 546 546 545 543 542 540 540 539 539 537 535 534 533 532 530
    529 529 528 526 525 525 528 530 535 539 542 545 553 553 554 564 564
    565 574 577 584 589 593 595 595 612 612 613 613 616 623 631 634 636
    640 664 664 666 670 672 679 686 693 696 701 707 713 722 723 0 0 575
    575 575 573 572 571 570 568 567 565 564 562 561 560 559 557 556 555
    554 554 552 549 548 547 546 545 543 542 541 540 540 539 538 535 534
    533 532 531 530 529 528 526 526 526 528 533 536 540 543 545 553 553
    554 560 563 563 575 578 584 589 594 596 596 612 612 613 614 624 624
    632 635 637 640 642 666 667 670 672 683 686 691 696 703 710 713 722
    723 0 0 576 576 575 574 572 571 570 568 567 566 564 562 561 560 560
    558 557 556 554 554 551 549 549 547 546 545 544 543 541 540 540 539
    538 535 534 534 533 532 530 529 529 527 526 526 528 536 537 540 543
    545 553 554 555 559 563 563 575 580 581 589 593 596 597 612 612 614
    615 623 623 632 636 640 641 642 667 668 670 672 683 686 691 698 703
    710 713 722 723 0 0 576 576 576 575 573 571 570 568 567 567 565 564
    562 561 560 558 557 556 555 554 551 550 549 548 546 545 544 543 542
    541 540 540 538 536 534 534 533 532 531 529 529 527 526 526 528 535
    538 540 543 546 553 554 555 559 568 573 575 580 581 590 593 596 600
    612 612 614 621 623 623 635 637 640 642 644 667 668 670 672 683 686
    691 700 707 713 713 719 722 725 0 0 577 576 575 573 572 570 569 568
    567 566 564 562 561 560 559 558 556 555 554 552 550 549 548 546 546
    545 543 542 542 540 540 538 536 535 534 533 532 532 530 529 528 528
    528 529 535 538 541 544 547 554 555 559 560 565 573 577 580 582 591
    593 596 610 611 613 613 622 623 625 636 637 638 643 644 666 667 670
    674 683 690 694 700 707 711 713 719 722 725 0 579 578 576 575 574
    572 571 569 568 567 567 564 563 561 560 559 558 557 556 554 552 550
    549 549 547 546 545 544 543 542 540 540 539 536 535 534 533 533 532
    531 529 529 528 528 529 531 538 542 545 547 554 558 560 561 563 573
    577 580 587 591 593 596 611 611 613 613 625 625 628 636 637 638 646
    666 666 667 670 675 683 690 694 703 706 711 714 720 722 0 0 579 578
    576 575 573 572 571 570 568 568 567 566 564 562 561 560 558 557 556
    555 552 551 550 549 547 546 545 545 543 542 540 540 538 537 535 534
    534 533 532 532 529 529 529 529 529 531 543 543 545 547 554 559 560
    562 563 575 579 581 587 590 594 596 613 613 613 613 623 625 629 632
    637 641 646 663 663 668 672 675 690 693 696 703 706 711 714 720 0 0
    0 579 578 577 576 573 572 572 571 569 568 567 565 564 563 561 560
    559 557 556 555 553 552 550 549 548 546 546 546 544 543 541 540 538
    537 536 535 534 533 533 532 531 529 529 529 529 529 544 544 546 553
    554 559 561 562 573 575 578 582 587 590 594 596 613 613 614 614 623
    627 630 632 637 642 646 663 663 667 674 675 690 693 700 703 707 713
    717 723 0 0 0 579 578 577 576 574 573 572 571 570 569 568 565 565
    563 561 560 559 557 556 555 553 552 551 549 548 547 546 546 544 543
    542 541 539 538 536 535 534 533 533 532 531 529 529 529 529 529 545
    545 546 552 555 560 561 562 574 576 578 581 587 590 595 597 613 613
    614 614 623 628 631 634 637 642 646 666 666 667 675 678 684 693 700
    703 707 717 717 723 0 0 0 579 579 578 577 575 573 572 571 570 569
    568 566 565 564 562 561 559 558 556 556 554 553 552 550 549 548 546
    546 545 544 542 541 540 539 537 536 534 533 533 532 532 530 529 529
    529 529 546 546 548 552 554 560 561 562 575 576 578 581 587 590 595
    600 600 615 615 616 623 630 631 632 638 642 667 667 667 672 678 680
    683 693 700 704 714 717 719 723 736 736 0 0 580 579 578 577 574 572
    571 571 569 568 566 565 564 563 561 560 558 557 556 554 553 552 551
    549 549 547 546 546 544 543 542 540 539 538 536 535 534 533 532 532
    530 529 529 529 529 546 546 547 548 554 560 562 563 575 576 578 581
    587 590 598 600 601 615 615 618 623 630 631 632 644 644 667 667 667
    671 679 680 683 697 700 707 714 717 719 723 736 736 0 0 580 579 579
    577 576 574 572 572 571 569 567 565 565 563 562 560 559 558 556 555
    553 552 551 550 549 548 546 546 545 543 542 540 539 538 537 536 534
    534 533 532 531 529 529 531 543 543 545 547 548 557 560 562 564 572
    575 578 581 587 596 598 600 601 601 622 622 623 630 631 632 646 646
    667 667 667 671 679 680 683 698 701 710 714 716 719 723 0 0 0 0 581
    580 579 578 576 574 573 572 571 569 567 565 565 564 563 561 560 559
    557 555 554 553 552 550 549 548 547 546 546 544 542 540 539 538 537
    536 535 534 533 532 532 531 531 532 543 543 544 547 551 557 560 562
    567 572 574 578 583 587 597 598 600 601 602 623 623 624 629 631 632
    646 646 646 668 668 672 679 680 683 698 704 710 714 716 719 723 731
    0 0 0 582 581 580 579 576 575 573 572 571 569 567 565 565 564 563
    562 560 559 557 556 555 553 552 550 549 548 547 546 546 544 542 540
    540 539 538 537 536 535 534 533 532 531 531 532 532 544 544 548 551
    558 561 565 568 572 574 579 585 590 596 599 600 601 601 625 624 624
    629 631 640 646 646 646 668 670 672 680 680 683 698 704 708 711 714
    719 727 731 0 0 584 583 581 580 579 577 575 573 572 572 569 567 566
    565 565 564 562 561 560 558 557 556 554 553 551 550 549 548 546 546
    545 542 541 540 539 538 537 536 535 534 533 532 532 532 533 535 544
    544 550 552 556 561 565 569 572 574 584 586 591 596 599 600 601 601
    625 625 628 629 632 640 644 646 646 670 672 674 680 680 687 698 704
    708 711 714 719 727 734 734 0 584 583 582 581 580 578 575 573 572
    572 569 568 567 565 565 564 563 562 560 559 558 556 555 553 552 551
    549 548 546 546 546 543 542 541 540 538 537 536 535 534 533 533 533
    533 534 535 544 544 551 554 556 561 567 570 572 574 584 585 591 597
    599 601 602 622 622 625 627 629 631 637 644 647 647 667 672 675 679
    679 688 698 704 708 713 717 722 728 734 734 0 585 583 582 581 580
    578 576 574 572 572 569 568 567 566 565 565 563 562 560 559 558 557
    555 554 552 551 550 548 547 546 546 543 542 541 540 539 537 536 535
    534 534 533 533 533 534 536 548 550 551 555 555 560 564 570 572 574
    583 585 591 597 600 601 603 622 622 625 627 629 631 637 646 648 649
    667 672 675 678 679 694 698 703 708 714 720 723 728 734 734 0 585
    583 582 581 580 578 576 575 574 572 570 568 568 567 565 565 564 562
    561 560 559 557 555 554 553 552 550 549 548 546 546 546 543 542 540
    539 538 537 536 535 534 534 534 534 535 536 548 550 552 554 555 560
    564 571 573 577 583 585 590 597 600 602 603 622 623 623 625 629 631
    637 647 650 652 675 675 676 678 686 693 697 703 710 717 722 725 728
    736 0 0 0 584 583 582 581 579 577 576 575 572 570 569 568 567 566
    565 564 563 561 560 559 557 555 554 554 553 551 549 548 547 546 546
    543 542 541 540 538 537 536 535 535 534 534 534 535 536 549 550 552
    554 555 561 564 572 576 579 583 585 590 599 601 601 604 621 622 623
    624 629 632 637 647 650 653 676 676 676 679 686 693 694 714 714 717
    722 725 728 0 0 0 0 584 583 583 582 580 578 577 575 572 571 569 568
    567 566 565 564 563 562 561 560 558 556 554 554 553 551 550 549 547
    546 546 546 543 541 540 539 538 537 536 535 535 534 534 535 549 549
    551 553 553 555 562 564 575 576 578 588 589 593 600 601 601 604 621
    621 623 623 631 634 638 648 649 652 674 676 676 679 688 691 694 716
    716 719 722 725 730 0 0 0 0 585 584 583 582 580 579 576 576 573 572
    570 569 568 567 565 564 563 562 561 560 559 556 555 554 553 552 550
    549 548 547 546 546 543 541 540 539 539 538 536 536 535 534 534 534
    549 549 551 553 553 561 565 565 573 575 577 587 589 593 600 602 602
    620 620 621 623 623 634 636 640 648 649 650 674 675 676 680 688 691
    694 706 714 722 723 725 730 0 0 0 0 586 585 584 583 581 579 576 576
    573 572 571 570 569 568 566 565 564 563 561 561 559 556 555 554 554
    553 551 550 548 548 547 546 543 542 540 540 539 539 537 536 535 534
    534 534 549 550 552 553 553 561 565 565 571 575 577 586 589 598 600
    602 602 620 620 621 623 623 636 640 642 648 649 650 674 675 676 682
    688 693 694 706 711 722 723 725 733 736 741 0 0 586 585 584 583 581
    579 578 576 574 572 571 571 570 568 566 565 564 564 562 561 559 557
    556 554 554 553 552 550 548 548 547 546 543 542 541 540 540 539 538
    537 535 534 534 535 540 549 551 554 555 562 565 566 571 575 579 586
    591 598 600 602 603 608 619 623 623 630 636 640 643 648 649 653 675
    676 676 682 688 693 696 706 711 723 723 725 734 736 741 0 0 586 585
    584 583 581 579 578 576 574 572 572 571 570 569 567 566 565 564 563
    562 559 558 556 554 554 554 552 550 549 548 547 546 543 542 541 540
    540 539 539 537 536 535 535 536 540 549 551 554 557 561 565 567 572
    575 580 588 591 599 601 602 604 608 619 624 624 630 636 641 643 648
    652 653 676 678 679 684 688 693 694 710 713 723 723 727 736 736 0 0
    0 586 585 584 583 581 579 578 577 574 572 572 571 570 569 567 566
    565 565 564 563 560 558 557 555 554 554 553 551 549 549 547 546 546
    543 542 541 540 540 539 538 537 536 536 537 540 547 552 556 558 560
    565 566 573 579 582 590 592 594 601 602 604 619 620 628 628 631 637
    641 643 648 653 654 676 678 679 683 690 693 694 711 717 723 723 733
    738 739 0 0 588 586 585 584 583 582 580 579 578 576 573 572 571 570
    569 568 567 565 565 564 563 560 558 557 556 555 554 553 551 550 549
    548 546 546 544 543 542 541 540 539 539 538 537 537 540 542 547 554
    555 557 560 565 566 579 582 583 590 592 594 601 603 604 620 621 625
    625 631 637 640 643 650 653 654 676 678 679 683 690 694 708 711 720
    723 723 738 738 741 0 0 588 586 586 585 584 583 581 580 578 576 573
    572 572 571 569 568 567 566 565 564 563 560 558 557 556 555 554 553
    552 550 549 548 547 546 544 543 542 541 540 540 539 538 538 538 540
    543 547 554 555 557 560 565 566 579 582 584 589 591 593 601 603 606
    622 622 625 625 632 637 640 643 650 653 654 676 678 678 684 690 694
    708 711 720 723 723 739 739 741 0 0 0 587 587 586 584 583 582 580
    579 576 574 573 572 571 569 568 567 566 565 565 563 561 559 557 556
    555 554 553 552 551 550 549 548 546 546 544 543 541 540 540 539 539
    539 539 540 544 549 554 555 557 560 565 566 573 573 585 589 591 593
    601 604 607 622 622 623 627 636 637 638 643 650 653 654 676 678 678
    684 691 694 710 714 720 722 723 741 741 741 0 0 0 587 587 586 585
    584 583 582 580 577 576 573 572 571 569 568 567 566 565 565 563 561
    559 558 557 555 554 553 553 552 550 549 548 546 546 545 543 541 540
    540 540 539 539 539 540 544 551 554 556 557 560 571 572 573 573 587
    589 592 594 602 606 608 622 623 623 627 636 637 638 648 652 653 678
    678 679 680 684 691 696 710 714 717 722 723 741 739 739 0 0 0 588
    588 587 585 584 583 582 580 579 577 574 573 571 570 569 568 567 566
    565 563 561 560 559 557 556 554 554 553 552 551 550 549 546 546 545
    543 542 541 540 540 539 539 539 540 544 551 554 556 558 562 571 573
    574 574 587 589 594 597 602 606 609 623 623 624 627 635 637 638 648
    652 653 678 678 679 682 684 691 697 711 714 717 722 741 741 739 739
    0 0 0 588 588 587 586 584 583 582 581 579 577 576 574 572 570 569
    568 567 566 565 564 562 560 559 558 557 554 554 554 553 552 550 549
    546 546 545 543 542 541 540 540 540 540 540 540 546 548 555 557 559
    563 566 572 574 575 587 589 595 598 603 607 609 623 623 624 627 635
    637 646 649 652 653 678 678 680 683 687 691 698 710 714 717 722 736
    741 741 741 0 0 0 588 588 587 586 584 583 583 581 580 578 576 575
    573 571 570 569 568 567 565 564 563 562 560 558 557 555 554 554 554
    553 551 549 546 546 545 544 543 542 541 540 540 540 540 540 547 548
    555 558 564 565 565 572 574 587 588 590 595 599 604 608 610 621 623
    624 627 635 638 646 649 652 654 678 678 679 684 688 693 700 710 714
    719 728 733 739 742 0 0 0 0 588 588 588 587 585 584 583 581 580 579
    576 575 574 572 570 569 568 567 566 564 563 562 561 559 558 556 556
    555 554 553 552 549 547 546 546 545 544 543 542 540 540 540 540 540
    548 550 555 559 564 565 565 570 576 587 587 590 595 599 606 608 611
    614 625 625 627 635 640 646 650 652 655 661 678 679 684 691 693 701
    707 717 720 728 733 738 742 0 0 0 0 588 588 588 587 586 584 583 581
    580 579 576 576 575 573 571 569 568 567 566 565 564 562 561 560 558
    557 556 554 554 554 553 550 548 547 546 546 544 543 542 540 540 540
    540 540 548 549 559 560 563 565 566 569 579 582 587 590 594 600 608
    610 612 613 627 627 628 640 640 646 650 653 657 659 678 680 688 691
    694 703 706 719 723 728 731 738 742 0 0 0 0 589 589 588 587 586 584
    583 582 581 580 577 576 575 574 572 570 568 568 567 565 564 562 561
    560 559 557 556 554 554 554 553 550 549 547 546 546 545 543 542 541
    540 540 540 541 548 548 561 562 563 565 567 569 579 582 588 592 594
    600 604 610 612 613 629 629 629 637 637 648 652 653 657 658 679 683
    688 693 694 703 706 720 725 728 731 738 742 0 0 0 0 589 589 589 588
    587 586 584 583 581 580 577 576 575 574 572 570 569 568 567 567 564
    563 561 560 560 559 557 555 554 554 553 551 549 548 546 546 545 544
    543 542 540 540 540 543 546 548 560 561 562 566 570 572 579 582 588
    593 597 600 602 610 611 614 627 629 630 637 637 648 653 654 657 657
    680 683 687 693 694 703 720 720 725 728 731 741 744 0 0 0 0 589 589
    590 588 588 587 584 584 582 581 578 576 575 574 572 571 570 568 568
    567 565 564 562 561 560 559 558 556 555 554 553 551 550 548 547 546
    546 544 543 542 541 541 541 544 546 559 559 560 562 565 573 576 581
    584 588 593 597 601 602 610 611 625 625 628 629 638 638 647 653 655
    657 657 682 684 687 694 697 703 719 723 727 728 746 746 747 0 0 0 0
    592 592 591 589 588 587 585 584 582 580 579 577 575 574 572 572 571
    570 568 567 566 564 563 561 560 560 559 558 556 555 554 553 550 549
    548 546 546 545 543 543 542 542 542 544 546 559 559 560 562 565 573
    576 583 585 588 594 597 600 604 611 612 625 625 628 629 642 643 647
    653 657 657 658 683 684 687 696 698 703 719 723 727 728 736 746 747
    0 0 0 0 592 592 591 589 588 587 586 584 583 580 579 578 576 574 573
    572 571 570 569 568 567 564 564 562 561 560 559 558 557 555 554 553
    551 549 548 546 546 546 544 543 542 542 542 544 546 559 559 560 561
    565 573 578 582 585 590 594 597 600 607 611 613 625 625 628 641 641
    644 648 653 657 658 658 683 684 687 696 700 704 719 723 728 731 736
    746 747 0 0 0 0 594 592 591 589 588 587 586 584 583 580 579 578 576
    575 574 573 572 571 569 568 567 565 564 563 561 560 559 558 557 555
    554 553 551 550 548 547 546 546 545 543 543 543 543 544 547 559 559
    560 561 565 576 578 581 587 590 594 598 602 607 612 615 623 623 628
    637 641 643 648 653 658 658 658 684 686 688 697 701 704 720 723 730
    733 736 744 746 0 0 0 0 595 593 591 590 589 588 586 584 583 580 580
    579 577 576 575 574 573 571 570 568 567 565 564 563 562 561 559 558
    557 556 554 553 552 551 549 548 547 546 545 544 543 543 543 545 549
    559 560 562 563 566 575 578 581 588 590 593 598 603 608 613 615 618
    623 630 637 640 643 648 653 658 659 683 683 686 688 697 704 704 704
    727 731 734 738 742 746 0 0 0 0 595 593 591 590 589 588 587 585 584
    581 580 579 578 576 575 574 573 571 570 568 567 565 564 564 563 561
    560 558 557 557 554 553 552 551 550 549 548 546 546 545 544 544 544
    546 549 560 561 562 563 572 574 578 581 588 591 593 598 604 607 613
    614 618 634 634 637 640 643 649 655 661 662 683 683 684 691 700 704
    704 704 727 730 733 738 742 746 0 0 0 0 595 593 592 590 589 588 587
    586 584 582 580 579 579 577 575 574 573 572 570 568 567 565 565 564
    563 561 560 559 557 557 554 553 552 551 550 549 548 547 546 546 545
    545 545 546 550 558 561 562 563 571 574 578 581 588 591 593 598 606
    607 613 614 614 637 637 637 641 643 652 659 661 662 676 683 683 693
    700 704 706 706 727 730 733 736 746 747 0 0 0 0 595 593 593 591 590
    589 588 586 584 583 581 579 579 578 576 575 574 572 570 568 568 566
    565 564 563 562 560 559 558 557 557 554 552 551 550 549 548 547 546
    546 545 545 545 547 550 558 561 563 566 571 574 578 581 589 592 593
    597 607 611 614 614 637 638 638 638 643 644 657 661 662 663 667 683
    683 694 700 704 706 723 727 731 733 736 749 752 0 0 0 0 596 595 594
    592 590 589 588 587 584 583 581 580 579 578 576 575 575 573 571 569
    568 567 565 565 564 562 561 560 559 558 557 554 553 552 551 550 548
    547 546 546 546 546 546 549 551 558 561 563 568 571 574 577 581 589
    593 593 597 601 612 614 614 637 637 637 642 643 647 652 661 663 664
    667 686 687 694 700 704 706 725 728 731 733 738 749 752 754 0 0 0 0
    596 595 593 592 591 590 588 584 583 582 581 580 579 577 576 575 573
    572 570 568 567 566 565 564 563 561 560 559 558 557 556 554 553 551
    550 549 548 546 546 546 546 546 548 551 561 562 564 567 570 575 577
    581 587 594 596 598 601 613 614 618 619 637 637 641 643 647 652 662
    663 664 666 687 688 694 700 704 711 723 728 731 734 741 746 754 754
    0 0 0 0 0 595 594 593 591 590 588 584 583 583 582 580 579 578 576
    575 574 572 571 569 567 566 565 564 563 562 561 559 558 557 556 554
    553 551 550 549 549 547 546 546 546 546 548 551 561 562 565 567 570
    576 579 582 587 595 596 598 613 613 615 618 619 638 638 641 643 647
    652 662 663 664 666 690 690 694 700 706 714 723 728 731 738 742 746
    754 0 0 0 0 0 0 596 595 593 591 590 589 585 584 583 582 580 579 578
    576 575 574 573 572 569 568 566 565 565 564 563 561 560 559 557 556
    555 553 552 551 550 549 547 547 546 546 546 549 551 561 562 565 568
    572 576 579 585 588 594 597 598 612 614 616 618 619 637 637 640 644
    647 653 662 663 663 666 690 690 696 701 707 714 723 727 731 739 744
    744 754 0 0 0 0 0 0 596 595 594 592 591 590 586 584 583 583 581 580
    578 576 575 575 574 572 570 568 568 567 565 564 563 561 560 559 558
    556 556 553 552 551 550 549 548 547 547 546 546 550 553 563 563 565
    568 573 577 581 586 589 594 597 597 612 615 616 618 619 636 637 640
    647 648 661 662 663 663 693 693 693 696 701 708 714 722 725 731 739
    744 744 0 0 0 0 0 0 596 596 595 594 592 591 590 588 585 584 583 581
    580 579 576 576 575 574 572 570 568 568 567 565 564 564 563 561 560
    559 559 556 554 553 551 550 550 549 548 548 546 546 550 553 563 564
    565 568 573 578 583 586 589 594 597 597 613 616 618 618 619 634 643
    643 648 649 661 662 664 664 693 693 694 697 701 707 716 722 725 731
    741 746 747 0 0 0 0 0 0 596 596 595 594 592 591 590 588 586 584 583
    583 581 579 578 576 575 574 572 570 568 568 567 565 565 564 564 562
    561 560 559 557 554 554 553 552 550 549 549 548 547 547 550 551 563
    564 565 569 573 578 583 586 589 594 598 610 612 616 618 619 620 634
    644 644 649 650 659 663 666 667 693 693 694 697 701 707 716 722 727
    731 741 746 747 754 0 0 0 0 0 596 596 595 594 593 592 591 588 586
    585 584 583 582 580 578 577 575 574 572 571 569 568 567 565 565 564
    564 563 561 560 559 556 556 554 554 552 551 549 549 548 547 547 550
    551 562 565 566 569 573 577 584 586 590 596 599 610 612 616 618 619
    635 635 638 642 648 652 659 664 666 667 670 694 694 697 704 707 716
    723 728 734 742 746 749 754 0 0 0 0 596 596 596 596 595 594 592 591
    588 588 585 584 583 583 580 579 578 576 575 573 571 570 568 567 566
    565 565 564 563 561 561 560 556 556 555 554 553 552 550 549 548 547
    547 550 551 562 565 568 572 573 577 584 586 591 596 597 610 612 615
    619 620 644 638 638 641 644 653 659 664 667 668 670 693 694 696 704
    710 717 723 730 736 742 747 754 755 761 0 0 0 596 596 596 596 595
    595 593 591 588 588 586 584 584 583 580 579 579 577 576 573 572 570
    569 568 567 566 565 564 563 562 561 560 557 556 555 554 554 553 551
    549 548 548 548 550 551 561 565 569 572 573 580 585 588 594 596 597
    610 611 614 619 620 640 638 638 641 644 652 662 664 667 668 672 693
    694 696 707 714 717 725 731 738 744 749 755 757 761 0 0 0 0 598 597
    596 596 595 593 591 589 588 586 584 584 582 581 580 579 578 576 574
    572 571 569 568 567 566 565 565 564 563 561 560 557 556 555 555 554
    553 552 550 548 548 548 550 552 561 565 569 572 574 580 583 585 596
    597 598 611 611 614 621 622 638 638 640 641 649 652 662 664 667 668
    672 696 697 698 707 714 720 727 734 739 744 749 755 757 755 755 0 0
    0 599 597 597 596 595 593 592 590 588 587 585 584 582 581 580 579
    578 576 574 573 572 570 568 567 566 565 565 564 563 561 561 557 556
    556 555 554 553 553 550 549 549 549 550 552 564 566 569 570 575 580
    582 582 597 598 600 606 610 621 621 622 638 638 640 644 649 652 659
    666 667 668 672 696 697 703 707 713 722 728 731 739 746 749 754 757
    755 755 0 0 0 600 599 598 596 595 594 592 590 589 587 586 584 583
    582 580 579 578 576 575 574 572 571 569 567 567 565 565 564 563 562
    560 558 557 556 556 554 554 553 551 550 550 550 551 552 565 566 568
    570 579 580 582 582 597 600 601 606 608 622 622 622 637 637 640 644
    650 652 659 666 667 668 694 696 697 703 707 713 725 728 731 736 746
    750 754 0 0 0 0 0 0 600 599 599 597 595 595 594 591 589 587 587 585
    584 583 581 580 579 577 576 574 573 571 570 568 567 566 565 565 563
    562 560 558 557 556 556 555 554 554 551 550 550 551 551 553 565 566
    568 570 578 580 582 593 597 600 602 604 607 622 623 623 637 637 640
    644 650 652 664 667 668 668 694 696 697 701 708 714 723 730 733 734
    746 750 757 0 0 0 0 0 0 599 599 599 597 596 595 594 592 589 587 587
    585 584 583 582 580 579 577 576 574 573 572 570 569 568 566 565 565
    564 562 560 558 557 557 556 555 554 554 553 551 551 551 552 553 565
    566 569 570 578 580 582 593 597 600 602 602 607 621 623 623 638 638
    641 643 650 655 666 668 668 668 696 697 698 701 710 714 719 730 733
    734 759 757 757 759 0 0 0 0 0 599 599 599 598 596 595 594 592 591
    588 587 586 585 584 582 581 579 578 577 576 573 572 571 569 568 567
    566 565 564 562 560 559 557 557 556 556 554 554 553 552 552 552 554
    554 564 567 569 570 574 582 585 593 598 600 601 601 618 620 623 623
    637 640 641 643 650 655 667 670 670 670 696 697 698 704 710 714 719
    725 733 734 761 757 757 759 0 0 0 0 0 599 599 599 598 597 596 595
    594 592 588 587 586 585 584 583 581 580 579 578 577 573 572 571 570
    569 568 567 566 565 563 561 560 558 557 556 556 554 554 553 552 552
    552 554 556 561 568 570 572 574 586 590 593 598 600 601 601 619 620
    623 623 637 641 642 643 650 658 670 671 671 671 696 697 701 704 707
    716 719 725 728 759 759 757 757 759 0 0 0 0 0 599 599 599 599 597
    596 595 594 591 589 588 587 586 584 583 581 580 579 579 578 574 572
    571 570 569 568 567 566 565 564 562 561 560 559 558 557 556 554 552
    552 552 552 555 558 561 569 571 573 577 585 588 594 599 601 602 616
    619 620 623 641 641 641 642 643 653 659 668 671 671 672 696 697 700
    704 707 717 720 725 728 759 759 757 757 761 0 0 0 0 0 603 602 600
    599 598 596 596 595 591 589 588 587 586 585 583 582 581 580 579 578
    577 573 572 571 570 568 567 567 565 564 563 562 560 559 558 557 556
    554 552 552 552 552 555 558 562 569 571 573 580 585 588 588 599 602
    602 615 619 620 623 642 642 642 642 643 653 659 664 671 672 672 696
    697 700 701 707 717 720 730 759 759 759 759 759 761 0 0 0 0 604 603
    603 601 600 599 598 596 595 592 589 588 588 587 586 584 582 581 580
    579 578 577 574 573 572 571 569 567 567 566 564 564 562 561 560 558
    557 556 554 553 552 552 552 557 559 563 569 571 573 587 587 588 588
    600 603 606 615 619 620 623 627 642 642 642 644 653 659 664 671 672
    674 697 697 698 700 723 723 725 730 755 755 755 759 761 0 0 0 0 0
    604 603 603 602 600 599 598 597 596 592 591 590 589 587 586 585 583
    581 580 579 578 577 575 573 572 571 569 568 567 567 564 564 562 561
    560 558 557 556 555 553 553 554 554 554 560 567 569 572 573 588 587
    587 588 600 604 610 615 619 620 625 627 642 642 642 652 654 659 663
    670 674 675 697 697 698 700 725 725 727 730 736 755 755 755 761 0 0
    0 0 0 0 604 603 602 600 599 598 597 596 593 591 590 589 587 586 586
    584 583 582 580 579 577 575 574 572 571 570 568 567 567 565 564 563
    562 561 559 557 557 556 554 554 554 554 554 562 567 569 572 573 581
    586 586 588 600 604 610 615 619 620 625 628 644 644 648 652 654 659
    663 670 674 675 678 698 698 701 728 728 730 734 736 749 755 755 0 0
    0 0 0 0 0 604 603 603 601 599 598 597 596 594 592 591 590 588 587
    586 585 583 582 581 580 578 576 575 572 572 571 569 568 567 565 564
    563 562 561 559 557 557 556 554 554 554 554 554 558 567 570 573 575
    581 585 586 589 602 604 610 616 620 622 625 628 646 646 648 652 654
    659 663 668 675 676 678 698 703 706 719 727 730 734 741 749 0 0 0 0
    0 0 0 0 0 604 604 603 602 600 599 598 596 594 592 591 590 588 587
    586 585 584 583 582 580 578 576 576 575 572 571 570 569 568 567 566
    564 562 561 560 558 557 556 555 554 554 554 554 558 570 571 573 577
    581 584 585 590 602 603 610 614 621 624 627 629 646 647 647 650 655
    659 662 668 675 678 678 700 706 707 719 727 730 736 741 0 0 0 0 0 0
    0 0 0 0 604 604 604 603 601 599 598 596 594 593 591 590 588 588 587
    585 584 583 582 580 578 576 576 575 574 572 571 569 568 567 566 565
    564 562 561 560 558 557 555 554 554 554 555 557 571 572 573 578 581
    584 585 600 602 603 610 614 621 624 627 631 646 646 646 650 655 657
    657 668 675 678 698 700 704 704 722 727 728 738 739 0 0 0 0 0 0 0 0
    0 0 604 604 604 603 602 601 599 596 595 593 592 591 589 588 587 585
    584 584 582 581 578 577 576 575 575 572 571 570 569 568 566 565 564
    563 561 560 559 558 556 556 556 557 557 557 563 573 574 578 582 584
    585 599 601 602 610 614 621 624 628 630 646 646 646 650 655 657 657
    675 676 679 697 700 701 704 722 723 727 738 739 0 0 0 0 0 0 0 0 0 0
    0 604 604 604 603 602 600 596 595 594 593 592 589 588 587 586 585
    584 583 581 578 577 576 575 574 572 571 570 570 569 567 565 564 563
    562 561 560 558 557 557 557 557 558 561 563 576 577 579 582 586 591
    599 601 602 611 614 621 623 628 630 644 644 647 654 654 658 674 675
    693 693 696 698 700 717 717 723 727 0 0 0 0 0 0 0 2016 2016 0 0 0
    608 606 606 604 603 602 600 596 595 594 594 593 591 588 587 587 585
    584 583 581 579 577 576 575 574 573 572 571 570 569 567 566 564 564
    562 561 560 558 557 557 557 557 558 562 564 577 577 579 582 589 593
    598 601 604 612 618 623 623 628 629 644 644 649 650 653 661 672 676
    693 693 696 698 700 714 714 0 0 0 0 0 0 0 0 2005 2005 2005 0 0 0 608
    608 606 604 604 602 600 597 596 595 594 593 591 590 588 587 586 585
    584 581 579 578 577 576 575 574 573 571 571 569 568 567 565 564 562
    561 560 558 557 557 557 557 558 563 564 579 579 580 585 589 593 598
    602 606 610 620 624 625 628 629 638 644 650 650 653 664 670 672 694
    694 696 698 701 710 714 0 0 0 0 0 0 0 0 2005 1993 1993 0 0 0 609 608
    607 604 604 603 601 600 596 595 594 593 592 591 589 588 587 585 584
    581 579 578 578 576 575 575 573 572 571 569 568 567 565 564 563 561
    560 559 558 557 557 557 558 564 565 580 580 581 585 589 594 597 601
    606 610 621 623 625 629 637 637 644 652 652 658 667 670 672 680 694
    697 698 700 710 714 0 0 0 0 2016 1993 1993 1981 1981 1981 1981 0 0 0
    609 609 608 607 604 603 602 600 597 596 595 593 592 591 589 588 588
    586 585 582 580 579 578 576 576 575 574 572 571 570 568 567 565 565
    563 562 561 560 559 557 557 557 559 562 565 579 580 582 585 590 595
    597 601 608 614 620 623 627 632 636 637 646 653 654 659 671 674 676
    680 686 696 697 700 0 0 0 0 0 0 1993 1981 1970 1959 1959 1959 1959 0
    0 0 0 609 608 607 604 603 602 600 599 596 595 594 592 591 590 589
    588 587 586 583 580 579 578 577 576 575 574 573 572 571 569 568 565
    565 564 563 561 560 559 558 558 559 561 562 578 578 580 582 586 592
    595 598 601 609 614 619 623 627 631 635 652 652 653 655 662 671 675
    680 682 683 690 697 0 0 0 0 0 0 1936 1936 1936 1959 1947 1947 1947
    1947 0 0 0 0 608 608 607 606 604 603 600 599 597 596 595 592 591 590
    589 588 587 586 583 581 580 579 578 578 576 574 574 573 571 570 567
    566 565 564 563 561 560 560 559 559 559 561 562 577 577 579 581 586
    593 597 599 601 612 615 619 623 627 630 635 652 652 653 654 664 672
    676 679 680 682 683 0 0 0 0 0 0 1926 1926 1926 1926 1936 1936 1936
    1936 1936 0 0 0 0 608 608 607 606 604 603 601 599 599 596 595 594
    592 590 589 588 587 585 584 583 582 580 579 578 576 576 575 574 572
    571 567 566 565 565 563 561 560 560 560 560 560 562 563 575 577 579
    581 589 593 596 600 602 612 615 619 623 627 628 628 650 650 652 654
    667 671 675 678 679 682 683 0 0 0 0 0 1894 1894 1904 1915 1915 1915
    1915 1915 1915 1926 0 0 0 0 609 609 608 606 604 603 602 600 599 596
    596 594 593 591 590 588 587 585 584 583 582 580 579 579 577 576 575
    574 572 571 568 567 565 565 564 564 561 560 560 560 560 562 575 575
    577 579 581 590 593 596 601 604 611 615 620 622 625 628 649 649 650
    652 657 666 671 674 676 679 682 0 0 0 0 0 1894 1894 1894 1894 1904
    1894 1894 1894 1904 1904 1915 0 0 0 0 611 609 609 607 606 604 603
    601 600 597 596 595 593 592 590 589 588 586 584 583 583 581 580 579
    578 576 575 574 572 571 569 567 566 565 565 564 561 561 561 560 560
    562 575 575 577 580 581 595 595 597 602 604 608 619 619 621 623 623
    648 648 653 653 658 663 668 671 676 0 0 0 0 0 0 1883 1883 1883 1883
    1883 1883 1883 1883 1883 1894 1894 1894 0 0 0 0 612 611 611 608 606
    604 603 602 600 598 596 595 594 592 591 589 588 586 585 584 583 581
    580 579 578 577 576 575 572 571 569 567 566 565 565 565 563 562 561
    561 561 563 565 579 579 580 581 585 596 597 603 604 606 619 619 621
    623 623 644 644 657 657 658 662 666 667 0 0 0 0 0 0 1863 1863 1873
    1883 1883 1883 1883 1883 1883 1883 1883 1873 1873 0 0 0 0 612 612
    611 609 608 606 603 602 600 598 597 595 595 593 592 590 589 588 586
    584 583 582 581 580 579 577 576 575 573 571 569 568 567 566 565 565
    563 562 562 562 562 562 564 580 580 581 581 585 596 600 603 604 604
    621 622 622 622 640 640 644 657 657 658 659 666 667 0 0 0 0 0 1863
    1853 1853 1863 1873 1873 1863 1853 1853 1853 1853 1853 1853 1853 0 0
    0 0 612 612 611 610 608 606 604 602 600 599 597 596 595 594 592 591
    589 588 586 585 584 583 580 580 579 578 577 575 573 571 569 568 567
    566 565 565 563 562 561 561 562 562 564 576 580 581 583 585 596 601
    603 604 604 622 622 622 637 637 638 638 655 655 657 659 0 0 0 0 0 0
    1843 1843 1843 1843 1843 1853 1843 1843 1843 1843 1843 1853 1843
    1843 1843 0 0 0 0 612 612 611 611 609 606 606 603 601 600 598 598
    596 595 593 592 591 588 586 585 584 583 580 580 580 579 578 576 574
    571 570 568 568 567 565 565 563 562 561 561 562 563 565 576 580 582
    584 586 595 599 603 604 604 622 622 622 635 637 637 637 655 655 657
    0 0 0 0 0 0 0 1833 1833 1833 1833 1833 1833 1823 1823 1823 1823 1833
    1843 1843 1843 1833 0 0 0 0 614 612 611 611 609 607 606 604 601 600
    599 599 596 594 593 592 591 589 586 586 584 583 582 581 580 579 578
    577 575 571 571 569 568 567 566 565 564 563 562 562 562 564 565 580
    580 582 586 588 590 599 603 604 606 621 623 631 635 637 637 637 711
    711 711 711 0 0 0 0 0 0 1823 1823 1823 1823 1823 1823 1823 1823 1813
    1813 1823 1833 1843 1833 1813 0 0 0 0 614 612 612 611 609 608 606
    604 602 600 600 599 596 594 593 592 591 590 588 586 584 584 583 582
    580 580 579 577 575 572 571 570 568 567 566 565 564 563 562 562 563
    565 565 579 581 585 586 588 589 599 604 604 620 621 624 632 634 637
    637 637 711 710 710 710 0 0 0 0 0 0 1813 1813 1813 1813 1813 1813
    1813 1813 1813 1813 1823 1823 1823 1823 1813 0 0 0 0 615 612 612 611
    610 608 607 604 603 600 600 599 596 595 593 592 591 590 588 586 585
    584 583 583 581 580 579 578 575 573 572 571 568 567 567 566 565 564
    563 563 563 565 565 579 581 584 586 588 589 600 606 611 616 621 624
    632 634 636 637 711 711 710 710 710 710 0 0 0 0 0 1813 1813 1813
    1804 1804 1804 1813 1813 1804 1804 1804 1794 1794 1813 1804 0 0 0
    614 614 613 613 612 610 609 607 606 603 600 600 599 597 595 594 593
    592 590 589 588 586 584 584 583 581 580 579 578 574 574 573 572 571
    568 568 567 565 565 564 564 564 565 565 579 581 584 585 586 590 603
    606 610 616 621 628 632 632 636 637 711 711 710 710 710 710 0 0 0 0
    0 0 1813 1804 1785 1785 1785 1785 1794 1804 1785 1776 1776 1776 1776
    1776 0 0 0 614 614 614 613 613 612 610 607 606 603 601 600 599 597
    596 595 595 592 591 590 588 586 585 584 583 582 581 580 578 574 574
    573 572 571 569 568 567 566 565 565 565 565 565 579 579 581 584 585
    586 591 604 606 610 618 622 624 631 631 637 637 714 713 710 710 710
    0 0 0 0 0 0 0 1813 1794 1785 1776 1776 1776 1776 1766 1766 1776 1776
    1766 1766 1766 0 0 0 614 614 615 614 613 612 611 609 606 603 602 601
    599 598 596 596 595 592 592 590 589 586 585 584 584 583 581 580 579
    577 574 573 572 571 569 568 567 567 566 565 565 565 566 576 576 581
    584 589 591 592 601 608 610 616 623 624 629 629 631 631 716 713 711
    710 710 0 0 0 0 0 0 0 0 1776 1776 1776 1766 1766 1757 1757 1766 1766
    1757 1757 1757 1757 0 0 0 614 614 615 614 614 613 612 608 607 604
    602 601 599 599 597 596 595 593 592 591 589 587 586 584 584 583 582
    580 579 577 576 573 572 572 570 568 567 567 566 565 565 565 569 573
    576 583 586 589 591 593 601 608 613 615 624 625 629 629 631 754 714
    714 711 711 711 0 0 0 0 0 0 0 0 1757 1757 1766 1748 1748 1748 1748
    1748 1757 1748 1748 1739 1731 0 0 0 0 616 615 615 614 613 612 608
    608 606 603 601 600 599 598 597 595 594 593 592 588 587 587 585 584
    584 582 580 579 577 576 574 573 572 570 568 568 567 567 565 565 565
    569 572 576 584 586 589 592 600 601 609 613 615 615 749 749 631 631
    754 714 714 714 713 713 749 747 747 0 0 0 0 0 1748 1748 1748 1739
    1739 1739 1739 1739 1739 1739 1731 1731 1722 0 0 0 0 0 615 615 614
    613 611 609 608 607 603 601 600 599 599 597 596 594 593 592 588 588
    587 586 584 584 583 580 579 578 577 574 574 572 571 569 568 567 567
    566 566 566 569 572 577 584 586 589 601 601 601 610 611 612 612 612
    739 739 739 739 716 716 714 714 714 749 742 739 738 738 738 0 1748
    1748 1748 1739 1731 1731 1731 1739 1739 1731 1722 1722 1722 1722 0 0
    0 0 0 0 616 614 613 611 609 608 607 606 602 600 600 599 597 596 595
    594 592 590 588 587 586 584 584 583 581 580 579 577 576 574 572 572
    571 569 568 567 567 567 567 569 572 577 584 586 589 602 602 602 609
    611 612 612 736 736 736 734 734 722 717 716 716 716 738 738 738 736
    734 734 1696 1696 730 1739 1739 1731 1731 1731 1731 1731 1713 1705
    1705 1705 1705 0 0 0 0 0 0 614 614 613 611 609 608 607 606 604 602
    600 599 597 596 595 594 593 590 589 588 587 586 584 584 582 580 579
    577 576 575 573 572 572 570 568 568 567 567 567 569 572 579 583 585
    587 587 604 604 609 610 610 610 731 731 733 731 730 722 719 717 717
    728 730 730 734 734 733 731 731 731 730 730 730 1739 1739 1739 1731
    1731 1713 1705 1705 1696 1696 1655 0 0 0 0 0 0 0 0 1624 0 0 0 606
    604 602 600 600 597 596 595 595 594 590 589 588 587 586 585 584 583
    581 580 579 577 576 573 572 571 570 569 568 567 567 568 572 577 581
    583 585 586 592 592 609 609 609 609 609 730 730 728 728 728 725 720
    719 719 727 728 730 730 730 730 728 728 730 728 727 727 727 723 0
    1713 0 1713 1705 1696 1688 1688 1647 1647 1647 1655 1655 1655 0 0 0
    0 0 0 0 0 0 0 600 600 597 595 595 595 593 591 590 589 587 587 585
    584 583 582 580 579 578 576 574 572 571 570 569 568 568 568 568 571
    577 581 583 585 586 592 0 0 0 609 609 731 728 728 727 725 723 723
    720 719 719 727 727 727 725 725 725 725 725 725 725 725 723 723 723
    0 0 723 1696 0 1696 1671 1663 1647 1639 1632 1632 1632 1632 0 0 0
    1624 1624 0 0 0 0 0 0 0 597 595 595 595 593 592 590 590 587 587 586
    584 584 582 581 580 579 576 575 573 571 571 569 568 568 568 568 571
    578 582 583 585 586 591 0 0 0 0 0 731 728 720 720 722 719 719 717
    717 719 723 723 722 720 720 722 720 720 722 722 722 722 722 723 0 0
    0 0 0 0 1663 1663 1616 1616 1624 1624 1624 1616 1616 1616 1624 1624
    1624 1624 1624 0 0 0 0 0 0 0 593 593 593 592 591 590 589 588 586 584
    583 582 581 580 579 576 575 574 572 571 570 569 569 569 569 570 579
    582 583 585 587 591 0 0 0 0 0 0 713 713 711 711 713 713 714 714 720
    720 720 719 717 714 714 714 714 714 717 719 720 720 723 0 0 0 0 0 0
    1663 1647 1609 1609 1609 1609 1609 1609 1609 1609 1616 1624 1624
    1616 1616 0 0 0 0 0 0 0 0 592 592 592 592 591 590 588 586 584 583
    583 581 580 579 576 575 574 572 571 571 569 569 569 569 570 579 582
    582 584 588 0 0 0 0 0 0 0 711 710 710 710 710 710 710 707 707 707
    708 708 710 710 710 708 708 711 714 717 720 720 723 0 0 0 0 0 1647
    1639 1639 1601 1601 1609 1601 1601 1601 1601 1594 1594 1616 1624
    1616 1616 0 0 0 0 0 0 0 690 690 691 595 595 595 698 588 586 584 584
    583 582 580 579 576 575 575 573 572 571 570 570 569 569 570 576 580
    582 584 0 0 0 0 0 0 0 0 708 708 707 706 704 704 704 704 704 704 704
    704 704 706 706 706 706 708 711 716 719 722 725 0 0 0 0 0 1639 1632
    1632 1594 1594 1594 1594 1594 1594 1594 1594 1594 1609 1609 1609
    1609 0 0 0 0 0 0 691 690 690 691 691 697 697 697 697 697 697 697 583
    582 581 579 576 575 575 573 572 571 571 570 569 569 570 573 578 584
    584 0 0 0 0 0 0 0 0 704 701 700 700 700 701 701 703 701 701 701 701
    701 703 704 704 704 707 710 714 719 722 727 730 0 0 0 0 1624 1624
    1624 1586 1586 1586 1586 1586 1586 1594 1594 1594 1601 1609 1609
    1609 0 0 0 0 0 0 690 688 688 688 688 691 696 693 691 691 694 694 697
    697 687 576 576 575 575 573 572 572 571 570 569 569 571 573 578 578
    694 0 0 0 0 0 0 0 0 698 696 696 696 696 697 698 698 698 700 700 700
    700 700 700 701 703 706 708 714 719 725 730 730 0 0 0 0 1609 1609
    1609 1579 1579 1572 1572 1564 1564 1564 1564 1594 1594 0 0 0 0 0 0 0
    0 0 687 684 684 684 686 686 696 687 687 687 687 687 687 687 687 687
    576 575 575 550 550 572 571 570 570 570 571 573 694 694 694 693 693
    0 0 0 0 0 696 694 694 693 693 693 694 694 694 694 694 696 697 697
    696 696 697 701 704 707 711 720 730 731 733 0 0 0 0 1601 1601 1601
    1564 1564 1564 1564 1564 1557 1557 1557 1594 1594 0 0 0 0 0 0 0 0
    683 682 682 682 680 680 680 680 684 684 684 684 684 686 686 684 683
    682 680 680 550 550 550 569 568 568 568 569 569 688 688 690 690 690
    0 0 0 0 0 694 693 690 687 687 688 688 690 690 690 691 691 693 694
    693 693 694 697 704 707 711 733 733 733 733 0 0 0 0 1594 1594 1594
    1564 1557 1557 1550 1550 1543 1543 1550 0 0 0 0 0 0 0 0 0 0 680 679
    678 678 678 678 676 676 676 676 678 678 678 676 676 684 682 680 679
    679 550 550 550 569 568 568 568 569 684 684 684 686 687 684 684 0 0
    0 693 691 687 684 684 684 684 686 687 687 687 686 686 686 687 690
    691 694 696 704 707 710 733 733 733 733 0 0 0 1572 1572 1579 1579
    1550 1550 1543 1543 1543 1543 1543 1543 0 0 0 0 0 0 0 0 0 0 680 679
    676 676 676 676 675 674 672 672 674 675 675 674 674 675 675 678 676
    675 675 675 675 676 676 676 676 676 676 679 682 682 679 668 668 670
    670 0 683 683 682 682 682 682 682 682 682 683 683 682 680 680 682
    686 688 694 696 703 707 710 734 733 733 733 0 0 1572 1572 1572 1564
    1564 1543 1543 1536 1536 1536 1536 1536 1536 0 0 0 0 0 0 0 0 0 682
    680 679 676 676 675 675 674 672 671 671 671 672 672 670 668 668 670
    671 671 671 671 671 671 671 671 671 671 671 672 672 672 672 674 668
    668 667 667 667 680 679 679 679 679 678 676 676 678 678 678 678 678
    679 679 686 686 693 696 703 707 710 734 733 733 0 0 0 0 1564 1564
    1557 1557 1536 1536 1529 1529 1529 1529 1529 1536 0 0 0 0 0 0 0 0 0
    682 680 679 676 676 675 675 672 671 670 670 670 668 666 666 666 666
    666 667 667 668 668 668 668 668 670 668 668 668 670 670 668 668 670
    668 667 666 666 666 666 674 676 675 674 672 672 672 672 672 675 675
    676 678 679 683 683 693 693 684 684 684 734 733 733 0 0 0 1557 1557
    1557 1557 1557 1529 1529 1523 1516 1516 1516 1516 0 0 0 0 0 0 0 0 0
    686 682 680 679 676 676 675 675 672 670 670 670 668 667 664 664 663
    663 662 662 663 664 666 666 666 666 666 666 666 666 666 666 666 666
    666 667 666 664 664 663 663 663 666 666 667 670 670 668 668 668 668
    668 675 676 679 680 682 688 687 684 684 684 0 0 0 0 0 1523 1523 1543
    1543 1550 1550 1529 1529 1523 1516 1516 1516 1516 0 0 0 0 0 0 0 0 0
    686 682 682 679 678 676 676 675 672 670 670 670 668 667 664 664 663
    663 662 662 663 664 666 666 666 666 666 666 666 666 666 666 666 666
    666 667 666 664 664 663 663 663 666 666 667 667 666 666 666 666 666
    667 672 675 680 680 682 688 687 686 686 691 0 0 0 0 0 1523 1523 1543
    1543 1550 1550</data></Depth3995>
</opencv_storage>
