<?xml version="1.0"?>
<opencv_storage>
<Depth18670 type_id="opencv-matrix">
  <rows>123</rows>
  <cols>109</cols>
  <dt>w</dt>
  <data>
    2789 2812 2812 2835 2835 2835 2859 2859 2883 2933 2984 2984 2984
    2984 2984 2984 3037 3037 3092 3092 3120 3120 3120 3120 3120 3120
    3092 3092 3092 3092 3120 3149 3149 3149 3120 3120 3120 3092 3064
    3064 3037 3010 3010 3037 3010 3010 3010 2984 2984 2984 2984 2933
    2933 2933 2958 2933 2908 2883 2883 2883 2883 2883 2883 2883 2883
    2859 2835 2835 2835 624 623 623 623 624 628 628 628 629 0 0 2812
    2789 2789 2767 2767 2744 2744 2723 2723 2723 2723 2723 2701 2701
    2680 2680 2680 2659 2659 2639 2639 2639 2639 2639 2639 2618 2598
    2598 2579 2789 2812 2812 2835 2835 2859 2859 2859 2883 2908 2933
    2958 2984 2984 2984 2984 3010 3037 3037 3064 3120 3149 3120 3120
    3120 3120 3120 3092 3092 3092 3120 3149 3149 3149 3149 3120 3120
    3120 3064 3064 3037 3037 3037 3037 3010 3010 3010 2984 2984 2984 0 0
    2933 2933 2958 2933 2908 2883 2883 2883 2883 2883 2883 2859 2835
    2812 2812 2812 2812 622 622 622 622 622 624 625 629 629 0 0 0 0 2812
    2812 2812 2744 2744 2744 2723 2723 2723 2723 2701 2701 2701 2701
    2701 2680 2659 2659 2639 2639 2639 2639 2618 2618 2618 2598 2579
    2789 2812 2812 2835 2835 2859 2859 2859 2883 2908 2933 2958 2984
    2984 2984 2984 3010 3010 3037 3064 3120 3120 3120 3120 3120 3120
    3120 3092 3092 3120 3120 3149 3149 3149 3149 3149 3120 3120 3092
    3064 3064 3037 3037 3010 3010 3010 2984 2958 2933 2933 0 0 0 0 2958
    2883 2883 2908 2883 2883 2883 2883 2883 2859 2812 2812 2812 622 622
    621 620 620 621 621 622 624 627 628 0 0 0 0 0 0 0 0 2744 2744 2723
    2723 2723 2723 2701 2701 2701 2701 2701 2680 2659 2659 2639 2639
    2639 2639 2618 2618 2618 2598 2598 2812 2812 2812 2835 2835 2859
    2859 2859 2883 2883 2908 2958 2984 2984 2984 2984 3010 3010 3037
    3064 3120 3120 3120 3120 3120 3120 3120 3092 3092 3092 3092 3120
    3120 3149 3149 3149 3149 3120 3092 3092 3064 3064 3037 3010 3010
    3010 2984 2908 2908 2908 0 0 0 0 0 2883 2883 0 0 0 2883 2883 2883
    2835 2789 2789 2812 622 619 619 619 619 619 620 622 623 625 628 629
    0 0 0 0 0 0 0 2767 2744 2723 2723 2723 2723 2723 2723 2723 2701 2701
    2680 2659 2659 2639 2639 2639 2639 2639 2639 2618 2618 2618 2812
    2812 2812 2835 2835 2859 2859 2859 2883 2883 2908 2958 2958 2984
    2984 3010 3010 3010 3010 3037 3092 3120 3149 3120 3120 3120 3120
    3092 3092 3092 3092 3092 3120 3149 3149 3120 3120 3120 3120 3092
    3064 3037 3037 3010 3010 3037 0 2908 2908 2908 0 0 0 0 0 0 0 0 0
    2908 2908 2908 2883 2835 2789 2789 2789 615 615 618 618 618 619 620
    621 622 624 627 629 0 0 0 0 0 0 0 0 2744 2723 2723 2723 2723 2723
    2723 2723 2701 2701 2680 2659 2659 2639 2639 2639 2639 2639 2639
    2618 2618 2618 2812 2812 2835 2835 2835 2835 2859 2859 2859 2883
    2908 2958 2958 2984 2984 3010 3010 3010 3010 3037 3092 3120 3149
    3120 3120 3120 3120 3092 3092 3092 3092 3092 3120 3149 3149 3120
    3120 3120 3092 3092 3064 3037 3037 2984 2984 0 0 0 0 0 0 0 0 0 0 0 0
    0 0 600 600 600 608 609 609 609 609 610 612 615 616 618 619 620 621
    622 624 625 628 0 0 0 0 0 0 0 0 2744 2744 2723 2723 2723 2723 2723
    2723 2701 2701 2680 2680 2659 2639 2639 2639 2639 2639 2639 2618
    2618 2618 2812 2812 2835 2835 2835 2835 2835 2859 2859 2883 2908
    2933 2958 2984 2984 3010 3037 3037 3037 3064 3149 3149 3178 0 0 0 0
    0 0 0 0 0 0 0 0 0 3092 3092 3092 3092 3092 3092 2984 2984 2984 2984
    0 0 0 0 0 0 0 0 0 0 0 0 0 600 600 600 608 608 608 609 609 610 611
    613 615 616 619 620 621 622 623 625 628 630 0 0 0 0 0 0 0 2767 2744
    2723 2723 2723 2723 2723 2723 2723 2701 2701 2680 2659 2659 2639
    2639 2639 2639 2639 2639 2618 2618 2789 2812 2835 2835 2835 2835
    2835 2835 2859 2859 2883 2908 2958 2984 3010 3037 3037 3037 3037
    3092 3208 3208 3238 0 0 0 0 0 0 0 0 0 0 0 0 0 0 618 608 608 606 606
    606 0 0 596 0 0 0 0 0 0 0 0 0 0 0 0 0 0 600 600 600 602 606 608 609
    610 611 613 615 616 619 620 622 623 623 624 628 630 0 0 0 0 0 0 0 0
    2744 2723 2723 2723 2723 2723 2723 2701 2701 2701 2680 2659 2659
    2639 2639 2639 2639 2639 2639 2639 2618 2789 2812 2812 2812 2812
    2812 2812 2835 2835 2859 2883 2908 2958 0 0 0 0 0 0 0 0 0 0 0 0 0 0
    0 0 0 0 0 0 0 0 618 0 618 608 608 606 606 606 606 0 596 0 0 0 0 0 0
    0 0 0 0 592 592 592 596 598 598 600 602 604 607 609 610 611 613 614
    615 619 620 622 623 623 624 628 630 0 0 0 0 0 0 0 0 2744 2744 2723
    2723 2723 2723 2723 2701 2701 2723 2701 2680 2659 2659 2639 2639
    2639 2639 2639 2639 2639 2789 2812 2812 2812 2812 2812 2812 2835
    2835 2859 0 0 0 0 0 0 0 0 0 0 0 0 0 0 0 0 0 0 0 0 0 0 0 0 618 618
    618 618 618 608 606 603 596 596 596 0 0 0 0 583 583 583 583 584 589
    589 590 591 592 595 598 598 599 602 604 607 609 610 611 613 614 615
    619 620 622 623 623 624 628 630 630 0 0 0 0 0 0 0 2767 2744 2723
    2723 2723 2723 2723 2723 2723 2723 2701 2680 2680 2659 2659 2639
    2639 2639 2639 2639 2639 2789 2812 2812 2835 2812 2812 2835 0 0 0 0
    0 0 0 0 0 0 0 0 0 0 0 0 0 0 0 0 0 0 0 0 0 0 0 618 618 618 615 612
    608 606 603 596 596 596 599 599 578 578 580 581 582 583 583 588 588
    589 590 592 595 597 598 599 602 604 607 609 610 612 613 614 615 619
    620 621 623 624 625 628 630 630 0 0 0 0 0 0 0 0 2744 2744 2723 2723
    2723 2723 2723 2723 2723 2701 2701 2680 2680 2659 2639 2639 2639
    2639 2639 2639 2767 2812 2812 2835 2812 2812 0 0 0 0 0 0 0 0 0 0 0 0
    0 0 0 0 0 0 0 0 0 0 0 0 636 636 635 631 618 618 618 615 612 609 608
    608 596 596 572 572 572 574 578 579 580 582 582 583 587 587 589 590
    593 595 597 598 598 602 604 606 607 610 612 613 614 616 619 620 621
    623 625 627 629 630 631 0 0 0 0 0 0 0 0 2744 2744 2744 2723 2723
    2723 2723 2723 2723 2701 2701 2701 2680 2659 2659 2639 2639 2639
    2639 2639 2767 2835 2835 2859 2859 0 0 0 0 0 0 0 0 0 0 0 0 0 0 0 0 0
    0 0 0 0 0 650 644 642 636 636 635 631 621 619 618 615 612 609 608
    608 573 573 572 572 572 574 577 578 579 581 582 583 587 587 588 590
    594 595 597 598 598 602 604 606 607 609 612 613 615 616 619 620 622
    623 625 628 629 630 631 0 0 0 0 0 0 0 0 2767 2744 2744 2744 2744
    2723 2723 2723 2723 2701 2701 2701 2680 2659 2659 2639 2639 2639
    2639 2639 2789 2789 2789 0 0 0 0 0 0 0 667 667 667 670 671 672 0 0 0
    0 0 0 0 0 0 0 650 649 644 641 637 636 635 632 628 620 618 616 613
    609 608 573 572 572 572 572 573 574 576 577 579 580 582 585 587 587
    588 590 594 595 597 598 598 603 604 606 606 608 612 613 615 618 618
    619 621 623 624 627 629 630 630 0 0 0 0 0 0 0 0 2767 2744 2744 2744
    2744 2723 2723 2723 2723 2723 2723 2701 2680 2659 2659 2659 2639
    2639 2639 2639 0 0 0 0 0 0 0 0 0 0 667 667 667 670 671 672 0 0 0 646
    646 643 643 0 0 0 650 649 644 641 637 636 636 634 596 596 621 584
    581 581 608 572 571 571 571 572 572 574 576 577 578 580 582 585 587
    587 588 591 595 596 596 597 602 603 604 606 606 607 609 612 615 618
    618 619 621 622 623 625 628 630 630 631 0 0 0 0 0 0 0 2767 2767 2744
    2744 2744 2723 2723 2723 2723 2723 2723 2701 2701 2680 2680 2659
    2659 2639 2639 2639 747 747 747 747 0 0 0 0 0 0 667 667 667 671 671
    672 672 652 652 646 646 643 640 640 0 650 650 621 616 614 614 636
    636 599 596 596 586 584 581 581 578 572 571 571 571 571 572 574 576
    577 578 580 583 586 587 587 588 592 595 595 596 597 601 603 604 606
    606 607 609 612 615 618 618 619 621 622 623 623 628 630 631 631 0 0
    0 0 0 0 0 0 2767 2744 2744 2744 2723 2723 2723 2723 2723 2723 2701
    2701 2680 2680 2659 2659 2659 2659 2639 746 746 747 747 723 711 711
    711 700 694 691 667 667 671 671 671 666 652 652 650 648 644 640 637
    632 629 624 621 616 614 610 610 604 599 597 596 586 584 581 580 578
    573 571 571 571 571 573 575 576 577 578 580 583 585 587 587 588 593
    594 595 596 597 601 603 604 606 607 607 609 611 614 616 618 619 621
    622 622 623 627 631 631 632 0 0 0 0 0 0 0 0 2789 2767 2744 2744 2744
    2723 2723 2723 2723 2723 2723 2701 2680 2680 2659 2659 2659 2659
    2639 742 738 738 728 723 720 711 707 700 694 691 686 683 678 674 671
    666 661 658 654 652 646 641 637 632 629 624 622 618 614 610 609 604
    601 598 596 596 584 581 580 578 574 572 571 571 572 573 575 576 577
    579 581 583 585 587 587 590 592 593 594 596 597 600 602 604 606 607
    608 609 611 614 615 616 619 621 622 622 623 627 631 631 632 0 0 0 0
    0 0 0 0 2767 2767 2767 2744 2744 2744 2744 2723 2723 2723 2723 2701
    2701 2680 2680 2659 2659 2659 2639 742 738 734 728 723 720 711 707
    703 698 693 686 683 679 675 671 666 663 659 655 654 652 642 638 634
    630 627 623 620 616 611 609 604 602 600 598 595 586 582 580 578 575
    572 572 572 572 573 575 576 577 579 581 583 585 588 588 589 592 593
    594 596 597 600 602 603 606 607 608 609 611 614 615 616 619 621 622
    622 623 624 630 631 632 634 0 0 0 0 0 0 0 2767 2767 2767 2767 2744
    2744 2744 2744 2723 2723 2723 2723 2723 2701 2701 2680 2659 2659
    2639 742 739 734 728 725 723 711 708 704 700 696 687 684 679 675 672
    670 664 659 655 654 649 643 638 635 631 629 625 623 616 613 610 607
    603 601 599 595 591 586 581 579 576 573 572 572 573 573 575 576 577
    579 581 584 585 588 588 588 591 592 594 595 596 599 601 603 606 607
    608 609 612 614 615 616 618 620 622 622 623 624 629 631 632 632 0 0
    0 0 0 0 0 0 2744 2744 2767 2744 2744 2744 2744 2744 2723 2723 2723
    2723 2723 2701 2680 2659 2659 2659 742 741 741 730 727 725 719 711
    707 704 700 693 688 684 679 674 671 666 661 658 654 648 644 641 638
    631 629 627 624 616 613 610 608 604 602 599 596 589 588 584 582 577
    573 572 572 573 573 575 576 577 579 580 584 586 587 587 588 590 592
    594 595 596 599 601 602 606 607 608 609 611 613 615 615 618 620 622
    622 623 625 628 631 632 632 0 0 0 0 0 0 0 0 2744 2744 2767 2767 2744
    2744 2744 2744 2723 2723 2723 2723 2723 2701 2680 2659 2659 2659 742
    742 741 734 728 727 723 716 708 704 701 696 693 690 683 676 674 667
    662 658 655 648 644 641 638 634 631 629 627 619 615 612 609 604 602
    600 596 589 588 586 582 580 575 573 573 573 573 575 576 577 579 580
    586 587 587 587 588 590 592 593 595 597 599 601 602 604 607 608 609
    611 613 614 615 616 619 622 622 623 625 628 631 632 634 634 0 0 0 0
    0 0 0 2744 2744 2767 2767 2744 2744 2744 2744 2723 2723 2723 2723
    2723 2701 2701 2680 2659 2659 744 744 742 738 733 728 723 719 711
    707 704 697 693 691 687 679 674 671 668 662 657 654 648 642 640 636
    631 630 628 621 616 613 611 607 603 601 598 589 588 586 584 582 578
    573 573 573 573 575 576 578 579 580 586 587 587 587 588 590 592 593
    595 596 599 600 602 604 606 608 609 610 613 614 615 616 619 621 623
    623 625 627 631 632 634 634 0 0 0 0 0 0 0 0 2789 2789 2767 2744 2744
    2744 2744 2723 2723 2723 2723 2723 2701 2701 2680 2659 2659 750 747
    744 739 736 731 725 719 711 708 704 703 694 691 688 679 675 672 670
    667 659 657 654 647 642 637 635 632 630 622 620 614 612 608 604 602
    599 591 588 586 585 583 580 575 574 573 573 576 576 577 578 580 585
    586 587 587 588 591 592 593 595 596 599 600 602 604 606 608 609 610
    612 614 615 616 618 621 623 624 624 625 630 632 634 634 635 0 0 0 0
    0 0 0 2812 2789 2789 2767 2744 2744 2744 2744 2723 2723 2723 2723
    2701 2701 2680 2680 2659 750 749 747 741 736 733 728 723 714 708 707
    704 701 694 688 686 678 675 671 668 661 657 655 654 644 640 636 634
    630 628 620 618 614 611 604 602 600 597 588 586 585 583 580 578 575
    574 574 575 576 577 578 580 585 586 587 587 588 591 592 593 595 596
    599 601 602 604 606 607 609 610 612 614 615 616 618 620 623 623 624
    625 629 632 635 635 635 0 0 0 0 0 0 0 0 2789 2789 2767 2767 2744
    2744 2744 2744 2744 2723 2723 2723 2701 2701 2680 2680 750 749 749
    744 738 734 728 723 714 711 708 706 701 696 691 687 679 675 672 668
    662 658 657 654 648 642 636 634 631 629 622 620 616 612 608 604 601
    599 595 595 586 583 580 578 576 575 575 575 576 576 577 581 584 585
    587 587 588 590 592 593 595 596 598 599 602 604 606 607 609 610 612
    613 615 618 619 620 622 623 624 625 629 632 634 635 635 636 0 0 0 0
    0 0 0 2789 2789 2789 2767 2767 2744 2744 2744 2744 2744 2723 2723
    2723 2701 2701 2680 750 750 749 744 739 736 728 725 716 713 710 706
    703 697 693 690 682 676 674 668 663 661 658 655 649 643 638 636 632
    630 627 620 616 613 610 606 602 600 596 594 587 584 581 579 577 576
    575 575 576 576 577 581 584 585 586 587 588 590 591 592 595 596 598
    599 602 603 606 607 609 610 611 613 615 618 619 620 622 623 624 625
    630 632 634 635 635 636 0 0 0 0 0 0 0 0 2789 2789 2767 2767 2744
    2744 2744 2744 2744 2744 2744 2723 2723 2701 2701 750 750 749 746
    741 738 728 725 719 714 713 706 703 698 696 691 683 680 678 670 664
    662 659 657 649 646 642 638 634 631 629 622 620 614 611 608 604 601
    597 594 589 588 586 579 578 576 576 576 576 576 578 581 583 585 586
    587 588 590 591 592 594 596 599 600 601 603 606 607 609 610 611 613
    615 616 619 620 622 623 623 625 631 632 635 636 636 636 0 0 0 0 0 0
    0 0 2767 2767 2767 2767 2767 2767 2744 2744 2744 2744 2744 2744 2723
    2701 2701 0 0 749 746 742 739 733 727 720 717 714 708 704 700 696
    693 684 682 679 672 667 664 661 658 650 646 643 640 635 632 630 622
    620 615 612 610 606 603 597 594 589 588 586 580 579 576 576 576 576
    576 578 581 583 584 586 587 588 590 591 592 594 596 599 600 601 603
    604 607 609 610 611 613 615 616 619 620 622 623 623 625 632 632 634
    636 636 636 0 0 0 0 0 0 0 0 2767 2767 2767 2767 2767 2767 2767 2744
    2744 2744 2744 2744 2723 2701 2701 0 0 750 747 744 741 738 728 720
    717 716 711 706 703 698 693 687 683 679 674 670 666 663 659 653 648
    644 641 638 634 631 628 621 619 613 611 608 604 601 596 590 589 586
    581 579 577 576 576 576 576 578 580 582 584 585 586 588 590 592 592
    594 596 598 600 601 603 604 607 609 610 612 613 615 616 619 620 622
    623 623 625 629 631 634 636 636 636 0 0 0 0 0 0 0 0 2789 2789 2789
    2789 2767 2767 2744 2744 2744 2744 2744 2744 2723 2701 2701 0 0 752
    749 746 741 738 728 723 717 716 713 708 704 700 696 688 684 680 675
    672 668 664 661 654 649 646 642 640 636 632 628 622 620 614 611 609
    607 603 600 595 591 587 584 581 579 577 576 576 577 579 580 581 584
    585 586 588 589 590 593 594 596 598 599 601 602 604 607 609 611 612
    613 614 616 619 620 621 623 623 625 628 630 631 635 636 636 637 0 0
    0 0 0 0 0 2789 2789 2789 2789 2767 2767 2744 2744 2744 2744 2744
    2744 2723 2701 2701 0 0 755 752 750 744 739 728 725 719 716 713 710
    706 701 697 688 686 682 676 672 670 664 661 655 652 646 643 641 637
    634 628 622 620 615 612 610 608 604 601 595 592 587 585 582 579 578
    576 576 577 579 580 581 583 585 587 588 588 590 593 594 596 597 599
    600 602 604 606 608 611 612 613 614 616 619 620 621 623 623 627 628
    629 631 634 636 636 637 0 0 0 0 0 0 0 0 2812 2812 2789 2767 2767
    2767 2744 2744 2744 2744 2744 2723 2723 2701 0 0 755 754 752 747 741
    738 727 722 719 714 710 707 703 698 690 687 683 676 674 671 666 661
    657 653 649 644 642 638 635 628 623 621 619 615 611 608 604 602 595
    593 589 587 583 580 579 578 578 578 578 580 580 583 585 587 588 588
    589 592 594 595 597 598 600 602 604 606 607 609 610 612 614 616 619
    620 621 623 623 627 628 629 631 634 636 636 637 638 0 0 0 0 0 0 0
    2812 2812 2789 2767 2767 2767 2744 2744 2744 2744 2744 2744 2723
    2701 0 0 0 755 752 749 742 738 728 725 723 716 711 708 704 701 693
    688 684 680 674 671 668 661 658 654 649 647 644 640 636 630 624 622
    620 615 612 609 607 603 597 595 592 589 585 581 580 579 578 578 578
    579 580 583 585 587 588 588 589 591 594 595 597 598 600 602 604 606
    607 609 610 612 614 616 619 620 621 622 624 627 628 628 631 634 635
    637 637 637 0 0 0 0 0 0 0 0 2812 2789 2789 2767 2767 2744 2744 2744
    2744 2744 2744 2723 2723 0 0 0 755 752 749 746 741 728 727 725 719
    711 708 706 703 694 688 686 683 676 672 668 662 659 655 652 648 644
    641 636 630 627 623 621 618 614 611 608 601 597 596 594 591 585 582
    581 579 578 578 578 579 580 583 584 586 588 588 589 591 593 595 597
    598 600 602 604 606 607 608 610 612 614 615 618 619 621 622 624 627
    628 628 631 634 635 637 637 637 0 0 0 0 0 0 0 0 2835 2812 2789 2767
    2767 2744 2744 2744 2744 2744 2744 2723 2723 0 0 0 755 752 750 746
    741 738 728 727 720 713 710 707 704 701 693 687 683 678 674 671 663
    659 657 653 650 646 641 638 632 629 624 622 620 616 613 608 601 599
    597 595 592 587 583 581 579 578 578 578 579 581 582 584 586 588 588
    590 591 592 595 597 599 600 602 603 606 607 608 610 612 614 615 618
    619 622 622 624 627 628 628 631 634 636 637 637 638 640 0 0 0 0 0 0
    0 2812 2812 2789 2767 2767 2767 2744 2744 2744 2744 2744 2723 2723 0
    0 0 0 754 752 747 742 738 734 728 722 716 713 708 704 703 698 687
    684 680 676 674 668 661 657 654 652 648 643 640 634 630 628 624 621
    618 614 610 602 600 599 595 592 588 585 582 579 578 578 578 579 581
    582 583 586 587 588 590 591 592 594 597 599 600 601 602 606 607 609
    610 612 614 614 615 619 622 622 623 625 628 628 630 634 636 637 637
    640 640 0 0 0 0 0 0 0 2812 2812 2789 2767 2767 2767 2744 2744 2744
    2744 2744 2744 2723 0 0 0 0 0 755 752 746 741 736 733 727 720 714
    710 706 703 700 690 686 682 678 675 671 662 657 655 654 649 643 640
    635 631 628 624 622 620 614 611 604 602 600 596 593 589 585 583 580
    579 578 578 580 581 582 583 586 587 588 590 591 592 594 597 599 600
    601 602 606 607 609 610 612 614 614 615 618 621 622 623 625 627 628
    629 631 636 637 638 640 640 0 0 0 0 0 0 0 2812 2812 2789 2789 2767
    2767 2767 2744 2744 2744 2744 2744 2744 0 0 0 0 0 0 754 749 744 736
    733 728 723 719 714 707 704 703 694 687 683 679 675 672 663 659 658
    655 652 644 641 636 632 629 625 622 621 616 612 606 603 601 596 593
    591 588 584 580 579 579 579 580 581 582 583 585 587 588 590 591 593
    594 597 598 600 601 602 604 606 609 609 612 613 614 615 618 621 622
    623 624 627 628 629 629 636 637 638 640 640 0 0 0 0 0 0 0 2812 2812
    2812 2789 2767 2767 2767 2767 2767 2744 2744 2744 2744 0 0 0 0 0 0
    755 752 746 739 733 731 727 722 717 713 706 704 698 690 686 682 679
    675 671 661 658 655 652 648 642 636 634 630 627 623 621 618 613 608
    604 602 597 595 592 589 585 581 580 580 580 580 580 582 583 585 587
    588 590 592 593 594 597 598 599 601 602 604 606 608 609 612 613 614
    615 618 620 622 623 624 627 628 629 629 636 637 638 640 641 0 0 0 0
    0 0 0 2812 2812 2812 2812 2789 2767 2767 2789 2767 2767 2744 2744
    2744 0 0 0 0 0 0 755 754 747 742 734 731 728 723 720 714 710 706 698
    694 688 683 680 676 672 668 659 657 652 649 644 640 635 632 628 623
    621 618 615 609 606 602 599 596 594 590 585 582 581 580 580 580 580
    582 584 585 587 588 590 591 593 594 597 598 599 601 602 606 607 608
    609 611 613 614 616 618 620 621 623 624 627 628 628 629 636 638 638
    641 641 0 0 0 0 0 0 0 2812 2812 2812 2812 2812 2789 2789 2789 2789
    2767 2767 2744 2744 0 0 0 0 0 0 757 754 749 746 736 733 730 725 722
    717 713 707 700 696 691 686 682 679 675 671 662 658 652 649 647 646
    641 636 632 625 621 619 616 614 606 602 600 598 595 592 585 583 581
    580 580 580 580 581 583 585 587 588 590 591 592 594 597 598 599 601
    602 606 607 608 609 611 613 614 616 618 620 621 623 624 627 628 628
    629 636 638 638 641 641 0 0 0 0 0 0 0 2812 2812 2812 2812 2812 2812
    2812 2789 2789 2789 2767 2767 2744 0 0 0 0 0 0 759 754 750 746 738
    734 731 727 722 717 713 708 701 697 693 688 683 679 675 672 664 662
    654 650 647 646 641 636 634 630 625 619 618 616 607 603 600 599 596
    593 586 584 582 581 580 580 580 581 583 585 587 588 590 591 592 593
    597 598 600 601 602 606 607 608 609 612 613 614 616 618 620 621 623
    624 627 627 628 628 636 640 640 641 642 0 0 0 0 0 0 0 0 2812 2812
    2812 2812 2812 2812 2812 2789 2767 2767 2767 2744 0 0 0 0 0 0 759
    755 752 744 741 736 731 728 723 719 714 710 703 698 693 690 687 682
    676 674 667 663 657 653 649 647 643 636 634 630 627 623 619 616 609
    604 602 600 598 596 586 584 583 581 580 580 580 581 582 584 585 588
    589 591 592 593 596 599 600 601 602 603 607 608 610 612 613 614 616
    618 620 621 623 624 625 627 628 628 635 638 638 640 642 0 0 0 0 0 0
    0 0 2812 2812 2812 2812 2812 2812 2812 2789 2767 2767 2744 2744 0 0
    0 0 0 0 761 759 755 744 742 738 733 730 725 720 716 710 704 700 694
    691 688 684 676 675 668 663 661 655 652 648 644 642 634 631 628 625
    621 618 610 608 604 601 599 597 595 585 584 582 581 581 581 581 582
    583 583 588 589 591 592 593 596 598 599 600 602 603 607 608 610 611
    613 614 615 618 620 621 623 624 625 627 628 629 635 637 637 640 642
    643 0 0 0 0 0 0 0 2835 2835 2812 2812 2812 2812 2812 2789 2767 2767
    2744 2744 0 0 0 0 0 0 762 759 757 754 744 738 734 731 727 722 717
    710 707 706 706 691 688 684 679 675 670 666 662 658 653 648 646 643
    636 632 629 627 623 619 616 609 606 602 599 598 596 592 584 582 581
    581 581 582 582 583 583 587 590 591 592 593 596 598 599 600 601 603
    606 608 609 611 612 613 614 618 620 621 623 623 625 627 628 631 635
    637 637 640 642 642 0 0 0 0 0 0 0 0 2835 2835 2835 2812 2812 2812
    2789 2767 2767 2744 2744 0 0 0 0 0 0 0 761 759 755 746 741 736 733
    728 725 720 710 708 706 703 703 688 686 682 674 671 668 663 659 655
    650 647 644 638 634 629 627 624 621 618 614 607 603 600 598 596 593
    586 583 582 581 581 582 582 583 584 587 590 591 592 594 596 598 598
    600 601 603 606 608 609 610 611 613 614 616 619 620 623 623 625 627
    629 631 632 636 637 640 642 642 0 0 0 0 0 0 0 0 2835 2835 2835 2812
    2812 2812 2812 2789 2789 2767 2767 0 0 0 0 0 0 0 0 759 757 755 741
    738 734 730 727 722 717 708 706 703 703 690 686 684 674 671 668 664
    661 657 653 648 643 640 636 631 628 624 622 619 616 609 606 601 598
    596 594 591 584 582 581 581 582 582 583 584 587 590 591 592 594 596
    597 598 600 601 604 606 608 609 610 611 613 614 616 618 619 623 623
    625 628 630 631 632 636 640 640 642 642 0 0 0 0 0 0 0 0 2835 2835
    2835 2812 2812 2812 2812 2789 2789 2767 2767 0 0 0 0 0 0 0 0 761 759
    757 744 738 734 731 728 725 717 710 708 704 701 693 688 686 675 672
    670 666 662 659 655 650 643 640 637 634 629 625 622 619 615 611 608
    603 599 596 594 592 586 584 582 582 582 583 583 585 586 588 591 592
    594 596 597 598 600 601 604 606 608 609 610 611 613 614 615 618 619
    623 623 627 628 630 631 632 636 637 641 642 642 643 0 0 0 0 0 0 0
    2859 2859 2835 2835 2812 2812 2812 2812 2789 2767 2767 0 0 0 0 0 0 0
    0 762 761 757 746 741 738 734 730 725 720 711 708 706 701 696 691
    687 679 675 670 666 663 661 658 654 644 642 638 636 631 627 623 620
    615 613 610 606 601 598 595 593 588 584 583 583 583 583 584 585 586
    587 590 593 594 596 597 598 600 601 604 606 608 609 610 611 613 613
    615 618 619 624 624 627 628 630 632 634 636 637 641 642 643 643 0 0
    0 0 0 0 0 0 2859 2835 2835 2835 2812 2812 2812 2789 2789 2767 0 0 0
    0 0 0 0 0 764 762 759 757 744 739 736 731 727 722 717 708 706 703
    698 693 687 686 684 670 667 664 662 658 654 646 643 640 637 632 629
    624 622 615 613 611 608 604 600 597 594 588 586 584 583 583 583 584
    585 586 587 590 593 594 596 597 598 600 602 604 606 607 609 610 611
    613 613 615 618 620 623 623 625 628 631 632 634 635 638 641 642 643
    644 0 0 0 0 0 0 0 0 2859 2859 2835 2835 2835 2812 2812 2789 2789
    2767 0 0 0 0 0 0 0 0 764 762 759 757 746 741 739 734 725 723 719 710
    707 703 701 694 687 686 684 671 668 666 664 661 657 646 644 641 637
    635 631 628 623 615 613 611 609 604 602 598 596 589 586 584 584 583
    583 584 585 586 587 591 593 594 596 597 598 600 602 603 604 606 609
    610 611 613 614 615 618 620 623 623 624 627 631 632 634 635 636 640
    642 643 644 646 0 0 0 0 0 0 0 2883 2859 2835 2835 2835 2812 2812
    2812 2789 2789 0 0 0 0 0 0 0 0 0 762 759 757 749 744 741 738 725 723
    720 711 707 704 703 697 688 687 686 675 671 668 666 662 657 648 646
    643 638 635 631 628 627 618 614 612 610 606 603 599 597 590 588 585
    584 584 584 584 585 586 587 591 593 594 596 597 598 600 602 603 604
    606 608 609 611 613 614 615 618 622 623 623 624 627 631 632 634 634
    636 640 642 643 644 644 0 0 0 0 0 0 0 0 2859 2835 2835 2835 2812
    2812 2812 2812 2789 0 0 0 0 0 0 0 0 0 764 759 759 749 746 741 739
    736 723 722 719 708 706 703 698 690 687 686 676 672 670 667 664 664
    655 647 644 638 635 632 629 628 619 614 613 612 609 603 599 597 592
    592 586 585 584 584 584 585 586 588 589 592 593 596 596 597 600 601
    603 604 604 608 609 611 613 614 615 618 621 622 623 624 627 630 632
    632 634 636 638 641 643 644 644 0 0 0 0 0 0 0 0 2859 2835 2835 2835
    2812 2812 2812 2812 2812 0 0 0 0 0 0 0 0 0 0 0 764 749 746 744 741
    736 727 722 719 710 708 706 701 693 688 686 683 675 671 667 666 662
    655 648 644 640 637 634 630 628 620 616 614 612 611 604 599 596 593
    592 588 585 584 584 584 585 586 587 588 591 593 596 596 597 599 601
    603 604 604 608 609 611 611 613 615 618 620 622 624 624 627 629 631
    632 634 636 638 640 642 643 646 0 0 0 0 0 0 0 0 2835 2835 2835 2835
    2835 2835 2812 2812 2812 0 0 0 0 0 0 0 0 0 0 767 766 750 749 747 744
    736 731 723 720 714 708 706 703 696 690 687 684 678 671 668 667 662
    657 653 647 642 640 635 631 628 625 618 614 613 611 609 602 596 594
    592 591 585 584 584 584 585 586 587 588 591 592 595 596 597 599 601
    602 604 604 607 609 611 611 613 615 618 620 622 624 624 627 629 630
    632 634 636 638 640 642 643 646 647 0 0 0 0 0 0 0 2835 2835 2835
    2835 2835 2835 2835 2812 2812 0 0 0 0 0 0 0 0 0 0 767 761 754 750
    749 746 739 734 730 723 716 713 710 703 697 690 687 686 679 672 670
    668 664 659 654 647 644 641 637 634 629 627 619 616 613 612 609 606
    597 595 594 591 586 584 584 585 585 586 587 588 590 591 594 596 597
    599 600 602 603 604 607 609 611 611 613 615 619 621 622 625 625 628
    628 629 632 634 635 637 641 642 643 646 647 0 0 0 0 0 0 0 0 2835
    2835 2835 2835 2835 2812 2812 2812 0 0 0 0 0 0 0 0 0 0 0 761 755 750
    750 746 741 734 731 727 719 714 711 706 701 694 691 688 680 676 671
    668 664 662 655 647 644 643 640 636 631 628 622 618 615 612 609 606
    601 597 595 592 588 585 585 585 585 585 587 588 590 591 594 596 597
    599 600 601 603 604 606 609 611 612 613 614 619 620 622 625 625 628
    628 629 632 634 635 637 641 642 643 646 648 649 0 0 0 0 0 0 0 2883
    2835 2835 2812 2812 2812 2789 2789 0 0 0 0 0 0 0 0 0 0 0 764 757 752
    752 747 742 736 733 727 719 716 713 708 703 694 691 690 682 678 674
    670 666 664 661 648 646 643 641 637 634 628 622 620 616 614 609 606
    603 600 595 593 590 587 586 585 585 585 587 589 590 591 594 595 597
    598 600 601 603 604 606 608 611 612 613 614 619 620 621 624 624 628
    629 630 632 634 635 637 641 642 643 646 647 648 0 0 0 0 0 0 0 0 2812
    2812 2812 2789 2789 2789 2767 0 0 0 0 0 0 0 0 0 0 0 0 761 755 754
    749 744 738 734 727 722 717 713 710 706 700 693 690 682 679 675 671
    667 666 661 655 647 646 643 640 635 630 627 621 618 614 610 607 604
    601 596 593 590 588 586 586 585 585 587 589 590 591 594 595 597 598
    600 602 603 604 606 608 611 611 613 615 619 620 621 623 623 627 629
    630 632 635 635 637 640 642 644 646 647 647 0 0 0 0 0 0 0 0 2789
    2767 2767 2744 2744 2744 2744 0 0 0 0 0 0 0 0 0 0 0 0 762 759 755
    750 746 741 736 728 723 720 714 710 707 703 694 690 684 679 675 672
    670 667 663 654 650 647 643 641 637 634 630 627 619 616 611 609 606
    602 596 593 590 588 587 586 586 586 587 589 590 591 594 595 597 598
    599 602 603 604 606 608 610 611 613 614 619 620 622 623 623 627 629
    631 632 635 636 637 640 642 644 647 647 647 648 0 0 0 0 0 0 0 2789
    2744 2744 2744 2744 2744 2744 0 0 0 0 0 0 0 0 0 0 0 0 762 761 759
    752 747 744 739 734 723 720 717 711 708 704 698 691 686 680 676 674
    671 667 664 654 652 648 646 642 638 635 632 625 619 616 615 613 610
    607 597 594 592 589 587 586 586 586 587 589 590 591 594 595 597 598
    599 602 603 604 606 609 610 613 613 614 619 620 622 622 623 624 630
    632 632 634 636 637 641 642 644 646 647 647 647 0 0 0 0 0 0 0 0 2744
    2744 2744 2744 2744 2744 0 0 0 0 0 0 0 0 0 0 0 0 0 764 761 754 747
    744 741 736 727 722 719 713 708 706 701 691 687 682 679 676 672 668
    664 655 653 649 646 643 640 636 634 625 621 618 616 614 611 608 603
    600 595 591 589 587 586 586 587 589 591 591 594 595 597 597 598 601
    603 604 606 609 610 611 613 614 619 620 621 622 623 624 628 631 631
    634 636 637 640 642 644 646 647 647 647 0 0 0 0 0 0 0 0 2767 2767
    2744 2744 2744 2744 0 0 0 0 0 0 0 0 0 0 0 0 0 766 761 754 749 746
    741 738 728 722 719 716 710 708 704 691 690 686 682 678 672 668 666
    658 654 650 647 643 641 636 635 627 624 618 616 615 612 609 607 600
    597 593 589 587 586 586 587 588 590 591 593 595 597 597 598 600 602
    604 606 609 610 611 613 614 618 620 621 622 623 624 628 630 631 634
    636 637 640 642 643 646 647 648 648 0 0 0 0 0 0 0 0 2789 2767 2767
    2767 2744 2744 4522 0 0 0 0 0 0 0 0 0 0 0 0 771 762 755 752 749 744
    741 728 723 720 716 711 710 707 691 690 687 684 680 675 670 666 659
    654 652 649 646 642 637 636 628 625 622 619 615 612 609 608 600 598
    593 590 588 587 587 587 588 590 591 593 595 596 597 598 600 602 603
    606 609 610 611 612 615 616 619 621 622 623 625 627 630 632 635 636
    637 638 642 643 646 647 649 649 0 0 0 0 0 0 0 0 2812 2789 2789 2767
    2744 2744 4522 0 0 0 0 0 0 0 0 0 0 0 0 771 764 757 754 749 746 742
    728 725 722 717 711 710 708 693 690 688 686 682 678 672 668 662 657
    652 650 647 644 640 637 629 627 623 619 615 613 610 608 602 599 595
    591 589 587 587 587 588 589 590 593 594 596 597 598 600 602 603 606
    609 610 612 612 614 615 619 620 622 623 625 627 629 631 635 636 637
    638 640 642 646 647 649 649 0 0 0 0 0 0 0 0 2835 2812 2789 2767 2744
    2744 4463 0 0 0 0 0 0 0 0 0 0 0 0 0 764 759 754 750 746 744 739 727
    723 720 713 710 708 694 691 690 686 683 679 675 670 663 659 654 650
    648 646 641 640 630 628 624 621 615 613 611 608 603 599 595 592 590
    588 587 587 588 589 590 593 594 596 597 599 600 602 603 607 609 610
    612 612 614 615 619 620 622 623 625 627 629 631 634 635 636 637 638
    641 643 647 648 649 650 0 0 0 0 0 0 0 2835 2835 2812 2812 2789 2789
    4295 4295 4295 0 0 0 0 0 0 0 0 0 0 0 764 761 755 752 747 746 739 734
    727 722 717 711 708 706 693 690 686 683 680 676 672 670 661 655 650
    648 647 642 640 632 629 625 623 616 613 612 609 604 601 596 593 591
    589 588 588 588 589 591 592 593 596 597 599 600 601 602 607 609 610
    612 612 614 616 619 620 622 624 627 628 629 631 632 634 636 637 638
    641 643 647 648 650 650 0 0 0 0 0 0 0 0 2883 2883 2835 2835 2835
    4241 4241 4241 4295 0 0 0 0 0 0 0 0 0 0 767 764 757 754 749 746 742
    738 727 723 719 714 708 706 701 691 687 684 680 676 674 671 668 666
    650 648 647 643 641 634 629 627 624 619 615 613 610 606 602 598 595
    593 590 588 588 588 589 590 592 593 595 599 599 600 601 602 607 609
    610 611 611 614 616 619 620 622 624 627 628 629 631 632 634 636 637
    638 641 644 647 648 650 650 652 0 0 0 0 0 0 0 2908 2908 2908 2883
    2859 4139 4139 4190 4295 0 0 0 0 0 0 0 0 0 0 767 766 759 755 750 747
    744 739 728 723 719 716 711 708 703 694 688 686 682 678 675 672 670
    666 655 650 648 646 642 635 629 627 625 622 616 614 610 607 603 601
    597 594 591 589 588 588 589 590 592 593 595 597 599 600 601 602 606
    608 610 611 611 614 616 619 620 622 624 627 628 629 631 632 634 636
    637 640 642 644 647 649 650 650 652 0 0 0 0 0 0 0 2908 2908 2908
    2908 2883 4089 4089 4139 0 0 0 0 0 0 0 0 0 0 0 766 766 762 759 754
    749 746 742 728 723 720 717 714 708 704 700 694 688 684 679 675 674
    670 663 658 653 649 647 643 640 632 628 627 624 616 614 613 608 606
    603 600 594 591 590 589 589 589 589 592 593 595 597 599 599 601 602
    606 608 610 611 613 614 616 619 621 622 623 625 628 629 631 632 634
    636 636 638 641 644 647 649 650 650 652 0 0 0 0 0 0 0 0 2933 2933
    2908 2908 4089 4089 4089 4139 0 0 0 0 0 0 0 0 0 0 764 764 766 761
    754 750 749 744 733 727 723 720 716 710 706 700 696 691 686 680 676
    675 671 663 658 654 650 648 646 642 634 629 628 624 619 615 613 609
    606 603 601 596 593 591 589 589 589 589 591 593 595 597 599 599 601
    602 606 607 609 611 613 614 616 619 620 621 623 625 628 628 631 632
    634 636 636 638 641 643 647 649 650 650 652 654 0 0 0 0 0 0 0 2933
    2908 2908 2908 4041 4041 4089 4089 0 0 0 0 0 0 0 0 0 0 764 764 766
    764 759 752 749 744 734 728 727 722 716 711 707 703 697 693 687 684
    680 678 671 667 659 655 650 649 646 643 641 631 628 625 622 618 614
    610 606 603 601 596 593 591 590 589 589 589 591 593 595 597 599 599
    601 603 604 607 609 610 612 614 616 619 620 621 623 625 627 628 631
    632 635 636 637 638 640 642 646 648 650 650 653 654 0 0 0 0 0 0 0 0
    2908 2908 2883 4041 4041 4041 4041 0 0 0 0 0 0 0 0 0 0 0 771 771 769
    762 755 750 744 734 730 727 723 719 713 710 703 697 694 688 686 682
    679 675 670 663 658 653 650 647 644 641 634 630 627 623 621 618 614
    607 603 601 597 594 592 590 589 589 589 591 594 596 597 599 599 601
    603 604 607 609 610 612 614 615 618 620 621 623 624 627 628 631 632
    634 636 637 638 640 642 644 647 648 650 653 654 0 0 0 0 0 0 0 0 2933
    2883 2883 3948 3948 3948 3948 3948 0 0 0 0 0 0 0 0 0 0 0 771 769 764
    759 754 746 742 734 728 725 720 714 711 703 697 696 690 686 683 680
    678 671 663 659 655 652 648 647 642 635 631 629 624 621 618 615 608
    604 602 597 595 592 591 590 589 589 591 593 595 596 599 599 601 604
    606 607 609 611 613 614 615 618 619 621 623 624 627 628 630 632 634
    636 637 638 640 642 643 647 648 650 653 653 0 0 0 0 0 0 0 0 2933
    2883 2883 3903 3903 3816 3816 3859 0 0 0 0 0 0 0 0 0 0 0 773 771 766
    762 757 752 744 736 730 728 725 717 713 706 697 696 691 687 684 680
    678 672 666 662 657 652 649 648 642 636 631 629 625 623 620 618 609
    606 603 599 595 592 591 590 590 590 592 593 595 596 598 598 601 604
    606 608 609 611 612 613 615 618 619 621 622 624 627 628 629 631 634
    636 636 638 640 642 643 646 648 650 652 652 0 0 0 0 0 0 0 0 2908
    2883 2859 3859 3859 3816 3816 3816 0 0 0 0 0 0 0 0 0 0 0 773 769 766
    762 759 755 746 739 731 728 727 722 713 707 703 700 696 691 686 682
    678 672 667 663 659 654 652 649 644 640 635 630 627 624 621 618 610
    608 606 602 597 593 592 591 590 590 592 593 595 596 598 598 600 604
    607 608 609 611 612 613 614 616 619 621 622 624 627 628 629 631 632
    635 636 638 640 642 643 646 648 650 652 652 653 0 0 0 0 0 0 0 2908
    2859 2835 3816 3816 3774 3774 3774 0 0 0 0 0 0 0 0 0 0 0 0 769 766
    762 761 757 752 741 734 731 728 722 716 707 704 701 700 694 690 683
    679 674 670 664 662 655 653 650 647 640 637 630 627 625 623 618 614
    609 607 603 598 595 592 591 591 591 592 593 595 596 597 598 600 604
    606 608 609 611 612 613 614 616 619 621 622 624 627 627 629 630 632
    635 637 638 641 642 643 647 649 650 652 653 653 0 0 0 0 0 0 0 0 2835
    2812 3774 3774 3774 3732 3732 3774 0 0 0 0 0 0 0 0 0 0 0 0 766 764
    761 759 754 742 736 733 730 725 720 710 706 703 701 697 693 686 680
    675 670 664 662 659 655 650 648 641 638 632 629 625 623 618 615 609
    608 606 600 598 593 592 591 591 592 593 595 596 597 599 600 604 606
    607 607 610 612 613 614 616 619 621 622 624 625 627 629 630 632 635
    637 638 641 642 642 646 649 652 652 653 653 653 0 0 0 0 0 0 0 2789
    2767 3732 3732 3732 3732 3732 3732 0 0 0 0 0 0 0 0 0 0 0 0 766 764
    762 759 754 744 739 734 730 727 723 711 706 704 701 698 693 688 683
    676 671 666 663 661 657 653 649 643 640 637 635 631 628 619 616 611
    608 607 601 599 595 593 591 591 592 593 595 596 597 598 600 604 604
    607 607 609 611 613 614 616 619 621 622 622 624 627 629 630 632 635
    637 638 641 642 642 646 649 652 652 653 653 653 0 0 0 0 0 0 0 2744
    2744 3732 3732 3692 3692 3692 3692 0 0 0 0 0 0 0 0 0 0 0 0 767 767
    764 759 754 746 741 736 731 727 723 720 708 704 701 698 694 690 686
    679 674 667 664 661 658 655 652 644 640 637 636 634 629 623 620 613
    611 609 604 600 597 594 592 592 593 594 594 596 597 598 600 603 604
    607 607 609 611 613 614 615 619 620 622 622 624 627 629 630 632 635
    635 638 641 642 643 646 648 652 652 653 653 657 0 0 0 0 0 0 0 2723
    2723 3692 3692 3692 3692 3653 3653 3653 0 0 0 0 0 0 0 0 0 0 0 0 769
    767 762 754 750 742 739 733 728 725 720 717 708 703 698 694 690 688
    683 676 670 667 662 658 655 653 647 641 637 636 634 629 624 621 615
    612 610 608 603 600 598 596 594 594 594 594 595 597 598 601 602 604
    606 607 609 610 612 614 615 618 620 621 622 624 627 629 631 632 635
    635 638 641 642 643 646 647 650 652 653 653 655 0 0 0 0 0 0 0 2723
    2723 3692 3653 3653 3653 3653 3653 3614 3614 0 0 0 0 0 0 0 0 0 0 0
    773 769 766 754 750 746 742 741 728 725 722 717 710 704 701 694 691
    688 684 678 674 670 663 658 655 654 647 643 638 636 634 630 627 623
    615 613 610 608 606 601 598 596 594 594 594 594 595 597 600 601 602
    604 606 607 609 610 612 613 615 618 619 620 622 624 625 629 630 632
    635 636 638 641 642 644 646 647 650 652 653 653 655 0 0 0 0 0 0 0
    2744 2723 3692 3653 3653 3653 3614 3614 3614 3614 0 0 0 0 0 0 0 0 0
    0 0 773 769 766 761 754 747 744 741 731 725 722 719 711 706 701 698
    693 688 686 679 675 672 671 661 657 655 649 643 640 637 635 630 627
    622 616 614 612 609 606 602 599 596 594 594 594 594 595 597 600 601
    602 604 606 607 609 610 612 613 615 618 619 620 622 624 625 629 630
    632 634 636 637 640 642 644 644 647 649 652 654 655 655 0 0 0 0 0 0
    0 2744 2723 3653 3653 3614 3614 3614 3576 3576 3576 0 0 0 0 0 0 0 0
    0 0 0 0 771 766 762 757 747 746 742 736 730 723 719 717 707 701 698
    694 691 687 683 678 674 671 671 657 655 654 646 642 640 636 631 627
    622 619 616 613 609 607 603 599 596 594 594 594 594 596 597 599 600
    602 604 606 606 608 611 613 613 615 616 619 620 623 624 625 629 630
    632 632 636 637 640 642 644 644 646 649 652 654 655 655 655 0 0 0 0
    0 0 2744 2744 3614 3614 3614 3576 3576 3539 3503 3503 3503 0 0 0 0 0
    0 0 0 0 0 0 774 767 762 759 749 746 742 736 733 728 722 720 710 704
    700 696 693 688 686 678 675 672 670 658 655 655 648 643 641 637 634
    628 625 620 618 613 609 607 604 600 596 594 594 594 594 596 597 599
    600 602 603 606 606 608 611 613 613 615 616 619 620 623 624 627 628
    630 632 632 635 637 640 642 644 644 646 648 652 654 655 655 655 0 0
    0 0 0 0 0 2744 3576 3576 3576 3539 3503 3468 3468 3468 3468 3468 0 0
    0 0 0 0 0 0 0 0 774 769 764 759 752 747 742 736 733 730 725 722 711
    706 701 698 694 690 687 679 676 674 670 661 657 655 649 644 641 638
    636 629 627 622 620 615 610 607 604 601 596 595 595 595 595 596 597
    598 600 602 603 606 607 609 610 612 613 615 618 619 620 623 624 627
    628 630 631 632 635 636 640 642 644 644 646 648 650 654 655 657 657
    0 0 0 0 0 0 0 2744 3539 3539 3539 3503 3468 3468 3433 3433 3433 3433
    0 0 0 0 0 0 0 0 0 0 776 773 766 761 755 750 746 738 733 730 727 720
    713 707 703 698 696 693 688 684 676 674 671 662 659 657 649 647 642
    640 636 634 628 625 621 618 612 609 607 602 597 596 596 596 596 596
    597 598 600 602 603 606 607 609 610 612 613 615 618 619 620 622 624
    627 628 629 631 634 635 636 638 641 644 646 647 648 650 653 655 657
    657 658 0 0 0 0 0 0 2744 3503 3468 3468 3468 3433 3433 3433 3399
    3365 3365 0 0 0 0 0 0 0 0 0 0 776 773 767 762 759 754 747 741 736
    731 728 720 713 708 704 700 697 696 690 687 678 675 672 664 661 658
    654 648 644 641 637 634 629 627 621 619 614 611 608 606 600 596 596
    596 596 596 597 598 600 601 603 606 607 608 610 611 613 615 618 619
    620 622 624 625 628 629 631 634 635 637 638 641 643 646 647 648 650
    653 655 657 657 658 661 0 0 0 0 0 0 3468 3468 3433 3433 3433 3399
    3399 3365 3333 3333 3333 0 0 0 0 0 0 0 0 0 776 773 767 762 759 755
    750 744 738 733 730 723 719 708 704 701 700 697 693 686 680 678 675
    670 661 659 657 648 646 642 640 635 631 627 621 619 616 612 609 608
    606 597 597 596 596 596 597 599 599 600 603 604 607 608 610 611 613
    614 616 619 620 622 624 625 628 629 631 634 635 637 638 641 643 646
    647 648 650 652 655 657 658 659 661 0 0 0 0 0 0 3433 3433 3399 3399
    3365 3365 3365 3333 3333 3300 3300 0 0 0 0 0 0 0 0 0 0 776 767 762
    759 755 750 746 741 736 731 723 720 720 706 703 700 698 696 686 682
    679 676 674 661 659 657 652 647 644 642 637 632 629 622 620 616 613
    609 608 606 603 597 596 596 596 597 599 599 600 602 604 606 607 610
    611 613 614 616 619 621 622 624 625 628 629 631 632 635 637 638 641
    642 646 647 648 650 650 653 658 659 659 661 0 0 0 0 0 0 3399 3399
    3399 3365 3365 3333 3333 3333 3300 3300 3300 0 0 0 0 0 0 0 0 0 0 780
    778 764 761 757 752 747 741 738 734 723 722 720 720 704 701 700 696
    686 683 680 678 675 675 659 657 652 648 646 644 640 632 630 627 622
    618 614 611 609 606 604 597 596 596 596 597 599 600 600 601 603 606
    607 610 611 613 614 615 619 621 622 623 625 628 630 631 632 635 637
    638 641 642 646 647 648 649 650 653 657 659 659 0 0 0 0 0 0 0 3365
    3333 3333 3333 3333 3333 3300 3300 3300 3300 3300 0 0 0 0 0 0 0 0 0
    0 780 778 766 762 759 754 749 742 739 738 725 722 720 719 707 704
    701 697 687 684 682 679 678 672 661 659 654 649 646 644 641 636 632
    628 622 620 616 612 610 607 607 600 597 596 596 597 598 600 600 601
    603 606 608 610 611 613 614 615 619 621 622 623 625 628 630 631 632
    635 637 638 641 642 644 647 648 649 650 653 657 659 661 0 0 0 0 0 0
    0 3300 3300 3300 3300 3300 3300 3300 3238 3238 3238 3238 0 0 0 0 0 0
    0 0 0 0 780 778 776 773 764 757 754 746 741 738 727 722 720 717 713
    706 703 698 688 686 682 679 678 671 664 659 655 652 648 644 641 636
    634 631 623 621 618 614 611 611 611 600 597 596 596 597 598 599 601
    602 603 604 609 610 612 612 614 616 619 621 622 624 624 628 630 631
    632 635 637 638 641 642 644 647 648 649 650 652 655 659 661 0 0 0 0
    0 0 0 3300 3269 3269 3269 3269 3238 3238 3208 3178 3178 3178 3178 0
    0 0 0 0 0 0 0 0 0 0 780 776 764 759 755 749 744 741 738 727 720 717
    713 707 704 698 691 687 683 682 679 671 667 662 655 653 649 646 643
    636 634 631 625 621 619 616 613 609 607 601 598 597 597 597 597 598
    601 602 603 604 609 610 612 612 615 618 619 620 622 623 624 628 629
    631 632 635 637 638 640 642 644 647 647 649 650 652 655 658 661 662
    0 0 0 0 0 0 3269 3238 3238 3238 3238 3208 3208 3208 3178 3178 3149
    3149 0 0 0 0 0 0 0 0 0 0 0 781 780 766 761 757 750 747 742 739 728
    723 720 716 710 707 700 693 688 684 683 680 674 674 661 657 653 650
    648 643 637 635 632 628 624 619 616 613 609 607 602 598 597 597 597
    597 598 600 602 603 604 609 610 612 612 614 618 620 620 622 623 624
    627 628 630 632 635 637 638 640 642 643 646 647 649 650 652 655 658
    661 661 0 0 0 0 0 0 3238 3208 3208 3208 3208 3208 3208 3178 3178
    3149 3149 3120 3120 0 0 0 0 0 0 0 0 0 0 781 780 774 764 761 750 747
    744 742 728 723 720 716 710 707 704 694 691 687 684 680 676 676 661
    658 655 653 648 644 641 636 634 629 625 619 616 614 609 608 603 599
    597 597 597 597 598 600 601 603 604 609 610 611 612 614 616 619 620
    621 623 624 627 628 629 631 634 636 637 640 642 643 646 647 649 652
    653 655 657 661 661 0 0 0 0 0 0 3208 3178 3178 3178 3178 3178 3178
    3149 3149 3120 3092 3092 3092 0 0 0 0 0 0 0 0 0 0 783 781 778 766
    764 754 747 744 742 739 727 723 720 711 708 706 703 691 688 686 682
    679 676 675 661 655 653 649 646 643 637 634 629 625 621 618 616 613
    610 603 599 598 597 597 597 598 600 601 602 606 609 610 611 612 614
    616 619 620 621 623 624 627 628 629 631 634 636 637 638 642 644 646
    647 649 652 653 654 655 661 661 0 0 0 0 0 0 3178 3178 3149 3120 3120
    3092 3092 3120 3120 3092 3092 3064 3064 3064 0 0 0 0 0 0 0 0 0 0 781
    778 769 766 759 749 746 744 739 728 725 722 716 710 707 704 694 690
    686 683 679 676 675 661 658 654 652 647 644 641 635 630 627 622 620
    618 614 614 604 600 599 598 597 597 598 600 601 602 607 609 610 611
    612 614 616 619 620 621 623 624 627 628 629 631 634 636 637 638 642
    643 644 647 649 652 653 654 655 661 662 663 0 0 0 0 0 3149 3120 3120
    3092 3092 3092 3092 3064 3064 3064 3064 3064 3064 3064 0 0 0 0 0 0 0
    0 0 0 783 776 769 766 761 754 749 746 741 736 727 723 717 711 708
    704 701 693 688 684 679 678 675 662 659 655 653 649 646 643 636 631
    628 623 621 619 615 614 608 601 600 599 598 598 599 601 602 603 607
    609 610 611 612 614 616 618 620 621 623 624 627 628 629 631 634 636
    637 638 642 643 644 647 650 650 652 654 655 661 662 663 0 0 0 0 0
    3092 3092 3092 3092 3092 3064 3064 3064 3064 3037 3037 3037 3037
    3037 0 0 0 0 0 0 0 0 0 0 785 776 771 766 761 757 754 747 741 738 728
    725 720 713 708 704 703 700 691 687 680 678 675 663 661 659 657 652
    646 643 636 632 630 627 623 621 616 615 608 603 601 600 599 599 600
    600 601 603 606 609 610 611 612 614 616 618 620 621 623 624 627 627
    628 630 634 636 637 638 642 643 646 647 650 650 652 653 655 662 662
    663 664 664 0 0 0 3064 3064 3064 3064 3064 3037 3037 3010 3010 3010
    3010 3010 3010 3010 0 0 0 0 0 0 0 0 0 0 785 780 773 767 762 759 755
    749 742 736 730 725 722 719 710 704 703 701 693 688 683 680 676 672
    662 661 658 652 647 646 643 632 630 627 624 621 619 616 614 606 602
    601 600 600 600 600 601 602 604 608 610 611 612 614 615 618 619 621
    623 625 627 627 628 630 632 636 637 638 642 643 646 647 650 650 652
    653 657 662 662 663 664 664 0 0 0 3037 3037 3037 3037 3010 2984 2984
    2984 2984 2984 2984 2984 2984 2984 0 0 0 0 0 0 0 0 0 0 785 778 773
    769 764 761 757 752 744 736 733 725 723 720 720 704 704 701 694 690
    686 683 678 674 663 661 659 655 649 647 644 635 631 629 627 623 620
    618 614 608 603 601 600 600 600 600 601 602 604 607 611 611 612 613
    614 618 618 620 622 625 627 627 628 630 632 635 636 638 641 643 646
    647 649 650 650 653 657 662 662 663 664 666 0 0 0 3010 3010 2984
    2958 2958 2958 2958 2958 2958 2958 2958 2958 2958 2958 2984 0 0 0 0
    0 0 0 0 0 785 778 774 771 767 762 759 754 747 738 734 728 725 723
    720 706 704 701 694 690 686 683 680 675 670 662 659 655 653 647 646
    643 632 630 628 624 621 620 615 609 606 602 601 600 600 600 601 603
    604 607 610 611 612 613 614 616 618 620 622 623 625 627 628 630 632
    634 636 637 641 643 644 646 649 650 650 653 659 661 662 663 664 666
    0 0 0 2984 2984 2958 2958 2958 2933 2933 2933 2933 2933 2933 2933
    2933 2933 2933 0 0 0 0 0 0 0 0 0 781 780 776 773 769 766 759 754 750
    739 736 730 727 723 720 714 707 701 694 690 687 684 680 676 671 663
    659 658 654 648 646 644 634 631 629 624 621 621 616 610 608 604 602
    601 600 600 601 603 604 607 610 611 612 613 614 616 618 619 622 622
    624 627 629 630 632 634 635 637 640 642 644 646 649 650 650 653 659
    661 662 663 663 663 0 0 0 2958 2933 2933 2933 2933 2933 2933 2933
    2933 2933 2908 2908 2883 2883 2883 0 0 0 0 0 0 0 0 0 781 780 776 774
    771 766 761 755 752 741 736 733 730 725 720 716 710 703 696 691 687
    684 682 679 672 664 661 658 655 652 647 644 643 632 630 625 622 622
    618 614 608 606 602 601 600 600 601 603 606 607 609 610 611 613 614
    616 618 619 621 622 624 627 628 630 631 634 635 637 640 642 644 647
    649 650 650 653 658 661 662 663 663 663 0 0 0 2933 2908 2908 2883
    2883 2883 2883 2883 2859 2859 2883 2883 2859 2859 2859 0 0 0 0 0 0 0
    0 0 783 783 780 776 773 767 761 757 754 741 736 733 730 727 722 717
    713 706 703 694 691 687 683 680 675 667 664 661 657 652 647 646 643
    634 630 627 623 622 618 615 608 606 603 602 601 601 601 604 606 607
    609 610 611 612 614 616 618 619 621 623 623 625 628 629 630 634 636
    637 638 641 643 647 649 650 650 653 657 661 662 663 664 664 0 0 0
    2883 2883 2883 2859 2859 2859 2859 2859 2835 2835 2812 2812 2812
    2789 2789 2744 2744 0 0 0 0 0 0 0 0 785 780 778 774 771 764 761 757
    746 739 734 730 727 722 719 714 706 703 698 694 690 686 682 678 668
    666 661 658 652 648 647 644 636 631 629 624 622 619 616 608 606 603
    602 601 601 601 603 604 607 608 610 611 611 613 616 618 619 621 622
    623 625 628 629 630 634 637 637 638 641 643 647 649 650 650 653 655
    658 662 663 664 666 0 0 0 2883 2883 2859 2835 2835 2835 2835 2835
    2812 2789 2789 2789 2767 2767 2723 2723 2723 0 0 0 0 0 0 0 0 0 781
    780 778 773 766 762 759 755 741 738 733 728 723 720 710 707 703 698
    696 691 687 683 679 670 666 662 659 655 652 648 646 636 632 630 625
    624 621 619 615 606 603 602 601 601 602 603 604 606 608 610 610 611
    613 616 619 620 621 622 623 625 628 630 631 634 637 637 638 642 643
    647 649 652 652 653 655 657 661 663 664 666 0 0 0 2859 2859 2859
    2835 2812 2812 2812 2812 2789 2789 2789 2767 2767 2767 2723 2723
    2723 0 0 0 0 0 0 0 0 0 783 781 780 776 767 762 761 759 742 739 738
    730 727 722 710 708 706 700 696 691 688 684 680 671 667 663 661 657
    653 649 646 638 635 632 628 625 622 620 616 612 606 603 602 602 602
    603 604 606 608 610 610 611 613 616 618 619 621 622 623 625 628 630
    631 634 637 637 638 641 643 647 648 650 650 653 655 657 661 663 664
    666 0 0 0 2812 2812 2812 2789 2789 2789 2789 2789 2767 2767 2767
    2767 2767 2744 2723 2701 2701 2701 0 0 0 0 0 0 0 0 785 783 781 776
    769 764 761 759 746 741 738 733 728 725 711 708 707 701 697 693 688
    686 683 672 667 664 663 658 654 652 648 640 636 635 630 627 623 621
    619 612 608 606 603 602 602 603 604 606 608 609 610 611 614 615 616
    619 621 622 623 625 628 631 632 635 637 637 638 641 643 647 648 650
    650 653 654 657 661 663 664 666 668 0 0 2789 2789 2789 2767 2767
    2767 2767 2767 2744 2744 2744 2744 2723 2723 2701 2701 2680 2680
    2680 0 0 0 0 0 0 0 0 785 783 778 771 767 764 759 754 742 739 734 731
    728 711 708 707 704 698 694 690 687 684 682 667 664 663 659 654 652
    648 642 637 635 632 629 624 622 620 612 610 608 606 603 603 603 604
    606 608 609 610 611 614 615 616 618 620 622 623 625 627 630 632 635
    637 637 638 641 646 647 648 650 650 653 654 657 662 663 666 667 667
    667 667 2767 2767 2767 2767 2767 2744 2744 2723 2723 2723 2723 2723
    2701 2701 2701 2701 2680 2680 2680 0 0 0 0 0 0 0 0 789 787 780 773
    767 764 759 755 746 739 734 731 728 725 710 708 704 700 696 691 687
    684 683 670 666 664 662 657 652 649 643 640 636 632 630 628 624 621
    612 610 609 607 604 603 603 604 606 608 609 610 611 614 615 616 618
    620 622 624 627 627 629 631 636 637 637 638 641 646 647 648 650 650
    654 655 658 662 663 666 667 667 667 666 2744 2744 2744 2744 2723
    2723 2701 2701 2701 2701 2701 2701 2680 2680 2680 2659 2639 2639
    2659 0 0 0 0 0 0 0 0 789 787 785 776 769 766 761 757 752 741 736 733
    730 727 719 710 706 701 697 693 687 684 683 682 666 664 663 659 654
    649 646 641 637 635 632 630 625 623 613 610 609 607 604 604 604 604
    606 607 609 610 611 613 614 616 618 620 622 624 627 627 629 631 636
    637 637 638 641 644 647 647 650 650 654 655 659 662 663 666 667 667
    668 666 2723 2723 2701 2701 2701 2701 2701 2701 2680 2680 2680 2680
    2659 2659 2659 2639 2618 2618 2639 0 0 0 0 0 0 0 0 0 789 785 780 774
    771 766 761 749 744 738 734 731 728 722 711 707 704 698 694 688 684
    683 682 680 664 663 661 657 653 647 642 638 635 634 631 628 620 616
    613 610 608 606 604 604 604 606 607 609 610 611 613 614 616 618 620
    622 624 627 627 629 632 636 637 637 638 641 643 646 647 650 650 654
    657 661 662 662 664 667 667 668 667 2701 2701 2680 2680 2680 2680
    2680 2680 2680 2659 2659 2659 2618 2618 2618 2618 2598 2598 2618
    2618 0 0 0 0 0 0 0 0 787 785 781 776 773 769 762 749 746 742 738 734
    728 723 717 710 708 704 696 691 684 683 682 680 666 664 662 658 654
    648 644 640 636 635 632 629 620 618 615 611 608 606 604 604 604 606
    607 609 610 611 613 614 615 618 620 622 624 625 628 629 632 636 637
    637 638 641 643 646 648 650 652 653 655 659 662 662 664 666 667 667
    670 2701 2680 2680 2680 2659 2659 2659 2639 2639 2639 2639 2639 2618
    2618 2598 2598 2598 2598 2598 2598 0 0 0 0 0 0 0 0 787 785 781 778
    774 771 762 750 747 742 739 736 733 728 725 714 708 706 700 694 688
    686 683 674 667 664 663 659 655 648 646 641 637 636 635 629 621 619
    618 612 609 606 604 604 604 606 607 609 610 611 613 614 615 618 620
    622 623 625 627 629 631 635 637 637 638 641 643 646 648 649 652 652
    654 658 661 662 664 666 667 667 668 2680 2680 2659 2659 2659 2639
    2618 2618 2618 2618 2618 2618 2598 2598 2579 2579 2560 2560 2560
    2560 0 0 0 0 0 0 0 0 789 787 783 780 776 773 766 752 747 746 741 736
    733 730 725 714 710 706 703 698 696 690 686 674 670 666 664 661 657
    649 647 643 638 637 635 629 625 620 618 614 610 607 606 606 606 606
    607 609 610 610 613 615 616 618 620 622 623 625 627 628 631 635 636
    637 637 642 643 646 648 649 652 652 654 657 659 661 664 666 667 668
    668 2659 2659 2639 2639 2618 2618 2598 2598 2598 2598 2598 2598 2579
    2579 2579 2560 2560 2560 2541 2541 0 0 0 0 0 0 0 0 0 787 785 781 780
    773 766 755 752 747 742 738 733 730 725 716 711 707 704 700 697 691
    687 679 671 668 666 663 659 654 648 646 641 638 636 630 627 622 619
    615 611 608 606 606 606 606 607 609 610 610 613 615 616 618 619 621
    623 625 627 628 631 635 636 637 637 641 643 646 648 649 652 653 654
    657 658 661 664 666 667 668 668 2618 2618 2618 2598 2598 2598 2579
    2579 2579 2560 2560 2560 2560 2560 2541 2541 2541 2541 2522 2467
    2467 0 0 0 0 0 0 0 0 787 785 783 780 774 769 759 754 749 746 741 734
    731 727 716 714 710 704 701 698 694 690 679 674 670 667 664 661 657
    649 647 642 640 636 632 628 622 620 616 613 609 608 607 606 606 607
    608 610 611 613 615 616 618 619 621 623 625 627 628 632 635 636 637
    637 641 643 646 648 649 652 653 654 657 658 661 664 666 667 668 668
    2598 2598 2598 2579 2579 2579 2560 2560 2560 2541 2541 2541 2541
    2541 2522 2522 2522 2522 2503 2467 2467 2485 0 0 0 0 0 0 0 0 789 787
    781 774 769 762 755 754 749 744 738 733 728 716 714 713 707 703 698
    697 693 682 678 672 667 666 663 659 655 649 646 643 638 634 629 627
    622 616 614 611 609 608 606 606 606 608 610 611 613 615 616 618 619
    623 623 625 627 628 632 635 637 637 637 641 643 646 648 649 652 653
    654 657 658 661 663 664 667 668 670 2579 2579 2560 2560 2560 2541
    2541 2541 2541 2522 2522 2522 2522 2522 2522 2522 2503 2503 2485
    2485 2485 2485 2485 0 0 0 0 0 0 792 790 790 785 776 771 766 759 754
    749 744 739 736 733 717 714 713 710 704 700 697 696 682 679 675 670
    666 663 661 658 649 646 644 641 635 631 630 622 618 615 612 610 608
    606 606 606 608 610 611 612 615 616 618 619 622 623 625 627 628 632
    634 637 637 638 642 643 644 647 648 650 653 654 657 658 661 663 664
    667 670 671 2579 2579 2560 2560 2560 2541 2541 2541 2541 2522 2522
    2522 2522 2522 2522 2522 2503 2503 2485 2485 2485 2485 2485 0 0 0 0
    0 0 792 792 792 789 776 773 769 762 757 749 746 742 738 734 720 716
    714 710 706 701 698 696 683 679 676 672 667 664 662 659 650 647 646
    641 637 632 631 629 620 618 613 612 609 607 606 606 608 609 610 612
    615 618 618 619 622 625 625 628 629 632 632 636 637 638 642 643 644
    647 648 650 652 654 658 659 661 662 666 667 670 671</data></Depth18670>
</opencv_storage>
