<?xml version="1.0"?>
<opencv_storage>
<Depth3529 type_id="opencv-matrix">
  <rows>78</rows>
  <cols>86</cols>
  <dt>w</dt>
  <data>
    1173 1177 1181 1189 1197 1197 1202 1210 1214 1214 3120 3120 3092
    3092 3092 3092 3208 3208 3208 3208 1161 1161 1165 1165 1165 1169
    1169 3208 3208 3149 3149 3149 3149 3149 3178 3149 3149 3149 3149
    3149 3149 3120 3120 3120 3120 3120 3120 3120 3120 3120 3120 3120
    3120 3120 3120 3120 3092 3092 3092 3092 3092 3092 3092 3092 3092
    3092 3092 3092 3064 3064 3092 3092 3092 3064 3064 3064 3064 3064
    3092 3064 3064 3037 3037 3037 3037 3010 1173 1177 1181 1189 1202
    1202 1206 1206 1206 0 0 3120 3120 3120 3120 0 1145 3208 3208 1153
    1153 1161 1161 1161 1165 1165 1169 1169 3178 3178 3178 3178 3149
    3149 3178 3149 3149 3149 3120 3120 3149 3149 3149 3120 3120 3120
    3120 3120 3120 3120 3120 3120 3120 3120 3120 3120 3092 3092 3092
    3092 3092 3092 3092 3092 3092 3092 3092 3092 3092 3092 3092 3092
    3092 3064 3064 3064 3092 3092 3092 3092 3064 3064 3037 3037 3037
    3010 1173 1177 1181 1197 1210 1210 1206 1206 0 0 0 3120 3120 3120
    3120 1149 1145 1145 1145 1149 1153 1157 1161 1161 1161 1165 1169
    1169 1169 3208 3208 3208 3178 3178 3208 3178 3149 3149 3120 3120
    3149 3149 3149 3149 3149 3149 3149 3149 3120 3120 3120 3120 3120
    3120 3120 3120 3120 3120 3092 3092 3120 3092 3092 3120 3120 3120
    3092 3092 3092 3092 3092 3092 3092 3092 3092 3092 3092 3092 3092
    3092 3064 3064 3037 3037 3037 3037 1173 1177 1181 1197 1210 1214
    1214 1214 0 0 0 1134 0 0 0 0 1149 1145 1145 1149 1149 1153 1157 1157
    1161 1165 1169 1169 1165 1165 1165 3238 3238 3208 3208 3178 3149
    3149 3120 3120 3149 3149 3149 3149 3149 3149 3178 3149 3149 3149
    3149 3149 3120 3120 3149 3149 3120 3120 3092 3092 3120 3092 3092
    3120 3120 3120 3120 3092 3092 3092 3092 3092 3092 3092 3092 3092
    3092 3092 3092 3092 3064 3064 3037 3037 3037 3037 1173 1181 1185
    1202 1214 1214 1214 1214 0 0 0 0 0 0 0 1141 1141 1145 1145 1149 1149
    1153 1153 1157 1161 1165 1169 1169 1165 1165 1165 1173 1173 3208
    3208 3149 3149 3178 3149 3149 3178 3149 3149 3149 3149 3178 3178
    3149 3149 3149 3149 3149 3120 3120 3149 3149 3120 3120 3120 3120
    3120 3120 3120 3120 3120 3120 3120 3120 3120 3120 3120 3092 3092
    3092 3092 3092 3092 3092 3092 3092 3064 3064 3037 3037 3037 3037
    1177 1189 1223 1232 1232 1241 1264 1268 0 0 0 0 0 0 1134 1134 1138
    1141 1145 1149 1149 1149 1149 1149 1157 1161 1165 1165 1165 1165
    1165 1173 1173 1177 1177 3149 3149 3178 3178 3178 3178 3178 3178
    3178 3178 3178 3208 3178 3149 3149 3149 3149 3120 3120 3149 3149
    3149 3120 3120 3120 3120 3120 3120 3120 3120 3120 3120 3120 3120
    3120 3120 3120 3120 3120 3092 3092 3092 3092 3092 3092 3064 3064
    3064 3064 3064 3064 1185 1197 1223 1236 1236 1259 1264 1268 0 0 0 0
    0 1134 1134 1134 1138 1141 1141 1145 1145 1145 1149 1149 1157 1161
    1161 1161 1161 1161 1165 1169 1173 1177 1177 1177 1173 3178 3178
    3178 3178 3178 3178 3178 3178 3208 3208 3178 3178 3178 3149 3149
    3149 3149 3149 3149 3149 3120 3120 3120 3120 3120 3120 3120 3120
    3120 3092 3092 3120 3120 3120 3120 3120 3120 3120 3120 3120 3120
    3092 3092 3092 3092 3092 3092 3064 3064 1206 1223 1227 1236 1245
    1264 1268 1278 0 0 0 0 0 1130 1130 1134 1134 1138 1138 1141 1145
    1145 1149 1149 1153 1153 1157 1161 1161 1161 1165 1165 1173 1173
    1177 1173 1173 1173 3208 3208 3208 3208 3208 3178 3178 3208 3208
    3208 3178 3178 3149 3149 3149 3149 3149 3149 3149 3120 3120 3120
    3120 3120 3120 3120 3120 3120 3092 3092 3120 3120 3120 3120 3120
    3120 3120 3120 3120 3120 3092 3092 3092 3092 3092 3092 3092 3064
    1210 1219 1236 1245 1259 1264 1273 1273 0 1119 1115 1115 1119 1126
    1126 1130 1134 1134 1138 1141 1145 1145 1149 1149 1149 1149 1153
    1157 1161 1161 1161 1161 1165 1173 1177 1173 1173 1177 1177 3238
    3238 3238 3208 3178 3178 3208 3208 3178 3178 3178 3149 3149 3149
    3149 3178 3178 3149 3120 3120 3120 3120 3120 3149 3120 3120 3120
    3120 3120 3120 3120 3120 3120 3120 3120 3120 3120 3120 3120 3120
    3092 3092 3092 3092 3092 3092 3092 1214 1219 1241 1241 1268 1268
    1268 0 1119 1119 1115 1115 1119 1123 1123 1130 1130 1134 1134 1138
    1141 1145 1145 1145 1149 1149 1153 1153 1157 1157 1161 1161 1165
    1165 1169 1177 1177 1177 1177 1177 1181 3269 3208 3208 3208 3208
    3208 3178 3178 3178 3178 3178 3178 3178 3178 3178 3178 3149 3120
    3120 3120 3120 3149 3120 3120 3120 3120 3120 3120 3120 3120 3120
    3120 3120 3120 3120 3120 3120 3120 3092 3092 3092 3092 3092 3092
    3092 1219 1232 1250 1250 0 1108 1115 1119 1119 1119 1119 1119 1119
    1123 1123 1126 1130 1130 1134 1138 1141 1145 1145 1145 1145 1149
    1149 1149 1153 1157 1157 1161 1161 1161 1165 1169 1173 1173 1173
    1177 1177 1177 3208 3208 3208 3208 3208 3208 3208 3208 3178 3178
    3178 3178 3178 3178 3178 3149 3149 3149 3149 3149 3149 3120 3120
    3120 3120 3120 3120 3120 3120 3149 3120 3120 3120 3120 3120 3120
    3120 3120 3120 3120 3092 3092 3092 3092 1236 1245 1255 0 0 1108 1115
    1115 1115 1115 1115 1115 1119 1119 1119 1126 1130 1130 1134 1134
    1138 1138 1141 1145 1145 1145 1149 1149 1149 1153 1157 1161 1161
    1161 1161 1161 1165 1173 1173 1173 1173 1173 3208 3208 3208 3208
    3208 3208 3208 3208 3178 3178 3208 3208 3208 3208 3178 3178 3178
    3178 3178 3178 3149 3149 3149 3149 3149 3120 3120 3149 3149 3149
    3120 3120 3120 3120 3120 3120 3120 3120 3120 3120 3120 3120 3120
    3092 0 0 0 0 0 1108 1108 1112 1112 1108 1108 1112 1115 1115 1119
    1119 1123 1130 1130 1134 1134 1134 1138 1141 1145 1145 1145 1145
    1145 1149 1153 1157 1157 1161 1161 1161 1165 1165 1169 1173 1173
    1173 1173 3208 3208 3208 3208 3208 3208 3208 3208 3208 3208 3208
    3208 3208 3178 3178 3178 3178 3178 3178 3178 3178 3149 3149 3149
    3120 3120 3120 3120 3149 3149 3120 3120 3120 3120 3120 3120 3120
    3120 3120 3120 3120 3120 3120 0 0 0 0 0 1105 1105 1108 1108 1108
    1108 1108 1112 1112 1115 1119 1119 1126 1130 1130 1130 1130 1134
    1134 1141 1141 1141 1145 1145 1149 1149 1153 1153 1157 1161 1161
    1165 1165 1169 1169 1169 1173 1173 1173 3238 3238 3238 3208 3178
    3178 3178 3178 3208 3208 3208 3208 3208 3178 3178 3178 3178 3178
    3178 3178 3178 3149 3149 3120 3120 3120 3120 3120 3149 3149 3149
    3149 3149 3120 3120 3120 3120 3120 3120 3120 3120 3120 0 0 0 0 0
    1105 1105 1108 1108 1105 1105 1105 1108 1108 1115 1115 1119 1123
    1123 1130 1130 1130 1130 1130 1134 1138 1138 1138 1141 1145 1145
    1149 1149 1153 1157 1161 1161 1165 1165 1165 1169 1169 1173 1177
    1177 1181 3269 3238 3178 3178 3178 3178 3208 3208 3208 3208 3208
    3178 3178 3178 3178 3178 3178 3178 3178 3178 3149 3120 3120 3120
    3120 3120 3149 3149 3149 3149 3149 3120 3120 3120 3120 3120 3120
    3120 3120 3120 0 0 0 0 1119 1112 1112 1108 1108 1105 1105 1105 1108
    1108 1112 1112 1115 1119 1123 1126 1126 1126 1130 1130 1130 1134
    1138 1138 1141 1141 1145 1145 1149 1149 1153 1157 1157 1161 1165
    1165 1169 1169 1173 1177 1177 1181 1181 1181 3178 3178 3178 3178
    3208 3208 3208 3208 3208 3178 3178 3178 3178 3178 3178 3178 3208
    3178 3149 3120 3120 3120 3149 3149 3149 3149 3149 3149 3149 3120
    3120 3120 3120 3120 3120 3120 3120 3120 0 0 0 0 1119 1115 1115 1112
    1108 1108 1105 1105 1108 1108 1108 1108 1112 1119 1123 1126 1126
    1126 1130 1130 1130 1134 1134 1134 1138 1141 1145 1145 1149 1149
    1149 1153 1153 1157 1157 1161 1165 1165 1169 1173 1177 1181 1181
    1185 1185 1185 3178 3178 3208 3208 3208 3208 3208 3208 3208 3208
    3178 3178 3178 3178 3208 3208 3178 3149 3149 3149 3149 3149 3149
    3149 3178 3149 3149 3149 3120 3120 3120 3120 3120 3120 3120 3120 0 0
    0 0 0 1119 1119 1112 1108 1108 1108 1108 1108 1108 1108 1108 1112
    1115 1119 1123 1123 1126 1126 1130 1130 1134 1134 1134 1134 1138
    1141 1145 1145 1145 1149 1149 1153 1153 1157 1161 1165 1165 1165
    1169 1169 1173 1177 1177 1181 1181 1181 3238 3238 3238 3208 3208
    3208 3208 3208 3208 3208 3178 3178 3178 3208 3208 3178 3178 3178
    3178 3178 3178 3178 3178 3178 3149 3149 3149 3149 3149 3149 3149
    3149 3149 3120 3120 0 0 0 0 0 1123 1119 1115 1115 1115 1112 1112
    1108 1108 1108 1108 1112 1112 1115 1119 1119 1123 1123 1126 1130
    1130 1130 1130 1134 1134 1141 1145 1145 1145 1145 1149 1149 1149
    1153 1161 1161 1165 1165 1165 1169 1173 1177 1177 1181 1181 1181
    1177 1177 3238 3238 3238 3238 3208 3208 3208 3208 3208 3208 3208
    3208 3208 3208 3178 3178 3178 3178 3178 3178 3178 3178 3149 3149
    3149 3149 3149 3149 3149 3149 3149 3149 3120 0 0 0 0 1141 1130 1126
    1123 1123 1123 1119 1115 1112 1112 1108 1108 1108 1108 1108 1112
    1115 1119 1119 1123 1130 1130 1130 1130 1130 1134 1134 1138 1138
    1141 1145 1149 1149 1149 1149 1157 1161 1161 1165 1165 1165 1169
    1173 1177 1177 1177 1181 1177 1177 1177 3238 3238 3238 3238 3238
    3208 3208 3208 3208 3208 3208 3208 3208 3178 3178 3178 3178 3178
    3208 3178 3178 3178 3178 3178 3178 3149 3149 3149 3149 3149 3149
    3149 0 0 0 0 1141 1138 1134 1130 1130 1126 1126 1123 1119 1119 1112
    1112 1108 1108 1108 1112 1112 1115 1115 1119 1126 1126 1126 1126
    1130 1130 1134 1134 1134 1138 1145 1145 1145 1149 1149 1157 1161
    1161 1161 1165 1165 1165 1169 1169 1173 1177 1177 1181 1177 1177
    1177 1181 3238 3238 3238 3208 3208 3208 3208 3208 3208 3208 3208
    3208 3208 3208 3208 3208 3208 3208 3208 3208 3178 3178 3178 3178
    3178 3149 3149 3149 3149 3149 0 0 0 1157 1145 1138 1134 1130 1130
    1130 1130 1130 1123 1119 1112 1112 1108 1108 1108 1112 1112 1115
    1115 1119 1119 1119 1126 1126 1126 1130 1130 1134 1134 1138 1141
    1145 1145 1145 1149 1153 1157 1161 1161 1161 1165 1165 1169 1169
    1173 1173 1177 1177 1177 1181 1181 1181 3238 3238 3238 3238 3238
    3238 3208 3208 3208 3208 3208 3208 3208 3208 3208 3208 3208 3208
    3208 3208 3208 3208 3178 3178 3178 3178 3178 3178 3178 3178 0 0 0
    1157 1149 1141 1138 1134 1134 1134 1134 1134 1130 1126 1115 1112
    1108 1108 1112 1112 1115 1115 1115 1119 1119 1119 1123 1126 1126
    1130 1130 1130 1134 1134 1138 1141 1141 1145 1145 1149 1153 1157
    1161 1161 1161 1165 1165 1165 1169 1169 1173 1177 1177 1181 1181
    1189 1189 1189 3238 3238 3238 3238 3208 3208 3208 3208 3208 3208
    3208 3208 3208 3208 3208 3208 3208 3208 3208 3208 3208 3208 3178
    3178 3178 3178 3178 3178 0 0 0 1157 1157 1149 1149 1145 1141 1141
    1138 1138 1134 1126 1123 1115 1112 1112 1112 1112 1115 1115 1115
    1115 1119 1119 1119 1119 1123 1130 1130 1130 1134 1134 1138 1138
    1141 1141 1145 1145 1149 1153 1153 1153 1161 1161 1165 1165 1169
    1169 1173 1173 1173 1177 1181 1185 1185 1189 1189 3269 3238 3238
    3238 3238 3238 3208 3208 3208 3208 3208 3208 3208 3208 3208 3208
    3208 3208 3208 3208 3208 3208 3178 3178 3178 3208 3208 0 0 0 1165
    1161 1161 1157 1153 1149 1145 1145 1141 1138 1134 1130 1123 1119
    1119 1115 1115 1115 1115 1115 1115 1115 1115 1115 1119 1119 1126
    1126 1130 1134 1134 1134 1134 1138 1141 1141 1145 1145 1149 1153
    1153 1157 1161 1161 1165 1169 1169 1169 1173 1173 1173 1177 1181
    1185 1185 1185 1185 3238 3238 3238 3238 3238 3238 3238 3238 3208
    3208 3208 3208 3208 3208 3208 3208 3208 3208 3208 3208 3208 3208
    3208 3208 3208 3178 0 1227 1227 1173 1165 1165 1161 1157 1157 1149
    1149 1145 1141 1138 1134 1130 1123 1123 1119 1119 1119 1115 1115
    1115 1115 1115 1115 1115 1119 1119 1126 1130 1130 1130 1130 1134
    1134 1138 1141 1141 1145 1145 1149 1149 1153 1157 1161 1161 1165
    1165 1165 1169 1169 1169 1177 1177 1181 1181 1185 1185 1185 3238
    3238 3238 3238 3238 3238 3238 3238 3208 3208 3208 3208 3208 3208
    3208 3208 3208 3208 3208 3208 3208 3208 3178 3178 3178 1227 1223
    1197 1185 1177 1169 1165 1161 1161 1157 1153 1153 1145 1141 1138
    1134 1130 1126 1123 1123 1119 1115 1115 1115 1115 1115 1115 1115
    1115 1119 1119 1130 1130 1130 1130 1130 1134 1134 1138 1138 1141
    1145 1145 1149 1149 1153 1157 1161 1161 1165 1165 1165 1165 1165
    1169 1173 1181 1181 1181 1181 1185 1185 3269 3269 3238 3238 3238
    3238 3238 3238 3208 3208 3208 3208 3208 3208 3208 3208 3208 3208
    3208 3208 3208 3178 3178 3178 1227 1210 1197 1189 1185 1181 1173
    1169 1165 1161 1161 1157 1149 1145 1141 1138 1134 1130 1126 1126
    1123 1119 1115 1115 1115 1115 1115 1115 1115 1115 1119 1119 1126
    1126 1130 1130 1134 1134 1134 1138 1138 1141 1141 1145 1149 1153
    1153 1157 1157 1161 1161 1161 1165 1165 1169 1173 1177 1177 1181
    1181 1185 1185 1189 1189 3300 3269 3238 3238 3238 3238 3238 3238
    3208 3208 3208 3208 3208 3208 3208 3208 3208 3208 3208 3178 3178
    3178 1210 1210 1197 1193 1189 1185 1181 1177 1169 1165 1165 1161
    1157 1153 1145 1145 1138 1134 1130 1130 1126 1123 1119 1119 1115
    1115 1115 1115 1115 1115 1119 1119 1119 1123 1130 1130 1130 1134
    1134 1134 1138 1138 1141 1141 1145 1149 1149 1153 1157 1161 1161
    1161 1165 1165 1165 1169 1173 1177 1177 1181 1181 1185 1185 1185
    1185 1185 3238 3238 3238 3238 3238 3238 3238 3208 3208 3208 3208
    3208 3208 3208 3208 3208 3208 3178 3178 3178 0 1210 1202 1193 1193
    1189 1189 1185 1177 1173 1173 1165 1161 1161 1157 1153 1145 1141
    1138 1134 1130 1123 1123 1119 1119 1115 1115 1115 1115 1115 1115
    1115 1119 1119 1126 1126 1130 1130 1130 1134 1134 1138 1138 1138
    1141 1145 1149 1153 1153 1157 1161 1161 1161 1165 1165 1169 1173
    1173 1177 1177 1181 1181 1181 1181 1181 1185 1185 3269 3269 3208
    3208 3238 3238 3238 3238 3208 3208 3208 3208 3208 3208 3208 3208
    3178 3178 3178 1223 1223 1210 1206 1202 1197 1197 1193 1189 1185
    1181 1177 1169 1165 1161 1157 1149 1145 1145 1141 1134 1130 1126
    1123 1119 1119 1119 1119 1119 1119 1115 1115 1115 1115 1119 1123
    1126 1130 1130 1134 1134 1134 1134 1138 1141 1141 1145 1149 1149
    1153 1157 1161 1161 1161 1165 1165 1169 1173 1173 1177 1177 1181
    1181 1181 1181 1185 1189 1189 3208 3208 3208 3238 3238 3238 3238
    3208 3208 3208 3208 3208 3208 3208 3208 3208 3208 3208 1227 1223
    1219 1206 1202 1202 1202 1197 1193 1189 1181 1181 1181 1177 1177
    1161 1157 1149 1149 1145 1145 1138 1134 1130 1126 1126 1123 1123
    1119 1119 1115 1115 1115 1115 1119 1119 1123 1126 1126 1130 1130
    1134 1134 1134 1138 1138 1145 1145 1145 1149 1153 1157 1161 1161
    1161 1165 1165 1169 1169 1173 1177 1177 1177 1181 1181 1185 1185
    1189 1193 1193 3300 3238 3208 3208 3208 3208 3208 3238 3238 3238
    3208 3208 3208 3208 3208 3208 1227 1227 1219 1214 1210 1206 1206
    1202 1197 1193 1189 1181 1181 1181 1177 1177 1161 1161 1157 1157
    1153 1145 1141 1138 1134 1130 1126 1123 1123 1119 1115 1115 1115
    1115 1115 1119 1119 1123 1123 1123 1126 1130 1134 1134 1134 1134
    1138 1141 1145 1145 1149 1149 1153 1153 1157 1161 1161 1165 1165
    1173 1177 1177 1177 1181 1181 1185 1185 1189 1189 1193 1197 1197
    3208 3208 3208 3208 3208 3238 3238 3238 3238 3208 3208 3208 3208
    3208 0 1227 1223 1219 1219 1214 1210 1206 1202 1197 1193 1189 1185
    1181 1181 1181 1169 1165 1161 1161 1161 1153 1149 1149 1145 1141
    1138 1126 1126 1119 1115 1115 1115 1115 1115 1115 1119 1119 1119
    1119 1119 1130 1134 1130 1130 1130 1130 1138 1141 1141 1149 1149
    1149 1153 1157 1157 1161 1161 1165 1169 1173 1177 1177 1177 1177
    1181 1181 1185 1185 1189 1193 1193 1193 3208 3208 3208 3238 3238
    3238 3238 3238 3208 3208 3208 3238 3208 1232 1232 1232 1232 1227
    1223 1219 1214 1210 1206 1202 1202 1193 1189 1189 1185 1177 1173
    1169 1165 1165 1161 1153 1149 1149 1145 1145 1141 1138 1126 1126
    1123 1119 1115 1115 1115 1119 1119 1119 1119 1119 1123 1126 1130
    1130 1130 1130 1134 1138 1141 1145 1145 1149 1149 1157 1157 1161
    1161 1165 1165 1165 1169 1173 1173 1177 1177 1181 1181 1181 1185
    1189 1189 1193 1193 3238 3238 3238 3238 3238 3238 3238 3238 3238
    3238 3238 3208 1250 1236 1236 1236 1232 1227 1223 1223 1219 1214
    1210 1210 1202 1197 1197 1193 1185 1181 1177 1173 1169 1165 1161
    1153 1149 1149 1149 1145 1145 1134 1130 1126 1119 1119 1119 1119
    1119 1119 1119 1119 1119 1119 1123 1130 1130 1130 1130 1134 1134
    1138 1138 1141 1145 1149 1153 1157 1161 1161 1161 1165 1165 1169
    1169 1173 1177 1177 1177 1181 1181 1181 1185 1189 1189 1193 1193
    3269 3269 3238 3238 3238 3238 3238 3238 3238 3238 3238 1250 1250
    1245 1245 1241 1232 1227 1227 1223 1219 1214 1210 1210 1202 1197
    1197 1189 1185 1181 1181 1173 1173 1165 1161 1157 1153 1149 1149
    1149 1141 1138 1130 1126 1123 1119 1119 1119 1119 1119 1119 1119
    1119 1123 1126 1130 1130 1130 1130 1134 1138 1138 1141 1145 1145
    1149 1149 1149 1153 1157 1161 1165 1165 1165 1169 1173 1173 1177
    1177 1181 1181 1185 1189 1189 1193 1193 1193 3269 3238 3238 3238
    3238 3238 3238 3238 3238 3238 1255 1250 1250 1250 1241 1232 1227
    1227 1227 1227 1219 1214 1210 1206 1202 1197 1197 1189 1185 1185
    1181 1177 1173 1165 1161 1157 1153 1153 1153 1145 1141 1138 1134
    1130 1126 1123 1123 1119 1119 1119 1119 1119 1123 1126 1126 1126
    1126 1126 1130 1134 1134 1138 1141 1145 1145 1149 1149 1149 1153
    1157 1161 1161 1161 1165 1165 1169 1177 1177 1177 1181 1181 1189
    1193 1193 1193 1193 1193 1193 3238 3238 3238 3238 3238 3238 3238
    3238 1255 1255 1250 1250 1250 1236 1232 1232 1227 1227 1223 1219
    1219 1214 1210 1206 1202 1197 1193 1189 1181 1181 1177 1173 1169
    1165 1161 1161 1157 1153 1145 1141 1138 1134 1134 1130 1126 1123
    1119 1119 1119 1119 1119 1123 1123 1123 1123 1123 1126 1134 1134
    1138 1141 1141 1145 1145 1145 1149 1149 1149 1153 1157 1161 1161
    1161 1165 1169 1169 1173 1177 1177 1181 1189 1193 1193 1193 1193
    1197 1197 3238 3238 3238 3238 3238 3238 3238 1255 1255 1255 1255
    1250 1250 1241 1241 1232 1232 1227 1223 1223 1219 1214 1210 1206
    1202 1197 1197 1189 1189 1181 1177 1177 1169 1165 1161 1157 1153
    1153 1145 1145 1138 1138 1134 1130 1130 1123 1123 1119 1119 1119
    1119 1119 1119 1119 1119 1126 1130 1134 1138 1138 1141 1141 1141
    1145 1145 1149 1149 1153 1153 1157 1161 1161 1165 1165 1165 1169
    1177 1177 1177 1181 1185 1189 1193 1193 1193 1197 1197 3238 3238
    3238 3238 3238 3238 2933 1264 1264 1259 1250 1245 1245 1245 1241
    1241 1236 1232 1232 1227 1219 1219 1214 1210 1206 1197 1197 1193
    1189 1185 1181 1177 1177 1169 1165 1161 1161 1153 1153 1145 1141
    1141 1138 1134 1130 1126 1123 1123 1119 1119 1119 1119 1119 1119
    1123 1126 1130 1134 1134 1138 1138 1138 1141 1145 1145 1149 1149
    1153 1153 1157 1157 1161 1165 1165 1169 1173 1177 1177 1177 1181
    1185 1185 1189 1189 1189 1193 1193 1197 3238 3238 3238 3238 2933
    2933 2984 1250 1250 1245 1245 1245 1250 1250 1245 1245 1236 1232
    1227 1223 1219 1214 1214 1202 1202 1197 1193 1193 1185 1185 1181
    1177 1173 1169 1165 1161 1161 1153 1149 1145 1141 1138 1134 1130
    1126 1123 1119 1119 1119 1119 1119 1119 1123 1123 1126 1130 1134
    1134 1134 1138 1138 1141 1145 1149 1149 1149 1153 1153 1157 1157
    1161 1161 1165 1169 1173 1173 1173 1177 1181 1185 1185 1185 1185
    1189 1193 1193 1197 3238 3238 3238 2933 2984 2984 2933 1245 1245
    1245 1245 1250 1250 1245 1245 1245 1236 1232 1227 1227 1223 1223
    1210 1202 1197 1197 1193 1193 1189 1185 1181 1177 1177 1169 1165
    1161 1161 1153 1149 1145 1145 1138 1134 1130 1126 1123 1123 1119
    1119 1119 1119 1119 1123 1123 1126 1130 1134 1134 1134 1138 1138
    1145 1145 1149 1149 1149 1153 1153 1157 1161 1161 1161 1165 1169
    1169 1169 1173 1181 1181 1185 1185 1185 1185 1189 1189 1193 1197
    1197 3208 2984 2958 2933 2933 2933 2908 1268 1268 1264 1250 1250
    1250 1245 1245 1241 1232 1232 1227 1227 1210 1202 1202 1197 1197
    1197 1193 1193 1185 1181 1181 1177 1169 1161 1161 1161 1161 1157
    1149 1145 1141 1134 1130 1126 1126 1123 1119 1119 1119 1119 1123
    1123 1126 1130 1130 1130 1134 1134 1134 1138 1141 1145 1145 1149
    1149 1153 1157 1157 1161 1161 1165 1169 1169 1169 1173 1177 1181
    1181 1181 1181 1181 1185 1189 1193 1193 1197 1197 2933 2933 2933
    2908 2908 2908 2908 1268 1268 1264 1255 1250 1250 1250 1245 1241
    1236 1232 1227 1214 1210 1206 1197 1197 1202 1197 1197 1193 1189
    1185 1181 1177 1165 1165 1161 1161 1161 1157 1149 1149 1141 1134
    1134 1130 1126 1123 1123 1123 1123 1123 1123 1123 1126 1126 1126
    1130 1130 1134 1138 1138 1141 1141 1145 1149 1149 1153 1157 1157
    1161 1161 1165 1169 1169 1169 1177 1177 1181 1181 1181 1181 1181
    1185 1189 1193 1197 1197 2933 2933 2933 2908 2908 2859 2859 2859
    1268 1268 1264 1255 1255 1255 1250 1245 1241 1236 1227 1223 1223
    1214 1206 1206 1206 1206 1202 1197 1193 1193 1189 1181 1169 1165
    1165 1165 1165 1161 1157 1149 1149 1145 1145 1138 1134 1126 1126
    1123 1123 1123 1123 1123 1123 1123 1123 1126 1130 1130 1134 1134
    1138 1138 1141 1145 1145 1149 1153 1153 1157 1161 1165 1165 1165
    1169 1173 1173 1177 1177 1181 1181 1181 1181 1185 1189 1189 1193
    2933 2933 2933 2908 2908 2859 2859 2859 2859 1264 1264 1264 1259
    1259 1259 1255 1250 1241 1232 1232 1227 1223 1219 1214 1214 1210
    1210 1202 1197 1193 1193 1189 1177 1173 1169 1165 1165 1165 1161
    1157 1153 1149 1149 1145 1141 1134 1130 1130 1126 1126 1123 1123
    1119 1119 1123 1123 1126 1130 1130 1134 1134 1138 1138 1141 1145
    1149 1149 1149 1153 1157 1161 1161 1165 1165 1169 1169 1173 1177
    1177 1177 1181 1181 1181 1185 1185 1189 2908 2933 2933 2933 2933
    2984 2859 2859 2958 2958 2958 2984 1259 1259 1259 1255 1250 1250
    1241 1236 1232 1227 1223 1219 1219 1214 1214 1210 1202 1197 1197
    1193 1185 1181 1181 1173 1173 1169 1165 1161 1157 1157 1153 1149
    1149 1138 1134 1134 1130 1126 1123 1123 1119 1119 1123 1123 1123
    1126 1130 1130 1130 1134 1138 1138 1141 1145 1145 1149 1149 1153
    1157 1157 1161 1161 1165 1165 1169 1169 1173 1177 1177 1181 1181
    1181 1185 1189 2908 2933 2933 2933 2933 2958 2958 2984 2958 2958
    2984 2984 2958 1264 1264 1264 1264 1255 1250 1241 1236 1232 1232
    1227 1223 1223 1219 1214 1210 1206 1206 1202 1197 1189 1185 1181
    1177 1177 1173 1169 1165 1161 1157 1153 1153 1145 1138 1134 1134
    1130 1126 1126 1123 1123 1123 1123 1123 1126 1126 1126 1130 1134
    1134 1138 1141 1145 1145 1149 1149 1149 1153 1153 1157 1157 1161
    1161 1165 1165 1173 1177 1177 1181 1181 1177 1177 1177 2908 2908
    2908 2933 2933 2933 2958 2958 2958 2958 2958 2958 2958 2933 2933
    1264 1264 1264 1259 1255 1250 1241 1236 1232 1227 1227 1223 1219
    1214 1210 1210 1210 1206 1206 1197 1185 1181 1177 1177 1173 1173
    1169 1165 1161 1157 1157 1145 1141 1138 1134 1130 1130 1126 1126
    1126 1126 1126 1123 1123 1126 1126 1130 1130 1134 1141 1145 1145
    1149 1149 1149 1149 1149 1153 1153 1157 1161 1161 1165 1169 1169
    1173 1177 1177 1177 1177 1177 2883 2908 2908 2908 2933 2933 2933
    2908 2908 2933 2933 2958 2933 2933 2933 1268 1268 1268 1273 1268
    1259 1255 1241 1236 1236 1232 1232 1227 1223 1219 1214 1214 1210
    1206 1202 1197 1189 1185 1181 1177 1177 1173 1169 1165 1161 1161
    1157 1145 1145 1138 1134 1134 1130 1130 1126 1126 1126 1123 1123
    1123 1123 1126 1126 1130 1138 1141 1145 1145 1145 1149 1149 1149
    1149 1149 1157 1157 1161 1165 1165 1165 1169 1169 1177 1177 1177
    3365 2883 2908 2908 2908 2908 2933 2933 2908 2908 2933 2933 2958
    2933 2933 2984 2984 2984 1278 1278 1268 1264 1259 1250 1250 1245
    1245 1241 1241 1236 1223 1219 1219 1214 1210 1206 1206 1197 1189
    1185 1181 1181 1177 1169 1165 1161 1161 1161 1157 1153 1145 1141
    1138 1134 1134 1130 1130 1126 1123 1123 1123 1123 1123 1126 1126
    1134 1141 1141 1145 1145 1145 1145 1149 1149 1149 1153 1153 1161
    1161 1165 1165 1165 1169 1177 1177 1177 3365 2812 2883 2883 2908
    2908 2933 2908 2908 2908 2933 2933 2958 2984 2984 2984 2984 2984
    2984 3120 3120 1264 1259 1259 1259 1255 1250 1250 1245 1241 1236
    1232 1227 1227 1219 1219 1206 1202 1197 1193 1189 1185 1185 1177
    1169 1165 1165 1165 1161 1157 1149 1145 1145 1141 1138 1134 1134
    1130 1126 1126 1123 1123 1123 1123 1126 1130 1134 1138 1141 1141
    1145 1145 1149 1149 1149 1149 1149 1157 1161 1161 1165 1165 1165
    1177 1177 3399 3399 2812 2883 2883 2908 2908 2908 2908 2908 2908
    2933 2933 2958 2984 2984 2984 2984 2984 2984 3010 3010 1259 1259
    1259 1264 1264 1259 1250 1250 1245 1241 1236 1232 1232 1227 1227
    1214 1210 1206 1202 1197 1197 1193 1185 1177 1173 1169 1165 1165
    1161 1157 1153 1149 1145 1141 1138 1138 1134 1130 1130 1126 1123
    1123 1123 1126 1130 1130 1134 1134 1141 1141 1145 1145 1145 1149
    1149 1149 1149 1153 1161 1161 1161 1165 1165 1165 3365 3365 2812
    2859 2859 2883 2883 2883 2908 2908 2908 2933 2958 2958 2984 2984
    2984 2984 2984 2984 2984 2984 2984 1264 1264 1268 1264 1264 1259
    1255 1250 1245 1241 1236 1232 1232 1232 1227 1219 1210 1206 1206
    1202 1197 1197 1193 1185 1185 1177 1177 1165 1161 1157 1153 1149
    1145 1141 1138 1134 1134 1130 1130 1126 1126 1126 1126 1126 1130
    1130 1134 1134 1141 1141 1145 1145 1145 1145 1145 1149 1149 1153
    1157 1161 1165 1165 3333 3365 3365 2812 2812 2812 2812 2883 2883
    2883 2883 2883 2908 2933 2933 2984 2984 2984 2984 2984 2984 2984
    2984 3010 3010 1268 1268 1268 1268 1264 1259 1255 1250 1250 1245
    1241 1236 1236 1232 1227 1214 1210 1210 1206 1206 1202 1197 1193
    1193 1185 1185 1173 1169 1165 1165 1161 1161 1149 1145 1141 1138
    1134 1134 1130 1126 1126 1126 1126 1130 1130 1130 1134 1134 1138
    1141 1141 1141 1145 1145 1145 1149 1153 1157 1161 1161 3333 3333
    3333 3365 2812 2812 2812 2812 2835 2859 2859 2883 2883 2908 2908
    2933 2958 2984 2984 2984 2984 2984 2984 2984 3010 3010 3010 3010
    1288 1278 1273 1268 1264 1264 1259 1250 1245 1245 1241 1236 1232
    1227 1214 1214 1210 1210 1206 1202 1202 1197 1193 1193 1181 1177
    1173 1169 1165 1165 1161 1157 1153 1149 1145 1141 1138 1130 1126
    1126 1126 1130 1130 1130 1130 1130 1130 1134 1134 1134 1138 1145
    1145 1149 1149 1157 1157 3365 3365 3333 3333 3333 2835 2835 2812
    2812 2812 2812 2835 2859 2883 2908 2908 2908 2933 2958 2984 2984
    2984 2984 2984 2984 3010 3010 3010 3010 3010 1283 1278 1268 1268
    1264 1259 1259 1250 1250 1245 1241 1236 1232 1227 1223 1219 1214
    1210 1206 1206 1202 1197 1197 1189 1189 1181 1177 1173 1169 1165
    1161 1157 1153 1149 1149 1145 1138 1134 1134 1130 1130 1130 1130
    1130 1130 1130 1130 1130 1130 1134 1138 1141 1145 1145 1145 0 3333
    3333 3333 3333 3333 2812 2812 2812 2812 2812 2812 2835 2859 2883
    2883 2908 2908 2933 2958 2984 2984 2984 2984 2984 2984 2984 2984
    2984 2984 2984 1283 1278 1268 1268 1268 1264 1264 1259 1255 1250
    1245 1241 1236 1232 1232 1227 1223 1219 1214 1210 1206 1202 1197
    1197 1193 1185 1181 1177 1173 1169 1165 1165 1161 1153 1153 1149
    1145 1141 1138 1134 1134 1130 1130 1130 1130 1130 1130 1130 1130
    1134 1138 1141 1141 1141 1141 0 3333 3333 3333 3333 3333 2812 2812
    2812 2812 2812 2812 2835 2859 2883 2883 2883 2908 2908 2933 2984
    2984 2984 2958 2958 2958 2958 2984 2984 2984 2984 3010 3010 1268
    1268 1268 1268 1268 1264 1259 1259 1255 1250 1241 1241 1236 1232
    1227 1227 1219 1214 1210 1206 1202 1197 1197 1193 1189 1185 1181
    1177 1173 1173 1165 1161 1157 1153 1149 1145 1141 1141 1134 1134
    1130 1130 1130 1130 1130 1130 1130 1134 1138 1138 1138 1138 1138 0
    3333 3333 3333 3333 3333 2789 2812 2812 2812 2812 2812 2835 2835
    2859 2883 2883 2883 2908 2933 2958 2958 2933 2933 2933 2933 2933
    2958 2984 2984 3010 2984 2984 3010 3010 1283 1283 1278 1273 1273
    1264 1259 1255 1250 1241 1241 1236 1232 1232 1227 1223 1219 1210
    1210 1202 1202 1197 1197 1193 1189 1181 1181 1177 1173 1169 1165
    1161 1157 1153 1145 1145 1141 1138 1134 1134 1130 1130 1130 1130
    1134 1134 1138 1138 1138 1138 1138 0 3333 3333 3333 3333 3333 2767
    2789 2812 2812 2812 2812 2835 2835 2859 2883 2883 2883 2908 2908
    2933 2933 2933 2933 2933 2933 2933 2958 2984 2984 3010 2984 2984
    3010 3010 3010 1283 1283 1283 1278 1273 1268 1264 1255 1250 1245
    1241 1236 1236 1232 1227 1227 1219 1214 1214 1210 1202 1197 1197
    1193 1189 1185 1181 1177 1177 1173 1165 1161 1161 1153 1149 1145
    1145 1138 1138 1134 1134 1134 1134 1134 1134 1138 1141 1141 1141
    1141 0 3365 3333 3333 3333 3333 2767 2789 2789 2812 2812 2812 2812
    2835 2835 2859 2883 2883 2883 2908 2908 2908 2908 2908 2933 2933
    2933 2958 2984 2984 2984 2984 2984 3010 3010 3010 2908 2908 1288
    1283 1278 1273 1264 1259 1250 1250 1245 1241 1241 1236 1232 1232
    1227 1223 1223 1214 1210 1202 1197 1197 1193 1189 1181 1181 1181
    1177 1173 1169 1165 1161 1153 1149 1149 1145 1145 1141 1138 1138
    1134 1134 1138 1141 1145 1145 1145 3365 3365 3365 3365 3333 3333
    3333 2744 2767 2767 2789 2789 2812 2812 2812 2812 2812 2859 2883
    2883 2883 2908 2908 2908 2908 2908 2933 2933 2958 2958 2984 2984
    2984 2984 2984 3010 3010 2908 2908 2908 1283 1283 1278 1268 1264
    1255 1255 1255 1250 1245 1241 1241 1236 1232 1227 1227 1219 1219
    1210 1206 1202 1197 1193 1189 1189 1181 1181 1177 1173 1169 1165
    1161 1153 1149 1149 1149 1145 1141 1141 1138 1138 1138 1141 1145
    1145 1145 3365 3365 3365 3365 3333 3333 3365 2744 2767 2767 2767
    2767 2767 2767 2789 2812 2812 2812 2859 2859 2883 2883 2883 2883
    2883 2908 2908 2908 2933 2958 2984 2984 2984 2984 2984 3010 3010
    2933 2933 2933 2984 1278 1278 1268 1268 1264 1264 1264 1255 1250
    1250 1245 1241 1236 1232 1227 1227 1223 1219 1214 1210 1202 1202
    1197 1193 1189 1185 1181 1177 1177 1173 1165 1161 1153 1153 1153
    1153 1149 1149 1145 1141 1141 1145 1145 3365 3365 3365 3365 3365
    3365 3365 3365 3365 2723 2744 2767 2767 2767 2767 2767 2789 2789
    2812 2812 2835 2835 2859 2859 2859 2859 2883 2883 2908 2908 2908
    2933 2933 2958 2958 2984 2984 2984 2984 2958 2958 2984 2984 3010
    3010 3010 1278 1273 1273 1268 1264 1259 1259 1255 1250 1245 1241
    1232 1232 1227 1223 1223 1219 1210 1210 1206 1197 1197 1189 1185
    1181 1181 1177 1173 1169 1161 1157 1157 1153 1153 1153 1145 1145
    1145 3365 3333 3333 3365 3365 3365 3365 3365 3365 3365 3365 2723
    2744 2744 2767 2767 2767 2767 2789 2789 2812 2812 2812 2812 2812
    2835 2859 2859 2883 2883 2908 2908 2908 2933 2933 2958 2958 2958
    2958 2984 2984 2984 2984 2984 2984 2984 2984 2984 1283 1283 1273
    1268 1268 1264 1264 1259 1255 1255 1250 1236 1236 1232 1232 1227
    1227 1219 1214 1210 1206 1202 1197 1193 1185 1185 1181 1177 1177
    1169 1165 1165 1161 1161 1161 1161 3503 3365 3365 3333 3333 3365
    3365 3365 3365 3365 3365 3365 3365 2723 2723 2723 2723 2723 2767
    2767 2767 2767 2789 2812 2812 2812 2812 2835 2859 2859 2883 2883
    2883 2908 2908 2933 2933 2933 2933 2933 2933 2958 2958 2984 2984
    3010 3010 2958 2958 2933 2933 2933 1273 1268 1268 1268 1268 1264
    1264 1259 1255 1250 1245 1236 1236 1232 1227 1227 1219 1214 1210
    1206 1202 1197 1193 1193 1185 1181 1181 1177 1177 1173 1169 1165
    1165 1165 3503 3433 3399 3365 3365 3365 3365 3365 3365 3365 3365
    3365 3365 2723 2723 2723 2723 2723 2767 2767 2767 2767 2789 2812
    2812 2812 2789 2789 2835 2835 2883 2883 2883 2908 2908 2908 2933
    2933 2933 2908 2908 2908 2958 2958 2984 2984 3010 2958 2958 2933
    2933 2984 1273 1268 1268 1268 1268 1268 1268 1264 1264 1259 1250
    1241 1241 1236 1232 1227 1223 1219 1214 1210 1206 1202 1197 1197
    1189 1185 1185 1181 1181 1181 1181 1181 3468 3468 3433 3399 3399
    3365 3365 3365 3365 3365 3365 3365 3365 3365 3365 2723 2701 2701
    2723 2723 2723 2723 2723 2744 2767 2789 2812 2789 2789 2789 2812
    2812 2859 2883 2883 2908 2908 2908 2933 2933 2908 2908 2908 2908
    2958 2958 2984 2984 3010 3010 3010 2984 2958 2958 2984 3010 1273
    1273 1278 1273 1273 1268 1264 1264 1259 1255 1245 1241 1236 1232
    1227 1223 1223 1214 1214 1206 1202 1202 1197 1197 1189 1181 1181
    1181 1181 3365 3365 3365 3365 3365 3365 3365 3365 3365 3365 3365
    3365 3365 3365 3365 3365 2701 2701 2701 2723 2723 2723 2723 2723
    2723 2723 2767 2789 2789 2789 2812 2812 2812 2835 2859 2859 2883
    2883 2883 2883 2883 2883 2908 2908 2908 2933 2933 2984 2984 2984
    2984 2984 3010 2958 2958 2984 3010 3010 3010 1283 1283 1278 1273
    1268 1264 1264 1259 1255 1250 1241 1241 1232 1232 1227 1223 1219
    1214 1210 1206 1202 1202 1197 1185 1185 1185 1185 3365 3365 3365
    3365 3365 3365 3365 3365 3365 3365 3365 3365 3365 3365 3365 3365
    2701 2701 2701 2723 2723 2723 2701 2701 2723 2723 2723 2744 2789
    2789 2789 2789 2812 2812 2812 2812 2883 2812 2812 2883 2883 2883
    2908 2908 2908 2933 2933 2958 2958 2958 2984 2984 3010 3010 2984
    2984 3010 3010 2984 2984 1288 1278 1273 1268 1268 1268 1264 1264
    1259 1255 1245 1241 1236 1232 1227 1227 1219 1214 1214 1210 1210
    1202 1185 1185 1185 3300 3333 3333 3333 3365 3365 3365 3365 3365
    3365 3365 3365 3365 3365 3365 3365 3365 2723 2701 2701 2701 2701
    2701 2701 2701 2701 2701 2723 2744 2767 2789 2789 2789 2812 2812
    2812 2812 2812 2812 2812 2812 2883 2908 2908 2908 2908 2908 2908
    2933 2933 2933 2958 2984 2984 3010 3010 3010 3010 3010 2984 2984
    3010 3010 3037 1278 1273 1273 1273 1268 1264 1264 1250 1250 1245
    1241 1236 1232 1227 1223 1219 1219 1214 1210 1206 1206 1206 3300
    3300 3300 3333 3333 3333 3365 3365 3365 3399 3399 3399 3399 3399
    3365 3365 3365 2680 2680 2680 2680 2701 2701 2701 2701 2701 2701
    2723 2744 2744 2789 2789 2789 2812 2812 2812 2812 2812 2812 2812
    2812 2835 2883 2908 2908 2908 2908 2908 2908 2908 2933 2958 2958
    2984 2984 2984 3010 3010 3010 3010 3010 3010 3010 3010 3064 3064
    1283 1283 1278 1278 1268 1259 1255 1250 1245 1245 1245 1236 1232
    1227 1223 1219 1214 1214 1214 3269 3269 3300 3300 3333 3333 3333
    3365 3365 3365 3399 3399 3399 3399 3399 3399 3365 3365 2680 2680
    2659 2659 2680 2701 2701 2701 2701 2723 2723 2723 2723 2744 2767
    2789 2789 2789 2789 2789 2812 2812 2812 2812 2812 2883 2908 2908
    2908 2908 2908 2908 2908 2933 2958 2958 2958 2984 2984 2984 2984
    3010 3010 3010 3010 3010 3010 3010 3037 3037 1288 1283 1283 1273
    1268 1268 1259 1259 1250 1250 1245 1241 1232 1227 1223 1223 3269
    3269 3269 3269 3269 3300 3333 3333 3333 3333 3365 3365 3365 3365
    3365 3399 3399 3399 3365 3365 2701 2680 2659 2659 2680 2701 2701
    2723 2723 2723 2723 2723 2723 2723 2767 2767 2789 2789 2789 2789
    2789 2789 2812 2812 2812 2883 2908 2908 2883 2883 2908 2908 2908
    2933 2958 2958 2958 2984 2984 2984 2984 3010 3010 3010 3010 3010
    3010 3010 3010 3037 3037 1288 1288 1283 1278 1273 1268 1264 1264
    1259 1259 1250 1245 1245 1245 3238 3238 3238 3238 3269 3269 3300
    3333 3333 3333 3300 3300 3333 3333 3333 3333 3365 3365 3399 3399
    3399 2680 2680 2680 2680 2701 2701 2701 2701 2701 2723 2723 2723
    2723 2723 2767 2767 2789 2789 2789 2789 2789 2789 2812 2812 2812
    2883 2883 2883 2883 2883 2908 2908 2908 2908 2958 2958 2958 2958
    2958 2984 2984 3010 3010 3010 3010 3010 3010 3010 3010 3037 3037
    3037 1288 1288 1283 1283 1273 1268 1268 1264 1264 1255 1255 1255
    3120 3120 3120 3238 3238 3238 3238 3269 3300 3333 3333 3300 3300
    3333 3333 3333 3333 3333 3333 3365 3365 3365 2680 2680 2680 2680
    2680 2680 2680 2659 2659 2701 2701 2723 2723 2723 2723 2744 2744
    2789 2789 2789 2789 2789 2789 2812 2812 2883 2883 2883 2883 2883
    2883 2908 2908 2908 2958 2958 2958 2958 2958 2958 2958 2984 2984
    3010 3010 3010 3037 3010 3010 3037 3010 3010 3092 3092 1288 1288
    1283 1278 1273 1268 1268 1268 1268 3120 3120 3120 3120 3238 3238
    3238 3238 3269 3300 3333 3333 3300 3300 3333 3333 3333 3333 3333
    3333 3365 3365 3365</data></Depth3529>
</opencv_storage>
