<?xml version="1.0"?>
<opencv_storage>
<Depth10077 type_id="opencv-matrix">
  <rows>21</rows>
  <cols>49</cols>
  <dt>w</dt>
  <data>
    0 0 0 0 0 0 0 0 0 0 0 0 0 0 0 0 2170 2170 2170 2170 0 0 2143 2143
    2143 2156 2143 2143 2170 2170 2129 1031 1031 1034 1034 1034 1034
    1031 1031 1047 1050 1050 1054 2156 2156 2184 2143 2143 2143 0 0 0 0
    0 0 2116 2116 0 0 0 0 0 0 2090 2090 2116 2170 2184 2198 2184 2156
    2143 2143 2143 2156 2143 2143 2156 2156 2156 2143 2129 2129 2170
    2156 2156 2170 2156 2156 2170 2170 2170 2156 2156 2184 2170 2170
    2170 0 0 0 2170 2170 2170 2116 2116 2116 2116 2143 2156 0 0 2090
    2090 2116 2170 2184 2198 2184 2156 2143 2143 2143 2156 2156 2156
    2156 2156 2156 2156 2156 2156 2170 2156 2156 2170 2156 2156 2170
    2170 2170 2170 2170 2184 2184 2184 2184 2156 2156 2170 2170 2156
    2156 2156 2116 2116 2116 2143 2156 2170 2184 2156 2156 2156 2170
    2184 2184 2184 2170 2170 2170 2170 2170 2170 2170 2170 2170 2184
    2184 2170 2170 2170 2170 2170 2170 2170 2184 2184 2184 2184 2184
    2184 2198 2184 2184 2184 2156 2156 2156 2170 2156 2156 2156 2156
    2116 2116 2156 2170 2170 2170 2170 2170 2170 2170 2184 2184 2170
    2170 2170 2184 2184 2184 2170 2170 2170 2184 2184 2184 2184 2170
    2170 2184 2184 2184 2184 2184 2184 2184 2184 2184 2184 2198 2198
    2198 2184 2156 2156 2156 2156 2170 2156 2156 2170 2156 2156 2170
    2170 2170 2170 2170 2170 2170 2170 2170 2170 2170 2170 2184 2184
    2184 2184 2184 2184 2184 2184 2184 2184 2184 2170 2170 2184 2170
    2170 2170 2184 2184 2170 2170 2184 2184 2198 2198 2198 2184 2170
    2156 2156 2156 2170 2170 2170 2170 2156 2156 2184 2184 2184 2184
    2184 2170 2170 2170 2170 2170 2170 2170 2184 2184 2170 2170 2170
    2170 2184 2184 2184 2184 2184 2184 2184 2170 2170 2170 2170 2170
    2170 2170 2170 2184 2184 2198 2198 2198 2198 2170 2156 2156 2156
    2170 2170 2170 2170 2156 2156 2170 2170 2170 2184 2184 2170 2170
    2170 2170 2170 2170 2170 2184 2170 2170 2170 2170 2170 2184 2184
    2184 2170 2170 2170 2170 2170 2170 2170 2170 2170 2170 2170 2170
    2184 2184 2198 2184 2184 2184 2156 2156 2156 2156 2170 2170 2170
    2170 2156 2156 2170 2170 2170 2184 2184 2170 2170 2170 2170 2170
    2170 2170 2170 2170 2170 2170 2170 2170 2170 2184 2170 2170 2170
    2170 2170 2170 2170 2170 2170 2170 2170 2170 2170 2170 2184 2198
    2184 2184 2184 2156 2156 2156 2156 2156 2156 2156 2156 2156 2156
    2170 2170 2170 2170 2170 2170 2170 2170 2170 2170 2170 2170 2170
    2170 2170 2170 2170 2170 2170 2170 2170 2170 2170 2170 2170 2170
    2170 2170 2156 2156 2170 2170 2170 2170 2184 2156 2143 2143 2143
    2143 2143 2156 2156 2156 2156 2156 2156 2156 2156 2170 2170 2170
    2170 2156 2156 2170 2170 2170 2170 2170 2170 2156 2156 2156 2156
    2170 2170 2170 2170 2170 2170 2170 2170 2170 2170 2170 2156 2156
    2156 2170 2170 2170 2170 2170 2156 2143 2143 0 2143 2143 2156 2170
    2156 2156 2156 2156 2156 2156 2170 2170 2170 2170 2156 2156 2170
    2170 2170 2170 2170 2156 2156 2156 2156 2156 2156 2156 2156 2156
    2156 2156 2156 2156 2156 2156 2156 2143 2143 2156 2156 2156 2156
    2170 2170 2170 2170 2170 0 2143 2143 2156 2170 2156 2156 2156 2156
    2156 2156 2156 2156 2170 2156 2156 2156 2170 2170 2170 2170 2170
    2156 2143 2143 2156 2156 2156 2156 2156 2156 2143 2143 2143 2143
    2143 2129 2129 2143 2143 2143 2156 2156 2156 2170 2170 2184 2184
    2184 1202 2129 2129 2129 2156 2156 2156 2156 2156 2156 2156 2156
    2156 2143 2143 2156 2156 2170 2170 2170 2170 2156 2156 2143 2143
    2143 2156 2143 2129 2129 2129 2143 2143 2143 2143 2143 2129 2129
    2143 2143 2143 2156 2156 2156 2170 2170 2184 2184 0 1206 2116 2116
    2116 2129 2143 2143 2156 2156 2156 2156 2156 2156 2143 2143 2170
    2170 2170 2170 2170 2170 2156 2156 2143 2143 2143 2156 2143 2129
    2129 2129 2143 2143 2143 2143 2143 2143 2143 2156 2156 2170 2170
    2156 2156 2170 2170 2170 2170 0 1206 2116 2116 2116 2129 2129 2143
    2156 2156 2156 2156 2170 2170 2156 2156 2170 2170 2170 2156 2156
    2170 2170 2170 2170 2170 2170 2170 2156 2143 2143 2156 2170 2170
    2156 2156 2156 2156 2170 2170 2170 2184 2184 2184 2184 2184 2184
    2184 1241 1241 1206 2116 2116 2116 2129 2129 2198 2212 2198 2156
    2156 2170 2170 2156 2156 2170 2170 2170 2156 2156 2170 2198 2198
    2198 2184 2184 2198 2184 2184 2170 2170 2184 2184 2184 2184 2184
    2184 2198 2198 2198 2212 2212 2212 2212 2212 2212 1241 1241 1241
    1223 2129 2129 2156 2156 2198 2198 2212 2198 2198 2198 2198 2198
    2198 2198 2198 2198 2198 2170 2170 2170 2212 2212 2212 2198 2198
    2212 2212 2226 2184 2184 2212 2212 2212 2184 2184 2198 2212 2212
    2226 2241 2241 2226 2226 2226 2226 1241 1241 1241 1223 2129 2129
    2170 2170 2212 2226 2226 2212 2198 2198 2198 2212 2241 2241 2241
    2241 2241 2212 2212 2226 2256 2241 2226 2184 2184 2212 2212 2226
    2226 2226 2226 2226 3149 2184 2184 2226 2226 2226 2933 2883 2241
    2226 2226 2226 2226 2933 2908 2908 1223 2016 2859 2812 2212 2212
    2226 2226 2226 2212 2212 2226 2226 2241 2241 2241 2256 2256 2256
    2286 2286 3037 2286 2226 2184 2184 2212 2212 3120 3120 3120 3120
    3092 3037 3037 3064 3064 3010 2958 2933 2908 2908 2226 2226 2226
    2958 2933 2933 1232 1223 2016 2767 2767 2789 2226 2226 2226 2226
    2226 3092 3064 3064 3120 3120 3120 3092 3037 3037 3037 3037 3037
    3064 3120 3149 3120 3120 3120 3120 3120 3120 3120 3064 3037 3037
    3010 2984 2984 2958 2933 2908 2908 2908 2933 2933 2958 2958 2933
    1232 1232</data></Depth10077>
</opencv_storage>
