<?xml version="1.0"?>
<opencv_storage>
<Depth16630 type_id="opencv-matrix">
  <rows>31</rows>
  <cols>32</cols>
  <dt>w</dt>
  <data>
    1094 1094 3120 3120 3120 3064 3064 3064 3064 3064 3092 3092 3149
    3238 3238 3269 3208 3178 3149 3149 3149 3120 3092 3064 3064 3037
    3010 3010 2984 2984 1804 1804 1073 1073 3064 3064 3064 3064 3037
    3037 3064 3064 3064 3064 3064 3064 3064 3238 3238 3178 3178 3178
    3149 3120 3092 3064 3064 3064 3037 3037 2984 2984 1804 1804 1070
    3037 3064 3064 3064 3037 3037 3037 3037 3037 3037 3010 3010 3010
    3010 3010 3010 3208 3208 3178 3178 3149 3120 3092 3092 3064 3037
    3037 2984 1823 1804 1804 1070 3037 3037 3037 3037 3010 3010 3010
    3010 2984 2984 2958 2958 2958 2958 2958 2958 2958 2958 3149 3178
    3149 3120 3092 3092 3064 3037 3037 3010 1823 1804 1804 1070 3037
    3037 3010 3010 2984 2958 2958 2958 2958 2958 2958 2958 2958 2958
    2958 2933 2933 2958 2958 3149 3149 3149 3092 3092 3064 3037 3037
    3037 1833 1833 1823 0 3037 3037 3010 2984 2958 2958 2933 2933 2933
    2933 2933 2933 2933 2933 2933 2933 2933 2933 2933 2933 2958 3120
    3037 3037 3064 3037 3037 3064 1843 1843 1843 0 3064 3037 3010 2984
    2958 2933 2933 2908 2908 2933 2933 2933 2908 2908 2908 2908 2908
    2908 2908 2883 2883 2883 2883 2883 2883 3037 3037 3064 1853 1853
    1843 3064 3064 3037 3010 2984 2958 2933 2933 2908 2883 2883 2883
    2883 2859 2859 2859 2883 2883 2883 2883 2859 2859 2859 2859 2859
    2859 2883 1904 1873 1863 1863 1843 3092 3092 3064 3037 2984 2958
    2958 2933 2908 2883 2883 2883 2859 2859 2859 2859 2835 2835 2835
    2835 2835 2835 2835 2835 2835 2859 2835 1894 1873 1873 1863 1843
    3064 3064 3064 3037 3010 2958 2958 2933 2908 2883 2859 2859 2859
    2835 2835 2835 2835 2835 2812 2812 2812 2789 2789 2789 2812 2835
    2812 1894 1883 1873 1853 1843 3064 3064 3037 3037 3037 2984 2958
    2933 2908 2883 2859 2859 2859 2835 2835 2835 2835 2812 2789 2789
    2767 2767 2767 2767 2767 2789 2789 2767 1883 1873 1843 1843 3010
    3010 3010 3010 3037 3010 2984 2958 2933 2908 2859 2859 2859 2835
    2835 2812 2812 2789 2767 2767 2767 2767 2744 2744 2767 2767 2767
    2744 2744 2723 1843 1843 2984 2984 2984 2984 2984 2958 2958 2958
    2958 2933 2908 2859 2859 2835 2835 2812 2812 2767 2767 2744 2744
    2744 2744 2744 2744 2744 2744 2723 2723 2723 2701 1853 2958 2958
    2958 2958 2958 2958 2958 2958 2958 2933 2908 2883 2859 2859 2835
    2812 2789 2767 2744 2744 2744 2744 2723 2723 2723 2701 2701 2701
    2701 2701 2701 2680 2933 2933 2933 2933 2933 2933 2933 2908 2908
    2908 2908 2908 2883 2859 2835 2835 2789 2767 2744 2744 2744 2723
    2701 2701 2701 2701 2701 2680 2680 2680 2680 2680 2908 2908 2908
    2933 2908 2908 2883 2859 2859 2859 2883 2883 2883 2859 2859 2835
    2812 2767 2744 2744 2744 2723 2680 2680 2701 2680 2680 2680 2680
    2680 2680 2659 2680 2680 2701 2883 2883 2883 2859 2859 2859 2859
    2859 2859 2859 2859 2835 2835 2835 2835 2767 2744 2744 2723 2680
    2680 2680 2680 2680 2659 2659 2639 2618 2618 2659 2659 2659 2859
    2835 2835 2835 2835 2835 2835 2835 2835 2835 2835 2835 2835 2835
    2835 2812 2767 2767 2744 2680 2680 2680 2680 2680 2659 2659 2618
    2618 2598 2639 2618 2598 2598 2598 2598 2723 2723 2835 2835 2835
    2812 2812 2812 2789 2789 2789 2789 2789 2789 2789 2767 2744 2723
    2723 2701 2680 2659 2659 2618 2618 2598 2598 2598 2598 2598 2598
    2598 2598 2598 2598 2812 2812 2789 2789 2789 2767 2767 2767 2767
    2767 2767 2767 2767 2744 2744 2723 2701 2680 2680 2659 2618 2618
    2598 2598 2598 2579 2579 2579 2579 2579 2579 2541 2541 2767 2767
    2767 2767 2767 2767 2744 2744 2767 2767 2767 2744 2744 2744 2744
    2723 2701 2680 2659 2639 2618 2598 2579 2579 2579 2579 2579 2560
    2560 2541 2541 2522 2522 2744 2767 2767 2744 2744 2744 2744 2744
    2744 2744 2723 2723 2723 2723 2723 2701 2701 2680 2659 2618 2618
    2560 2560 2560 2560 2541 2541 2541 2522 2522 2522 2522 2503 2503
    2744 2744 2744 2723 2723 2723 2701 2680 2680 2680 2701 2701 2723
    2701 2701 2680 2659 2639 2639 2522 2522 2522 2522 2522 2522 2522
    2522 2522 2522 2503 2503 2485 2485 2639 2701 2701 2701 2701 2680
    2680 2680 2680 2680 2701 2701 2701 2680 2680 2680 2659 2659 2522
    2522 2503 2503 2503 2503 2503 2503 2503 2503 2485 2467 2450 2450
    2450 2467 2659 2659 2659 2659 2659 2659 2659 2659 2680 2680 2680
    2680 2680 2659 2659 2659 2503 2503 2503 2485 2485 2485 2485 2485
    2467 2467 2467 2450 2450 2450 2450 2450 2450 2450 2639 2639 2659
    2659 2639 2639 2659 2639 2639 2639 2639 2618 2618 2618 2503 2485
    2485 2467 2467 2450 2450 2450 2450 2450 2450 2450 2450 2432 2432
    2432 2432 2432 2432 2450 2639 2639 2618 2618 2618 2618 2618 2618
    2618 2618 2618 2598 2485 2485 2467 2450 2450 2450 2450 2432 2432
    2432 2432 2432 2432 2432 2415 2415 2415 2398 2398 2398 2381 2381
    2381 2618 2618 2618 2618 2618 2618 2598 2598 2598 2485 2467 2450
    2450 2432 2432 2432 2432 2415 2415 2415 2415 2415 2415 2398 2398
    2398 2381 2381 2381 2381 2381 2381 2381 2598 2598 2598 2598 2598
    2598 2579 2579 2485 2450 2450 2432 2432 2415 2415 2398 2381 2381
    2381 2381 2381 2398 2398 2398 2381 2381 2381 2381 2365 2365 2381
    2381 2398 2398 2598 2598 2579 2579 2579 2579 2485 2450 2450 2432
    2415 2398 2398 2381 2381 2381 2381 2381 2381 2381 2381 2381 2381
    2365 2365 2365 2365 2365 2365 2365 2381 2381 2381 2398 2579 2541
    2541 2541</data></Depth16630>
</opencv_storage>
