<?xml version="1.0"?>
<opencv_storage>
<Depth7343 type_id="opencv-matrix">
  <rows>63</rows>
  <cols>59</cols>
  <dt>w</dt>
  <data>
    5291 5291 5291 5291 5291 1616 1616 1616 5210 5132 5132 5132 1601
    1601 1601 5132 5056 5056 4983 4983 4983 4983 4911 4911 4911 4911
    4911 4842 4842 4842 4774 4774 4708 4708 4708 4708 1557 1543 1543
    1543 1536 1536 1536 4582 4522 4522 4463 4463 4463 4463 4463 4405
    4405 4405 4349 4349 4349 4349 4295 5374 5374 1572 1572 1572 1579
    1609 1616 1616 1609 1609 1601 1601 1601 1601 1601 1601 1601 1594
    1586 1579 1579 1579 1579 1572 1572 4911 4911 1564 1564 1564 1557
    1557 1550 1550 1550 1557 1550 1543 1543 1536 1529 1529 1529 1529
    4522 4463 4463 4463 4463 4405 4405 4405 4349 4349 4349 4295 4295
    4349 5460 1579 1572 1572 1572 1579 1601 1609 1609 1609 1609 1601
    1601 1601 1601 1601 1594 1594 1586 1579 1579 1579 1579 1564 1564
    1564 1557 1557 1557 1557 1557 1557 1557 1550 1550 1550 1550 1550
    1543 1543 1529 1529 1529 1529 1529 1529 4463 4463 4405 4405 4405
    4349 4349 4349 4295 4295 4295 4295 4349 5460 1572 1572 1572 1572
    1572 1579 1594 1594 1601 1601 1601 1594 1594 1586 1586 1586 1586
    1579 1579 1579 1579 1572 1564 1564 1557 1557 1557 1557 1550 1550
    1550 1550 1543 1543 1543 1543 1543 1543 1536 1529 1529 1529 1523
    1523 1523 1523 4463 4405 4405 4405 4349 4349 4349 4295 4295 4349
    4349 4349 1572 1572 1572 1572 1572 1572 1572 1579 1586 1586 1594
    1579 1579 1586 1579 1579 1579 1579 1579 1572 1572 1572 1564 1557
    1557 1557 1557 1557 1557 1550 1550 1543 1543 1536 1536 1536 1536
    1536 1536 1529 1529 1529 1529 1523 1523 1523 1516 1516 1516 4463
    4405 4405 4405 4349 4349 4349 4349 4349 4349 1572 1572 1572 1572
    1572 1572 1572 1572 1579 1579 1579 1572 1572 1579 1572 1572 1579
    1572 1564 1564 1564 1557 1550 1550 1550 1550 1550 1550 1550 1543
    1543 1543 1536 1529 1529 1529 1529 1529 1529 1529 1523 1523 1529
    1523 1523 1523 1516 1516 1516 1516 4522 4463 4463 4405 4349 4349
    4349 4349 4349 1572 1572 1572 1572 1572 1572 1572 1564 1564 1564
    1564 1557 1557 1564 1564 1564 1564 1564 1550 1550 1550 1550 1543
    1536 1536 1536 1536 1536 1536 1536 1536 1529 1529 1523 1523 1523
    1523 1529 1529 1529 1523 1523 1529 1523 1523 1523 1523 1516 1516
    1516 1516 4463 4463 4405 4405 4405 4349 4349 4349 1572 1572 1572
    1572 1572 1564 1564 1564 1557 1557 1557 1550 1550 1550 1550 1550
    1557 1550 1550 1550 1550 1543 1536 1529 1529 1529 1529 1529 1529
    1529 1529 1529 1523 1523 1509 1509 1509 1516 1523 1523 1523 1529
    1529 1529 1523 1523 1523 1516 1516 1516 4463 4463 4463 4405 4349
    4349 4349 4349 4349 1564 1564 1564 1564 1564 1557 1550 1550 1550
    1550 1550 1550 1550 1543 1543 1543 1536 1529 1529 1529 1536 1536
    1529 1529 1523 1523 1523 1523 1523 1516 1516 1509 1509 1489 1483
    1483 1483 1483 1496 1509 1516 1523 1523 1523 1523 1523 1523 1523
    1523 1523 4463 4463 4463 4405 4349 4349 4349 4349 4349 1564 1564
    1564 1557 1557 1550 1550 1550 1550 1550 1550 1543 1543 1543 1536
    1529 1523 1523 1523 1523 1523 1523 1523 1523 1516 1516 1509 1509
    1509 1509 1503 1503 1496 1483 1483 1483 1477 1477 1477 1477 1477
    1509 1516 1516 1523 1523 1523 1523 1529 1529 4463 4463 4463 4405
    4405 4405 4349 4349 4349 1564 1564 1564 1557 1557 1550 1550 1550
    1550 1543 1543 1543 1543 1543 1536 1523 1523 1523 1523 1516 1516
    1516 1516 1509 1509 1503 1503 1496 1496 1496 1496 1489 1489 1483
    1477 1477 1477 1477 1470 1470 1470 1470 1489 1496 1509 1516 1516
    1523 1523 4463 4463 4463 4463 4463 4405 4405 4405 4405 4405 1572
    1564 1564 1557 1557 1550 1550 1543 1543 1543 1543 1543 1543 1536
    1536 1523 1523 1523 1516 1516 1516 1509 1509 1503 1503 1503 1496
    1496 1489 1483 1483 1477 1477 1477 1477 1477 1470 1470 1470 1464
    1464 1464 1464 1470 1489 1503 1509 1509 1509 4522 4522 4463 4463
    4463 4405 4405 4405 4405 4405 1572 1564 1564 1557 1557 1550 1550
    1543 1543 1543 1543 1543 1536 1536 1529 1523 1523 1516 1516 1516
    1516 1509 1509 1503 1503 1503 1496 1496 1489 1483 1483 1477 1477
    1477 1470 1470 1470 1470 1464 1464 1458 1458 1458 1464 1470 1483
    1496 1496 1503 1503 4582 4522 4463 4463 4405 4405 4349 4349 4405
    1579 1572 1564 1557 1557 1550 1550 1550 1543 1543 1543 1543 1536
    1536 1529 1523 1523 1516 1516 1516 1516 1509 1509 1503 1503 1503
    1496 1496 1489 1483 1483 1477 1477 1477 1470 1470 1470 1464 1464
    1464 1458 1458 1458 1464 1464 1477 1483 1489 1496 1496 1496 1496
    4463 4463 4405 4405 4349 4349 4295 1579 1572 1572 1557 1550 1550
    1550 1550 1543 1543 1543 1543 1536 1536 1536 1523 1523 1516 1516
    1516 1516 1516 1509 1509 1503 1503 1496 1496 1489 1483 1483 1477
    1477 1477 1470 1470 1470 1464 1458 1458 1458 1458 1458 1464 1464
    1470 1483 1483 1496 1489 1489 1489 4522 4522 4405 4405 4349 4349
    4295 1579 1579 1572 1557 1550 1550 1550 1550 1543 1543 1543 1543
    1536 1536 1536 1523 1523 1516 1516 1516 1516 1516 1516 1509 1503
    1503 1496 1496 1489 1483 1483 1477 1477 1477 1470 1470 1470 1464
    1458 1458 1458 1458 1464 1470 1470 1470 1483 1483 1496 1489 1489
    1496 1496 4405 4405 4349 4349 4349 4349 1579 1572 1572 1557 1557
    1550 1550 1550 1550 1543 1543 1543 1543 1536 1529 1523 1523 1523
    1516 1516 1516 1516 1516 1509 1503 1503 1503 1496 1489 1489 1483
    1483 1477 1477 1477 1477 1470 1470 1464 1458 1458 1458 1458 1464
    1470 1470 1483 1483 1496 1489 1489 1496 1496 4405 4405 4295 4295
    4295 4295 1572 1572 1572 1564 1557 1550 1550 1550 1550 1543 1543
    1543 1543 1536 1529 1529 1523 1523 1516 1516 1516 1516 1516 1509
    1503 1503 1503 1496 1489 1489 1489 1483 1483 1477 1477 1477 1470
    1470 1464 1458 1458 1458 1458 1464 1470 1477 1483 1483 1489 1496
    1496 1503 1503 1503 4295 4295 4295 4295 4295 1572 1572 1572 1564
    1557 1550 1550 1550 1550 1543 1543 1543 1543 1536 1529 1523 1523
    1523 1523 1516 1516 1523 1516 1509 1509 1503 1503 1496 1496 1489
    1489 1483 1483 1477 1477 1477 1477 1470 1464 1458 1458 1458 1458
    1458 1464 1470 1477 1483 1489 1496 1496 1503 1503 0 4295 4295 4295
    4295 4241 1572 1572 1572 1564 1564 1557 1550 1550 1550 1550 1543
    1543 1543 1543 1529 1523 1523 1523 1523 1523 1523 1523 1516 1516
    1509 1503 1503 1496 1496 1496 1489 1489 1483 1477 1477 1470 1470
    1470 1464 1464 1458 1458 1458 1458 1464 1470 1477 1489 1489 1496
    1496 1503 1503 0 4349 4349 4349 4295 4241 1572 1572 1572 1572 1564
    1557 1550 1550 1550 1550 1550 1543 1543 1543 1529 1529 1523 1523
    1523 1523 1523 1523 1523 1516 1509 1503 1503 1503 1496 1496 1489
    1489 1483 1477 1477 1470 1470 1470 1464 1464 1458 1458 1458 1458
    1458 1458 1464 1489 1489 1489 1496 1503 1503 1503 4349 4349 4349
    4295 4241 1579 1572 1572 1572 1564 1557 1550 1550 1550 1550 1550
    1543 1543 1543 1536 1529 1529 1523 1523 1523 1523 1523 1523 1516
    1516 1509 1503 1503 1496 1496 1489 1489 1483 1477 1477 1477 1470
    1470 1470 1470 1464 1464 1458 1458 1458 1458 1464 1489 1489 1489
    1496 1503 1503 1503 0 4349 4349 4349 4295 1572 1572 1572 1572 1564
    1557 1550 1550 1550 1550 1550 1543 1543 1543 1536 1529 1529 1529
    1523 1523 1523 1523 1523 1516 1516 1509 1503 1503 1496 1496 1489
    1489 1489 1483 1477 1477 1470 1470 1470 1470 1464 1464 1458 1452
    1452 1458 1470 1483 1489 1489 1496 1496 1503 1503 0 4405 4405 4349
    4349 1572 1572 1572 1572 1564 1564 1557 1557 1550 1550 1550 1543
    1543 1543 1543 1536 1536 1523 1523 1523 1523 1523 1523 1516 1516
    1509 1503 1503 1496 1496 1489 1489 1489 1483 1483 1477 1470 1470
    1470 1470 1464 1464 1458 1452 1452 1458 1470 1477 1483 1489 1496
    1496 1496 1496 4405 4405 4405 4405 4405 1572 1572 1572 1572 1572
    1564 1557 1557 1550 1550 1550 1543 1543 1543 1536 1529 1529 1523
    1523 1516 1516 1523 1523 1516 1509 1509 1503 1503 1503 1496 1496
    1489 1489 1483 1483 1477 1477 1470 1470 1470 1464 1464 1458 1458
    1458 1458 1470 1477 1483 1489 1496 1496 1496 0 4463 4463 4463 4405
    4405 1579 1579 1579 1572 1572 1564 1564 1564 1557 1550 1550 1550
    1543 1543 1536 1529 1529 1523 1523 1516 1516 1523 1523 1516 1509
    1509 1503 1503 1503 1496 1496 1489 1489 1483 1483 1477 1477 1477
    1470 1470 1464 1464 1464 1458 1458 1458 1470 1477 1483 1483 1489
    1489 1489 0 4463 4463 4463 4463 4405 1579 1579 1579 1572 1572 1572
    1564 1557 1557 1550 1550 1550 1543 1543 1536 1529 1529 1523 1523
    1516 1516 1523 1523 1516 1516 1509 1503 1503 1503 1496 1496 1489
    1489 1483 1483 1477 1477 1477 1470 1470 1470 1464 1464 1458 1458
    1458 1470 1477 1477 1483 1483 1489 1489 1496 4463 4463 4463 4463
    4463 1586 1579 1579 1572 1572 1564 1564 1557 1550 1550 1550 1550
    1543 1543 1536 1529 1529 1523 1523 1516 1516 1523 1523 1516 1516
    1516 1509 1503 1503 1503 1496 1496 1489 1489 1483 1477 1477 1477
    1470 1470 1470 1464 1464 1458 1458 1458 1464 1470 1477 1483 1483
    1489 1496 1496 4463 4463 4405 4405 4463 1579 1579 1572 1572 1564
    1564 1557 1557 1550 1550 1550 1550 1543 1543 1543 1536 1536 1529
    1523 1523 1523 1523 1523 1516 1516 1516 1509 1503 1503 1503 1496
    1496 1489 1489 1483 1477 1477 1470 1470 1464 1464 1464 1464 1458
    1458 1458 1464 1470 1477 1489 1489 1496 1496 1496 1496 4295 4295
    4295 4405 1579 1579 1572 1572 1564 1564 1557 1557 1557 1557 1550
    1550 1543 1543 1543 1536 1536 1529 1523 1523 1523 1523 1523 1523
    1516 1509 1509 1503 1503 1503 1496 1496 1489 1489 1483 1477 1477
    1470 1470 1464 1464 1464 1464 1458 1458 1458 1470 1470 1477 1489
    1489 1496 1496 1496 1496 4241 4241 4241 4295 1572 1572 1579 1572
    1564 1564 1557 1557 1557 1550 1550 1550 1543 1543 1543 1543 1536
    1536 1529 1523 1523 1523 1523 1523 1516 1509 1509 1503 1503 1503
    1496 1496 1489 1489 1483 1483 1477 1477 1470 1470 1470 1464 1464
    1458 1458 1458 1470 1470 1477 1483 1489 1496 1496 1496 1496 4190
    4190 4190 4241 1572 1572 1579 1579 1572 1564 1564 1557 1557 1550
    1550 1550 1543 1543 1543 1543 1543 1536 1529 1523 1523 1523 1523
    1523 1516 1509 1509 1503 1503 1503 1496 1496 1489 1489 1483 1483
    1477 1477 1470 1470 1470 1464 1464 1464 1464 1464 1470 1470 1477
    1483 1483 1489 1496 1496 1496 4190 4139 4139 4139 1579 1579 1579
    1579 1572 1572 1564 1564 1557 1557 1550 1550 1543 1543 1543 1543
    1536 1536 1529 1523 1523 1523 1523 1523 1516 1516 1509 1509 1503
    1503 1496 1496 1489 1489 1489 1483 1477 1477 1470 1470 1470 1470
    1464 1464 1464 1464 1470 1470 1477 1483 1483 1489 1496 1496 1496
    4190 4089 4089 4089 1579 1579 1579 1579 1579 1572 1572 1564 1557
    1557 1550 1550 1543 1543 1543 1543 1536 1536 1529 1523 1523 1529
    1523 1523 1523 1516 1516 1509 1503 1503 1496 1496 1489 1489 1483
    1477 1477 1477 1470 1470 1470 1470 1470 1464 1464 1464 1464 1470
    1477 1477 1483 1489 1489 1496 1496 4041 4041 4041 4041 4139 1579
    1579 1579 1579 1572 1572 1572 1564 1557 1550 1550 1550 1543 1543
    1543 1536 1529 1523 1523 1523 1523 1523 1523 1523 1516 1516 1509
    1503 1503 1496 1496 1489 1489 1483 1477 1477 1477 1470 1470 1470
    1470 1464 1464 1458 1458 1458 1464 1470 1477 1483 1489 1489 1496
    1496 4041 4041 4041 4041 4139 1579 1579 1579 1579 1572 1572 1572
    1564 1557 1557 1550 1550 1543 1543 1543 1536 1529 1523 1523 1523
    1523 1523 1523 1523 1523 1516 1509 1509 1503 1496 1496 1489 1489
    1483 1477 1477 1477 1470 1470 1470 1470 1464 1464 1458 1452 1452
    1458 1464 1477 1483 1483 1489 1496 1496 1496 4089 4089 4089 4139
    1572 1572 1579 1579 1572 1572 1572 1572 1564 1557 1550 1550 1543
    1543 1543 1543 1536 1529 1523 1523 1523 1523 1523 1523 1523 1516
    1509 1503 1503 1503 1496 1496 1489 1483 1483 1477 1477 1470 1470
    1470 1470 1464 1464 1458 1452 1452 1458 1464 1477 1483 1483 1489
    1496 1496 1496 4089 4089 3365 4139 1572 1572 1579 1579 1572 1572
    1572 1564 1557 1557 1550 1550 1543 1543 1543 1543 1536 1529 1523
    1523 1523 1523 1523 1523 1523 1516 1516 1503 1503 1503 1496 1496
    1489 1483 1483 1477 1477 1470 1470 1470 1470 1464 1464 1458 1452
    1452 1464 1464 1477 1477 1477 1483 1496 1496 1503 1503 4089 3300 0
    1564 1564 1579 1579 1572 1572 1572 1564 1557 1557 1550 1550 1543
    1543 1543 1536 1536 1529 1523 1523 1523 1523 1523 1523 1523 1516
    1516 1503 1503 1503 1496 1496 1489 1489 1483 1483 1477 1477 1470
    1470 1470 1464 1464 1464 1458 1458 1464 1470 1477 1477 1477 1483
    1496 1496 1503 1503 3269 3269 0 1564 1564 1579 1579 1579 1572 1572
    1564 1557 1557 1550 1550 1543 1543 1543 1536 1536 1529 1523 1523
    1529 1523 1523 1523 1523 1516 1509 1503 1503 1503 1496 1496 1489
    1489 1483 1483 1477 1477 1470 1470 1470 1464 1464 1464 1458 1458
    1464 1477 1483 1483 1483 1483 1496 1503 1503 3300 3269 3269 0 1572
    1572 1579 1579 1579 1572 1572 1564 1557 1550 1550 1550 1543 1543
    1543 1536 1529 1529 1523 1523 1529 1529 1529 1523 1523 1516 1509
    1503 1503 1503 1496 1496 1489 1489 1483 1483 1477 1477 1477 1470
    1470 1464 1464 1458 1458 1464 1470 1477 1483 1483 1483 1489 1496
    1496 3300 3300 3269 3269 0 0 1579 1579 1579 1579 1572 1572 1564 1557
    1550 1550 1550 1543 1543 1543 1536 1529 1529 1523 1523 1529 1529
    1529 1523 1523 1523 1516 1509 1503 1503 1496 1496 1496 1489 1489
    1483 1477 1477 1477 1470 1464 1464 1458 1458 1458 1464 1464 1470
    1483 1483 1483 1489 1489 3300 3300 3300 3269 3269 0 0 1579 1579 1579
    1579 1579 1572 1564 1564 1557 1550 1550 1543 1543 1543 1543 1536
    1529 1523 1523 1529 1529 1529 1523 1523 1523 1516 1503 1503 1503
    1496 1496 1496 1489 1489 1483 1477 1477 1477 1477 1464 1464 1458
    1458 1458 1464 1464 1470 1477 1483 1483 1483 1489 1489 3300 3300
    3300 3300 0 0 1579 1579 1579 1579 1572 1572 1572 1564 1557 1550 1550
    1543 1543 1543 1543 1536 1529 1529 1529 1529 1529 1529 1523 1523
    1516 1516 1503 1503 1503 1496 1496 1496 1496 1489 1483 1477 1477
    1477 1477 1464 1464 1464 1458 1458 1458 1458 1464 1470 1483 1483
    1483 1489 1489 3300 3300 3300 3300 0 0 1579 1579 1579 1579 1572 1572
    1572 1572 1557 1550 1550 1543 1543 1543 1543 1543 1536 1529 1529
    1529 1529 1523 1523 1523 1516 1516 1503 1503 1503 1496 1496 1496
    1489 1489 1483 1477 1477 1477 1477 1470 1464 1464 1458 1458 1458
    1458 1464 1470 1483 1483 1483 1489 1496 1496 3300 3300 3300 0 0 1586
    1586 1579 1579 1579 1572 1572 1564 1557 1557 1550 1550 1543 1543
    1543 1543 1536 1536 1536 1529 1529 1523 1523 1523 1516 1509 1503
    1503 1503 1496 1496 1496 1489 1489 1483 1477 1477 1477 1477 1470
    1464 1464 1458 1458 1458 1458 1464 1470 1477 1477 1483 1489 1496
    1503 1503 3300 3300 0 0 1594 1586 1579 1579 1579 1572 1572 1564 1557
    1557 1550 1550 1543 1543 1543 1536 1536 1536 1536 1529 1529 1523
    1523 1523 1516 1509 1509 1503 1503 1496 1496 1496 1489 1489 1483
    1477 1477 1477 1477 1470 1464 1464 1458 1458 1458 1458 1458 1464
    1477 1477 1483 1489 1496 1496 1496 3300 3300 0 0 0 1594 1579 1579
    1579 1572 1572 1564 1557 1557 1550 1550 1550 1543 1543 1536 1536
    1536 1536 1529 1529 1529 1523 1523 1516 1516 1509 1503 1503 1496
    1496 1496 1489 1489 1483 1477 1477 1477 1470 1470 1464 1464 1458
    1458 1458 1458 1458 1464 1470 1477 1483 1489 1496 1496 1503 1503
    3300 0 0 0 1594 1586 1579 1579 1572 1572 1557 1557 1557 1550 1550
    1550 1543 1543 1536 1536 1536 1536 1529 1529 1529 1523 1523 1523
    1516 1509 1503 1503 1496 1496 1496 1489 1489 1483 1477 1477 1477
    1470 1470 1464 1464 1458 1458 1458 1458 1458 1464 1470 1477 1483
    1489 1496 1496 1503 1503 3300 0 0 0 1594 1586 1579 1579 1572 1572
    1557 1557 1557 1550 1550 1550 1543 1543 1543 1536 1529 1529 1529
    1529 1529 1523 1523 1523 1509 1503 1503 1503 1496 1496 1496 1489
    1483 1477 1477 1477 1477 1470 1470 1464 1464 1458 1452 1452 1458
    1458 1464 1470 1477 1483 1489 1489 1496 1496 1503 1503 0 0 0 0 1594
    1579 1579 1572 1572 1572 1564 1564 1557 1550 1550 1543 1543 1543
    1536 1529 1529 1529 1529 1529 1523 1523 1523 1509 1503 1503 1503
    1503 1496 1496 1489 1483 1477 1477 1477 1477 1470 1470 1470 1464
    1458 1452 1452 1458 1458 1464 1470 1477 1489 1489 1489 1489 1496
    1503 0 0 0 0 0 1586 1579 1579 1572 1572 1572 1564 1564 1557 1550
    1550 1543 1543 1543 1536 1529 1529 1529 1529 1529 1523 1523 1516
    1516 1509 1503 1503 1503 1496 1496 1489 1483 1483 1477 1477 1477
    1470 1470 1470 1464 1458 1458 1458 1458 1458 1464 1470 1477 1483
    1483 1489 1489 1496 1503 1503 0 0 0 0 1586 1579 1579 1579 1572 1572
    1572 1564 1557 1550 1550 1543 1543 1543 1536 1529 1529 1529 1529
    1529 1523 1523 1516 1516 1509 1509 1503 1503 1496 1496 1489 1489
    1483 1477 1477 1477 1470 1470 1470 1464 1458 1458 1458 1452 1452
    1458 1464 1470 1477 1477 1483 1483 1496 1503 1516 0 0 0 0 1586 1586
    1579 1579 1572 1572 1564 1557 1550 1550 1543 1543 1543 1543 1536
    1529 1529 1529 1529 1529 1523 1523 1516 1516 1509 1509 1503 1503
    1496 1496 1496 1489 1483 1477 1477 1470 1470 1470 1470 1464 1464
    1458 1458 1452 1452 1458 1464 1470 1477 1477 1483 1483 1496 1503
    1509 0 0 0 0 1586 1586 1579 1579 1572 1564 1564 1557 1550 1550 1543
    1543 1543 1543 1536 1529 1529 1536 1529 1529 1523 1523 1516 1516
    1516 1509 1503 1503 1496 1496 1496 1489 1483 1477 1477 1470 1470
    1470 1464 1464 1464 1458 1458 1452 1452 1458 1458 1470 1477 1477
    1483 1483 1496 1496 1509 0 0 0 0 1586 1579 1579 1579 1572 1564 1564
    1557 1550 1550 1543 1543 1543 1543 1536 1536 1536 1536 1529 1529
    1523 1523 1516 1516 1516 1509 1503 1503 1496 1496 1496 1489 1483
    1483 1477 1470 1470 1470 1464 1458 1458 1458 1458 1458 1458 1458
    1458 1470 1477 1477 1483 1489 1496 1496 1509 0 0 0 0 0 1579 1579
    1579 1572 1564 1557 1557 1550 1550 1550 1543 1543 1543 1543 1536
    1536 1536 1529 1529 1523 1523 1516 1516 1516 1509 1503 1503 1496
    1496 1496 1489 1483 1483 1477 1477 1470 1470 1464 1458 1458 1458
    1458 1458 1458 1458 1464 1470 1477 1477 1483 1489 1496 1496 1509 0 0
    0 0 0 1586 1579 1579 1564 1564 1557 1557 1557 1550 1550 1550 1543
    1543 1536 1536 1536 1536 1529 1529 1529 1529 1516 1516 1516 1509
    1503 1503 1496 1496 1496 1489 1483 1483 1477 1477 1470 1470 1464
    1464 1464 1458 1458 1458 1458 1458 1464 1470 1477 1477 1483 1489
    1496 1496 1509 0 0 0 0 0 1586 1579 1579 1564 1564 1564 1564 1557
    1557 1550 1543 1543 1543 1536 1536 1536 1536 1529 1529 1529 1523
    1523 1516 1516 1509 1509 1503 1496 1496 1496 1489 1489 1489 1483
    1477 1470 1470 1464 1464 1464 1458 1458 1458 1458 1458 1458 1464
    1470 1477 1483 1489 1489 1496 1509 0 0 0 0 0 1586 1586 1579 1572
    1564 1564 1564 1557 1557 1550 1543 1543 1543 1536 1529 1529 1536
    1529 1529 1529 1523 1523 1516 1516 1509 1509 1503 1503 1496 1496
    1489 1489 1489 1483 1477 1470 1470 1470 1464 1464 1458 1458 1458
    1452 1452 1458 1464 1470 1477 1483 1483 1489 1496 1509 0 0 0 0 0
    1586 1586 1579 1572 1572 1572 1564 1550 1550 1550 1543 1543 1536
    1536 1529 1529 1536 1536 1529 1529 1523 1523 1516 1516 1509 1503
    1503 1503 1496 1496 1489 1489 1489 1483 1477 1470 1470 1470 1464
    1464 1458 1458 1458 1452 1452 1458 1470 1477 1477 1483 1483 1489
    1496 1509 0 0 0 0 0 1586 1579 1579 1572 1572 1564 1564 1550 1550
    1550 1543 1543 1536 1536 1536 1536 1536 1529 1529 1523 1523 1523
    1516 1516 1509 1503 1503 1503 1496 1496 1489 1489 1489 1477 1477
    1477 1470 1470 1470 1464 1464 1458 1458 1458 1458 1458 1458 1470
    1477 1477 1483 1489 1496 1509 0 0 0 0 0 0 1579 1579 1572 1572 1564
    1564 1557 1550 1550 1550 1543 1543 1536 1536 1536 1536 1529 1529
    1523 1523 1523 1516 1509 1509 1503 1503 1503 1496 1496 1489 1489
    1489 1477 1477 1477 1470 1470 1470 1464 1464 1458 1458 1452 1452
    1458 1458 1470 1477 1477 1477 1489 1496 1503</data></Depth7343>
</opencv_storage>
