<?xml version="1.0"?>
<opencv_storage>
<Depth17690 type_id="opencv-matrix">
  <rows>96</rows>
  <cols>61</cols>
  <dt>w</dt>
  <data>
    3539 3539 3539 3539 3576 3576 3576 3539 3539 3539 1365 1354 1349
    1349 1349 1349 1349 1349 1328 3433 3433 3365 3365 3399 3433 3468
    3468 3433 3399 3399 3399 3399 3365 3365 3399 3399 3399 3399 3399
    3399 3399 3399 3399 3399 3365 3365 3365 3365 3333 3300 3300 3300
    3300 3300 3300 3300 3300 3300 3300 3269 3269 3539 3539 3539 3539
    3539 3539 3539 1370 1365 1365 1365 1354 1349 1349 1343 1343 1338
    1333 1328 1328 1322 1322 3365 3365 3503 3503 3503 3468 3433 3399
    3399 3399 3365 3365 3399 3399 3399 3399 3399 3399 3399 3399 3399
    3399 3399 3399 3365 3365 3333 3300 3300 3300 3300 3300 3300 3300
    3300 3300 3300 3269 3269 3539 3539 3539 3539 3539 3539 0 1370 1370
    1365 1365 1354 1349 1349 1343 1338 1333 1333 1328 1328 1322 1312
    1307 1307 1307 1307 1307 1288 1288 1288 1288 1283 1255 1255 1255
    1255 3399 3399 3399 3399 3399 3399 3399 3399 3399 3399 3399 3365
    3333 3300 3300 3300 3300 3300 3300 3300 3300 3300 3269 3269 3269
    3539 3539 3539 3468 3468 3468 0 1370 1370 1370 1370 1354 1349 1349
    1343 1338 1333 1333 1328 1328 1322 1312 1307 1307 1302 1292 1288
    1288 1288 1288 1288 1283 1278 1255 1255 1255 1278 1278 3433 3433
    3433 3433 3399 3399 3399 3399 3365 3333 3300 3300 3300 3333 3333
    3333 3300 3300 3300 3300 3269 3269 3269 3576 3539 3539 3468 3468
    3468 0 1370 1370 1370 1370 1354 1349 1343 1338 1333 1333 1328 1328
    1328 1317 1312 1307 1307 1302 1292 1288 1288 1283 1283 1288 1283
    1278 1273 1268 1268 1268 1264 1259 1259 3539 3468 3433 3399 3365
    3365 3365 3300 3300 3300 3300 3333 3300 3300 3300 3300 3300 3300
    3300 3269 3269 3576 3576 3539 3468 3468 0 0 0 1376 1376 1370 1354
    1349 1343 1338 1333 1333 1328 1328 1328 1317 1312 1307 1307 1297
    1288 1288 1283 1278 1278 1283 1278 1278 1273 1268 1268 1264 1259
    1255 1245 1241 1241 1232 1232 3365 3365 3365 3300 3300 3300 3300
    3333 3300 3300 3333 3300 3300 3300 3300 3269 3269 3539 3539 3539
    3539 3539 3539 0 1376 1376 1376 1370 1354 1349 1343 1338 1333 1333
    1328 1328 1322 1317 1312 1307 1302 1292 1288 1288 1283 1273 1273
    1273 1273 1273 1268 1264 1259 1259 1255 1245 1241 1241 1236 1232
    1227 1223 1219 1219 1219 1219 1219 1219 1219 3365 3365 3365 3365
    3365 3365 1259 1259 3269 3539 3539 3539 3539 3539 3539 0 1376 1376
    1376 1370 1359 1354 1349 1343 1338 1333 1328 1328 1317 1317 1307
    1307 1297 1292 1288 1288 1283 1273 1273 1273 1273 1273 1268 1264
    1259 1255 1245 1241 1241 1236 1232 1223 1223 1223 1219 1219 1219
    1210 1210 1219 1219 1227 1236 1259 1259 1259 1259 1259 1259 1241
    3539 3539 3539 3539 3539 0 0 1376 1376 1376 1370 1359 1354 1349 1343
    1333 1328 1328 1322 1317 1317 1307 1292 1292 1292 1288 1288 1283
    1273 1273 1273 1273 1273 1268 1264 1259 1255 1241 1241 1236 1236
    1227 1223 1223 1223 1219 1214 1210 1210 1210 1214 1219 1227 1236
    1255 1255 1259 1259 1255 1241 1241 3539 3539 3539 3539 3539 0 1392
    1392 1376 1376 1370 1359 1354 1349 1343 1333 1328 1328 1322 1317
    1312 1307 1292 1292 1292 1288 1288 1283 1273 1273 1273 1273 1273
    1268 1264 1259 1250 1241 1241 1236 1236 1227 1223 1223 1219 1219
    1210 1206 1206 1206 1214 1219 1227 1227 1241 1255 1255 1259 1255
    1241 1241 3539 3539 3539 3539 3539 0 1392 1392 1376 1370 1365 1354
    1354 1349 1343 1333 1333 1328 1322 1317 1312 1307 1292 1292 1292
    1288 1288 1283 1273 1273 1273 1273 1273 1264 1259 1259 1250 1241
    1241 1236 1232 1227 1223 1223 1219 1214 1210 1206 1206 1206 1214
    1219 1223 1227 1236 1250 1255 1259 1255 1250 1250 3539 3539 3503
    3503 3503 0 1392 1392 1376 1370 1354 1354 1354 1349 1343 1338 1333
    1328 1322 1317 1312 1307 1307 1297 1292 1288 1288 1283 1278 1278
    1278 1273 1268 1264 1259 1255 1250 1241 1241 1236 1232 1223 1223
    1219 1219 1214 1210 1206 1206 1206 1214 1219 1223 1232 1236 1245
    1255 1255 1255 1255 1255 3539 3539 3503 3503 3503 0 1376 1376 1376
    1370 1354 1354 1354 1349 1343 1338 1333 1328 1322 1317 1312 1312
    1307 1297 1292 1292 1288 1283 1278 1278 1273 1268 1268 1264 1259
    1255 1250 1245 1241 1236 1232 1223 1223 1219 1219 1214 1210 1206
    1206 1210 1214 1219 1223 1236 1241 1245 1255 1255 1259 1264 1264
    3539 3539 3539 0 0 0 0 0 1376 1370 1359 1354 1349 1349 1343 1338
    1333 1333 1322 1317 1312 1312 1307 1297 1292 1288 1288 1283 1278
    1278 1273 1268 1268 1264 1259 1255 1250 1245 1241 1236 1232 1227
    1223 1219 1219 1214 1210 1206 1206 1210 1214 1227 1227 1236 1241
    1250 1255 1259 1259 1268 1268 3539 3539 3539 0 0 0 0 1381 1376 1370
    1359 1354 1349 1349 1343 1333 1333 1328 1328 1317 1312 1312 1307
    1302 1292 1288 1288 1283 1273 1273 1273 1268 1268 1264 1259 1255
    1250 1241 1241 1236 1232 1227 1223 1219 1214 1210 1210 1210 1210
    1214 1214 1227 1227 1236 1241 1250 1255 1259 1259 1268 1268 3539
    3539 3539 0 0 0 0 1381 1376 1370 1359 1354 1349 1349 1338 1333 1333
    1328 1328 1317 1312 1307 1307 1297 1292 1288 1283 1278 1273 1273
    1273 1268 1264 1259 1259 1255 1250 1241 1236 1236 1232 1227 1223
    1219 1214 1210 1210 1210 1210 1214 1219 1223 1227 1236 1241 1250
    1255 1259 1259 1268 1268 3539 3539 3539 0 0 0 0 1381 1376 1370 1354
    1354 1349 1349 1338 1333 1333 1328 1328 1322 1312 1307 1307 1297
    1292 1288 1283 1278 1273 1273 1273 1268 1264 1259 1259 1255 1245
    1241 1236 1232 1232 1227 1223 1223 1219 1210 1210 1210 1210 1214
    1219 1223 1227 1236 1245 1250 1255 1259 1264 1268 0 3539 3539 0 0 0
    0 0 1381 1381 1376 1354 1354 1349 1349 1343 1333 1333 1328 1328 1322
    1312 1307 1302 1292 1292 1288 1283 1278 1273 1273 1273 1268 1264
    1259 1259 1250 1245 1241 1236 1232 1232 1227 1223 1223 1219 1214
    1210 1210 1210 1214 1219 1223 1232 1241 1250 1255 1255 1259 1259
    1259 0 3539 3539 0 0 0 0 0 1376 1376 1365 1359 1354 1349 1349 1343
    1338 1333 1328 1322 1322 1312 1307 1302 1292 1292 1288 1283 1278
    1273 1273 1273 1268 1264 1259 1259 1250 1245 1241 1236 1232 1227
    1227 1223 1219 1214 1210 1210 1210 1210 1214 1223 1223 1232 1241
    1250 1255 1255 1259 1259 1259 0 3539 3539 0 0 0 0 0 1376 1376 1365
    1359 1354 1349 1349 1338 1338 1333 1328 1322 1317 1312 1312 1302
    1297 1292 1288 1283 1283 1278 1278 1273 1268 1264 1259 1259 1250
    1245 1241 1236 1232 1227 1223 1219 1219 1214 1210 1210 1210 1210
    1214 1223 1227 1236 1241 1245 1255 1255 1259 1264 1264 3300 3539
    3539 0 0 0 0 0 1376 1376 1365 1354 1354 1349 1343 1338 1333 1333
    1328 1322 1317 1312 1312 1302 1297 1292 1288 1283 1278 1278 1278
    1273 1268 1264 1259 1259 1250 1245 1241 1236 1232 1227 1223 1219
    1219 1214 1210 1210 1210 1210 1214 1227 1232 1236 1241 1245 1255
    1255 1259 1259 1259 3269 3539 3539 0 0 0 0 0 1376 1376 1365 1354
    1354 1349 1343 1338 1333 1328 1328 1322 1317 1312 1312 1302 1297
    1292 1288 1283 1278 1273 1273 1273 1268 1264 1259 1259 1250 1245
    1241 1236 1232 1227 1227 1223 1219 1214 1210 1210 1210 1210 1214
    1227 1232 1236 1245 1245 1255 1255 1259 1259 0 3269 3539 3539 0 0 0
    0 0 1376 1376 1365 1354 1354 1349 1343 1338 1333 1328 1328 1322 1317
    1312 1307 1302 1297 1292 1288 1283 1278 1273 1273 1273 1268 1264
    1259 1259 1250 1245 1241 1236 1232 1227 1227 1223 1219 1214 1210
    1210 1210 1210 1214 1232 1236 1236 1245 1245 1255 1259 1259 1259 0
    3300 3539 3539 0 0 0 0 1381 1376 1370 1365 1354 1349 1349 1343 1338
    1333 1328 1328 1322 1317 1312 1307 1302 1297 1292 1288 1283 1278
    1273 1273 1273 1268 1264 1259 1255 1250 1241 1241 1236 1232 1232
    1227 1223 1219 1214 1210 1210 1210 1210 1219 1236 1236 1241 1245
    1250 1255 1259 1259 1259 0 3300 3503 3503 0 0 0 0 1381 1376 1370
    1365 1354 1349 1349 1343 1338 1333 1328 1322 1322 1317 1312 1307
    1302 1297 1292 1288 1283 1278 1273 1273 1273 1273 1264 1259 1255
    1245 1241 1241 1236 1232 1227 1223 1219 1219 1214 1210 1210 1210
    1210 1219 1236 1236 1241 1245 1255 1255 1259 1259 0 0 0 3503 3503 0
    0 0 0 1381 1376 1365 1359 1354 1349 1349 1343 1338 1333 1328 1322
    1317 1312 1312 1307 1297 1292 1288 1288 1283 1273 1273 1273 1273
    1268 1264 1259 1255 1245 1241 1236 1236 1232 1227 1223 1219 1214
    1210 1210 1210 1210 1214 1232 1232 1236 1236 1245 1255 1255 1259
    1259 0 0 0 3576 0 0 0 0 0 1381 1376 1365 1359 1354 1349 1349 1343
    1338 1333 1328 1322 1317 1312 1307 1302 1297 1292 1288 1288 1283
    1273 1273 1273 1273 1268 1264 1259 1250 1245 1241 1236 1236 1232
    1227 1223 1219 1214 1210 1210 1210 1210 1214 1232 1232 1236 1236
    1250 1255 1255 1259 1259 1259 0 3300 3576 0 0 0 0 0 1381 1376 1365
    1359 1354 1349 1349 1343 1338 1333 1328 1322 1317 1312 1307 1302
    1297 1292 1288 1288 1283 1278 1273 1273 1273 1264 1259 1255 1250
    1245 1241 1236 1236 1232 1227 1223 1219 1214 1210 1210 1210 1214
    1219 1232 1232 1236 1241 1255 1255 1259 1259 1264 1264 0 3300 3576 0
    0 0 0 0 1381 1376 1365 1359 1354 1354 1349 1343 1338 1333 1328 1322
    1317 1312 1307 1302 1292 1292 1288 1288 1283 1278 1273 1273 1268
    1264 1259 1255 1250 1245 1241 1236 1236 1232 1223 1223 1219 1214
    1210 1210 1214 1214 1219 1227 1232 1236 1241 1255 1259 1259 1259
    1264 1264 0 3300 3614 0 0 0 0 1370 1370 1370 1365 1359 1354 1354
    1349 1343 1338 1333 1328 1322 1317 1312 1307 1302 1292 1292 1288
    1288 1283 1278 1273 1273 1268 1264 1259 1255 1250 1245 1241 1236
    1232 1232 1223 1223 1219 1214 1210 1210 1214 1214 1219 1227 1232
    1236 1241 1255 1259 1259 1259 1264 1264 3269 3269 3614 0 0 0 0 1370
    1370 1370 1365 1359 1354 1349 1349 1343 1338 1333 1322 1322 1317
    1312 1307 1302 1297 1292 1292 1288 1283 1278 1273 1273 1268 1264
    1259 1255 1250 1245 1241 1236 1232 1227 1223 1223 1219 1214 1210
    1210 1214 1214 1219 1227 1232 1241 1245 1255 1259 1259 1264 1268
    1268 3269 3269 3576 0 0 0 0 1376 1376 1370 1365 1359 1354 1349 1343
    1343 1333 1333 1322 1322 1317 1312 1307 1302 1297 1292 1292 1288
    1283 1278 1273 1273 1268 1259 1259 1255 1250 1241 1241 1236 1232
    1227 1223 1219 1219 1214 1210 1210 1214 1219 1227 1232 1236 1241
    1245 1255 1259 1259 1264 1264 1264 3269 3269 3539 0 0 0 1381 1381
    1376 1370 1365 1354 1349 1349 1343 1343 1333 1328 1322 1322 1317
    1312 1307 1302 1297 1292 1292 1288 1283 1278 1273 1273 1268 1259
    1259 1255 1250 1241 1236 1236 1232 1227 1223 1219 1219 1214 1214
    1214 1214 1219 1227 1232 1236 1245 1245 1255 1259 1259 1259 1259 0
    3238 3238 3539 0 0 0 0 1381 1376 1370 1365 1354 1349 1349 1343 1343
    1333 1328 1328 1322 1322 1312 1307 1302 1297 1292 1292 1288 1283
    1278 1273 1273 1268 1259 1259 1250 1250 1241 1236 1236 1232 1227
    1223 1219 1219 1214 1214 1214 1219 1219 1227 1232 1241 1245 1245
    1255 1255 1259 1259 1259 0 3238 3238 3576 3576 0 1381 1387 1387 1381
    1370 1359 1354 1349 1349 1343 1338 1333 1333 1328 1328 1317 1312
    1307 1302 1297 1292 1288 1288 1278 1273 1268 1268 1268 1259 1259
    1250 1245 1241 1236 1236 1232 1227 1223 1219 1214 1214 1214 1214
    1219 1219 1227 1232 1241 1241 1245 1255 1255 1259 1259 1259 0 3269
    3269 3614 3614 0 1381 1381 1381 1376 1370 1359 1359 1354 1349 1343
    1338 1333 1333 1328 1322 1317 1307 1307 1302 1297 1292 1288 1283
    1278 1273 1268 1268 1268 1264 1255 1250 1245 1241 1236 1236 1236
    1227 1223 1219 1214 1214 1214 1214 1219 1219 1227 1232 1241 1241
    1250 1255 1255 1255 1255 1255 0 3300 3300 3614 3614 0 1376 1376 1376
    1376 1370 1365 1359 1354 1349 1349 1343 1333 1333 1328 1322 1317
    1307 1307 1302 1297 1292 1288 1283 1278 1273 1268 1268 1268 1259
    1255 1250 1245 1241 1236 1236 1232 1227 1223 1219 1214 1214 1214
    1219 1219 1219 1227 1232 1241 1241 1250 1255 1255 1255 1255 1255 0
    3300 3300 3614 3614 1398 1376 1376 1376 1370 1370 1359 1354 1354
    1349 1349 1338 1333 1333 1328 1322 1312 1307 1307 1302 1297 1292
    1288 1278 1278 1273 1273 1273 1268 1259 1255 1250 1245 1241 1236
    1236 1232 1227 1223 1219 1214 1214 1214 1219 1219 1223 1227 1232
    1241 1245 1250 1255 1259 1259 1259 1259 0 3300 3300 3614 0 1398 1398
    1376 1376 1370 1365 1359 1354 1354 1349 1349 1338 1333 1328 1328
    1322 1312 1307 1307 1302 1297 1292 1288 1278 1278 1273 1273 1273
    1268 1259 1255 1250 1245 1241 1236 1236 1232 1223 1223 1219 1214
    1214 1214 1219 1219 1223 1232 1236 1241 1245 1250 1255 1259 1264
    1264 1264 3238 3269 3269 3653 0 1398 1398 1381 1381 1370 1365 1359
    1354 1354 1349 1343 1338 1333 1328 1328 1322 1312 1307 1307 1302
    1297 1292 1288 1283 1278 1273 1268 1268 1268 1259 1255 1250 1245
    1241 1236 1236 1232 1223 1223 1219 1214 1214 1214 1219 1219 1227
    1236 1236 1241 1245 1250 1255 1259 1264 1268 1268 3238 3238 3238
    3653 3653 1398 1398 1381 1376 1370 1365 1359 1354 1354 1349 1343
    1338 1333 1328 1322 1322 1312 1307 1307 1297 1292 1292 1288 1283
    1278 1273 1268 1268 1264 1259 1255 1250 1245 1241 1236 1236 1232
    1223 1223 1219 1219 1214 1214 1214 1214 1227 1236 1236 1241 1245
    1250 1255 1264 1268 1268 1268 3238 3238 3238 3576 0 1376 1376 1376
    1370 1365 1365 1359 1354 1349 1349 1338 1338 1333 1328 1322 1322
    1312 1307 1302 1297 1292 1292 1288 1283 1283 1273 1268 1268 1264
    1255 1255 1250 1245 1241 1236 1236 1227 1223 1223 1219 1214 1214
    1214 1214 1214 1232 1236 1241 1241 1245 1250 1255 1264 1268 1268
    1273 3238 3238 3238 3503 0 0 1376 1376 1370 1365 1359 1354 1354 1349
    1349 1338 1338 1333 1328 1322 1317 1307 1307 1302 1297 1292 1292
    1288 1283 1278 1273 1268 1268 1264 1255 1255 1250 1245 1241 1236
    1232 1227 1223 1223 1219 1214 1210 1210 1214 1219 1232 1236 1241
    1245 1245 1255 1259 1264 1268 1273 1273 3238 3238 3238 3503 0 0 0
    1376 1370 1365 1359 1354 1354 1349 1349 1343 1338 1333 1328 1322
    1317 1307 1307 1302 1297 1292 1288 1283 1278 1273 1273 1268 1268
    1259 1255 1255 1250 1245 1241 1236 1232 1227 1223 1223 1219 1210
    1210 1210 1214 1223 1232 1236 1241 1245 1245 1255 1259 1268 1268
    1273 1273 3269 3269 3269 3539 0 0 1387 1387 1370 1365 1359 1354 1354
    1349 1349 1343 1338 1333 1333 1328 1322 1312 1307 1302 1292 1292
    1288 1283 1278 1273 1273 1268 1268 1259 1255 1255 1250 1245 1241
    1236 1232 1227 1223 1219 1219 1210 1210 1210 1214 1223 1232 1236
    1241 1245 1250 1255 1259 1268 1268 1268 1268 3269 3269 3269 3614 0 0
    1392 1387 1370 1365 1359 1354 1354 1349 1349 1343 1338 1333 1328
    1322 1317 1312 1307 1302 1292 1288 1288 1283 1278 1273 1268 1264
    1264 1259 1255 1255 1250 1245 1241 1236 1232 1227 1223 1219 1219
    1214 1214 1214 1219 1223 1232 1236 1241 1245 1250 1259 1259 1268
    1268 1268 0 3269 3269 3269 0 0 1392 1392 1387 1376 1365 1359 1354
    1354 1349 1349 1343 1338 1333 1328 1322 1312 1307 1307 1297 1292
    1288 1288 1283 1278 1273 1268 1264 1264 1259 1259 1255 1245 1241
    1241 1236 1232 1227 1223 1219 1214 1214 1214 1219 1219 1223 1232
    1236 1241 1245 1255 1259 1259 1264 1268 1268 0 3300 3300 3300 0 0
    1392 1392 1376 1370 1365 1359 1354 1354 1349 1349 1343 1333 1333
    1328 1322 1312 1307 1307 1297 1292 1292 1288 1288 1283 1273 1273
    1264 1264 1259 1259 1255 1245 1241 1241 1236 1232 1227 1223 1219
    1214 1214 1214 1219 1223 1227 1232 1236 1241 1250 1255 1259 1259
    1264 1268 1268 3300 3300 3300 3300 0 0 1387 1387 1376 1370 1365 1359
    1354 1354 1349 1349 1338 1333 1333 1328 1322 1307 1307 1307 1297
    1292 1292 1288 1288 1283 1273 1273 1268 1268 1259 1259 1255 1250
    1241 1241 1236 1236 1232 1223 1219 1219 1214 1214 1219 1223 1232
    1236 1236 1241 1250 1255 1259 1259 1268 1268 1268 3300 3300 3300
    3300 0 0 1387 1387 1376 1370 1370 1365 1354 1354 1349 1343 1338 1333
    1333 1328 1322 1307 1307 1307 1297 1292 1292 1288 1283 1283 1273
    1268 1268 1268 1259 1255 1255 1250 1245 1241 1236 1236 1232 1223
    1219 1214 1214 1214 1219 1227 1232 1236 1241 1241 1250 1255 1259
    1259 1264 1268 1268 3300 3300 3300 3300 0 0 1392 1392 1376 1370 1370
    1365 1359 1354 1349 1343 1338 1333 1333 1328 1322 1312 1307 1307
    1297 1292 1292 1288 1283 1278 1273 1268 1264 1264 1259 1255 1255
    1250 1245 1241 1236 1236 1227 1223 1219 1214 1214 1214 1219 1227
    1236 1236 1241 1245 1255 1255 1259 1264 1264 1268 1268 3300 3300
    3300 3300 0 0 1392 1392 1376 1370 1370 1365 1354 1354 1349 1343 1338
    1333 1333 1328 1322 1312 1312 1307 1302 1297 1292 1288 1283 1278
    1273 1268 1264 1264 1259 1255 1255 1245 1241 1241 1236 1236 1227
    1223 1219 1214 1214 1219 1219 1227 1236 1236 1241 1250 1255 1259
    1264 1268 1268 1268 1268 3300 3300 3300 3269 0 1392 1392 1392 1376
    1376 1370 1359 1354 1354 1349 1343 1338 1333 1333 1328 1322 1312
    1312 1307 1302 1297 1292 1288 1283 1278 1273 1268 1264 1264 1259
    1255 1255 1245 1241 1241 1236 1232 1223 1223 1219 1214 1214 1219
    1219 1232 1236 1236 1241 1245 1255 1259 1264 1268 1268 1268 1268
    3269 3269 3269 3269 0 1381 1381 1381 1376 1370 1365 1359 1354 1354
    1349 1343 1338 1333 1333 1328 1317 1312 1312 1307 1302 1297 1292
    1288 1283 1278 1273 1268 1264 1259 1259 1255 1255 1245 1241 1241
    1236 1232 1223 1223 1219 1214 1214 1219 1219 1232 1232 1236 1245
    1245 1255 1259 1264 1268 1268 1268 0 3269 3269 3269 3269 0 0 1381
    1381 1376 1370 1359 1359 1354 1354 1349 1343 1338 1333 1333 1328
    1317 1312 1312 1307 1302 1297 1292 1288 1288 1283 1273 1268 1264
    1259 1259 1255 1250 1241 1241 1241 1236 1232 1223 1219 1219 1214
    1214 1219 1223 1232 1232 1236 1241 1250 1255 1259 1264 1273 1273
    1273 0 3269 3269 3269 3269 3653 1376 1376 1376 1376 1370 1359 1359
    1354 1354 1349 1349 1338 1333 1333 1328 1322 1317 1312 1307 1302
    1297 1292 1288 1288 1278 1273 1268 1264 1259 1259 1255 1250 1241
    1241 1241 1236 1232 1223 1219 1219 1214 1214 1219 1227 1232 1232
    1236 1241 1255 1255 1259 1264 1273 1273 1273 3269 3269 3269 3269
    3269 3653 1376 1376 1376 1376 1370 1365 1359 1354 1354 1349 1349
    1338 1333 1328 1328 1317 1312 1312 1307 1302 1297 1292 1288 1283
    1273 1273 1268 1268 1259 1259 1255 1250 1241 1241 1241 1236 1232
    1223 1219 1219 1214 1214 1219 1227 1232 1232 1236 1245 1255 1255
    1259 1264 1268 1268 1268 3269 3269 3269 3269 3269 3653 1381 1381
    1381 1376 1370 1365 1359 1354 1354 1349 1343 1338 1333 1328 1328
    1317 1312 1307 1302 1302 1292 1292 1288 1278 1273 1273 1268 1264
    1259 1255 1255 1250 1245 1241 1241 1236 1232 1223 1219 1219 1219
    1219 1219 1227 1232 1236 1241 1245 1255 1259 1259 1264 1268 1268 0
    3300 3300 3300 3269 3269 1387 1387 1387 1376 1376 1370 1370 1359
    1354 1349 1349 1343 1338 1333 1328 1322 1312 1312 1307 1302 1297
    1292 1292 1288 1278 1273 1273 1268 1264 1259 1255 1255 1250 1245
    1241 1241 1236 1232 1223 1219 1219 1219 1219 1219 1227 1232 1236
    1241 1250 1255 1259 1259 1264 1264 1264 0 3300 3300 3300 3269 3269
    1387 1387 1381 1376 1376 1370 1365 1359 1354 1349 1349 1343 1338
    1333 1328 1317 1312 1312 1307 1302 1292 1292 1288 1288 1278 1273
    1273 1268 1264 1259 1259 1255 1250 1245 1241 1236 1236 1232 1223
    1219 1219 1219 1219 1219 1227 1236 1241 1241 1245 1255 1259 1259
    1264 1264 1264 0 3300 3300 3300 3300 3269 1387 1387 1381 1376 1370
    1370 1365 1354 1354 1349 1349 1343 1338 1333 1328 1317 1312 1312
    1307 1297 1292 1292 1288 1288 1278 1278 1273 1268 1264 1259 1259
    1255 1250 1245 1241 1236 1236 1227 1223 1219 1219 1219 1219 1223
    1227 1236 1241 1245 1245 1255 1259 1264 1264 1264 1264 3269 3300
    3300 3269 3269 3269 1392 1387 1381 1376 1370 1370 1365 1354 1354
    1349 1349 1343 1333 1333 1328 1322 1312 1312 1307 1297 1292 1288
    1288 1288 1278 1278 1273 1268 1264 1259 1259 1255 1250 1245 1241
    1236 1232 1227 1223 1219 1219 1219 1219 1223 1232 1236 1241 1245
    1250 1259 1259 1264 1268 1273 1273 3269 3269 3269 3269 3269 3269
    1392 1392 1381 1376 1370 1365 1359 1354 1354 1349 1349 1338 1333
    1333 1328 1322 1317 1312 1307 1297 1292 1288 1288 1283 1278 1273
    1273 1268 1264 1259 1255 1255 1250 1245 1241 1236 1232 1227 1223
    1219 1219 1219 1219 1227 1232 1236 1241 1245 1250 1259 1264 1264
    1268 1268 0 3238 3238 3238 3269 3269 3238 1392 1392 1387 1381 1370
    1365 1359 1354 1354 1349 1349 1338 1333 1333 1322 1317 1312 1312
    1307 1302 1292 1288 1288 1283 1278 1273 1268 1264 1264 1259 1255
    1255 1245 1241 1241 1236 1232 1227 1223 1219 1219 1219 1223 1227
    1236 1241 1245 1245 1255 1259 1264 1268 1268 1268 0 3238 3238 3238
    3269 3238 3238 1392 1392 1387 1381 1370 1365 1359 1354 1354 1349
    1349 1338 1333 1328 1322 1317 1312 1312 1307 1302 1297 1292 1288
    1283 1278 1273 1268 1264 1264 1259 1255 1255 1245 1241 1236 1236
    1232 1227 1223 1219 1219 1219 1223 1232 1236 1241 1245 1245 1255
    1259 1264 1268 1273 1273 0 3238 3238 3238 3238 3238 3238 1398 1392
    1387 1376 1370 1365 1359 1354 1354 1349 1343 1338 1333 1328 1322
    1317 1312 1312 1307 1302 1297 1288 1288 1283 1278 1273 1268 1264
    1264 1259 1259 1250 1245 1241 1236 1236 1232 1227 1223 1219 1219
    1223 1223 1232 1236 1241 1245 1245 1255 1259 1264 1268 1273 1273
    3269 3269 3238 3238 3238 3208 3208 1392 1387 1376 1376 1370 1365
    1359 1354 1354 1349 1343 1338 1333 1328 1322 1317 1312 1312 1307
    1302 1292 1288 1288 1283 1278 1273 1273 1264 1264 1259 1255 1250
    1245 1241 1236 1232 1227 1223 1223 1219 1219 1223 1223 1236 1236
    1241 1245 1245 1255 1259 1264 1273 1273 1273 3269 3269 3269 3269
    3238 3208 3208 1392 1381 1376 1376 1370 1370 1365 1359 1354 1349
    1343 1338 1333 1328 1322 1322 1312 1312 1307 1297 1292 1288 1288
    1283 1278 1273 1273 1264 1264 1259 1255 1250 1245 1241 1236 1232
    1223 1223 1223 1219 1219 1223 1227 1236 1236 1241 1245 1250 1255
    1259 1268 1273 1273 0 3300 3300 3269 3269 3238 3238 3238 1381 1381
    1381 1370 1370 1370 1365 1359 1354 1349 1343 1338 1333 1328 1322
    1322 1312 1307 1307 1297 1292 1288 1283 1283 1278 1273 1273 1259
    1259 1259 1255 1250 1245 1241 1236 1232 1223 1223 1219 1219 1219
    1223 1232 1236 1241 1241 1245 1250 1255 1259 1268 1273 1273 0 3300
    3300 3269 3269 3238 3238 3238 3503 3300 3300 1370 1370 1370 1365
    1359 1354 1349 1343 1338 1333 1328 1322 1322 1312 1307 1307 1297
    1292 1288 1283 1283 1278 1273 1268 1259 1259 1259 1255 1250 1245
    1241 1236 1232 1227 1223 1219 1219 1219 1223 1232 1236 1241 1241
    1245 1250 1259 1264 1273 1273 1273 0 3300 3300 3269 3269 3269 3269
    3238 3300 3300 3300 3300 3300 3300 3300 1359 1354 1349 1343 1338
    1328 1328 1322 1317 1312 1307 1302 1297 1292 1288 1288 1283 1278
    1273 1268 1259 1259 1259 1255 1250 1245 1241 1236 1232 1227 1223
    1219 1219 1219 1223 1236 1236 1241 1241 1245 1250 1259 1268 1273
    1273 0 0 0 3269 3269 3269 3269 3269 3269 3300 3300 3300 3269 3269
    3269 3300 3300 1354 1349 1343 1338 1328 1328 1322 1317 1312 1307
    1302 1297 1292 1288 1288 1283 1278 1273 1268 1259 1259 1259 1255
    1250 1245 1241 1236 1232 1227 1223 1219 1219 1219 1223 1236 1236
    1241 1241 1245 1255 1259 1268 1273 1273 0 0 0 3269 3269 3269 3269
    3269 3269 3269 3269 3269 3269 3269 3269 3300 3300 3365 1354 1349
    1338 1333 1328 1322 1317 1312 1307 1302 1297 1292 1288 1288 1283
    1278 1273 1264 1255 1255 1255 1255 1250 1245 1241 1236 1232 1227
    1223 1223 1223 1223 1223 1236 1236 1241 1241 1250 1255 1264 1268
    1273 1273 0 0 0 3269 3269 3269 3269 3269 3269 3269 3269 3269 3269
    3269 3269 3300 3333 3365 3365 3365 3365 1328 1328 1328 1322 1312
    1307 1297 1292 1292 1288 1288 1283 1278 1273 1259 1255 1255 1255
    1255 1250 1245 1236 1236 1232 1227 1223 1223 1223 1223 1227 1236
    1236 1241 1245 1255 1255 1259 1268 1273 1273 0 0 0 3269 3269 3269
    3269 3269 3269 3269 3269 3269 3269 3269 3300 3300 3333 3365 3365
    3365 0 1328 1328 1328 1322 1312 1307 1297 1292 1292 1288 1283 1278
    1273 1273 1259 1255 1255 1255 1255 1250 1245 1236 1236 1232 1227
    1223 1223 1223 1223 1227 1236 1236 1241 1245 1255 1259 1259 1268
    1268 1268 0 0 0 3269 3269 3269 3269 3269 3269 3300 3300 3300 3064
    3064 3300 3300 3365 3365 3365 3365 2958 0 1338 1338 1333 1317 1307
    1297 1292 1292 1288 1283 1278 1273 1273 1259 1259 1259 1255 1250
    1250 1245 1236 1236 1232 1227 1223 1223 1219 1219 1236 1236 1236
    1241 1245 1255 1259 1259 1273 1268 1268 0 0 0 3238 3238 3269 3269
    3238 3238 3333 3333 2984 2984 2984 2958 2933 2933 2933 2933 2958
    2958 2933 1338 1338 1333 1322 1312 1302 1292 1288 1283 1283 1278
    1273 1273 1264 1259 1259 1255 1250 1245 1241 1236 1232 1232 1223
    1223 1223 1219 1219 1236 1236 1236 1241 1250 1255 1259 1264 1273
    1268 1268 1268 0 3238 3238 3238 3238 3238 3208 3208 3300 2958 2933
    2933 2958 2933 2933 2933 2933 2933 2933 2933 2933 2933 1343 1338
    1333 1328 1302 1292 1288 1278 1278 1278 1273 1273 1264 1259 1259
    1255 1250 1245 1241 1236 1232 1227 1223 1223 1223 1223 1223 1232
    1236 1241 1241 1245 1255 1259 1264 1273 1273 1273 1273 0 3208 3208
    3208 3238 3238 3208 3120 2958 2958 2933 2933 2933 2933 2933 2933
    2933 2933 2933 2933 2933 1338 1338 1338 1333 1328 1328 1328 1273
    1273 1273 1273 1273 1268 1259 1255 1255 1255 1250 1245 1241 1236
    1232 1223 1223 1223 1223 1223 1223 1232 1236 1241 1245 1245 1259
    1259 1264 1273 1273 1273 1273 0 3208 3208 3178 3178 3010 3010 3064
    2958 2933 2933 2933 2933 2933 2933 2933 2933 2958 2958 2933 2933
    1338 1338 1338 1333 1333 1333 1333 1273 1273 1273 1273 1273 1268
    1259 1255 1255 1255 1250 1245 1241 1236 1232 1223 1223 1223 1223
    1223 1223 1232 1236 1241 1245 1245 1259 1259 1264 1268 1273 1273
    1273 3269 3238 3238 3178 3178 3010 3010 3064 2958 2933 2933 2908
    2908 2933 2933 2933 2958 2958 2958 2933 1349 1338 1338 1338 1338
    1338 1381 1387 1381 1376 1376 1376 1376 1268 1259 1255 1255 1250
    1250 1245 1241 1236 1232 1223 1223 1223 1223 1223 1223 1232 1236
    1241 1245 1250 1259 1259 1264 1268 1273 1273 3269 3269 3238 3238
    3208 3208 3064 3064 3120 2958 2933 2933 2908 2908 2908 2933 2933
    2958 2958 2958 2958 1349 1338 1338 1338 1338 1365 1381 1387 1381
    1376 1376 1292 1292 1283 1268 1255 1255 1250 1250 1245 1241 1236
    1232 1223 1223 1223 1223 1223 1227 1232 1236 1241 1245 1250 1259
    1259 1259 3238 3238 3238 3238 3269 3238 3238 3208 3208 3178 3178
    3178 2958 2933 2933 2908 2908 2908 1343 1343 1349 1349 1354 1359
    1354 1343 1343 1349 1359 1359 1376 1376 1376 1370 1370 1292 1292
    1288 1288 1376 1255 1250 1250 1245 1241 1236 1227 1223 1223 1223
    1223 1223 1232 1232 1236 1241 1250 1255 1255 3149 3149 3149 3178
    3178 3208 3208 3269 3238 3238 3208 3178 3178 3178 2958 2933 2908
    2908 2908 2933 1343 1343 1349 1349 1354 1354 1354 1349 1349 1349
    1354 1359 1370 1365 1365 1365 1365 1297 1292 1292 1292 1365 1370
    1370 1338 1333 1333 1333 1227 1223 1223 1223 1223 1223 1232 1232
    1232 2984 2958 2958 2958 2958 2958 3092 3178 3178 3178 3178 3178
    3178 3178 3178 3178 3178 3149 3037 2933 2908 2908 2908 1343 1343
    1343 1343 1343 1343 1343 1333 1333 1338 1343 1349 1349 1349 1349
    1349 1354 1354 1297 1292 1292 1297 1365 1365 1365 1338 1328 1328
    1333 1333 1223 1223 1223 1223 1227 2958 2958 2958 2984 2958 2958
    2958 2958 2958 2984 3037 3120 3149 3149 3149 3149 3178 3178 3178
    3149 3149 2365 2349 2349 2908 2908 1349 1343 1343 1338 1338 1333
    1322 1322 1322 1322 1328 1338 1338 1338 1338 1338 1343 1317 1297
    1292 1292 1297 1354 1359 1354 1338 1328 1328 1338 1338 1338 2958
    2958 1232 1232 2933 2933 2933 2933 2933 2958 2958 2958 2958 2958
    2958 3010 3092 3120 3120 3149 3149 3149 3149 3149 3120 2365 2349
    2349 2365 2365 1349 1343 1338 1333 1328 1328 1317 1317 1312 1312
    1317 1328 1328 1328 1328 1328 1317 1302 1292 1292 1292 1297 1343
    1343 1343 1333 1333 1333 1333 1333 1338 2958 2958 2958 2958 2933
    2933 2933 2933 2933 2933 2933 2933 2933 2933 2933 2933 3010 3064
    3120 3120 3120 3149 3149 3120 3092 2349 2349 2349 2349 1349 1349
    1343 1338 1333 1328 1328 1312 1312 1312 1312 1312 1312 1312 1317
    1317 1317 1307 1302 1292 1292 1292 1297 1312 1328 1333 1328 1328
    1328 1333 1338 1338 1338 2984 2958 2958 2958 2933 2933 2933 2933
    2933 2933 2933 2933 2933 2933 2933 3010 3037 3064 3120 3120 3120
    3120 3120 3092 2317 2317 2349 2349 1349 1349 1343 1338 1333 1328
    1322 1312 1312 1307 1307 1307 1307 1302 1302 1307 1307 1307 1297
    1292 1292 1292 1297 1297 1307 1322 1322 1317 1317 1317 1317 1328
    1322 1322 1322 2984 2958 2933 2933 2933 2933 2933 2933 2933 2933
    2958 2958 2958 3010 3037 3064 3064 3092 3092 3092 3064 3064 2271
    2317 2317 1349 1349 1343 1338 1333 1328 1322 1312 1312 1307 1307
    1307 1302 1297 1292 1292 1292 1292 1292 1292 1292 1292 1292 1292
    1297 1297 1297 1312 1312 1312 1312 1312 1312 1317 1317 1317 1328
    1333 2933 2933 2933 2933 2933 2933 2933 2933 2958 2984 3010 3037
    3037 3064 3064 3064 3064 3064 3037 3037 2271 2271 2286 2286 1349
    1343 1338 1333 1328 1322 1312 1307 1307 1307 1302 1297 1292 1288
    1288 1288 1283 1283 1283 1283 1283 1288 1288 1288 1288 1292 1292
    1302 1302 1302 1307 1307 1312 1312 1317 1328 1333 1338 1338 2933
    2933 2958 2933 2933 2933 2933 2958 3010 3010 3037 3064 3064 3037
    3037 3037 3037 3037 2271 2271 2286 2286 1349 1343 1338 1333 1328
    1322 1312 1307 1307 1307 1302 1297 1288 1283 1283 1283 1278 1273
    1273 1273 1273 1278 1278 1278 1278 1288 1288 1292 1297 1297 1302
    1302 1312 1312 1317 1322 1328 1333 1333 2958 2958 2958 2933 2933
    2933 2933 2958 2984 2984 2984 3010 3010 3010 3010 3010 3010 3010
    2271 2271 2286 2286 1349 1338 1333 1328 1328 1322 1312 1312 1307
    1302 1302 1297 1288 1283 1278 1273 1273 1268 1268 1264 1264 1268
    1268 1273 1273 1278 1283 1292 1297 1297 1302 1302 1312 1312 1317
    1322 1328 1333 1333 2984 2958 2958 2933 2933 2933 2933 2933 2933
    2933 2958 2958 2958 2958 2984 2984 2984 2984 2271 2271 2286 2271
    2271 1338 1333 1328 1328 1322 1312 1312 1307 1302 1297 1292 1283
    1278 1273 1273 1273 1268 1268 1259 1259 1264 1264 1268 1273 1278
    1283 1292 1297 1297 1297 1307 1312 1312 1317 1328 1328 1328 2984
    2984 2958 2933 2933 2933 2933 2933 2933 2933 2933 2933 2933 2958
    2958 2984 2958 2958 2958 2286 2286 2286 2271 2271 2271 1333 1328
    1328 1322 1317 1312 1307 1297 1292 1292 1283 1278 1273 1273 1268
    1268 1264 1255 1255 1255 1255 1264 1268 1273 1278 1288 1297 1297
    1297 1302 1312 1317 1322 1322 1328 1328 0 0 2908 2908 2908 2908 2908
    2933 2933 2908 2908 2908 2933 2933 2933 2933 2933 2958 2958 2286
    2286 2286 2271 2271 2271 2271 1333 1333 1322 1312 1307 1302 1292
    1292 1288 1288 1283 1273 1273 1268 1264 1264 1255 1255 1255 1255
    1264 1268 1273 1278 1288 1297 1297 1297 1302 1312 1317 1322 1322
    1328 0 0 0 2908 2883 2883 2883 2883 2883 2908 2883 2883 2883 2883
    2883 2883 2883 2908 2933 2933</data></Depth17690>
</opencv_storage>
