<?xml version="1.0"?>
<opencv_storage>
<Depth16098 type_id="opencv-matrix">
  <rows>85</rows>
  <cols>39</cols>
  <dt>w</dt>
  <data>
    5210 5210 5210 5210 5210 5210 5132 5132 5210 1496 1489 1489 1489
    1489 5210 1427 1421 1421 1415 1415 1421 1421 1421 1421 1445 1483
    1483 1483 1496 1536 1536 1536 1557 1557 1564 1579 1594 1601 1601
    5210 5210 5132 5132 5210 5210 5132 1458 1458 1464 1470 1477 1489
    1489 1427 1421 1421 1421 1421 1421 1421 1421 1421 1421 1445 1483
    1483 1483 1496 1496 1509 1529 1550 1550 1564 1579 1594 1601 1601
    5210 5210 1452 1452 1452 1452 1452 1452 1452 1452 1445 1445 1445
    1427 1421 1421 1421 1415 1415 1415 1415 1421 1421 1421 1445 1477
    1477 1483 1489 1496 1503 1516 1523 1536 1550 1572 1594 1594 1594
    5210 1452 1452 1452 1445 1445 1445 1445 1445 1439 1439 1427 1421
    1421 1421 1421 1415 1415 1415 1415 1415 1415 1421 1421 1439 1452
    1470 1477 1489 1496 1503 1509 1523 1536 1543 1572 1586 1594 1594
    1452 1452 1452 1452 1445 1445 1445 1439 1439 1439 1433 1421 1421
    1421 1421 1421 1415 1415 1415 1415 1415 1415 1421 1421 1439 1445
    1464 1470 1489 1496 1503 1509 1523 1536 1543 1572 1579 1586 1586
    1452 1452 1452 1452 1452 1445 1445 1439 1439 1433 1433 1421 1421
    1421 1421 1421 1415 1415 1410 1410 1410 1415 1421 1421 1439 1445
    1464 1470 1489 1496 1509 1516 1523 1536 1543 1572 1572 1586 1586
    1458 1458 1458 1458 1452 1439 1439 1439 1433 1433 1427 1421 1421
    1421 1421 1421 1415 1415 1410 1410 1410 1415 1421 1427 1439 1445
    1464 1470 1483 1496 1503 1516 1523 1536 1543 1564 1572 1579 1579
    5210 1458 1452 1452 1452 1439 1439 1433 1433 1433 1427 1421 1421
    1421 1421 1421 1415 1415 1410 1410 1415 1415 1421 1427 1439 1445
    1458 1470 1483 1489 1503 1516 1523 1536 1550 1564 1579 1579 1579
    5210 1458 1452 1452 1452 1439 1439 1433 1433 1433 1427 1427 1421
    1421 1421 1421 1415 1415 1415 1415 1415 1415 1421 1433 1439 1445
    1458 1470 1483 1489 1503 1516 1523 1536 1550 1564 1572 1572 1579
    5210 1452 1452 1452 1445 1439 1439 1439 1433 1433 1427 1421 1415
    1415 1421 1421 1415 1415 1415 1415 1415 1415 1427 1433 1439 1445
    1458 1470 1477 1503 1503 1509 1523 1536 1550 1564 1572 1572 1586
    5291 1452 1452 1445 1445 1439 1439 1439 1433 1433 1427 1421 1415
    1415 1421 1415 1415 1415 1415 1415 1415 1415 1421 1433 1439 1445
    1458 1470 1477 1496 1503 1509 1523 1536 1550 1564 1572 1572 1601
    1464 1452 1452 1445 1445 1439 1439 1439 1433 1433 1427 1421 1415
    1415 1415 1415 1415 1415 1415 1415 1415 1415 1421 1427 1439 1445
    1458 1470 1483 1496 1503 1509 1523 1536 1550 1564 1572 1579 1601
    1458 1458 1452 1445 1445 1439 1439 1433 1433 1433 1427 1421 1415
    1415 1415 1415 1415 1415 1415 1415 1415 1415 1421 1427 1439 1445
    1458 1470 1483 1496 1503 1509 1523 1543 1550 1564 1579 1579 1594
    1458 1458 1452 1445 1445 1439 1439 1433 1433 1433 1427 1421 1415
    1415 1415 1415 1415 1415 1415 1415 1415 1415 1421 1427 1439 1445
    1458 1470 1483 1496 1503 1509 1523 1543 1550 1564 1579 1579 1579
    1464 1458 1452 1452 1445 1439 1439 1433 1433 1433 1433 1421 1415
    1415 1421 1415 1415 1415 1415 1415 1415 1415 1421 1427 1439 1445
    1458 1470 1489 1496 1503 1509 1523 1543 1550 1564 1579 1579 1579
    1458 1458 1458 1452 1445 1439 1439 1433 1433 1427 1427 1421 1415
    1415 1421 1415 1415 1415 1410 1410 1415 1415 1421 1433 1439 1452
    1458 1470 1489 1496 1496 1509 1523 1543 1557 1564 1579 1579 1579
    1458 1458 1458 1452 1445 1439 1439 1433 1433 1427 1427 1421 1415
    1415 1421 1415 1415 1415 1410 1410 1415 1415 1421 1433 1439 1452
    1458 1464 1489 1496 1496 1509 1523 1543 1557 1564 1579 1579 1579
    1452 1452 1452 1445 1445 1439 1439 1433 1433 1427 1427 1421 1421
    1421 1421 1415 1415 1415 1410 1410 1415 1415 1421 1433 1439 1452
    1458 1464 1489 1496 1496 1509 1523 1543 1557 1564 1579 1579 1579
    1452 1452 1452 1445 1445 1439 1439 1433 1433 1427 1427 1427 1421
    1421 1421 1415 1415 1415 1415 1415 1415 1415 1421 1433 1439 1452
    1458 1464 1489 1503 1503 1516 1529 1550 1557 1564 1579 1579 1579
    1458 1458 1452 1445 1439 1439 1439 1433 1427 1427 1427 1427 1421
    1421 1421 1415 1415 1415 1415 1415 1415 1415 1421 1433 1439 1445
    1458 1464 1489 1503 1503 1516 1536 1550 1557 1564 1579 1579 1579
    1464 1464 1452 1445 1439 1439 1433 1433 1427 1427 1427 1427 1421
    1421 1421 1415 1415 1415 1415 1415 1415 1415 1421 1433 1439 1445
    1458 1477 1489 1503 1503 1516 1536 1543 1557 1564 1572 1579 0 1458
    1458 1452 1445 1439 1439 1433 1433 1427 1427 1427 1421 1421 1421
    1421 1415 1415 1415 1415 1415 1415 1415 1421 1433 1439 1445 1458
    1477 1489 1503 1503 1509 1529 1543 1557 1564 1572 1579 0 1452 1452
    1445 1445 1439 1439 1433 1433 1427 1427 1427 1421 1421 1421 1421
    1415 1415 1415 1415 1415 1415 1415 1421 1433 1439 1445 1458 1470
    1483 1503 1503 1509 1529 1543 1557 1564 1572 1579 1579 1445 1445
    1445 1445 1439 1439 1433 1427 1421 1421 1421 1421 1421 1421 1421
    1421 1415 1415 1415 1415 1415 1415 1421 1433 1439 1445 1458 1470
    1483 1496 1496 1509 1529 1543 1557 1564 1572 1579 1579 1445 1445
    1445 1445 1439 1439 1433 1427 1421 1421 1421 1415 1415 1415 1421
    1415 1415 1415 1415 1415 1415 1415 1421 1433 1439 1445 1458 1470
    1483 1496 1496 1516 1529 1543 1557 1572 1572 1579 1579 1445 1445
    1445 1445 1439 1439 1433 1427 1421 1421 1421 1415 1415 1415 1415
    1415 1415 1415 1415 1415 1415 1415 1421 1433 1439 1445 1458 1477
    1489 1496 1496 1516 1529 1543 1557 1572 1572 1579 1579 1445 1445
    1445 1445 1439 1439 1433 1427 1427 1421 1415 1415 1415 1415 1415
    1415 1415 1410 1410 1415 1415 1415 1421 1427 1439 1445 1464 1477
    1489 1496 1496 1523 1536 1543 1557 1572 1572 1579 1601 1445 1445
    1445 1445 1439 1439 1433 1433 1427 1421 1415 1415 1415 1415 1415
    1415 1415 1410 1410 1410 1415 1415 1421 1421 1433 1445 1464 1477
    1489 1496 1496 1523 1536 1543 1557 1572 1579 1579 1594 1445 1445
    1445 1445 1439 1439 1433 1433 1427 1421 1415 1415 1415 1415 1415
    1415 1415 1410 1410 1410 1415 1421 1421 1421 1433 1445 1464 1477
    1489 1496 1496 1523 1536 1543 1557 1572 1579 1579 1579 1445 1445
    1445 1439 1439 1439 1433 1433 1427 1421 1421 1415 1410 1410 1415
    1415 1415 1410 1410 1410 1415 1421 1421 1427 1433 1445 1464 1477
    1489 1496 1509 1523 1529 1543 1557 1564 1572 1572 1572 1445 1445
    1445 1439 1439 1439 1433 1433 1427 1421 1415 1415 1410 1410 1415
    1415 1415 1415 1410 1410 1415 1421 1421 1427 1433 1445 1464 1477
    1489 1496 1503 1516 1529 1543 1550 1564 1572 1572 1572 1445 1445
    1445 1445 1439 1439 1433 1427 1427 1421 1415 1415 1410 1410 1415
    1415 1415 1410 1410 1410 1415 1421 1421 1427 1433 1445 1464 1477
    1489 1496 1503 1516 1529 1536 1550 1557 1572 1572 1572 1445 1445
    1445 1445 1439 1439 1433 1427 1421 1421 1415 1415 1410 1410 1415
    1415 1415 1410 1410 1410 1410 1421 1421 1427 1433 1458 1464 1477
    1489 1496 1503 1516 1529 1536 1550 1557 1572 1572 1572 1445 1445
    1445 1439 1439 1433 1427 1421 1421 1415 1415 1415 1415 1415 1415
    1415 1415 1410 1410 1410 1410 1421 1421 1427 1433 1458 1464 1477
    1489 1496 1503 1516 1529 1543 1550 1564 1572 1579 1601 1439 1439
    1439 1439 1439 1433 1427 1421 1421 1415 1415 1415 1415 1415 1415
    1415 1410 1410 1410 1410 1415 1421 1421 1427 1433 1458 1464 1477
    1489 1496 1503 1516 1529 1543 1557 1564 1572 1579 1594 1439 1439
    1439 1439 1439 1433 1427 1427 1421 1415 1415 1415 1410 1410 1415
    1410 1410 1410 1410 1410 1415 1415 1421 1427 1439 1458 1464 1477
    1489 1503 1509 1516 1536 1550 1557 1564 1572 1579 1586 1439 1439
    1439 1439 1439 1433 1427 1427 1421 1415 1415 1415 1410 1410 1415
    1410 1410 1410 1410 1410 1415 1415 1427 1427 1439 1458 1464 1477
    1489 1503 1509 1523 1536 1550 1564 1572 1572 1579 1579 1439 1439
    1439 1439 1439 1433 1427 1427 1421 1415 1415 1415 1410 1410 1415
    1410 1410 1404 1404 1410 1415 1415 1421 1427 1439 1458 1464 1477
    1483 1503 1509 1523 1536 1543 1557 1564 1572 1572 1579 1439 1439
    1439 1439 1439 1433 1427 1427 1421 1415 1415 1415 1410 1410 1410
    1410 1410 1404 1404 1410 1415 1421 1421 1427 1445 1458 1464 1477
    1483 1496 1509 1523 1536 1543 1557 1564 1572 1572 1579 1439 1439
    1439 1439 1439 1433 1427 1421 1421 1415 1415 1415 1410 1410 1410
    1410 1410 1404 1404 1410 1415 1421 1421 1427 1445 1458 1470 1477
    1489 1496 1509 1523 1536 1550 1557 1564 1572 1572 1572 1439 1439
    1439 1439 1433 1427 1427 1421 1421 1415 1415 1415 1410 1410 1410
    1410 1410 1404 1404 1410 1415 1421 1421 1427 1445 1458 1470 1483
    1489 1496 1509 1523 1536 1550 1550 1557 1572 1572 1572 1439 1439
    1439 1439 1433 1427 1427 1421 1421 1415 1415 1415 1410 1410 1410
    1404 1404 1404 1404 1410 1415 1421 1421 1427 1445 1458 1470 1483
    1489 1496 1509 1523 1536 1543 1550 1557 1572 1564 1564 1439 1439
    1439 1439 1433 1427 1427 1421 1421 1415 1415 1415 1410 1410 1410
    1404 1404 1404 1404 1410 1415 1421 1421 1427 1445 1458 1464 1483
    1489 1496 1509 1523 1536 1543 1550 1557 1572 1564 1564 1445 1439
    1439 1439 1427 1421 1421 1421 1415 1415 1415 1415 1410 1410 1410
    1404 1404 1404 1404 1410 1415 1421 1421 1427 1445 1458 1464 1483
    1489 1496 1503 1523 1536 1543 1550 1564 1572 1572 1572 1439 1439
    1439 1439 1427 1421 1421 1421 1415 1415 1415 1415 1410 1410 1410
    1410 1404 1404 1404 1410 1415 1421 1421 1439 1445 1458 1464 1477
    1489 1496 1503 1523 1536 1543 1550 1564 1572 1572 1579 1439 1439
    1439 1439 1433 1427 1427 1421 1415 1415 1415 1415 1410 1410 1410
    1410 1404 1404 1404 1404 1415 1421 1421 1439 1445 1458 1464 1477
    1489 1496 1503 1523 1536 1543 1550 1564 1572 1579 1586 1439 1439
    1439 1439 1433 1427 1427 1415 1415 1415 1415 1415 1410 1410 1410
    1410 1404 1404 1404 1404 1415 1421 1421 1439 1445 1458 1464 1477
    1489 1496 1503 1523 1536 1543 1550 1557 1572 1579 1586 1439 1439
    1439 1439 1433 1427 1427 1415 1415 1415 1415 1415 1410 1410 1410
    1410 1404 1404 1404 1410 1415 1421 1421 1439 1445 1458 1464 1477
    1489 1503 1516 1523 1536 1543 1550 1557 1572 1579 1579 1439 1439
    1439 1433 1433 1427 1421 1421 1415 1415 1415 1415 1415 1415 1415
    1410 1404 1404 1404 1410 1415 1421 1421 1439 1445 1458 1464 1477
    1489 1503 1516 1523 1529 1543 1550 1564 1572 1579 1579 1445 1439
    1439 1433 1433 1427 1421 1421 1415 1415 1415 1415 1415 1415 1410
    1404 1404 1404 1404 1410 1415 1421 1433 1439 1445 1458 1470 1483
    1489 1503 1516 1523 1529 1543 1557 1564 1572 1572 1579 1439 1439
    1439 1433 1433 1427 1427 1421 1415 1415 1415 1410 1410 1410 1410
    1404 1404 1404 1404 1410 1415 1421 1433 1439 1445 1458 1470 1483
    1496 1503 1509 1523 1529 1543 1557 1564 1572 1572 1579 1439 1439
    1439 1433 1427 1427 1427 1427 1421 1415 1415 1410 1410 1410 1415
    1398 1398 1404 1404 1410 1415 1421 1433 1439 1445 1458 1470 1483
    1496 1503 1509 1523 1529 1543 1557 1564 1572 1579 1579 1439 1439
    1439 1433 1427 1427 1427 1427 1421 1415 1415 1410 1410 1410 1415
    1398 1398 1404 1404 1410 1415 1421 1433 1439 1452 1458 1470 1483
    1496 1496 1509 1523 1536 1543 1557 1572 1572 1579 1579 1439 1439
    1439 1433 1433 1427 1427 1427 1421 1421 1415 1410 1410 1410 1415
    1404 1404 1404 1404 1410 1415 1421 1433 1439 1452 1458 1470 1483
    1489 1496 1509 1523 1536 1543 1557 1572 1579 1579 1579 1439 1439
    1439 1433 1433 1427 1427 1427 1421 1421 1415 1410 1410 1410 1415
    1404 1404 1404 1404 1410 1415 1421 1433 1439 1452 1464 1470 1483
    1489 1496 1503 1516 1536 1543 1557 1572 1579 1579 1586 1439 1433
    1433 1433 1433 1427 1427 1427 1415 1415 1415 1410 1410 1410 1415
    1404 1398 1398 1404 1410 1415 1427 1433 1439 1452 1464 1470 1477
    1489 1496 1503 1516 1536 1543 1557 1572 1572 1579 1586 1439 1433
    1433 1433 1439 1433 1433 1427 1415 1415 1415 1410 1410 1410 1410
    1398 1398 1398 1404 1410 1415 1427 1433 1439 1445 1464 1470 1477
    1489 1496 1503 1509 1536 1543 1557 1564 1572 1579 1586 1433 1433
    1433 1439 1439 1433 1427 1421 1421 1415 1415 1410 1410 1410 1410
    1398 1398 1404 1404 1410 1415 1427 1433 1439 1445 1458 1464 1477
    1489 1503 1503 1509 1529 1543 1557 1564 1572 1579 1586 1433 1433
    1433 1433 1433 1433 1427 1421 1421 1415 1415 1410 1410 1410 1410
    1398 1398 1404 1404 1410 1410 1421 1427 1439 1445 1452 1464 1477
    1489 1503 1509 1516 1529 1543 1550 1572 1572 1586 1586 1433 1433
    1433 1433 1433 1433 1427 1421 1421 1415 1415 1410 1410 1410 1410
    1404 1404 1404 1404 1410 1410 1421 1427 1439 1445 1445 1458 1470
    1489 1496 1509 1516 1523 1543 1550 1572 1579 1579 1579 1439 1439
    1433 1433 1427 1427 1427 1421 1415 1415 1415 1410 1410 1410 1410
    1404 1404 1404 1404 1410 1415 1421 1427 1439 1445 1445 1458 1470
    1489 1496 1509 1516 1523 1536 1550 1564 1564 1572 1579 1433 1433
    1433 1433 1427 1427 1427 1421 1415 1415 1415 1410 1410 1410 1410
    1404 1404 1404 1404 1410 1415 1421 1421 1433 1439 1445 1458 1477
    1489 1496 1509 1516 1523 1536 1550 1564 1564 1550 1550 1433 1433
    1433 1433 1433 1433 1427 1421 1415 1415 1415 1410 1410 1410 1410
    1404 1398 1398 1398 1404 1410 1415 1421 1433 1439 1445 1458 1483
    1483 1496 1509 1523 1523 1536 1536 1536 0 1550 1550 1439 1439 1433
    1433 1433 1433 1427 1421 1415 1410 1410 1410 1410 1410 1410 1398
    1398 1398 1398 1398 1404 1415 1421 1439 1445 1452 1464 1483 1483
    1496 1509 1516 1523 1536 1536 1536 0 0 0 1439 1439 1433 1433 1433
    1433 1427 1421 1415 1410 1410 1410 1410 1404 1404 1398 1398 1398
    1398 1398 1404 1410 1415 1433 1452 1464 1470 1483 1489 1496 1503
    1516 1523 0 0 0 0 0 0 1439 1439 1433 1433 1433 1433 1427 1421 1415
    1410 1410 1410 1404 1404 1398 1398 1398 1398 1398 1398 1398 1410
    1415 1427 1445 1458 1470 1489 1496 1503 1503 0 0 0 0 0 0 0 0 1439
    1439 1433 1433 1433 1427 1427 1421 1415 1415 1410 1410 1404 1404
    1398 1398 1398 1398 1398 1398 1398 1410 1415 1427 1439 1452 1470
    1509 1516 1516 0 0 0 0 0 0 0 0 0 1439 1433 1433 1433 1427 1421 1421
    1415 1415 1410 1410 1410 1404 1398 1398 1398 1398 1398 1398 1398
    1404 1410 1415 1427 1439 1445 1523 1523 1523 1523 0 0 0 0 0 0 0 0 0
    1439 1433 1433 1433 1410 1410 1410 1410 1410 1410 1410 1404 1398
    1398 1398 1398 1398 1398 1398 1398 1404 1410 1421 1433 1445 1445
    1529 1523 1523 1523 0 0 0 0 0 0 0 0 0 0 0 1433 1433 1410 1410 1410
    1410 1410 1410 1410 1398 1392 1392 1392 1392 1392 1398 1398 1398
    1404 1415 1433 1445 1445 1445 1529 1523 1509 1509 0 0 0 0 0 0 0 0 0
    0 0 0 0 0 0 0 0 0 0 1398 1398 1392 1392 1392 1392 1392 1398 1398
    1398 1410 1464 1458 1458 1470 1543 1529 1523 1509 1509 0 0 0 0 0 0 0
    0 0 0 0 0 0 0 0 0 0 0 0 1503 1503 1392 1392 1392 1392 1392 1398 1398
    1564 1470 1470 1470 1470 1477 1536 1529 1523 1523 1523 0 0 0 0 0 0 0
    0 0 0 0 0 0 0 0 0 0 0 0 1503 1503 1503 1503 1523 1543 1564 1564 1550
    1550 1477 1477 1470 1470 1536 1536 1529 1529 1516 1516 1536 0 0 0 0
    0 0 0 0 0 0 0 0 0 0 0 0 0 1516 1509 1503 1503 1503 1523 1536 1543
    1536 1536 1536 1483 1477 1477 1489 1496 1543 1536 1536 1516 1516
    1523 1523 1536 1536 0 0 0 0 0 0 0 0 0 0 0 0 0 0 1516 1509 1503 1503
    1503 1516 1523 1523 1523 1523 1523 1516 1489 1489 1489 1496 1516
    1523 1523 1529 1523 1523 1523 1523 1529 1536 0 0 0 0 0 0 0 0 0 0 0 0
    1496 1496 1496 1496 1496 1503 1516 1516 1516 1516 1509 1509 1496
    1489 1489 1489 1496 1509 1509 1509 1509 1509 1509 1509 1516 1523
    1523 1543 0 0 0 0 0 0 0 0 0 1483 1483 1489 1489 1489 1489 1489 1489
    1496 1496 1496 1496 1496 1496 1496 1489 1489 1489 1489 1503 1503
    1496 1496 1496 1503 1509 1509 1516 1523 1529 1536 0 0 0 0 0 0 0 1483
    1483 1483 1483 1483 1483 1483 1477 1477 1483 1483 1483 1489 1489
    1489 1483 1470 1470 1470 1483 1489 1496 1489 1489 1496 1496 1509
    1509 1516 1523 1529 1536 0 0 0 0 0 1489 1483 1483 1483 1483 1483
    1477 1477 1470 1470 1470 1470 1470 1470 1470 1477 1477 1470 1470
    1464 1458 1458 1470 1470 1477 1483 1483 1489 1496 1503 1509 1516
    1516 1543 0 0 0 0 0 1483 1483 1483 1483 1483 1477 1470 1470 1464
    1464 1464 1470 1464 1464 1464 1464 1464 1464 1458 1458 1452 1452
    1458 1458 1464 1470 1477 1489 1496 1503 1509 1516 1516 0 0 0 0 0 0
    1483 1483 1483 1483 1483 1477 1470 1464 1464 1464 1464 1464 1464
    1458 1458 1458 1458 1458 1452 1452 1445 1445 1452 1452 1458 1464
    1470 1483 1496 1503 1509 1516 1516 0 0 0 0 0 0 1483 1483 1489 1483
    1483 1477 1477 1464 1464 1464 1464 1458 1458 1452 1452 1452 1452
    1452 1445 1445 1439 1439 1445 1445 1458 1464 1470 1483 1496 1503
    1503 1509 1516 0 0 0 0 0 0 0 1489 1489 1483 1483 1483 1477 1470 1464
    1464 1464 1458 1458 1452 1452 1452 1445 1445 1439 1439 1439 1439
    1439 1445 1458 1464 1470 1483 1489 1503 1503 1509 0 0 0 0 0 0 0 0 0
    1483 1483 1483 1477 1477 1470 1464 1464 1464 1464 1458 1458 1452
    1452 1445 1445 1439 1439 1439 1439 1439 1439 1452 1464 1470 1477
    1483 1503 1509 0 0 0 0 0 0 0 0 0 0 1483 1483 1483 1477 1477 1470
    1464 1464 1464 1464 1458 1458 1458 1452 1445 1445 1445 1439 1439
    1439 1439 1439 1445 1452 1464 1470 1483 0 0 0 0 0 0 0</data></Depth16098>
</opencv_storage>
