<?xml version="1.0"?>
<opencv_storage>
<Depth7657 type_id="opencv-matrix">
  <rows>59</rows>
  <cols>38</cols>
  <dt>w</dt>
  <data>
    5374 5374 5374 5374 5374 5374 5460 5460 5460 5374 5374 5374 5548
    5640 5734 5734 5734 5734 5734 0 0 1785 1785 1785 1776 1776 1804 1813
    1833 1833 6038 5933 5933 5933 5933 5933 5933 5933 5374 5374 5374
    5374 5374 5374 5374 5460 5374 5374 5374 5374 5640 1639 1632 1632
    1632 1632 1713 1713 1713 1766 1766 1766 1776 1776 1794 1804 1823
    1823 1823 5933 5933 5933 5933 6038 6038 5933 5374 5374 5374 5374
    5374 5374 5374 5460 5374 5374 5374 5374 1632 1632 1632 1632 1632
    1632 1713 1713 1713 1713 1722 1739 1757 1766 1785 1804 1813 1813
    1823 1823 5933 5933 5933 5933 5933 5933 5374 5374 5374 5291 5291
    5374 5460 5460 1663 1632 1632 1624 1624 1624 1632 1632 1632 1632
    1696 1696 1696 1705 1705 1731 1757 1766 1785 1794 1804 1813 1823
    1823 5933 5933 5933 5933 5933 5933 5374 5374 5291 5291 5291 5291
    1663 1663 1663 1663 1632 1624 1624 1624 1624 1624 1624 1632 1639
    1663 1680 1688 1696 1731 1748 1766 1785 1794 1804 1813 1813 1813
    6038 6038 5933 5933 5933 5933 5374 1655 1647 1647 1647 1647 1655
    1647 1647 1647 1632 1624 1624 1624 1616 1616 1624 1624 1632 1647
    1663 1688 1696 1722 1748 1757 1776 1785 1804 1804 1813 1813 6038
    6038 5933 5933 5933 5933 1647 1647 1647 1647 1639 1639 1647 1639
    1639 1632 1624 1624 1616 1616 1616 1616 1624 1624 1632 1647 1663
    1680 1688 1713 1739 1757 1776 1785 1794 1804 1813 1813 6038 5933
    5933 5933 5933 5933 1647 1647 1647 1639 1639 1639 1639 1632 1632
    1632 1624 1624 1616 1616 1616 1624 1624 1624 1632 1647 1663 1680
    1688 1705 1731 1748 1766 1776 1794 1804 1804 6038 6038 5933 5933
    5933 5933 5933 1647 1647 1639 1639 1639 1639 1639 1632 1632 1632
    1624 1624 1624 1616 1616 1624 1624 1624 1632 1647 1663 1680 1688
    1705 1731 1748 1757 1776 1794 1804 1804 1804 6038 5933 5933 5933
    5933 5933 1647 1647 1639 1639 1639 1632 1632 1632 1624 1624 1624
    1624 1624 1616 1616 1624 1624 1624 1639 1647 1663 1680 1688 1705
    1722 1748 1757 1766 1794 1804 1804 1804 5832 5832 5832 5933 5933
    5933 1647 1639 1639 1632 1632 1632 1632 1632 1624 1624 1624 1624
    1624 1616 1616 1616 1616 1624 1632 1647 1663 1671 1688 1696 1722
    1748 1757 1757 1785 1794 1804 1804 5832 5832 5832 5933 5933 5933
    1647 1639 1639 1632 1632 1632 1632 1632 1624 1624 1624 1624 1616
    1616 1616 1616 1616 1624 1632 1647 1655 1663 1680 1688 1696 1739
    1757 1757 1785 1794 1804 1804 5832 5832 5832 5933 5933 5933 1639
    1639 1639 1632 1632 1632 1632 1632 1624 1624 1624 1616 1616 1616
    1616 1616 1616 1616 1632 1639 1655 1663 1671 1688 1696 1731 1757
    1757 1776 1794 1804 1804 1804 5933 5933 5933 5933 5933 1639 1639
    1639 1632 1632 1632 1632 1632 1624 1624 1624 1616 1616 1616 1616
    1616 1616 1616 1632 1639 1655 1663 1671 1688 1696 1722 1748 1757
    1776 1794 1804 1804 1804 5933 5933 5933 5933 5933 1639 1639 1639
    1639 1632 1632 1632 1632 1624 1624 1624 1616 1616 1616 1616 1609
    1609 1616 1624 1632 1655 1655 1671 1680 1713 1722 1739 1766 1766
    1794 1794 1804 1804 5832 5832 5832 5933 5933 1639 1639 1639 1639
    1639 1632 1624 1624 1624 1624 1624 1616 1616 1616 1616 1609 1609
    1616 1624 1632 1655 1655 1663 1680 1713 1722 1739 1757 1757 1794
    1794 1804 1804 5832 5832 5832 5933 5832 1639 1639 1639 1639 1639
    1632 1624 1624 1624 1624 1624 1616 1616 1616 1616 1616 1616 1616
    1624 1632 1647 1655 1663 1680 1705 1722 1739 1757 1757 1785 1794
    1813 1813 5933 5933 5832 5832 5832 1639 1639 1639 1639 1639 1632
    1624 1624 1624 1624 1624 1616 1616 1616 1616 1616 1616 1616 1624
    1632 1639 1655 1655 1671 1705 1722 1739 1757 1757 1785 1804 1813
    1813 5933 5933 5832 5832 5832 1639 1639 1639 1632 1632 1624 1624
    1624 1624 1624 1616 1616 1616 1616 1616 1616 1616 1616 1624 1632
    1639 1655 1655 1671 1705 1722 1731 1748 1766 1785 1794 1804 1804
    5933 5933 5832 5832 5832 1632 1632 1639 1632 1632 1624 1624 1624
    1624 1624 1616 1616 1616 1616 1616 1616 1616 1616 1624 1632 1639
    1655 1655 1671 1705 1722 1731 1748 1766 1785 1794 1804 1813 1813
    5933 5933 5933 5933 1632 1632 1639 1632 1632 1624 1624 1624 1624
    1624 1616 1616 1616 1616 1616 1616 1616 1616 1624 1632 1639 1655
    1655 1671 1696 1722 1731 1739 1757 1766 1785 1794 1804 1804 5933
    5933 5933 5933 1632 1632 1639 1632 1632 1624 1624 1624 1624 1624
    1616 1616 1616 1609 1609 1609 1609 1609 1624 1624 1632 1647 1655
    1663 1680 1705 1722 1739 1748 1766 1785 1794 1804 1804 1804 5933
    5933 5933 1632 1632 1632 1639 1632 1624 1624 1624 1624 1624 1616
    1616 1616 1609 1609 1609 1609 1609 1624 1624 1632 1639 1655 1663
    1680 1696 1713 1739 1748 1766 1785 1794 1794 1804 1804 5832 5832
    5832 1624 1624 1624 1632 1632 1632 1624 1624 1624 1624 1616 1616
    1616 1609 1609 1609 1609 1609 1624 1624 1632 1639 1655 1663 1680
    1696 1705 1739 1748 1766 1776 1794 1794 1804 1804 5832 5832 5832
    5291 1624 1624 1624 1632 1624 1624 1624 1624 1624 1616 1616 1616
    1609 1609 1609 1609 1609 1624 1624 1632 1639 1647 1663 1671 1688
    1705 1731 1748 1766 1766 1794 1804 1804 1804 5933 5933 5933 5374
    1624 1624 1624 1624 1624 1624 1624 1624 1624 1624 1616 1616 1616
    1609 1609 1609 1616 1616 1624 1624 1632 1647 1655 1671 1688 1705
    1731 1748 1757 1766 1785 1804 1804 1804 5734 5734 5734 5291 1624
    1624 1624 1624 1624 1624 1624 1624 1624 1624 1616 1616 1616 1616
    1616 1616 1616 1616 1624 1624 1632 1639 1655 1671 1696 1705 1731
    1748 1757 1766 1785 1794 1804 1804 1804 5734 5734 5291 1632 1632
    1632 1624 1624 1624 1624 1624 1624 1616 1616 1616 1616 1616 1616
    1616 1616 1616 1624 1624 1632 1639 1655 1663 1688 1705 1722 1739
    1757 1766 1785 1794 1794 1794 1794 5832 5832 5374 5374 1639 1632
    1632 1624 1624 1624 1624 1616 1616 1616 1616 1616 1616 1616 1616
    1616 1616 1624 1624 1632 1639 1655 1663 1688 1696 1722 1731 1757
    1766 1785 1794 1794 1794 1794 5832 5832 5291 5291 1632 1632 1632
    1624 1624 1624 1624 1616 1616 1616 1616 1616 1609 1609 1609 1616
    1616 1616 1616 1624 1639 1655 1663 1680 1696 1713 1731 1748 1766
    1785 1794 1794 1804 1804 1804 5832 5132 5132 1632 1632 1624 1624
    1624 1624 1624 1616 1616 1616 1609 1609 1609 1609 1609 1616 1616
    1616 1616 1624 1632 1647 1663 1671 1688 1696 1722 1739 1766 1785
    1794 1794 1804 1804 1804 5832 5132 5132 1632 1632 1624 1624 1624
    1624 1616 1616 1616 1616 1609 1609 1609 1609 1616 1609 1609 1609
    1616 1624 1632 1639 1655 1663 1680 1688 1705 1731 1757 1766 1785
    1794 1804 1804 1804 5832 5210 5210 1624 1624 1624 1624 1624 1624
    1616 1616 1616 1616 1616 1609 1609 1609 1609 1609 1609 1609 1616
    1624 1632 1639 1655 1663 1671 1688 1705 1722 1748 1766 1785 1794
    1804 1804 5734 5734 5210 5210 1624 1624 1624 1624 1624 1616 1616
    1616 1616 1616 1616 1609 1609 1609 1609 1609 1609 1609 1616 1624
    1632 1639 1647 1663 1671 1688 1705 1722 1739 1766 1776 1794 1794
    1804 1804 5734 5210 5210 1624 1624 1624 1624 1624 1616 1616 1616
    1616 1616 1616 1609 1601 1601 1601 1601 1601 1601 1601 1624 1632
    1632 1647 1655 1671 1688 1705 1722 1739 1757 1776 1785 1794 1804
    1804 5832 5132 5374 1624 1624 1624 1616 1616 1616 1616 1616 1616
    1616 1616 1609 1601 1594 1594 1601 1601 1601 1601 1609 1624 1624
    1647 1655 1671 1688 1696 1713 1731 1757 1776 1785 1794 1804 1804
    5933 5056 5056 1624 1624 1624 1616 1616 1616 1616 1616 1616 1616
    1616 1609 1601 1594 1594 1601 1601 1601 1601 1609 1609 1624 1639
    1655 1671 1688 1696 1713 1731 1748 1766 1785 1794 1794 1804 1804
    5056 5056 1632 1624 1624 1624 1616 1616 1616 1616 1616 1616 1616
    1616 1609 1601 1601 1601 1601 1601 1601 1601 1609 1624 1639 1655
    1671 1688 1696 1713 1731 1748 1766 1785 1785 1794 1794 1794 5132
    5056 1624 1624 1624 1624 1624 1624 1616 1616 1616 1616 1616 1616
    1609 1609 1609 1601 1601 1601 1601 1601 1609 1624 1639 1647 1663
    1680 1705 1713 1731 1748 1757 1776 1785 1794 1794 1794 5132 5132
    1624 1624 1624 1624 1624 1616 1616 1609 1609 1609 1609 1609 1601
    1601 1601 1609 1601 1601 1601 1601 1609 1624 1632 1639 1655 1680
    1696 1713 1722 1739 1757 1776 1785 1785 1785 1785 5210 5210 1624
    1624 1624 1624 1624 1616 1616 1609 1609 1609 1601 1601 1601 1601
    1601 1609 1601 1601 1601 1601 1609 1616 1632 1639 1655 1671 1688
    1713 1722 1739 1757 1766 1776 1785 1785 1785 5132 1624 1624 1624
    1624 1616 1616 1616 1616 1616 1609 1609 1601 1601 1594 1594 1594
    1601 1601 1601 1601 1601 1609 1616 1632 1639 1655 1663 1680 1705
    1713 1731 1748 1766 1776 1776 1776 1776 5132 1624 1624 1624 1624
    1616 1616 1616 1616 1616 1609 1609 1601 1601 1594 1594 1594 1601
    1601 1601 1601 1601 1609 1616 1624 1639 1655 1663 1671 1696 1705
    1722 1748 1766 1766 1766 1766 1766 5132 5132 1632 1632 1632 1624
    1616 1616 1616 1616 1616 1609 1601 1601 1601 1601 1601 1601 1601
    1601 1601 1601 1609 1609 1624 1632 1647 1655 1671 1688 1696 1722
    1739 1757 1766 1766 1766 1766 5132 5132 5210 5210 1624 1624 1624
    1624 1616 1616 1609 1609 1609 1601 1601 1601 1601 1601 1601 1601
    1601 1601 1601 1609 1624 1632 1647 1655 1671 1688 1696 1713 1731
    1748 1757 1766 1766 1766 5132 5210 5210 5210 1624 1624 1624 1616
    1616 1616 1609 1609 1601 1601 1601 1601 1601 1601 1601 1601 1601
    1601 1601 1609 1616 1632 1639 1655 1671 1688 1696 1713 1731 1748
    1757 1766 1766 1766 5210 5210 5210 5210 1624 1624 1624 1616 1616
    1616 1609 1601 1601 1601 1601 1601 1601 1601 1601 1601 1601 1601
    1601 1609 1616 1624 1639 1655 1671 1688 1696 1713 1731 1748 1757
    1766 1776 1776 5132 5132 5132 5132 1616 1616 1616 1616 1616 1616
    1609 1601 1601 1601 1601 1601 1601 1601 1601 1601 1594 1594 1601
    1601 1616 1624 1639 1655 1663 1680 1696 1713 1731 1748 1757 1766
    1776 1776 5132 5132 5132 5132 0 1616 1616 1616 1616 1616 1609 1601
    1601 1601 1601 1594 1594 1601 1601 1601 1594 1594 1601 1601 1616
    1624 1639 1655 1663 1671 1696 1705 1731 1748 1757 1766 1776 1766
    5132 5132 5210 5210 1624 1624 1616 1616 1616 1616 1609 1601 1601
    1601 1601 1594 1594 1601 1601 1594 1594 1594 1594 1594 1616 1624
    1639 1647 1655 1671 1696 1705 1722 1739 1748 1766 1785 1766 5132
    5210 5210 0 0 1616 1616 1616 1616 1616 1609 1601 1601 1601 1601 1594
    1594 1601 1601 1594 1594 1594 1594 1594 1609 1616 1632 1639 1647
    1655 1680 1705 1722 1731 1748 1757 1785 1776 5210 5291 5291 0 0 0
    1616 1616 1616 1609 1601 1601 1601 1594 1594 1594 1594 1601 1601
    1594 1594 1594 1594 1601 1601 1609 1624 1639 1647 1655 1663 1696
    1713 1731 1739 1757 1785 1785 5374 5374 0 0 0 0 1616 1616 1616 1609
    1601 1601 1601 1594 1594 1594 1594 1601 1601 1594 1594 1594 1594
    1594 1601 1609 1616 1632 1647 1655 1663 1688 1705 1722 1731 1731
    1766 1794 0 0 0 0 0 0 1616 1616 1616 1609 1601 1594 1594 1594 1594
    1594 1594 1601 1601 1594 1594 1594 1594 1594 1601 1609 1616 1632
    1639 1655 1663 1688 1705 1713 1731 1731 1766 1794 0 0 0 0 0 0 1624
    1616 1616 1609 1601 1594 1594 1594 1594 1594 1594 1594 1594 1594
    1594 1594 1594 1594 1601 1601 1609 1624 1639 1655 1680 1688 1696
    1713 1722 1731 0 0 0 0 0 0 0 0 1624 1624 1616 1609 1601 1594 1594
    1594 1594 1594 1594 1594 1594 1594 1594 1594 1594 1594 1601 1601
    1609 1616 1639 1655 1680 1680 1688 1696 1722 0 0 0 0 0 0 0 0 0 1624
    1616 1616 1609 1601 1594 1594 1594 1586 1586 1586 1594 1594 1594
    1594 1594 1594 1594 1594 1601 1601 1609 1647 1663 1671 1671 1671
    1671 1731 0 0 0 0 0 0 0 0 0 0 1616 1616 1609 1601 1601 1594 1594
    1586 1586 1586 1594 1594 1601 1594 1594 1594 1594 1594 1594 1601
    1609 1639 1655 1663 1671 1671 1671 0 0 0 0 0 0 0 0 0 0 0 1616 1616
    1609 1601 1601 1594 1594 1586 1586 1586 1601 1601 1601 1601 1594
    1594 1594 1594 1594 1601 1609 1624 1655 1663 1671 1680 0 0 0 0 0</data></Depth7657>
</opencv_storage>
