<?xml version="1.0"?>
<opencv_storage>
<Depth9137 type_id="opencv-matrix">
  <rows>94</rows>
  <cols>53</cols>
  <dt>w</dt>
  <data>
    4842 4842 5548 5640 5640 5640 5734 5734 5734 5832 5832 5734 5734
    5640 5640 5640 5640 5640 5640 5640 5640 0 0 0 8019 8019 8019 8019
    1349 1349 1354 1354 1349 1343 1343 1343 1333 9331 9331 9331 9331
    9331 9331 9084 9084 9084 9593 9593 9593 0 0 0 0 4911 4911 5548 1283
    1283 1273 1273 5734 5734 5832 5832 5734 5734 5640 5640 5548 5548
    5640 5640 5640 5640 1268 1268 0 1268 1273 1349 1349 1349 1349 1343
    1328 1328 1333 1333 1333 1333 9331 9331 9331 9331 9331 9331 9084
    9084 9084 9084 9084 0 0 0 0 0 4911 4911 5640 1278 1278 1268 1268
    5734 5734 5734 1268 5640 5640 5640 5640 5548 5548 5548 1273 1273
    1268 1268 1268 1264 1268 1273 1283 1268 1354 1354 1343 1312 1312
    1317 1333 1333 1333 1273 1278 1278 1307 1307 1302 1302 1302 1283
    1283 1283 1283 0 0 0 0 0 1268 1273 1273 1268 1264 1264 1264 1264
    1268 1268 1273 1268 1268 1264 1264 1273 1273 1268 1264 1264 1268
    1264 1264 1268 1273 1283 1268 1268 1278 1278 1297 1292 1292 1278
    1273 1273 1273 1278 1278 1288 1292 1292 1288 1288 1283 1283 1283
    1283 1283 1283 0 0 0 1268 1268 1264 1264 1264 1259 1259 1259 1268
    1268 1273 1268 1268 1264 1264 1268 1273 1268 1264 1264 1268 1264
    1264 1268 1273 1278 1268 1268 1273 1278 1283 1283 1278 1278 1273
    1273 1273 1278 1278 1288 1288 1288 1288 1283 1283 1283 1283 1283
    1283 1283 0 0 0 1264 1264 1264 1264 1259 1259 1259 1259 1264 1268
    1268 1268 1268 1264 1264 1268 1268 1268 1268 1268 1268 1268 1268
    1268 1273 1268 1268 1268 1268 1278 1278 1278 1273 1273 1273 1273
    1273 1278 1278 1283 1283 1283 1283 1283 1283 1283 1283 1283 1283
    1283 1288 0 1268 1264 1264 1264 1264 1259 1259 1259 1259 1264 1264
    1264 1264 1264 1268 1268 1268 1268 1268 1268 1268 1268 1268 1268
    1268 1268 1268 1268 1268 1268 1273 1273 1273 1273 1273 1278 1273
    1273 1278 1278 1283 1283 1283 1283 1283 1283 1283 1283 1288 1283
    1283 1283 0 1264 1264 1264 1264 1264 1259 1259 1264 1264 1264 1264
    1264 1264 1264 1268 1268 1268 1268 1268 1268 1268 1268 1268 1268
    1268 1268 1268 1268 1268 1268 1273 1273 1273 1273 1273 1278 1278
    1278 1278 1278 1283 1283 1283 1278 1278 1283 1283 1283 1288 1283
    1283 1283 0 1264 1264 1264 1264 1264 1264 1264 1264 1264 1264 1264
    1264 1264 1264 1268 1264 1264 1268 1268 1268 1268 1268 1268 1268
    1268 1268 1268 1268 1268 1268 1273 1278 1278 1278 1278 1283 1283
    1283 1283 1283 1283 1283 1283 1278 1278 1278 1278 1283 1288 1288
    1283 1273 1273 1264 1264 1264 1264 1264 1264 1264 1264 1264 1264
    1264 1264 1264 1264 1264 1264 1264 1264 1268 1268 1268 1268 1268
    1268 1268 1268 1268 1268 1268 1268 1273 1273 1278 1283 1283 1283
    1283 1283 1283 1283 1283 1283 1283 1278 1278 1278 1278 1283 1283
    1283 1283 1273 1273 1264 1264 1264 1264 1264 1264 1264 1268 1268
    1264 1264 1264 1264 1264 1264 1264 1264 1264 1268 1268 1268 1268
    1268 1268 1268 1268 1268 1268 1268 1268 1273 1273 1278 1283 1283
    1283 1283 1283 1283 1283 1283 1283 1283 1278 1278 1283 1283 1283
    1283 1283 1283 1283 0 1250 1259 1264 1264 1264 1264 1264 1268 1268
    1264 1264 1264 1264 1264 1264 1264 1264 1264 1268 1268 1268 1268
    1268 1268 1268 1268 1268 1268 1268 1268 1273 1278 1278 1278 1278
    1278 1283 1283 1283 1283 1283 1283 1283 1278 1278 1283 1283 1283
    1283 1283 1278 1278 0 1250 1255 1264 1264 1264 1264 1264 1264 1264
    1264 1268 1268 1268 1268 1264 1264 1268 1268 1268 1268 1268 1268
    1268 1268 1268 1268 1268 1268 1268 1273 1278 1278 1278 1278 1278
    1278 1283 1283 1283 1278 1278 1283 1283 1278 1278 1283 1283 1283
    1283 1283 1278 1278 0 1250 1255 1264 1264 1264 1264 1264 1264 1264
    1264 1264 1264 1268 1268 1268 1268 1268 1268 1268 1268 1268 1268
    1268 1268 1268 1268 1268 1268 1268 1273 1278 1278 1278 1278 1278
    1278 1283 1283 1283 1278 1278 1283 1283 1283 1283 1283 1283 1283
    1283 1278 1273 1273 0 1259 1264 1264 1264 1264 1264 1264 1264 1264
    1264 1264 1264 1268 1268 1268 1268 1268 1268 1268 1268 1268 1268
    1268 1268 1268 1273 1273 1273 1273 1273 1278 1278 1278 1283 1278
    1278 1283 1283 1283 1283 1283 1283 1283 1283 1283 1283 1283 1283
    1283 1278 1273 1273 0 1268 1268 1264 1264 1264 1264 1264 1264 1264
    1264 1264 1268 1268 1268 1268 1268 1268 1268 1268 1268 1268 1268
    1268 1268 1268 1268 1268 1273 1273 1273 1273 1278 1283 1283 1283
    1283 1283 1283 1283 1283 1283 1283 1283 1288 1288 1288 1283 1283
    1283 1283 1278 1278 0 1268 1268 1264 1264 1264 1264 1264 1264 1264
    1264 1264 1268 1268 1268 1264 1264 1268 1268 1268 1268 1268 1268
    1268 1268 1268 1268 1268 1268 1268 1273 1273 1278 1283 1283 1283
    1283 1283 1283 1283 1283 1283 1283 1283 1288 1288 1288 1283 1283
    1283 1283 1283 1283 0 1273 1268 1264 1264 1264 1264 1264 1264 1268
    1268 1268 1268 1268 1268 1264 1264 1268 1268 1268 1268 1268 1268
    1268 1268 1268 1268 1268 1268 1268 1273 1278 1278 1278 1283 1283
    1283 1283 1283 1283 1283 1283 1283 1283 1283 1288 1288 1283 1283
    1283 1288 1288 1288 0 1268 1268 1264 1264 1264 1264 1264 1264 1264
    1268 1268 1268 1268 1268 1268 1268 1268 1268 1268 1268 1268 1268
    1268 1268 1268 1273 1268 1268 1268 1273 1278 1278 1278 1283 1283
    1283 1278 1278 1283 1283 1283 1283 1283 1283 1288 1288 1283 1283
    1288 1288 1288 1288 0 1264 1264 1264 1264 1264 1264 1264 1264 1264
    1268 1268 1268 1268 1268 1268 1268 1268 1268 1268 1268 1268 1268
    1268 1268 1273 1273 1273 1273 1273 1273 1273 1278 1278 1283 1283
    1283 1278 1278 1283 1283 1283 1283 1283 1288 1288 1288 1283 1283
    1288 1288 1288 1288 0 1264 1264 1264 1264 1264 1264 1264 1264 1264
    1268 1268 1268 1268 1268 1268 1268 1268 1268 1268 1268 1268 1268
    1268 1268 1273 1273 1273 1273 1273 1273 1273 1278 1278 1283 1283
    1283 1283 1283 1283 1283 1283 1283 1283 1288 1288 1288 1283 1283
    1288 1288 1283 1273 1273 1264 1264 1264 1264 1264 1264 1264 1264
    1264 1268 1268 1268 1268 1268 1268 1268 1268 1268 1268 1268 1268
    1268 1268 1268 1268 1268 1268 1273 1273 1273 1273 1278 1278 1283
    1283 1283 1283 1283 1283 1283 1283 1283 1283 1283 1283 1283 1283
    1283 1288 1288 1283 1273 1273 1264 1264 1264 1264 1264 1264 1264
    1264 1264 1268 1268 1268 1268 1268 1268 1268 1268 1268 1268 1268
    1268 1268 1268 1268 1268 1268 1268 1273 1273 1273 1278 1278 1278
    1283 1283 1283 1283 1283 1283 1283 1283 1283 1283 1283 1283 1283
    1283 1283 1288 1288 1283 1283 0 1268 1268 1264 1264 1264 1264 1264
    1264 1264 1268 1268 1268 1268 1268 1268 1268 1268 1268 1268 1268
    1268 1268 1268 1268 1268 1268 1268 1273 1273 1273 1278 1278 1283
    1283 1283 1283 1283 1283 1283 1283 1288 1283 1283 1283 1283 1283
    1283 1283 1288 1288 1283 1283 0 1255 1255 1268 1268 1268 1268 1268
    1268 1268 1268 1268 1268 1268 1268 1268 1268 1268 1268 1268 1268
    1268 1268 1268 1268 1268 1268 1268 1268 1268 1273 1278 1278 1283
    1283 1283 1283 1283 1278 1278 1283 1288 1288 1283 1283 1283 1283
    1283 1288 1288 1288 1283 1283 0 1255 1255 1268 1268 1268 1268 1268
    1268 1268 1268 1268 1268 1268 1268 1268 1268 1268 1268 1268 1268
    1268 1268 1268 1268 1268 1268 1268 1268 1268 1273 1278 1278 1283
    1283 1283 1283 1283 1278 1278 1283 1283 1288 1283 1283 1288 1288
    1288 1288 1288 1288 1283 1283 0 1268 1268 1268 1268 1268 1268 1268
    1268 1268 1268 1268 1268 1268 1268 1268 1268 1268 1268 1268 1268
    1268 1268 1268 1273 1268 1268 1268 1268 1268 1273 1278 1278 1278
    1283 1283 1283 1283 1278 1278 1283 1283 1288 1283 1283 1288 1288
    1288 1288 1288 1288 1283 1283 0 1273 1268 1268 1268 1268 1268 1268
    1268 1268 1268 1268 1268 1268 1268 1268 1268 1268 1268 1268 1268
    1268 1273 1268 1268 1273 1268 1268 1268 1268 1273 1278 1278 1278
    1283 1283 1283 1283 1278 1278 1283 1283 1288 1288 1288 1288 1288
    1288 1288 1288 1288 1283 1283 0 1273 1268 1268 1268 1268 1268 1268
    1268 1268 1268 1268 1268 1268 1268 1268 1268 1268 1268 1268 1268
    1273 1273 1268 1268 1273 1268 1268 1268 1268 1278 1283 1278 1278
    1283 1283 1283 1283 1283 1283 1283 1288 1288 1288 1288 1288 1288
    1288 1288 1288 1288 1288 1288 0 1273 1268 1268 1268 1268 1268 1268
    1264 1264 1268 1268 1268 1268 1268 1268 1268 1268 1268 1268 1268
    1268 1273 1273 1273 1273 1268 1268 1268 1273 1278 1283 1278 1278
    1283 1283 1283 1283 1283 1283 1283 1288 1288 1288 1288 1288 1288
    1288 1288 1288 1288 1288 1288 0 0 1268 1268 1268 1268 1268 1268 1264
    1264 1264 1264 1264 1264 1268 1268 1268 1268 1268 1268 1268 1268
    1268 1268 1273 1273 1268 1268 1268 1273 1278 1283 1283 1283 1283
    1283 1283 1283 1283 1283 1283 1288 1288 1288 1288 1288 1288 1288
    1288 1288 1288 1288 1288 0 0 1268 1268 1268 1268 1268 1268 1264 1264
    1264 1264 1264 1264 1268 1268 1268 1268 1268 1268 1268 1268 1268
    1268 1273 1273 1268 1268 1268 1273 1278 1283 1283 1283 1283 1283
    1283 1283 1288 1288 1288 1288 1288 1288 1288 1288 1288 1288 1288
    1288 1288 1288 1288 0 1268 1268 1268 1268 1268 1268 1268 1264 1264
    1264 1264 1264 1264 1268 1268 1268 1268 1268 1268 1268 1268 1268
    1268 1273 1273 1268 1268 1268 1273 1283 1288 1283 1283 1288 1283
    1283 1283 1288 1288 1288 1288 1288 1288 1288 1288 1283 1283 1288
    1288 1288 1288 1288 0 1268 1268 1268 1268 1264 1264 1268 1264 1264
    1268 1268 1268 1268 1268 1268 1268 1268 1273 1268 1268 1268 1268
    1268 1273 1273 1268 1268 1268 1273 1283 1288 1288 1288 1288 1283
    1283 1283 1288 1288 1288 1288 1288 1288 1288 1283 1283 1283 1288
    1288 1288 1288 0 0 1268 1268 1268 1268 1264 1264 1268 1268 1268 1268
    1268 1268 1268 1268 1268 1268 1268 1273 1268 1268 1268 1268 1268
    1273 1273 1268 1268 1268 1273 1278 1283 1283 1283 1283 1283 1283
    1283 1288 1288 1288 1288 1288 1288 1288 1283 1283 1283 1288 1288
    1288 1288 1288 0 1268 1268 1268 1268 1264 1264 1264 1264 1268 1268
    1268 1268 1268 1268 1268 1268 1268 1268 1268 1268 1268 1268 1268
    1273 1273 1268 1268 1268 1273 1278 1283 1278 1278 1283 1283 1283
    1283 1288 1288 1288 1288 1288 1288 1288 1288 1283 1283 1288 1288
    1288 1288 1288 0 1268 1268 1268 1268 1264 1264 1264 1264 1268 1268
    1268 1268 1268 1268 1268 1268 1268 1268 1268 1268 1268 1268 1268
    1273 1273 1273 1273 1273 1273 1278 1283 1278 1278 1278 1283 1283
    1283 1283 1283 1288 1283 1283 1288 1288 1288 1288 1288 1288 1288
    1288 1288 1288 1288 1283 1273 1268 1268 1264 1264 1268 1268 1264
    1264 1268 1268 1268 1268 1268 1268 1268 1268 1268 1268 1268 1268
    1268 1273 1273 1273 1273 1273 1273 1278 1278 1278 1278 1278 1283
    1283 1283 1283 1283 1288 1283 1283 1288 1288 1288 1288 1288 1288
    1288 1288 1288 1288 1288 1288 1273 1268 1268 1268 1268 1268 1268
    1264 1264 1264 1268 1268 1268 1268 1268 1268 1268 1268 1268 1268
    1273 1273 1273 1273 1273 1273 1273 1273 1278 1278 1278 1278 1283
    1283 1283 1283 1283 1288 1288 1288 1288 1288 1288 1288 1288 1288
    1288 1288 1288 1288 1288 1288 1288 1268 1268 1268 1268 1268 1268
    1268 1264 1264 1264 1268 1268 1268 1268 1268 1268 1268 1268 1268
    1268 1268 1268 1273 1273 1273 1273 1273 1273 1278 1278 1283 1283
    1283 1283 1283 1283 1283 1288 1288 1288 1288 1288 1288 1288 1288
    1288 1288 1288 1288 1288 1288 1292 0 1268 1268 1268 1268 1268 1268
    1268 1264 1264 1268 1268 1268 1268 1268 1268 1268 1268 1268 1268
    1268 1268 1268 1273 1273 1273 1278 1273 1273 1278 1278 1283 1283
    1288 1288 1288 1288 1288 1288 1288 1288 1288 1288 1288 1288 1288
    1288 1288 1288 1288 1288 1288 1292 0 1268 1268 1268 1268 1268 1268
    1264 1264 1268 1268 1268 1264 1264 1268 1268 1268 1268 1268 1268
    1268 1268 1273 1273 1273 1273 1273 1273 1273 1278 1278 1283 1283
    1288 1288 1288 1288 1283 1283 1288 1288 1288 1288 1288 1288 1288
    1288 1288 1288 1288 1288 1292 1292 0 1268 1268 1268 1268 1268 1268
    1264 1264 1268 1268 1268 1264 1264 1268 1268 1268 1268 1268 1268
    1268 1273 1273 1273 1273 1273 1273 1278 1278 1283 1283 1283 1283
    1288 1288 1288 1283 1283 1283 1288 1288 1288 1288 1288 1288 1288
    1288 1288 1288 1288 1288 1288 1278 0 1278 1268 1268 1268 1268 1268
    1268 1268 1268 1268 1268 1268 1268 1268 1268 1268 1268 1268 1268
    1268 1273 1273 1273 1273 1273 1273 1273 1273 1283 1283 1283 1283
    1288 1288 1288 1283 1283 1283 1283 1288 1288 1288 1288 1288 1288
    1288 1288 1288 1288 1288 1283 1278 0 1278 1273 1268 1268 1268 1268
    1268 1268 1268 1268 1268 1268 1268 1268 1268 1268 1268 1268 1268
    1268 1273 1273 1273 1273 1273 1273 1273 1273 1283 1283 1283 1283
    1288 1288 1288 1283 1283 1283 1283 1288 1288 1288 1288 1288 1288
    1288 1288 1288 1288 1288 1283 1278 0 1278 1273 1268 1268 1268 1268
    1268 1268 1268 1268 1268 1268 1268 1268 1268 1268 1268 1268 1268
    1268 1268 1273 1273 1273 1273 1273 1273 1278 1283 1283 1283 1283
    1283 1288 1288 1283 1283 1283 1283 1288 1288 1288 1288 1288 1288
    1288 1288 1288 1288 1292 1288 1283 0 1273 1268 1264 1264 1264 1264
    1264 1268 1268 1268 1268 1268 1268 1268 1268 1268 1268 1268 1268
    1268 1268 1273 1273 1273 1273 1273 1273 1278 1283 1283 1283 1283
    1283 1283 1288 1283 1283 1283 1283 1288 1288 1288 1288 1288 1288
    1288 1288 1288 1288 1292 1288 1288 0 1268 1264 1264 1264 1264 1264
    1264 1268 1268 1268 1268 1268 1268 1268 1268 1268 1268 1268 1268
    1268 1273 1273 1273 1273 1273 1273 1273 1278 1283 1283 1283 1283
    1283 1283 1288 1288 1288 1288 1288 1288 1288 1288 1288 1288 1288
    1288 1288 1292 1292 1292 1288 1288 0 1268 1264 1264 1264 1264 1264
    1264 1264 1268 1268 1268 1268 1268 1268 1268 1268 1268 1268 1268
    1268 1268 1268 1268 1268 1268 1273 1273 1278 1283 1278 1278 1278
    1283 1283 1288 1288 1288 1288 1288 1288 1288 1288 1288 1288 1288
    1288 1288 1292 1292 1292 1288 1288 0 1268 1264 1264 1264 1264 1264
    1264 1264 1268 1268 1268 1268 1268 1268 1268 1268 1268 1268 1268
    1268 1268 1268 1268 1268 1268 1273 1278 1278 1283 1278 1278 1278
    1283 1283 1288 1288 1288 1288 1288 1288 1288 1288 1288 1288 1288
    1288 1288 1292 1292 1292 1288 1288 0 1268 1268 1268 1268 1268 1268
    1268 1268 1268 1268 1268 1268 1268 1268 1268 1268 1268 1268 1268
    1268 1268 1268 1268 1273 1273 1273 1278 1278 1283 1278 1278 1283
    1283 1288 1288 1288 1288 1288 1288 1288 1288 1288 1288 1288 1288
    1288 1288 1292 1292 1292 1288 1288 0 1268 1268 1268 1268 1268 1268
    1268 1268 1268 1268 1268 1268 1268 1268 1268 1268 1268 1268 1268
    1268 1268 1268 1268 1268 1273 1278 1278 1283 1283 1283 1283 1283
    1283 1288 1288 1288 1283 1283 1288 1288 1288 1288 1288 1292 1292
    1288 1288 1292 1292 1292 1288 1288 0 1268 1268 1268 1268 1268 1268
    1268 1268 1268 1268 1268 1268 1268 1268 1268 1268 1268 1268 1268
    1268 1268 1268 1268 1268 1273 1278 1278 1283 1283 1283 1283 1283
    1283 1288 1288 1288 1283 1283 1288 1288 1288 1288 1288 1292 1288
    1288 1288 1292 1292 1292 1288 1288 0 1268 1268 1268 1268 1268 1268
    1268 1268 1268 1268 1268 1268 1268 1268 1268 1268 1268 1268 1268
    1268 1268 1268 1268 1268 1273 1278 1278 1278 1278 1278 1278 1278
    1283 1288 1288 1288 1288 1288 1288 1288 1288 1288 1288 1292 1288
    1288 1288 1292 1292 1292 1292 0 0 1268 1268 1268 1268 1268 1268 1268
    1268 1268 1268 1268 1268 1268 1268 1268 1268 1268 1268 1268 1268
    1268 1268 1268 1268 1273 1278 1278 1278 1278 1278 1278 1278 1283
    1288 1288 1288 1288 1288 1288 1288 1288 1288 1292 1292 1288 1288
    1288 1292 1292 1292 1288 1288 0 1268 1268 1268 1268 1268 1268 1268
    1268 1268 1268 1268 1268 1268 1268 1268 1268 1268 1268 1268 1268
    1268 1273 1273 1273 1273 1273 1278 1278 1283 1283 1283 1283 1283
    1288 1288 1288 1288 1288 1288 1288 1288 1288 1292 1292 1292 1292
    1292 1292 1292 1292 1288 1288 0 1268 1268 1268 1268 1268 1268 1268
    1268 1268 1268 1268 1268 1268 1268 1268 1268 1268 1268 1268 1268
    1273 1273 1273 1273 1273 1273 1278 1278 1283 1283 1283 1283 1283
    1288 1288 1288 1288 1288 1288 1288 1288 1292 1292 1292 1292 1292
    1292 1292 1292 1288 1288 1288 0 1268 1264 1264 1264 1268 1268 1268
    1264 1264 1264 1268 1268 1268 1268 1268 1268 1268 1268 1268 1273
    1273 1278 1278 1273 1273 1278 1278 1278 1283 1283 1283 1283 1283
    1288 1288 1288 1288 1288 1288 1288 1288 1288 1292 1292 1292 1292
    1292 1292 1292 1288 1288 1288 0 1268 1264 1264 1264 1264 1264 1264
    1264 1264 1264 1268 1268 1268 1268 1268 1268 1268 1268 1268 1273
    1273 1273 1278 1273 1273 1278 1283 1283 1288 1288 1288 1288 1288
    1288 1288 1288 1288 1288 1288 1288 1288 1288 1292 1292 1292 1292
    1292 1292 1292 1288 1283 1283 1283 1273 1268 1264 1264 1264 1264
    1264 1264 1264 1264 1268 1268 1268 1268 1268 1268 1268 1273 1273
    1273 1273 1273 1273 1278 1278 1283 1283 1283 1288 1288 1288 1288
    1288 1288 1288 1288 1288 1288 1292 1292 1288 1288 1288 1292 1292
    1292 1292 1292 1292 1288 1283 1283 1283 1268 1268 1264 1264 1268
    1268 1268 1268 1268 1268 1268 1268 1268 1268 1268 1268 1273 1273
    1273 1273 1273 1273 1273 1278 1278 1283 1283 1283 1288 1288 1288
    1288 1288 1288 1288 1288 1288 1288 1292 1292 1288 1288 1288 1292
    1292 1292 1292 1292 1292 1288 1288 1288 1283 1268 1268 1264 1264
    1264 1268 1268 1268 1268 1268 1268 1268 1268 1268 1268 1273 1273
    1273 1273 1273 1273 1273 1273 1278 1283 1283 1283 1283 1288 1288
    1288 1288 1288 1288 1288 1288 1288 1288 1292 1292 1292 1292 1292
    1292 1292 1292 1292 1292 1292 1292 1288 1288 1288 1264 1264 1264
    1264 1264 1268 1268 1268 1268 1268 1268 1268 1268 1268 1268 1273
    1273 1273 1273 1273 1273 1273 1273 1278 1283 1283 1283 1283 1288
    1288 1288 1288 1288 1288 1288 1288 1288 1288 1288 1288 1292 1292
    1292 1292 1292 1292 1292 1292 1292 1292 1292 1292 0 1264 1264 1264
    1264 1264 1268 1264 1264 1268 1268 1268 1268 1268 1268 1268 1273
    1273 1268 1268 1273 1273 1273 1273 1278 1283 1283 1283 1283 1288
    1288 1288 1288 1288 1288 1288 1288 1288 1288 1288 1288 1292 1292
    1292 1292 1292 1292 1292 1292 1292 1292 1292 1292 0 1268 1268 1268
    1268 1268 1268 1264 1264 1268 1268 1268 1273 1268 1268 1268 1273
    1273 1268 1268 1268 1273 1273 1273 1278 1283 1283 1283 1283 1288
    1288 1288 1288 1288 1288 1288 1288 1288 1288 1288 1288 1292 1292
    1292 1292 1292 1292 1292 1292 1292 1292 1292 1292 0 1268 1268 1268
    1268 1268 1268 1268 1268 1268 1268 1268 1273 1268 1268 1273 1273
    1273 1268 1268 1268 1268 1273 1273 1278 1278 1278 1283 1283 1288
    1288 1288 1288 1288 1288 1292 1292 1292 1292 1292 1292 1292 1292
    1292 1292 1292 1292 1292 1292 1292 1292 1292 1292 1268 1268 1268
    1268 1268 1268 1264 1264 1268 1268 1268 1268 1273 1273 1273 1268
    1268 1268 1268 1268 1268 1268 1273 1278 1283 1278 1278 1283 1283
    1288 1283 1283 1283 1288 1288 1292 1292 1292 1292 1292 1292 1292
    1292 1292 1292 1292 1292 1292 1292 1292 1292 1292 1292 1268 1268
    1268 1268 1268 1268 1264 1264 1268 1268 1268 1268 1268 1268 1268
    1268 1268 1268 1268 1268 1268 1273 1273 1283 1278 1278 1278 1283
    1283 1288 1283 1283 1283 1283 1288 1292 1288 1288 1292 1292 1292
    1292 1292 1292 1292 1292 1292 1292 1292 1292 1292 1292 1292 1268
    1268 1268 1268 1268 1268 1264 1264 1268 1268 1268 1268 1268 1268
    1268 1268 1268 1268 1268 1268 1268 1268 1278 1283 1278 1278 1278
    1283 1283 1288 1283 1283 1283 1283 1288 1288 1288 1288 1288 1288
    1292 1292 1292 1292 1292 1292 1297 1292 1292 1292 1292 1292 1292
    1264 1264 1264 1268 1268 1268 1268 1268 1268 1268 1268 1268 1268
    1268 1268 1268 1268 1268 1268 1268 1268 1268 1278 1278 1283 1278
    1278 1283 1283 1288 1283 1283 1283 1288 1288 1288 1288 1288 1288
    1288 1292 1292 1292 1292 1292 1292 1292 1292 1297 1297 1297 1297 0
    1264 1264 1264 1268 1268 1268 1268 1268 1268 1268 1268 1268 1268
    1268 1268 1268 1268 1268 1268 1273 1273 1273 1278 1278 1278 1283
    1283 1283 1283 1288 1283 1283 1283 1283 1288 1288 1288 1288 1288
    1292 1292 1292 1292 1292 1292 1292 1292 1292 1297 1297 1297 1297 0 0
    1264 1264 1268 1268 1268 1268 1268 1268 1268 1268 1268 1268 1268
    1268 1273 1273 1273 1273 1278 1278 1278 1278 1278 1278 1283 1283
    1283 1283 1288 1288 1288 1283 1283 1288 1288 1288 1288 1288 1288
    1292 1292 1288 1288 1292 1292 1292 1292 1297 1297 1297 1297 0 0 1268
    1268 1268 1268 1268 1268 1268 1268 1268 1268 1268 1268 1268 1268
    1268 1273 1278 1278 1278 1278 1278 1283 1283 1283 1283 1283 1283
    1283 1288 1288 1288 1288 1288 1283 1283 1288 1288 1288 1288 1292
    1292 1288 1288 1292 1292 1292 1292 1297 1297 1292 1292 0 0 1268 1268
    1268 1268 1268 1268 1268 1268 1268 1268 1268 1268 1268 1268 1268
    1273 1278 1278 1283 1283 1283 1283 1283 1283 1283 1283 1283 1283
    1288 1288 1288 1288 1288 1283 1283 1288 1288 1288 1292 1292 1292
    1292 1292 1292 1292 1292 1297 1292 1292 1288 1288 1288 0 1268 1268
    1268 1268 1268 1268 1268 1268 1268 1268 1268 1268 1273 1273 1273
    1273 1278 1278 1283 1283 1283 1278 1278 1283 1283 1283 1283 1283
    1288 1288 1288 1283 1283 1283 1283 1288 1288 1288 1292 1292 1292
    1292 1292 1292 1292 1292 1297 1292 1292 1288 1288 1288 0 1268 1268
    1268 1268 1268 1264 1264 1268 1268 1268 1268 1268 1273 1273 1273
    1278 1278 1278 1283 1283 1278 1278 1278 1278 1283 1283 1283 1283
    1288 1288 1288 1283 1283 1283 1283 1288 1288 1292 1292 1292 1292
    1292 1292 1292 1292 1292 1297 1292 1292 1288 1288 1288 0 1268 1268
    1268 1268 1268 1264 1264 1268 1268 1268 1268 1268 1268 1268 1273
    1273 1278 1278 1283 1283 1278 1278 1278 1278 1278 1283 1283 1283
    1288 1288 1288 1283 1283 1283 1288 1288 1288 1288 1292 1292 1292
    1292 1292 1292 1292 1292 1292 1292 1292 1288 1288 0 0 1264 1264 1268
    1268 1268 1268 1268 1268 1268 1268 1268 1268 1268 1268 1273 1273
    1273 1273 1278 1283 1278 1278 1278 1278 1278 1283 1283 1288 1288
    1288 1288 1288 1288 1288 1288 1288 1288 1288 1292 1297 1297 1297 0 0
    0 0 1292 1292 1292 0 0 0 0 1264 1264 1268 1268 1268 1268 1268 1268
    1268 1264 1264 1264 1264 1268 1273 1273 1273 1273 1278 1288 1283
    1278 1278 1278 1283 1288 1288 1288 1288 1288 1292 1292 1292 1292
    1292 1292 0 0 0 0 0 0 0 0 0 0 0 0 0 0 0 0 0 1268 1268 1268 1268 1268
    1268 1268 1268 1268 1264 1264 1264 1264 1268 0 1273 1273 1273 1288
    1288 1288 1288 1297 1297 1297 1370 1370 1297 1297 1297 1297 1302
    1302 1302 1307 1307 1415 0 0 0 0 0 0 0 0 0 0 0 0 0 0 0 0 1283 1283
    1278 1273 1268 1268 0 0 1268 1264 1264 1264 0 1264 1307 1307 1307
    1302 1292 1292 1297 1297 1297 1297 0 0 1370 1370 1370 1312 1312 1302
    1302 1302 1307 1410 1415 0 0 0 0 0 0 0 0 0 0 0 0 0 0 0 0 0 0 1288
    1288 0 0 0 0 0 0 0 0 0 0 0 1307 1307 1302 1292 1292 1297 1297 1297
    1297 1370 1370 1370 1370 1370 1370 1312 1307 1307 1307 1307 1398
    1410 0 0 0 0 0 0 0 0 0 0 0 0 0 0 0 0 0 0 0 0 0 0 0 0 0 0 0 0 0 0 0
    1302 1302 1302 1302 1302 1297 1297 1302 1381 1370 1370 1370 1370
    1370 1376 1312 1307 1307 1307 1312 1398 1404 0 0 0 0 0 0 0 0 0 0 0 0
    0 0 0 0 0 0 0 0 0 0 0 0 0 0 0 0 0 0 0 1365 1297 1297 1297 1297 1302
    1302 1302 1370 1370 1365 1365 1365 1370 1370 1312 1312 1307 1307
    1312 1376 1376 0 0 0 0 0 0 0 0 0 0 0 0 0 0 0 0 0 0 0 0 0 0 0 0 0 0 0
    0 0 1365 1365 1365 1365 1292 1292 1297 1297 1302 1359 1370 1365 1365
    1365 1365 1370 1359 1312 1312 1317 1312 1312 1354 1354 1354 0 0 0 0
    0 0 0 0 0 0 0 0 0 0 0 0 0 0 0 0 0 0 0 0 0 0 0 1365 1349 1349 1349
    1354 1292 1292 1297 1297 1302 1349 1354 1354 1354 1343 1343 1354
    1354 1322 1312 1312 1317 1328 1349 1349 1349 0 0 0 0 0 0 0 0 0 0 0 0
    0 0 0 0 0 0 0 0 0 0 0 0 0 0 0 1349 1349 1343 1343 1333 1302 1302
    1302 1302 1302 1328 1343 1338 1333 1333 1333 1343 1343 1312 1312
    1312 1317 1328 1338 1338 1333 1328 1328 0 0 0 0 0 0 0 0 0 0 0 0 0 0
    0 0 0 0 0 0 0 0 0 0 0 1322 1322 1333 1328 1328 1312 1302 1302 1302
    1307 1317 1328 1328 1328 1328 1328 1328 1322 1312 1312 1312 1317
    1322 1328 1328 1328 1322 1312 1312 0 0 0 0 0 0 0 0 0 0 0 0 0 0 0 0 0
    0 0 0 0 0 0 0 1312 1312 1312 1317 1317 1312 1302 1302 1302 1307 1312
    1322 1317 1317 1317 1317 1317 1312 1307 1307 1307 1312 1312 1322
    1322 1317 1317 1307 1307 0 0 0 0 0 0 0 0 0 0 0 0 0 0 0 0 0 0 0 0 0 0
    0 0 1307 1307 1307 1307 1307 1302 1302 1297 1292 1292 1292 1312 1307
    1307 1302 1302 1307 1307 1307 1307 1307 1307 1307 1307 1307 1307
    1307 1307 1307 0 0 0 0 0 0 0 0 0 0 0 0 0 0 0 0 0 0 0 0 0 0 0 0 1307
    1297 1292 1292 1283 1283 1283 1288 1288 1283 1283 1283 1283 1283
    1283 1283 1297 1297 1297 1297 1302 1297 1292 1292 1297 1297 1292
    1283 1283 0 0 0 0 0 0 0 0 0 0 0 0 0 0 0 0 0 0 0 0 0 0 0 0 1283 1283
    1283 1273 1268 1268 1273 1278 1278 1278 1278 1278 1278 1278 1273
    1273 1278 1278 1278 1278 1283 1288 1288 1288 1292 1292 1288 1283
    1278 1278 0 0 0 0 0 0 0 0 0 0 0 0 0 0 0 0 0 0 0 0 0 0 0 1273 1273
    1268 1268 1268 1268 1268 1268 1268 1268 1273 1273 1278 1273 1273
    1273 1273 1273 1273 1273 1278 1278 1283 1288 1288 1288 1283 1283
    1278 1278 0 0 0 0 0 0 0 0 0 0 0 0 0 0 0 0 0 0 0 0 0 0 0 1273 1268
    1268 1268 1268 1268 1268 1268 1268 1268 1268 1273 1273 1273 1268
    1268 1273 1273 1273 1273 1278 1278 1283 1288 1288 1283 1278 1278
    1283 0 0 0 0 0 0 0 0 0 0 0</data></Depth9137>
</opencv_storage>
