<?xml version="1.0"?>
<opencv_storage>
<Depth9850 type_id="opencv-matrix">
  <rows>54</rows>
  <cols>120</cols>
  <dt>w</dt>
  <data>
    5374 5374 5374 5374 5374 5374 1134 1134 1134 1134 1126 1123 1119
    1119 1123 1123 1126 1123 1119 1119 1123 5291 5291 5291 5291 5374
    1123 1123 5374 5291 5291 1123 1119 1119 5291 5210 5210 5210 5210
    5132 5132 5132 5210 5291 5210 5210 5210 5210 5210 5210 1108 1108
    1108 5132 5056 5056 4983 4842 4842 4911 1097 1097 5132 5056 5056
    3948 3948 3903 3903 3903 3903 3903 3948 3948 3994 3994 1087 1087
    1087 1090 1090 1090 1087 1087 0 0 1094 1090 1084 1084 1087 0 0 0 0 0
    0 0 0 0 0 0 0 0 0 0 0 0 0 0 0 2381 2349 2333 2333 2333 2286 2271
    2256 2226 5374 5291 5291 5291 5374 1130 1130 1130 1130 1126 1119
    1119 1115 1115 1115 1119 1115 1112 1112 1112 1112 1115 1115 1112
    1112 1112 1115 1115 1115 1115 1112 1112 1115 1115 1115 1115 5210
    1101 1101 1101 1101 5132 5210 1108 1108 1108 1108 5132 1105 1105
    1105 1105 1105 1105 5056 5056 5056 4842 1097 1097 1097 1097 1097
    1097 1097 1101 1101 3948 1097 1097 1094 1090 1090 1090 1090 1090
    1087 1087 1087 1087 1090 1090 1087 1087 1087 1094 1094 1090 1084
    1084 1087 1087 1087 0 0 0 0 0 0 0 0 0 0 0 0 0 0 0 0 0 2415 2381 2365
    2333 2333 2333 2286 2271 2256 2226 5374 5291 5210 5210 1123 1123
    1126 1123 1123 1119 1112 1112 1112 1112 1112 1112 1112 1108 1108
    1108 1108 1108 1108 1108 1108 1108 1108 1108 1108 1108 1108 1108
    1108 1108 1105 1105 1101 1101 1101 1101 1101 1101 1105 1105 1105
    1105 1105 1101 1101 1101 1101 1101 1097 1097 1097 1094 1094 1097
    1094 1094 1094 1094 1094 1094 1094 1094 1094 1094 1090 1090 1094
    1090 1090 1087 1087 1087 1084 1084 1084 1084 1087 1087 1084 1084
    1084 1084 1090 1087 1087 1087 1087 1084 1084 0 0 0 0 0 0 0 0 0 0 0 0
    0 0 0 0 0 2415 2398 2381 2365 2365 2365 2286 2271 2256 2226 5374
    5291 5210 5210 1123 1119 1119 1119 1115 1108 1105 1105 1105 1105
    1105 1105 1105 1105 1105 1105 1101 1101 1101 1101 1101 1101 1101
    1101 1101 1101 1097 1097 1094 1094 1094 1097 1094 1094 1097 1097
    1097 1097 1097 1097 1097 1097 1097 1097 1094 1094 1094 1094 1090
    1087 1087 1087 1087 1090 1094 1094 1090 1090 1094 1094 1090 1090
    1087 1087 1087 1087 1087 1084 1084 1084 1084 1084 1080 1080 1080
    1080 1080 1080 1084 1080 1080 1077 1077 1080 1084 1084 1084 1080
    1080 0 0 0 0 0 0 0 0 0 0 0 0 0 0 0 0 0 2415 2398 2398 2381 2381 2381
    2286 2271 2256 2241 5374 0 5291 5291 1119 1115 1115 1112 1105 1101
    1101 1097 1097 1097 1097 1094 1094 1094 1094 1094 1097 1097 1097
    1097 1097 1097 1097 1094 1094 1094 1094 1094 1090 1087 1087 1087
    1087 1087 1090 1094 1094 1094 1094 1094 1094 1090 1090 1090 1090
    1090 1090 1087 1084 1084 1084 1084 1084 1087 1087 1087 1087 1087
    1087 1087 1084 1084 1084 1084 1084 1084 1080 1080 1080 1080 1080
    1080 1080 1077 1073 1073 1077 1077 1077 1073 1073 1070 1070 1073
    1080 1080 1077 1063 1063 0 0 0 0 0 0 0 0 0 0 0 0 0 0 0 0 0 2415 2398
    2398 2398 2398 2398 2301 2241 2226 2212 0 0 0 0 1119 1067 1067 1067
    1080 1084 1090 1090 1090 1090 1090 1087 1084 1084 1087 1087 1090
    1090 1090 1090 1090 1090 1090 1090 1090 1087 1087 1084 1084 1080
    1080 1077 1077 1077 1077 1077 1080 1080 1080 1084 1084 1084 1084
    1084 1084 1084 1084 1084 1084 1080 1080 1080 1080 1084 1084 1084
    1084 1084 1084 1080 1077 1077 1077 1077 1073 1073 1073 1073 1073
    1073 1073 1073 1073 1070 1070 1070 1070 1070 1070 1067 1063 1063
    1063 1067 1073 1073 1070 1060 1060 0 0 0 0 0 0 0 0 0 0 0 0 0 0 0 0 0
    0 2398 2398 1034 1031 1028 1028 1028 2184 2184 0 0 0 0 1063 1063
    1067 1067 1070 1080 1080 1080 1084 1080 1080 1080 1080 1080 1084
    1084 1084 1080 1077 1073 1073 1077 1077 1080 1080 1080 1077 1077
    1077 1073 1073 1070 1070 1070 1070 1070 1070 1070 1070 1070 1070
    1070 1070 1070 1073 1073 1077 1077 1077 1077 1073 1073 1073 1077
    1073 1073 1073 1073 1073 1073 1070 1070 1067 1067 1067 1070 1070
    1067 1063 1063 1063 1067 1063 1063 1063 1063 1067 1067 1063 1060
    1060 1057 1057 1057 1057 1063 1067 1060 1034 1034 0 0 0 0 0 0 0 0 0
    0 0 0 0 0 0 0 0 0 1034 1034 1028 1025 1025 1025 1025 1025 0 0 0 0
    1063 1060 1060 1063 1067 1073 1077 1077 1073 1073 1073 1073 1077
    1077 1077 1080 1077 1073 1070 1067 1067 1067 1067 1070 1070 1070
    1070 1070 1070 1067 1067 1067 1067 1067 1063 1063 1067 1063 1063
    1063 1067 1067 1067 1063 1060 1057 1054 1054 1060 1060 1063 1063
    1067 1067 1067 1063 1063 1067 1067 1067 1063 1063 1060 1060 1060
    1060 1060 1057 1057 1057 1057 1060 1057 1057 1057 1057 1057 1057
    1057 1057 1057 1050 1050 1047 1047 1047 1057 1057 1034 1031 1031 0 0
    0 0 0 0 0 0 0 0 0 0 0 0 0 0 0 1034 1034 1028 1025 1019 1019 1019
    1019 0 0 0 1060 1060 1057 1057 1060 1060 1063 1067 1067 1067 1067
    1067 1070 1067 1067 1067 1067 1067 1067 1063 1063 1063 1063 1063
    1063 1063 1063 1063 1067 1063 1063 1060 1060 1060 1060 1060 1060
    1060 1060 1060 1060 1060 1060 1057 1057 1054 1054 1050 1050 1050
    1054 1054 1054 1060 1060 1060 1057 1054 1054 1057 1057 1057 1057
    1054 1054 1054 1054 1050 1050 1050 1050 1050 1054 1054 1054 1050
    1047 1047 1047 1047 1047 1047 1044 1044 1041 1041 1041 1041 1031
    1031 1025 1022 1019 1019 0 0 0 0 0 0 0 0 0 0 0 0 0 0 0 1034 1034
    1031 1022 1019 1016 1016 1010 0 0 0 1060 1057 1054 1054 1054 1054
    1054 1057 1057 1063 1060 1060 1063 1057 1054 1054 1057 1060 1060
    1057 1057 1057 1057 1057 1057 1054 1054 1057 1057 1057 1057 1054
    1050 1050 1050 1054 1054 1057 1057 1054 1050 1050 1050 1050 1050
    1047 1047 1047 1047 1047 1047 1050 1050 1050 1047 1044 1044 1050
    1050 1050 1050 1050 1050 1047 1047 1047 1047 1047 1047 1047 1044
    1044 1047 1047 1047 1047 1044 1044 1041 1041 1038 1038 1038 1038
    1038 1034 1034 1031 1028 1028 1022 1019 1016 1013 1013 1016 0 0 0 0
    0 0 0 0 0 0 0 0 0 1038 1031 1028 1022 1016 1013 1010 1004 0 0 0 1060
    1054 1050 1047 1047 1047 1047 1047 1041 1041 1041 1041 1050 1050
    1047 1047 1050 1044 1044 1044 1044 1031 1031 1044 1050 1047 1044
    1031 1031 1031 1041 1038 1034 1034 1031 1031 1031 1031 1031 1031
    1031 1034 1034 1034 1034 1041 1038 1038 1028 1028 1019 1019 1019
    1022 1022 1025 1025 1031 1028 1028 1028 1028 1038 1041 1041 1044
    1044 1044 1041 1038 1034 1034 1034 1034 1038 1038 1038 1038 1034
    1034 1034 1031 1031 1028 1028 1025 1025 1025 1025 1025 1022 1016
    1016 1013 1013 1016 0 0 0 0 0 0 0 0 0 0 0 0 0 0 1025 1025 1019 1016
    1010 1007 1001 0 0 0 0 1054 1044 1041 1041 1044 1044 1041 1034 1031
    1031 1034 1041 1041 1034 1034 1038 1034 1034 1031 1028 1028 1031
    1031 1031 1031 1031 1025 1022 1022 1025 1025 1028 1025 1025 1022
    1019 1019 1019 1022 1022 1025 1022 1022 1019 1019 1025 1022 1019
    1019 1016 1013 1013 1016 1019 1019 1019 1016 1016 1019 1016 1016
    1016 1019 1022 1041 1041 1041 1031 1031 1028 1028 1031 1031 1031
    1031 1028 1028 1028 1031 1028 1028 1022 1019 1019 1019 1019 1019
    1019 1019 1019 1016 1013 1010 1010 0 0 0 0 0 0 0 0 0 0 0 0 0 0 0
    1025 1022 1016 1013 1004 998 992 0 0 0 0 0 1034 1034 1034 1041 1038
    1031 1028 1025 1025 1031 1031 1031 1031 1031 1031 1028 1028 1025
    1025 1025 1022 1022 1022 1022 1022 1022 1019 1019 1019 1019 1019
    1019 1016 1016 1016 1016 1016 1016 1016 1019 1016 1016 1016 1016
    1016 1016 1016 1013 1013 1013 1013 1013 1016 1013 1013 1010 1010
    1010 1010 1010 1007 1004 1004 1004 1007 1010 1010 1019 1022 1022
    1022 1019 1010 1010 1010 1010 1013 1022 1019 1016 1010 1010 1007
    1007 1007 1007 1013 1016 1013 1013 1010 1007 1001 1001 0 0 0 0 0 0 0
    0 0 0 0 0 0 0 1025 1019 1013 1007 995 989 987 0 0 0 0 0 1016 1016
    1016 1016 1016 1025 1025 1019 1019 1022 1022 1022 1022 1019 1019
    1019 1019 1019 1019 1019 1016 1016 1016 1016 1019 1019 1016 1016
    1016 1013 1013 1013 1013 1013 1010 1010 1010 1007 1007 1010 1010
    1010 1007 1007 1007 1010 1010 1007 1007 1007 1007 1010 1010 1007
    1007 1004 1004 1004 1004 1004 1001 1001 998 998 1001 1001 1001 1001
    998 995 995 1001 1001 1001 1001 1001 1001 1007 1007 1010 1004 1004
    1001 998 998 998 998 1004 1010 1010 1007 995 995 995 992 992 0 0 0 0
    0 0 0 0 0 0 0 0 1022 1016 1010 1004 995 989 984 0 0 0 0 1007 1007
    1004 1004 1001 1001 1007 1016 1016 1016 1019 1019 1016 1016 1013
    1013 1010 1010 1010 1010 1013 1010 1010 1013 1013 1013 1013 1010
    1010 1010 1007 1007 1007 1007 1007 1004 1004 1004 1004 1004 1004
    1004 1004 1004 1004 1004 1004 1004 1004 1001 998 998 1004 1004 1001
    1001 1001 1001 1001 998 998 998 995 995 998 998 998 998 995 995 992
    992 992 992 992 995 995 995 995 995 995 995 998 995 992 992 992 995
    998 1001 1004 995 989 989 992 989 989 0 1025 1022 1022 1013 1013
    1010 1010 1010 1013 1013 1016 1016 1013 1007 1004 995 989 984 0 0 0
    0 1001 1001 998 998 998 998 998 1004 1007 1007 1007 1007 1007 1010
    1007 1007 1007 1001 1001 1004 1001 1001 1004 1004 1004 1004 1004
    1004 1004 1004 1004 1004 1001 1001 1001 998 995 995 998 995 995 998
    995 995 992 992 1001 1001 998 995 995 995 998 998 995 995 995 995
    995 989 989 989 989 989 992 992 995 992 989 987 987 987 987 987 987
    987 987 984 984 987 987 992 989 989 987 987 987 987 987 987 984 984
    984 984 987 984 984 984 1019 1019 1016 1013 1013 1010 1010 1010 1010
    1010 1013 1013 1010 1007 1001 995 989 984 0 0 0 0 995 992 992 992
    995 992 992 992 992 992 992 992 995 995 998 995 995 992 992 995 995
    995 998 998 992 992 987 987 995 998 998 995 995 992 992 992 989 989
    992 992 992 987 987 987 984 984 987 987 989 992 989 989 992 992 992
    989 989 987 987 984 984 984 981 981 981 978 978 978 978 981 981 984
    984 984 981 981 981 981 981 981 978 978 981 984 984 981 978 978 975
    975 975 975 975 975 978 975 975 975 1019 1019 1016 1013 1013 1010
    1010 1010 1010 1010 1010 1013 1010 1007 1001 995 987 981 0 0 0 0 992
    992 989 987 984 981 978 978 978 987 987 987 984 984 984 987 987 987
    987 992 992 987 984 984 981 978 978 975 975 989 989 989 989 989 987
    987 984 984 984 984 984 981 981 978 975 973 970 967 967 970 973 978
    978 984 981 981 981 978 978 978 975 975 975 975 975 973 967 967 973
    973 973 975 975 975 973 970 970 973 970 970 973 970 970 970 970 970
    973 973 970 967 967 967 970 970 973 970 970 973 1013 1013 1016 1016
    1013 1013 1010 1010 1010 1010 1010 1013 1010 1007 1001 995 987 981 0
    0 0 0 989 989 984 978 975 975 975 970 970 970 973 975 975 978 978
    978 978 978 978 981 984 981 975 975 973 973 973 973 973 973 973 973
    973 973 975 975 975 973 970 970 973 973 973 973 970 970 964 964 964
    964 967 967 970 970 967 964 964 964 970 970 967 967 967 967 967 967
    964 964 967 967 967 967 967 967 967 964 964 964 964 964 964 964 964
    962 962 962 962 964 959 954 954 959 962 964 964 964 964 964 1013
    1013 1013 1013 1013 1013 1010 1010 1010 1013 1013 1010 1010 1007
    1001 989 987 981 0 0 0 0 989 975 970 970 973 973 970 967 967 967 970
    964 964 964 967 967 970 970 970 970 967 967 970 970 970 970 970 970
    967 967 964 964 964 964 964 964 964 964 964 962 962 962 962 964 964
    964 962 962 962 962 962 959 956 956 962 962 962 964 962 962 962 959
    959 959 959 959 959 959 959 956 954 954 954 954 956 956 956 959 959
    956 954 954 951 951 948 948 948 948 946 946 946 946 948 954 959 959
    956 956 956 1013 1013 1013 1013 1013 1010 1010 1010 1013 1013 1010
    1010 1007 1001 989 987 981 0 0 0 0 970 970 964 964 967 967 964 964
    959 959 959 962 959 959 962 962 962 959 959 959 959 959 964 967 967
    964 964 964 962 962 959 959 959 959 959 959 959 959 959 956 954 954
    954 956 959 959 959 959 959 959 954 954 951 951 951 951 954 954 954
    956 954 954 951 951 951 951 951 948 948 948 948 948 948 948 948 948
    948 946 946 943 943 943 943 946 943 943 940 940 940 940 940 940 940
    946 954 954 954 954 954 1013 1013 1013 1013 1013 1013 1013 1010 1010
    1010 1013 1013 1007 998 992 987 981 0 0 0 0 967 959 938 938 938 951
    951 951 948 948 954 954 954 951 951 951 951 951 951 951 951 951 951
    951 948 948 956 956 959 959 956 956 956 956 956 956 959 956 956 951
    951 948 948 951 951 954 951 948 948 948 946 946 948 948 946 946 946
    946 946 948 948 948 946 946 946 943 943 943 943 943 943 943 943 943
    943 943 943 940 940 938 938 938 938 938 938 938 938 938 938 938 935
    930 930 930 935 943 946 946 938 933 933 933 933 1013 1013 1013 1010
    1010 1010 1019 1016 1007 998 989 981 978 0 0 0 0 967 940 938 938 938
    940 943 946 946 946 948 948 948 946 946 946 946 946 946 943 943 943
    943 943 940 940 940 938 938 940 946 951 951 951 951 948 948 948 948
    946 946 946 946 948 946 946 943 940 940 940 940 940 943 943 940 940
    940 940 938 938 938 938 938 938 938 935 935 935 935 938 938 938 938
    938 938 938 938 935 935 933 933 933 933 935 933 933 933 933 933 933
    925 925 925 925 925 925 925 925 925 928 925 925 925 925 956 956 956
    954 954 1031 1025 1007 998 989 975 975 0 0 0 948 940 938 935 935 935
    935 940 940 943 943 943 940 940 940 940 938 938 938 938 940 938 938
    935 935 935 935 933 930 930 930 935 935 935 935 938 938 938 938 940
    940 940 940 940 940 938 938 938 935 933 933 933 933 935 935 938 938
    938 935 933 933 930 930 930 933 933 930 930 930 933 933 933 930 930
    933 933 933 933 933 930 928 925 925 928 928 928 928 928 930 928 925
    923 923 923 923 923 923 923 923 923 923 920 918 918 956 956 956 956
    954 954 954 954 954 956 956 956 959 0 0 0 946 938 933 930 930 930
    933 938 938 938 938 938 938 938 935 935 935 935 935 935 938 935 933
    933 933 930 930 928 928 928 928 930 930 928 928 928 928 928 928 933
    933 933 930 930 928 928 928 930 930 928 928 925 925 928 930 930 930
    930 930 928 925 925 925 925 925 928 925 925 925 925 925 925 925 925
    923 923 925 925 925 923 923 920 920 923 923 923 923 923 923 923 920
    920 920 920 918 918 918 918 918 920 918 918 913 908 908 956 956 956
    954 954 954 954 954 954 948 948 951 938 938 940 938 928 928 925 925
    925 928 930 928 928 930 930 928 928 928 928 930 930 930 930 930 930
    930 930 930 928 928 925 925 925 925 923 923 923 923 925 923 920 920
    920 918 918 920 920 925 925 925 925 923 923 920 920 923 923 920 920
    923 923 923 923 923 923 923 923 923 923 923 920 918 918 918 920 920
    920 918 918 918 915 915 915 915 913 913 915 915 915 915 915 918 918
    918 918 915 915 913 913 913 913 913 915 915 908 903 903 903 956 954
    954 954 951 951 951 946 946 946 948 948 938 938 938 930 925 925 920
    920 918 918 918 918 918 918 923 923 920 920 920 920 920 925 923 923
    923 923 925 925 923 923 920 920 920 920 918 918 918 918 918 918 915
    915 915 915 915 918 915 915 915 915 915 918 918 918 918 918 918 918
    918 918 918 920 920 920 918 918 918 918 918 918 915 915 913 913 915
    915 913 913 913 913 910 910 910 910 910 910 910 910 913 913 913 913
    910 910 910 910 910 910 906 906 906 906 901 898 898 898 898 896 896
    954 954 951 946 946 946 943 943 943 943 943 935 933 930 928 925 920
    918 918 915 915 915 915 915 915 920 918 918 915 915 913 913 915 913
    913 913 913 915 915 915 918 915 913 913 913 913 913 913 913 913 910
    910 910 910 910 910 913 913 910 910 910 908 908 908 908 910 913 913
    913 913 913 913 915 913 913 910 910 908 908 908 913 910 910 910 910
    910 910 910 910 910 910 908 906 906 908 908 908 908 908 908 908 906
    903 903 903 903 901 901 906 906 906 898 896 894 894 894 894 894 889
    889 889 954 948 943 943 943 943 943 943 943 943 935 933 930 928 925
    920 915 915 913 913 913 913 915 913 913 913 913 913 913 910 910 910
    910 910 910 910 910 910 910 910 910 908 908 908 908 908 908 908 908
    908 908 906 903 903 903 903 908 901 901 901 901 903 903 901 901 903
    903 903 908 908 908 908 906 906 901 901 901 901 901 903 903 903 903
    903 903 903 903 903 903 903 903 903 903 903 901 901 901 901 903 903
    901 901 901 898 898 896 896 903 903 903 894 889 889 889 889 889 889
    887 887 885 885 948 943 943 943 1016 1010 946 946 948 933 933 930
    925 923 918 915 913 913 913 913 910 910 910 910 910 910 910 910 910
    910 910 910 910 908 908 908 908 908 906 906 903 903 903 903 903 903
    903 903 903 903 903 901 901 901 901 901 898 898 898 898 898 898 898
    898 903 896 896 894 894 894 896 901 898 896 896 898 896 896 898 896
    894 894 894 894 894 894 894 891 891 889 889 891 894 891 891 894 896
    896 896 891 891 891 891 891 889 889 894 894 889 889 887 885 885 887
    887 887 887 885 885 885 1034 1031 1028 1019 1013 1007 989 978 978
    933 930 928 925 920 918 915 913 913 910 910 910 908 908 910 910 910
    910 910 910 910 910 910 910 908 908 908 908 908 906 906 903 903 903
    901 901 901 901 903 901 901 901 901 901 898 898 898 896 896 896 896
    896 896 894 894 894 894 894 894 894 894 894 894 891 891 894 894 894
    894 894 894 891 891 891 889 889 891 889 889 889 887 887 889 887 887
    887 887 887 887 887 885 885 885 887 887 887 887 887 887 887 887 885
    885 885 885 885 885 885 885 880 880 882 1022 1022 1019 1013 1007 984
    975 975 933 928 928 923 920 918 915 913 913 910 910 910 908 908 910
    910 910 910 910 910 910 910 910 910 908 908 908 908 908 906 906 906
    906 903 901 901 901 901 901 901 901 901 901 901 898 898 898 896 896
    896 896 896 896 894 894 894 894 894 894 894 894 894 894 891 891 891
    891 891 891 891 891 889 889 889 887 887 887 887 887 887 887 885 885
    887 887 885 885 885 885 885 885 882 882 885 885 885 885 885 885 882
    882 882 882 880 880 880 880 880 878 875 875 882 1022 1022 1016 1013
    1004 984 973 973 928 925 925 923 918 918 915 913 913 913 913 910 910
    910 910 910 910 910 910 910 910 910 910 910 908 908 908 908 908 908
    908 908 906 903 903 903 903 903 901 901 903 901 901 901 898 898 898
    898 898 898 898 898 896 891 891 894 894 894 894 894 894 894 894 891
    891 891 891 891 891 891 891 889 889 889 887 887 885 885 885 885 885
    885 885 887 885 882 882 885 882 882 885 882 882 885 882 882 882 882
    882 882 882 880 880 878 878 878 878 878 875 875 875 878 1022 1022
    1016 1013 1004 978 970 970 928 925 925 923 918 918 915 915 915 915
    913 913 913 913 913 913 913 913 913 913 913 913 910 910 910 910 908
    908 908 908 908 908 906 906 903 903 903 903 903 903 903 901 901 901
    901 898 898 898 898 898 898 898 896 891 891 894 894 896 894 894 894
    894 894 894 891 891 891 891 891 891 891 889 889 889 887 887 885 885
    885 885 885 885 885 885 885 882 882 882 882 882 885 882 882 885 882
    882 882 882 880 880 880 880 878 878 878 878 878 878 875 875 873 873
    1022 1022 1016 1013 1007 975 970 970 928 925 925 923 918 915 915 915
    915 915 915 915 915 915 915 915 915 915 913 913 913 913 910 910 910
    910 908 908 908 908 908 908 908 908 906 906 906 906 906 903 903 903
    901 901 901 898 898 898 898 898 898 898 898 896 896 894 894 896 896
    894 894 894 894 894 891 891 894 891 891 891 891 891 889 889 887 887
    885 885 885 885 887 885 885 885 885 882 882 882 882 882 882 885 885
    882 882 882 882 882 880 880 880 880 878 878 878 878 878 875 875 875
    873 873 1022 1022 1016 1010 1001 975 970 970 928 928 925 918 915 913
    913 915 915 918 918 915 915 915 915 915 915 918 915 915 913 910 910
    910 910 910 908 908 908 908 908 908 908 908 906 906 906 906 906 903
    901 901 901 901 901 901 901 898 898 898 898 898 898 896 896 898 898
    898 896 894 894 896 894 894 894 894 894 894 894 891 891 891 891 891
    891 889 889 889 889 889 889 889 889 887 887 885 882 882 882 882 882
    885 885 882 882 882 882 885 882 882 882 880 878 878 878 875 875 875
    875 875 873 873 875 1022 1016 1007 1001 981 967 967 0 928 925 915
    915 913 913 915 915 918 918 915 915 915 915 915 915 918 915 913 913
    910 910 910 910 910 910 908 908 908 908 908 908 906 906 906 906 906
    903 903 901 901 901 901 901 901 901 898 898 898 898 898 896 896 896
    901 901 898 894 894 894 896 896 896 894 894 894 894 894 891 891 891
    891 891 889 889 891 891 891 891 889 889 889 887 887 885 882 882 885
    885 885 885 885 885 885 885 885 885 885 882 882 880 878 878 878 875
    875 875 875 875 873 873 875 1022 1016 1007 1001 981 967 967 0 0 0
    915 915 915 915 915 915 918 918 915 915 915 918 915 915 915 913 913
    913 910 910 910 913 910 910 908 908 908 908 908 908 906 906 906 906
    906 903 903 901 901 901 901 901 898 898 898 898 898 898 898 896 896
    896 898 898 898 894 894 894 894 896 896 894 894 894 894 894 891 891
    891 891 891 889 889 891 891 891 889 889 887 887 887 887 885 885 885
    885 885 885 885 885 882 882 882 882 885 885 885 882 880 878 878 878
    875 875 875 875 875 875 875 875 1025 1016 1007 992 987 967 967 0 0 0
    915 915 915 915 915 918 918 915 915 915 915 915 915 915 915 913 913
    913 910 910 913 910 910 910 908 908 908 908 908 908 906 903 903 906
    906 906 903 901 901 901 901 901 898 898 898 898 898 898 898 896 896
    896 898 898 898 894 894 894 894 896 894 894 894 894 894 894 894 891
    891 891 891 889 889 889 891 891 889 889 887 887 885 885 885 885 885
    885 885 885 885 882 882 882 882 882 885 885 882 880 880 878 878 878
    878 875 875 875 873 873 875 875 1025 1016 1004 992 984 964 964 0 0 0
    918 918 918 918 918 918 918 915 915 915 915 915 915 915 915 913 913
    913 910 910 910 910 910 910 908 908 908 908 908 908 906 903 903 906
    906 906 906 903 901 901 901 901 898 898 898 898 898 898 898 896 896
    896 898 898 898 894 894 896 896 896 894 894 894 894 894 894 894 894
    894 891 891 889 889 889 891 889 889 887 885 885 885 885 885 885 887
    885 885 885 885 882 882 882 882 882 885 885 882 880 880 878 878 878
    875 875 875 873 871 871 875 875 1028 956 956 987 978 962 962 0 0 0 0
    918 918 918 918 918 918 918 915 915 918 918 918 918 915 915 915 915
    913 913 910 910 910 910 910 910 908 908 908 906 906 906 906 906 906
    906 906 903 901 901 901 901 901 901 898 898 901 898 898 896 896 898
    898 898 898 894 894 898 896 896 894 894 894 894 894 894 894 894 894
    894 891 891 891 889 889 889 889 887 885 885 885 885 885 885 887 885
    885 885 885 882 882 882 882 882 885 882 882 880 880 878 878 875 875
    875 873 873 871 871 875 875 956 956 956 956 956 954 954 0 0 0 0 923
    920 920 923 920 918 918 918 918 918 918 918 918 918 918 915 915 915
    913 913 910 910 910 910 910 908 908 908 906 906 906 906 906 906 906
    906 903 903 901 901 901 903 901 901 901 901 898 898 898 898 898 901
    898 898 898 898 898 896 896 894 894 894 894 894 894 894 894 894 894
    891 891 891 889 889 889 889 887 885 885 885 885 887 887 887 885 885
    885 885 885 885 885 882 882 885 882 882 882 880 878 878 875 875 875
    873 873 871 871 871 878 956 956 956 956 956 954 954 0 0 0 0 923 923
    923 923 923 918 918 918 918 918 918 918 918 918 915 915 915 915 913
    913 913 913 913 910 910 908 908 908 908 908 908 908 908 908 906 906
    906 903 903 903 903 901 901 901 901 901 898 898 898 898 898 901 898
    898 898 898 898 896 896 894 894 894 894 894 894 894 891 891 894 891
    891 891 891 891 889 889 887 887 887 887 887 887 887 887 887 887 887
    885 885 885 885 882 882 885 885 882 882 880 878 878 878 878 875 873
    873 871 871 871 956 956 954 951 951 951 954 954 0 0 0 0 923 923 920
    920 923 918 918 918 918 918 918 918 918 918 915 915 915 915 915 915
    915 913 910 910 910 908 908 910 908 908 908 908 908 908 906 906 906
    906 906 903 903 901 901 901 901 901 898 898 898 898 898 901 898 898
    901 898 898 896 896 894 894 894 894 894 894 894 891 891 891 891 891
    891 891 891 889 889 889 887 887 887 889 889 889 887 887 887 887 887
    885 885 885 882 882 885 885 885 885 880 878 878 878 878 878 875 875
    873 871 871 956 954 951 948 948 948 948 951 0 0 0 0 920 920 920 920
    920 918 918 918 918 920 920 918 918 918 918 918 915 915 918 915 915
    913 910 910 910 910 910 910 910 908 908 908 908 908 908 906 906 906
    906 906 903 901 901 901 901 901 898 898 898 898 898 901 901 898 898
    901 901 901 896 896 896 894 894 894 894 894 891 891 891 891 891 891
    891 891 891 891 889 889 887 887 889 889 889 889 887 887 887 887 887
    885 885 885 885 887 887 885 885 882 880 880 880 878 878 875 875 873
    869 869 954 951 946 946 946 946 948 951 0 0 0 0 920 920 920 920 918
    918 918 918 918 920 920 918 918 918 918 918 915 915 918 915 915 913
    913 913 910 910 910 910 910 910 910 910 910 908 908 908 906 903 903
    906 903 901 901 901 901 901 901 901 901 901 901 901 901 898 898 898
    898 901 898 896 896 894 894 896 894 894 894 894 894 894 891 891 891
    891 891 891 891 891 889 889 889 889 889 889 887 887 889 889 887 885
    885 885 885 887 887 885 885 882 880 880 880 880 880 878 875 873 869
    867 867 951 943 943 943 946 948 951 0 0 0 0 925 923 920 920 918 918
    918 918 918 920 920 920 918 918 918 918 918 918 918 915 915 915 915
    915 913 910 910 910 910 910 910 910 910 910 908 908 906 903 903 906
    903 901 901 901 901 901 901 901 901 901 901 901 901 901 901 898 898
    901 898 898 896 896 896 896 896 894 894 894 894 894 891 891 891 891
    891 891 891 891 891 891 891 889 889 889 887 887 889 889 887 885 885
    885 885 887 887 885 885 882 880 880 882 880 880 878 878 875 869 867
    867 951 943 943 943 946 948 954 0 0 0 928 928 923 923 920 918 918
    918 918 918 920 920 920 918 918 918 920 920 918 918 918 915 915 915
    915 915 910 910 910 910 910 910 910 910 908 908 908 906 906 906 906
    906 906 903 901 901 901 901 901 901 901 901 901 901 901 901 901 901
    901 898 898 898 898 898 898 896 894 894 894 894 894 894 894 894 894
    894 891 891 891 891 891 891 891 891 889 889 889 889 889 889 887 885
    885 887 887 887 885 885 882 880 880 882 882 880 880 878 875 871 867
    867 867 867 967 967 967 962 962 0 0 0 928 928 923 923 920 918 918
    918 918 918 920 920 920 918 918 918 918 918 918 918 918 918 918 918
    918 915 913 910 910 910 910 910 910 910 908 908 908 908 908 908 908
    908 908 906 903 901 901 901 901 901 901 901 901 901 901 901 901 901
    901 901 901 901 901 901 901 898 896 896 896 896 896 896 896 896 894
    894 891 891 891 891 891 891 891 891 891 889 889 889 889 889 887 887
    887 887 887 887 885 885 882 882 882 880 880 880 880 878 875 873 869
    869 0 0 0 975 975 967 967 0 0 0 930 928 925 923 920 920 920 920 918
    918 920 920 920 920 918 918 918 918 918 918 918 918 918 918 918 915
    913 910 910 910 910 910 910 910 908 908 908 908 908 908 908 908 906
    906 906 901 901 901 903 903 901 901 903 903 901 901 901 901 901 901
    901 901 901 901 898 898 896 896 896 896 896 896 896 896 896 896 894
    894 894 891 891 891 891 891 891 891 891 889 889 887 887 887 887 887
    889 887 885 885 882 882 882 880 880 880 880 878 875 875 871 871 0 0
    0 0 978 978 0 0 0 0 930 925 925 923 923 923 920 920 918 918 920 920
    920 920 918 918 918 918 918 918 918 918 918 918 915 915 913 913 910
    910 910 910 910 910 910 908 908 908 908 908 908 908 906 906 906 903
    903 903 903 906 906 906 903 903 901 901 903 901 901 901 901 901 901
    901 898 898 898 896 896 896 896 896 896 896 896 896 894 894 894 891
    891 891 891 891 891 891 891 889 889 887 887 887 887 887 889 887 885
    885 882 882 882 882 880 880 880 878 875 875 873 873 0 0 0 0 0 0 0 0
    0 0 0 925 925 925 925 925 920 920 918 918 920 920 920 920 920 920
    920 918 918 918 918 918 918 915 915 915 910 910 910 910 910 910 910
    910 910 910 910 910 908 908 908 906 906 906 903 903 903 903 903 906
    906 903 903 903 903 903 903 901 901 901 901 901 901 898 898 898 898
    898 898 896 896 896 894 894 894 896 894 894 894 894 894 891 891 891
    891 891 891 891 891 889 887 887 887 887 889 887 887 887 885 882 882
    882 880 880 880 878 875 873 871 871 0 0 0 0 0 0 0 0 0 0 925 925 925
    925 925 925 925 923 920 920 923 920 920 920 920 920 920 920 920 918
    918 918 918 915 915 913 910 910 910 910 910 910 910 910 910 910 910
    908 908 908 908 906 906 906 903 903 903 903 903 903 903 903 903 903
    903 903 903 901 901 901 901 901 901 898 898 898 898 898 898 896 896
    896 894 894 894 896 894 894 894 894 894 894 891 891 891 891 891 891
    891 891 889 887 887 887 889 889 885 885 885 885 885 885 882 882 880
    878 875 873 871 871 0 0 0 0 0 0 0 0 0 0 925 925 925 925 925 925 925
    923 923 923 923 923 920 920 920 920 920 920 920 918 918 918 918 915
    915 913 913 910 910 910 910 910 910 910 910 910 910 908 908 908 908
    908 908 908 908 906 906 906 906 903 903 903 903 903 903 903 903 901
    901 901 903 901 901 901 898 898 898 898 898 898 898 896 896 894 894
    894 894 894 894 894 894 894 894 891 891 891 891 891 891 891 889 887
    887 887 889 889 885 885 885 885 885 885 882 882 882 878 875 873 871
    871 0 0 0 0 0 0 0</data></Depth9850>
</opencv_storage>
