<?xml version="1.0"?>
<opencv_storage>
<Depth7094 type_id="opencv-matrix">
  <rows>100</rows>
  <cols>83</cols>
  <dt>w</dt>
  <data>
    720 719 717 714 713 708 706 703 701 700 698 696 694 693 691 690 688
    686 683 682 679 678 675 674 672 670 668 666 663 662 659 658 658 655
    654 654 655 658 661 663 666 668 670 671 675 679 682 688 690 693 694
    697 700 703 710 714 714 714 720 727 728 728 741 742 744 746 750 755
    757 762 764 767 769 771 774 780 780 789 0 0 0 0 0 720 720 719 716
    713 710 707 704 703 701 700 697 694 693 691 690 690 687 684 683 680
    679 675 674 674 671 670 667 663 662 659 658 658 655 654 654 655 658
    661 662 666 670 671 672 674 678 682 690 690 694 694 697 698 703 713
    714 716 716 719 727 728 728 741 742 744 747 750 754 755 762 764 767
    769 771 774 781 785 787 0 0 0 0 0 722 722 719 716 711 710 707 706
    703 701 700 697 694 694 693 690 690 687 684 684 682 679 676 674 674
    672 670 668 666 663 661 659 658 657 655 655 655 655 659 662 664 670
    672 674 674 674 680 690 690 694 696 697 698 703 713 713 714 716 719
    725 727 727 741 741 742 749 752 754 755 762 767 769 771 771 776 781
    787 787 0 0 0 0 0 723 722 719 717 711 710 708 706 703 701 700 697
    696 694 693 691 690 687 686 684 683 680 678 675 674 672 670 668 667
    663 661 659 659 657 655 655 655 655 658 661 664 671 671 674 674 674
    680 682 690 694 696 696 697 703 713 713 714 717 720 725 727 727 741
    741 742 750 752 754 755 761 767 767 771 771 776 780 787 787 0 0 0 0
    0 727 723 720 719 716 711 708 706 704 703 701 698 696 694 694 691
    688 687 686 686 684 680 678 675 674 674 671 668 667 664 662 661 661
    658 657 657 657 657 658 659 662 671 671 674 674 675 680 682 690 694
    696 696 697 713 713 714 716 717 720 725 728 730 741 741 752 752 754
    754 755 761 767 767 773 773 774 776 785 785 0 0 0 0 0 727 723 722
    722 719 714 710 707 706 703 701 700 698 696 694 691 688 688 686 686
    683 680 679 676 675 674 671 668 667 664 663 662 661 659 658 658 657
    657 658 659 661 667 670 674 675 676 679 683 690 691 694 696 697 713
    713 714 716 719 720 725 728 730 734 741 752 752 754 754 757 759 764
    767 773 773 774 776 785 785 0 0 0 0 2241 727 725 723 722 719 716 710
    708 707 706 704 701 700 697 696 693 690 688 687 684 682 680 679 678
    676 675 674 671 667 664 663 662 661 659 658 658 657 657 658 659 661
    667 670 674 675 678 679 682 690 691 694 696 697 714 714 714 716 719
    720 725 728 730 734 738 752 752 754 755 759 759 764 767 773 774 774
    778 787 0 0 0 0 0 2241 727 725 723 722 719 716 711 708 707 706 706
    703 701 698 696 694 691 690 687 684 682 680 679 678 676 675 674 671
    670 666 663 662 661 659 658 658 658 658 658 659 663 667 671 674 675
    678 680 682 688 694 694 696 697 703 711 716 716 719 722 727 730 730
    734 738 752 752 754 755 759 761 764 767 773 774 776 781 787 0 0 0 0
    0 2271 727 725 723 722 719 716 711 708 707 706 706 703 701 698 696
    694 691 691 688 686 684 682 680 679 678 675 674 671 670 667 663 662
    662 659 658 658 658 658 658 659 663 667 670 675 676 679 680 682 687
    693 696 698 700 703 708 714 716 719 722 727 728 730 734 738 752 752
    754 755 759 762 764 767 773 774 780 781 787 0 0 0 0 0 2271 727 725
    723 722 720 717 714 711 708 707 706 703 701 700 697 694 691 691 690
    686 684 682 680 680 679 675 674 671 670 667 664 663 663 659 658 658
    658 658 659 663 664 667 668 675 678 680 682 684 687 693 696 700 701
    703 707 714 716 719 723 727 728 730 734 738 752 752 755 757 761 764
    766 767 773 776 778 781 787 0 0 0 0 0 2286 728 725 723 722 720 717
    714 711 708 707 706 704 701 700 697 696 691 691 690 687 686 683 682
    680 679 676 674 671 670 667 667 664 664 663 659 658 658 658 659 663
    666 667 668 675 678 679 683 686 688 693 697 701 703 704 707 708 719
    720 722 727 728 731 734 738 744 747 754 754 761 766 767 769 773 774
    778 781 787 790 792 0 0 0 2286 0 725 725 722 720 719 716 711 710 707
    706 704 701 700 698 696 691 691 690 688 686 684 682 680 679 676 675
    672 671 667 666 664 664 663 661 659 658 658 658 661 667 668 668 674
    676 679 683 684 688 693 697 703 703 704 707 708 717 719 722 727 728
    730 734 738 744 746 752 752 761 766 767 769 773 774 778 785 789 790
    790 0 0 0 0 0 725 725 723 720 719 717 713 711 708 706 704 703 701
    700 694 691 691 691 688 686 684 683 682 680 678 675 674 672 668 666
    664 664 663 662 659 658 657 657 658 666 670 670 674 675 678 683 684
    687 694 697 701 703 704 707 711 714 716 719 727 728 730 733 734 742
    746 752 752 761 764 769 769 773 776 778 785 787 789 789 0 0 0 0 0
    725 725 723 722 720 717 713 711 710 707 704 703 701 700 694 693 693
    691 690 687 686 684 682 680 678 676 674 672 668 667 666 664 663 662
    659 658 657 657 658 664 668 670 674 675 678 682 684 687 694 697 701
    703 706 706 711 714 716 719 727 728 731 733 734 739 739 754 754 761
    764 767 769 773 776 781 785 787 787 787 0 0 0 0 731 727 725 725 722
    720 719 714 713 711 708 706 703 701 700 698 694 694 691 690 688 686
    684 683 680 678 676 675 672 670 667 666 664 663 662 659 659 658 658
    659 664 667 671 674 675 680 682 684 687 690 696 701 703 706 706 707
    713 716 717 727 730 733 734 736 739 739 754 755 762 764 767 769 774
    778 783 783 787 783 783 0 0 0 0 731 728 727 727 723 722 717 714 713
    711 708 706 704 703 701 700 694 694 693 690 688 686 684 683 680 679
    678 675 672 670 668 666 664 663 662 661 659 659 659 659 663 666 671
    674 675 679 682 684 687 690 696 697 701 704 706 707 713 716 717 727
    730 733 734 738 739 739 761 761 762 766 767 769 774 778 783 783 787
    783 783 0 0 0 0 733 731 728 727 725 722 717 714 713 711 708 707 704
    703 701 700 697 696 693 690 688 686 684 683 680 679 679 676 674 671
    668 666 664 663 663 661 659 659 659 659 663 666 670 674 676 679 682
    684 688 691 694 697 701 704 706 707 717 719 719 725 730 734 738 739
    736 736 759 761 762 766 767 769 774 778 783 785 787 785 785 0 0 0 0
    0 731 730 728 725 723 717 716 713 711 708 707 706 703 701 700 698
    696 694 691 688 687 686 684 682 680 679 678 675 672 668 664 664 664
    663 662 659 659 659 659 664 667 670 674 676 679 682 684 688 690 694
    697 701 704 706 708 717 720 720 725 730 734 738 739 736 736 757 759
    761 766 767 771 774 778 781 785 789 792 792 0 0 0 0 0 731 731 728
    725 723 719 717 713 711 710 708 706 704 701 701 698 696 694 691 688
    687 686 684 683 680 679 675 675 674 670 664 664 664 663 662 659 659
    659 659 663 668 670 674 676 680 682 684 688 690 694 697 701 703 706
    708 717 722 722 727 730 733 736 736 741 744 754 759 761 766 767 771
    774 778 781 783 789 792 792 0 0 0 0 0 731 731 728 725 723 720 717
    714 713 711 708 707 704 703 701 700 697 694 691 690 688 686 684 683
    680 679 675 675 674 670 666 664 664 663 662 661 659 659 659 663 666
    668 674 676 680 682 684 688 691 693 697 701 703 707 710 717 722 722
    727 731 733 736 736 736 749 754 759 761 764 766 771 776 778 780 781
    789 792 792 0 0 0 0 0 731 731 730 727 723 720 719 716 713 711 710
    708 706 704 703 701 697 694 693 690 690 687 684 684 682 679 675 675
    674 671 668 666 666 664 663 662 661 659 659 663 666 668 674 678 680
    682 686 688 691 693 697 701 701 704 714 719 722 723 728 731 733 736
    736 736 752 755 759 761 764 766 771 778 780 780 781 789 792 789 789
    0 0 0 0 733 733 730 727 723 719 717 716 713 711 710 708 706 706 703
    701 697 696 693 691 690 687 684 684 682 680 675 674 674 671 670 667
    667 664 664 662 662 662 662 662 664 672 674 678 679 680 686 688 691
    693 697 701 701 704 714 716 719 723 728 731 733 736 741 741 752 755
    759 761 762 766 771 778 780 780 781 792 794 789 789 0 0 0 0 734 733
    731 728 723 719 717 716 714 711 710 708 706 706 703 701 698 696 693
    691 691 688 686 684 683 680 676 674 674 671 670 668 668 666 664 663
    662 661 661 661 664 672 675 678 679 680 686 688 690 691 697 703 703
    707 710 713 716 723 728 731 734 736 739 741 754 755 759 761 762 766
    773 778 780 780 781 792 794 792 792 0 0 0 0 0 733 731 730 725 720
    717 716 714 713 710 708 707 706 703 701 700 697 696 693 691 690 687
    686 683 682 678 675 675 672 670 670 668 667 664 663 662 661 661 661
    662 674 675 676 678 679 684 688 690 691 697 701 704 707 708 711 714
    725 728 731 733 738 739 741 757 757 759 761 762 766 773 778 781 781
    785 792 794 792 792 0 0 0 0 0 0 731 730 727 723 719 716 714 713 710
    708 707 706 703 701 700 697 696 694 691 690 688 687 684 682 679 676
    675 674 671 670 668 667 664 663 662 662 661 661 662 674 676 676 678
    679 684 687 690 691 697 700 706 707 708 711 713 725 730 731 733 738
    741 742 757 757 759 761 762 767 773 778 780 783 787 794 796 796 796
    0 0 0 0 0 0 733 731 728 725 723 720 717 714 711 711 708 706 703 703
    701 698 697 696 694 691 690 687 686 684 679 676 676 674 672 670 670
    667 666 664 662 662 661 661 662 670 674 675 678 680 686 687 690 691
    697 700 704 707 708 713 713 725 730 731 733 736 741 744 759 759 759
    761 762 767 773 778 780 783 787 790 794 798 798 0 0 0 0 0 0 733 733
    728 727 723 722 719 716 713 711 708 707 706 704 701 698 697 696 694
    691 690 688 686 684 683 678 676 675 674 671 670 667 666 664 663 663
    662 662 664 668 674 675 675 682 686 687 690 691 697 697 701 707 708
    719 719 723 730 731 733 736 741 744 759 759 761 761 762 767 771 776
    776 781 787 790 794 800 800 0 0 0 0 0 738 736 733 731 727 723 722
    719 717 713 713 710 708 707 704 701 700 698 697 694 691 691 690 687
    684 683 679 676 675 674 671 670 667 666 664 663 663 663 663 664 668
    672 675 675 682 686 688 690 693 697 697 701 706 708 717 717 723 728
    733 733 736 741 742 759 759 759 761 762 767 771 776 776 781 789 792
    794 798 800 0 0 0 0 0 738 736 733 728 727 723 722 719 717 714 713
    711 708 707 706 703 700 698 697 694 691 691 690 688 686 684 679 678
    675 674 672 670 668 667 666 664 664 664 664 664 668 672 674 676 683
    686 688 690 693 697 698 701 706 708 716 717 723 728 733 734 738 741
    741 741 759 759 761 764 767 771 774 776 781 787 792 794 798 0 0 0 0
    0 0 0 736 731 728 727 723 722 719 717 714 713 711 708 707 706 703
    701 700 697 694 693 691 690 688 687 684 679 678 676 675 672 670 668
    668 667 666 664 664 664 666 670 671 674 676 682 684 688 690 693 697
    701 703 706 708 716 720 725 731 734 734 738 741 741 741 761 761 764
    766 767 771 774 776 781 787 794 794 798 807 0 0 0 0 0 0 738 731 731
    728 725 720 719 717 716 713 711 710 707 706 704 701 701 698 694 693
    691 690 688 687 684 680 679 678 675 674 671 670 668 667 667 664 664
    664 664 668 670 674 676 682 684 688 690 697 697 703 704 706 710 720
    720 723 728 731 734 739 741 741 741 761 761 764 766 769 773 774 776
    781 787 794 796 798 807 0 0 0 0 0 0 0 731 731 728 725 720 719 717
    717 714 713 710 708 706 704 703 701 698 697 694 691 690 688 687 684
    682 679 678 676 674 671 670 670 668 666 664 664 664 664 667 668 671
    682 682 684 686 690 698 698 701 704 706 710 717 717 719 722 731 734
    738 741 744 747 747 761 764 766 769 773 776 778 781 787 792 794 798
    802 0 0 0 0 0 0 0 731 731 728 725 720 719 719 717 716 713 711 710
    706 704 703 701 698 697 696 693 691 690 688 686 682 679 679 678 675
    672 670 670 668 666 664 664 664 664 667 668 671 680 680 684 686 690
    697 697 701 704 706 711 716 716 719 722 731 733 736 741 744 747 747
    759 764 764 769 773 776 776 780 789 792 794 796 802 0 0 0 0 0 0 0
    733 731 728 723 720 719 719 717 716 713 711 711 706 706 703 701 700
    698 696 693 691 688 687 686 684 679 679 678 675 672 671 670 668 667
    666 666 666 666 667 670 674 680 680 684 686 690 696 696 700 704 706
    711 714 714 719 723 731 733 736 739 744 747 749 759 762 764 767 771
    774 776 780 787 790 794 796 802 0 0 0 0 0 0 0 734 733 728 723 720
    720 719 719 717 714 713 711 707 706 703 701 700 698 696 694 691 688
    687 686 684 679 679 679 676 674 670 670 668 667 666 666 666 666 667
    670 674 680 680 683 686 693 694 696 697 706 707 711 714 714 719 728
    731 731 736 739 746 747 754 759 762 766 767 771 774 778 781 787 790
    794 796 802 0 0 0 0 0 0 0 736 734 733 725 723 722 720 719 717 714
    713 710 707 707 704 703 700 698 697 694 693 690 688 686 686 680 680
    679 679 674 670 670 668 667 667 667 667 667 668 670 678 680 680 683
    684 693 694 697 697 706 708 710 714 714 719 727 731 731 736 741 746
    747 747 759 762 766 767 773 774 778 785 787 790 794 798 802 0 0 0 0
    0 0 0 738 734 734 730 725 723 722 719 717 716 714 710 707 707 706
    703 701 700 697 696 694 690 688 687 684 680 680 679 679 675 671 670
    670 668 667 667 667 668 668 670 675 680 680 683 684 694 694 697 697
    706 708 710 714 714 720 727 730 731 736 741 746 747 747 759 761 767
    767 774 774 778 787 787 792 798 802 803 0 0 0 0 0 0 0 0 734 734 731
    727 723 722 720 717 717 714 710 708 708 707 704 701 700 698 696 694
    691 690 688 684 683 682 679 678 675 671 670 670 668 667 667 667 668
    668 670 672 682 682 683 684 694 696 696 701 706 708 711 713 713 720
    730 730 733 738 741 746 747 747 757 761 767 767 773 774 778 783 787
    790 796 802 803 0 0 0 0 0 0 0 0 734 733 731 728 725 723 720 719 717
    714 711 708 708 707 704 703 701 698 697 694 693 691 690 686 683 682
    679 678 675 674 671 670 670 668 668 668 668 668 670 672 683 683 683
    686 694 696 696 701 706 710 711 713 713 720 730 730 733 736 741 747
    747 747 757 761 767 767 773 776 778 783 789 789 796 802 805 0 0 0 0
    0 0 0 0 734 731 731 730 727 725 722 719 717 716 711 710 708 707 704
    703 701 700 697 696 694 693 690 686 684 683 680 678 675 674 672 671
    671 668 668 668 668 668 670 675 682 682 683 688 691 697 697 700 707
    710 713 713 714 725 731 731 733 736 742 746 747 749 754 762 767 767
    771 774 781 783 789 789 794 802 805 0 0 0 0 0 0 0 0 0 731 731 730
    727 723 723 720 719 716 714 710 708 707 706 703 701 700 697 696 694
    693 691 687 684 682 680 679 676 675 674 672 671 670 670 668 668 668
    671 675 680 680 683 688 691 697 697 700 707 711 713 713 714 725 731
    731 733 736 741 746 749 749 750 762 767 767 769 774 781 783 789 789
    794 802 803 0 0 0 0 0 0 0 0 0 731 731 730 727 723 723 722 719 717
    716 710 708 707 706 704 703 701 698 697 694 693 691 686 684 682 680
    679 678 675 675 674 672 670 670 668 668 670 674 678 680 680 683 688
    691 697 697 698 706 711 713 713 716 725 731 731 733 736 741 746 747
    747 750 766 767 767 769 773 781 783 787 789 796 802 803 0 0 0 0 0 0
    0 0 738 733 731 730 727 725 722 722 719 719 716 711 710 708 707 704
    703 701 700 697 694 693 690 686 684 684 682 680 679 676 675 674 674
    671 670 668 668 670 676 678 679 680 683 688 691 698 698 698 706 711
    713 713 716 727 731 731 731 736 742 747 747 747 749 767 767 769 769
    773 780 787 787 790 796 802 803 809 809 0 0 0 0 0 0 738 738 736 734
    730 730 722 722 719 719 717 711 711 708 707 706 703 701 700 697 696
    694 690 687 686 684 684 683 679 676 676 675 674 671 670 670 670 671
    676 678 679 680 683 690 693 698 698 701 707 710 713 713 716 725 731
    731 731 736 744 747 747 747 749 767 767 769 769 773 780 789 789 794
    796 802 803 805 809 0 0 0 0 0 0 739 738 738 734 731 730 725 722 720
    719 717 711 711 708 707 706 703 701 700 697 696 694 690 688 686 686
    684 683 680 678 676 675 674 672 671 670 670 671 675 678 680 680 686
    691 693 700 700 703 707 710 713 713 719 725 728 731 731 741 744 746
    746 747 764 767 767 769 771 778 780 789 789 792 796 802 803 805 0 0
    0 0 0 0 0 739 738 736 736 733 730 725 723 720 719 717 716 711 710
    708 707 706 704 701 697 697 696 691 690 687 686 684 683 680 679 675
    675 674 674 672 671 671 671 674 678 680 680 686 690 693 698 698 703
    706 708 713 713 717 722 728 731 731 741 742 746 746 747 761 767 767
    769 771 778 780 787 787 792 800 802 803 805 0 0 0 0 0 0 0 739 738
    736 734 731 730 725 723 722 719 717 716 713 710 708 707 706 706 703
    700 698 697 691 691 688 686 684 683 680 679 675 675 674 674 672 671
    671 671 674 678 680 680 686 688 691 696 696 703 704 708 713 713 717
    722 728 733 733 739 739 746 747 747 761 766 767 767 771 778 780 783
    787 789 800 802 803 805 0 0 0 0 0 0 0 0 736 734 734 731 730 725 725
    723 720 717 716 713 711 708 708 707 706 703 701 700 698 691 691 688
    687 684 683 682 680 676 675 674 674 674 671 671 671 674 676 680 680
    686 688 691 694 696 701 704 707 711 713 719 723 728 731 731 739 739
    746 747 747 754 766 767 767 771 778 780 783 783 789 800 802 803 0 0
    0 0 0 0 0 0 0 736 734 734 733 730 727 725 723 722 719 716 714 713
    710 708 707 704 703 701 700 698 693 691 688 687 686 684 682 680 676
    675 675 675 672 671 671 672 674 676 679 680 686 687 691 694 698 701
    704 707 710 713 717 725 728 730 731 739 741 746 747 750 754 766 767
    769 773 778 780 781 783 794 798 803 805 809 811 0 0 0 0 0 0 0 736
    734 734 733 730 727 727 725 722 719 716 714 713 710 708 707 704 703
    701 700 698 693 691 690 688 686 684 683 680 678 676 675 675 672 671
    671 671 672 676 679 683 686 687 691 696 698 701 706 707 710 713 717
    722 728 730 734 739 741 747 747 754 755 766 771 771 774 778 780 781
    783 792 796 803 809 809 811 0 0 0 0 0 0 0 736 736 736 734 731 728
    727 725 723 720 716 714 714 711 710 707 704 703 701 700 697 693 691
    690 690 687 684 683 680 678 676 675 675 672 671 671 671 672 676 679
    684 684 688 691 696 698 701 706 707 711 714 719 722 728 731 734 739
    741 747 747 752 754 766 767 773 774 778 780 781 785 792 796 803 809
    809 811 0 0 0 0 0 0 0 0 738 736 736 733 730 728 725 723 722 719 714
    714 713 711 708 706 703 701 700 697 694 693 691 690 687 684 683 680
    679 678 676 675 674 671 671 672 672 675 679 684 684 688 693 697 700
    703 706 707 711 714 719 722 728 731 738 739 741 749 749 752 754 767
    767 769 774 776 780 783 789 792 796 803 807 809 811 0 0 0 0 0 0 0 0
    738 738 736 733 730 728 725 723 722 719 716 714 713 711 708 706 704
    701 700 698 697 693 691 690 688 686 683 682 679 678 676 675 674 671
    671 672 672 675 680 684 686 690 693 696 698 703 706 707 713 714 717
    722 734 734 736 739 741 746 749 752 754 767 767 769 773 776 781 783
    789 792 796 802 803 809 811 0 0 0 0 0 0 0 0 0 738 736 733 731 728
    727 725 723 722 716 714 713 711 710 707 706 703 701 700 698 693 691
    690 690 686 684 683 680 679 678 675 674 671 671 672 672 675 680 684
    688 690 693 696 698 701 706 707 711 713 717 722 734 734 736 739 741
    742 750 754 755 761 767 767 773 778 783 783 787 794 798 802 803 807
    809 0 0 0 0 0 0 0 0 742 739 736 733 731 730 727 725 723 720 717 714
    714 713 711 708 707 704 703 701 700 697 693 691 690 687 684 683 682
    680 679 675 674 674 674 674 674 675 680 686 688 688 691 694 698 701
    706 707 711 713 717 719 738 736 736 741 741 742 750 754 755 759 767
    767 773 778 781 783 787 796 800 802 805 807 809 0 0 0 0 0 0 0 0 742
    739 738 734 733 733 727 725 723 720 720 717 714 713 711 710 707 706
    703 701 700 697 693 691 690 687 686 683 682 680 679 675 675 674 674
    675 675 676 680 683 686 688 691 693 698 701 704 708 710 714 717 719
    738 738 739 741 742 746 752 754 755 759 767 769 773 778 781 783 792
    796 800 802 805 807 809 0 0 0 0 0 0 0 0 741 741 739 738 736 734 730
    728 725 722 720 717 716 714 713 710 708 706 706 703 701 698 694 691
    690 688 686 684 683 680 679 676 675 675 675 675 675 679 679 683 684
    688 691 693 698 701 704 707 710 714 719 720 722 739 739 741 742 746
    750 752 755 761 767 771 774 778 781 783 792 798 800 803 803 805 805
    0 0 0 0 0 0 0 0 741 741 739 738 738 734 731 728 725 722 722 719 716
    714 713 711 708 707 706 703 701 700 696 693 690 688 686 684 683 682
    680 676 676 675 675 676 676 679 679 682 684 687 690 694 698 701 704
    707 711 714 719 720 722 738 739 739 742 746 750 752 754 762 767 773
    774 780 781 783 792 796 800 802 803 805 805 0 0 0 0 0 0 0 0 741 741
    739 739 738 736 731 730 727 723 722 720 717 714 713 711 708 707 706
    703 701 700 697 694 691 688 687 686 684 683 680 678 676 675 675 675
    675 678 680 682 684 687 690 694 697 701 704 707 711 714 719 720 722
    738 739 739 741 747 750 752 754 757 767 773 776 780 781 783 790 796
    800 802 803 805 805 0 0 0 0 0 0 0 0 0 741 739 739 738 734 731 730
    725 723 723 720 717 714 714 713 710 708 706 704 701 700 697 696 693
    690 688 686 684 683 679 678 676 674 674 675 675 676 680 683 684 687
    690 694 697 701 704 707 713 714 717 720 722 734 739 739 741 747 749
    752 755 757 774 774 776 780 783 783 790 796 800 803 803 805 805 817
    0 0 0 0 0 0 0 0 741 741 739 738 734 733 730 725 723 723 722 719 716
    714 713 711 708 707 704 701 700 697 697 694 691 688 687 686 684 679
    678 676 674 674 675 675 676 680 683 684 687 691 696 698 701 704 707
    711 714 717 720 725 733 738 739 742 746 749 752 755 757 774 774 776
    780 781 785 790 796 800 803 805 811 811 817 0 0 0 0 0 0 0 0 742 741
    739 738 734 733 731 727 725 725 722 719 717 714 713 711 708 707 704
    703 700 698 697 696 693 690 688 686 684 679 679 676 675 675 675 675
    676 679 683 684 687 691 696 700 703 704 707 710 716 719 722 725 730
    736 739 742 746 749 754 757 757 761 774 776 780 781 785 790 796 800
    803 807 811 813 817 0 0 0 0 0 0 0 0 744 742 741 738 734 733 731 727
    725 725 723 720 719 716 713 711 710 708 707 704 700 698 697 696 693
    691 688 687 684 679 679 676 675 675 675 675 676 676 683 684 687 691
    697 700 703 704 707 710 716 719 723 727 728 731 739 742 746 750 754
    757 757 761 773 774 776 781 787 790 794 798 803 807 811 813 817 0 0
    0 0 0 0 0 0 744 742 741 738 734 733 731 728 727 727 723 722 720 719
    714 713 711 708 708 706 701 700 697 696 694 691 688 687 684 679 679
    676 675 675 675 675 676 676 682 686 687 690 696 700 703 704 707 708
    716 719 723 725 727 730 739 742 746 750 754 759 759 761 769 774 776
    781 789 792 794 798 803 807 809 813 819 0 0 0 0 0 0 0 0 746 744 742
    739 736 733 731 728 727 727 725 722 720 719 716 714 713 710 708 707
    701 700 698 697 694 693 690 688 686 684 680 678 678 676 675 675 676
    676 682 684 687 690 696 698 703 704 707 708 717 720 723 725 727 730
    741 741 747 752 755 759 759 762 766 774 774 781 789 792 794 800 803
    807 809 813 817 0 0 0 0 0 0 0 0 747 746 742 741 736 734 733 731 728
    727 725 723 720 719 717 714 713 710 708 706 703 701 698 697 694 693
    690 690 688 686 682 679 678 676 676 676 676 676 680 683 687 690 697
    698 701 704 708 710 714 719 722 725 728 731 741 741 747 750 755 757
    759 762 766 774 774 780 785 792 796 802 803 807 809 813 817 0 0 0 0
    0 0 0 0 747 747 744 742 738 736 733 731 728 728 725 723 720 719 717
    716 713 710 708 706 703 701 700 697 696 694 691 690 688 686 686 683
    682 678 676 676 676 676 680 683 687 691 696 697 698 703 707 711 714
    719 722 725 728 734 739 742 747 750 754 757 759 762 767 774 776 780
    785 790 796 802 803 807 811 813 819 0 0 0 0 0 0 0 0 0 747 744 742
    741 738 733 733 731 730 725 723 720 720 719 716 713 713 710 706 704
    703 701 698 697 694 691 690 688 686 686 683 682 679 676 676 676 676
    680 683 688 691 696 697 698 703 707 711 716 719 722 725 730 736 739
    742 747 750 754 755 757 761 767 773 778 780 783 790 796 800 805 807
    811 813 819 0 0 0 0 0 0 0 0 0 0 744 742 741 739 736 733 733 730 727
    723 720 720 719 716 714 713 711 707 706 703 701 700 697 694 691 690
    688 687 686 684 680 679 678 676 676 676 682 684 687 691 696 697 698
    703 707 710 716 719 722 723 736 736 739 741 742 750 754 755 757 761
    769 773 778 780 783 789 794 798 803 805 811 813 823 0 0 0 0 0 0 0 0
    0 0 746 744 742 741 738 734 734 731 728 727 723 720 719 717 714 714
    713 707 706 703 703 700 698 697 693 691 690 688 686 684 680 679 679
    678 678 678 682 683 687 691 696 697 698 703 706 710 716 719 722 723
    736 736 739 741 741 750 754 755 757 759 774 774 780 781 785 789 792
    796 802 805 811 813 817 0 0 0 0 0 0 0 0 0 749 746 744 742 741 738
    736 734 731 730 727 723 720 720 719 716 714 713 708 706 704 703 700
    698 697 694 691 690 687 686 684 680 680 679 678 678 678 680 683 687
    691 694 697 700 703 706 710 714 717 722 723 728 734 739 741 741 750
    752 755 757 759 761 778 781 783 785 789 792 796 802 805 813 815 817
    0 0 0 0 0 0 0 757 755 749 747 744 742 742 739 738 734 731 730 727
    723 720 720 719 716 714 711 708 706 704 703 701 700 697 696 693 690
    687 686 684 682 680 679 679 679 679 679 686 688 691 694 697 700 701
    704 710 714 717 722 725 727 734 739 741 742 750 752 755 757 759 761
    778 781 783 785 789 792 798 802 805 811 815 819 0 0 0 0 0 0 0 757
    755 750 749 746 744 742 739 738 734 733 730 727 725 720 720 719 717
    716 711 708 706 704 703 701 700 697 696 694 691 688 686 684 682 680
    679 679 679 679 679 686 688 691 693 697 700 701 704 710 713 716 722
    725 727 733 741 742 744 749 752 755 757 759 761 778 780 783 785 789
    794 800 803 805 809 811 819 0 0 0 0 0 0 0 0 755 750 749 746 744 742
    739 738 734 733 730 728 725 722 720 719 719 716 711 708 706 704 703
    701 700 697 696 694 691 690 687 684 683 682 679 679 679 679 679 687
    690 691 693 697 700 703 706 710 713 716 722 725 727 730 741 742 744
    749 752 755 757 761 762 778 780 783 785 789 794 800 803 803 809 811
    817 0 0 0 0 0 0 0 0 0 752 749 747 744 742 739 738 736 733 730 728
    727 723 722 720 719 716 711 708 707 706 704 701 700 697 697 694 693
    690 687 684 683 682 680 679 679 678 678 682 688 691 693 696 700 703
    706 708 713 716 722 723 727 730 741 744 744 747 750 755 759 761 764
    776 780 783 785 789 794 800 803 803 809 813 817 0 0 0 0 0 0 0 0 0 0
    750 749 746 744 741 738 736 733 731 730 727 725 722 720 719 719 714
    710 707 706 704 703 701 698 697 694 693 691 688 684 684 683 680 679
    679 678 678 682 687 693 693 696 701 703 706 708 713 716 722 723 725
    731 739 744 744 746 750 757 759 761 767 776 780 785 787 789 792 798
    802 803 809 813 817 0 0 0 0 0 0 0 0 0 752 750 749 746 744 742 739
    738 734 731 730 728 727 723 722 720 717 716 710 708 707 704 703 701
    700 697 696 693 690 688 684 684 683 682 680 679 679 679 683 687 691
    694 697 701 703 706 708 713 716 722 723 725 728 739 744 746 746 749
    757 759 761 769 774 778 783 787 789 790 798 802 803 809 813 817 0 0
    0 0 0 0 0 0 0 750 750 750 749 746 742 741 739 736 733 730 728 727
    725 722 720 717 716 711 710 708 707 704 703 701 700 696 694 690 688
    686 684 683 682 680 679 679 679 683 687 690 694 697 700 703 706 710
    713 716 720 723 727 728 738 741 746 746 749 755 761 761 769 774 778
    781 785 789 790 798 802 803 809 813 817 0 0 0 0 0 0 0 0 0 750 750
    750 749 749 746 741 738 736 733 731 730 728 725 722 720 719 716 714
    711 708 707 704 703 701 700 697 696 693 690 686 686 684 683 680 679
    679 680 684 686 688 694 697 700 703 707 711 713 716 720 723 728 731
    736 741 746 746 750 755 759 761 769 776 778 781 783 787 790 798 800
    803 811 815 817 0 0 0 0 0 0 0 0 0 0 750 750 749 749 746 742 738 738
    734 733 730 728 727 723 720 719 716 714 711 710 707 706 704 703 701
    697 696 694 690 687 686 684 683 680 680 680 680 683 686 688 694 697
    700 704 707 711 713 716 720 723 728 731 736 739 747 747 750 755 759
    761 769 773 776 781 783 787 790 798 800 803 813 817 819 0 0 0 0 0 0
    0 0 0 0 0 752 749 749 747 744 738 738 736 734 731 730 728 725 722
    719 717 714 711 710 708 707 704 703 701 698 696 694 690 688 686 684
    683 680 679 679 679 682 686 688 694 697 700 704 707 710 713 716 720
    723 728 730 736 739 747 747 749 754 755 766 771 773 776 781 785 787
    790 796 800 805 813 817 819 0 0 0 0 0 0 0 0 0 0 0 752 749 749 747
    744 739 739 736 734 733 730 728 727 723 720 717 714 714 711 710 707
    704 703 701 698 696 694 690 687 686 684 683 680 679 679 679 680 686
    690 694 696 698 704 707 708 713 716 720 723 728 730 736 738 747 747
    749 754 755 762 767 771 776 781 785 787 792 796 800 803 813 817 823
    0 0 0 0 0 0 0 0 0 0 0 752 749 749 747 744 739 739 738 736 733 731
    730 727 725 722 719 717 714 713 710 708 707 703 703 700 698 694 690
    687 686 684 683 680 680 679 679 680 688 693 694 696 698 701 706 708
    713 716 720 725 728 730 736 738 742 747 750 757 759 762 764 767 778
    781 785 787 790 798 800 803 809 817 821 0 0 0 0 0 0 0 0 0 0 757 754
    750 749 749 746 741 741 738 736 733 731 730 727 725 722 720 717 716
    713 711 708 707 704 703 701 698 696 691 688 687 686 684 682 680 680
    680 682 688 693 696 697 698 700 703 707 710 714 720 725 728 730 738
    741 742 746 750 757 759 761 762 767 778 781 781 787 790 798 802 807
    809 811 819 0 0 0 0 0 0 0 0 0 0 755 755 752 750 749 744 741 741 739
    736 733 731 730 727 725 723 720 719 716 713 711 708 707 704 703 701
    700 697 691 690 690 687 686 684 683 683 683 683 684 691 693 696 697
    700 703 707 710 714 722 727 728 730 738 739 741 744 749 757 759 761
    762 767 778 781 781 787 790 796 802 807 809 811 819 0 0 0 0 0 0 0 0
    0 0 755 755 754 752 750 744 742 742 741 738 734 733 731 727 725 723
    722 720 714 713 711 708 707 704 703 701 700 697 694 691 690 687 686
    684 683 683 683 684 684 690 691 693 696 700 703 707 710 716 722 727
    728 730 736 738 741 742 749 757 761 762 762 767 776 780 781 787 790
    794 802 807 809 811 0 0 0 0 0 0 0 0 0 0 0 759 757 755 754 750 746
    742 742 741 739 736 733 731 728 727 725 723 720 714 713 711 710 707
    706 704 703 700 697 694 691 690 688 687 686 683 683 683 684 684 688
    690 691 696 701 704 707 713 716 723 727 728 730 734 738 741 742 749
    754 759 762 764 769 774 780 783 789 790 794 802 807 809 0 0 0 0 0 0
    0 0 0 0 0 0 0 757 755 754 752 746 744 744 742 739 738 734 733 730
    727 725 723 720 716 714 713 710 708 707 704 703 701 698 697 693 691
    690 688 686 684 684 684 684 684 687 688 690 693 704 706 708 713 716
    723 727 730 731 734 738 741 744 749 754 759 761 766 771 773 776 785
    787 790 794 794 3614 3468 3468 0 0 0 0 0 0 0 0 0 0 0 0 757 755 755
    752 749 744 744 742 741 738 736 733 730 728 727 725 720 717 714 713
    711 708 707 704 703 701 700 697 693 691 690 688 687 684 684 684 684
    684 687 688 690 693 703 706 708 713 717 723 727 728 731 734 738 741
    746 750 755 759 761 767 771 773 776 787 787 790 790 3468 3468 3468
    3468 3468 0 0 0 0 0 0 0 0 0 0 0 757 755 755 752 749 744 744 744 741
    739 736 733 731 728 727 725 720 719 716 714 713 710 708 707 704 701
    701 700 693 691 690 688 687 686 684 684 684 684 686 688 693 697 701
    704 708 713 714 722 727 728 731 734 738 744 746 750 755 761 761 767
    771 773 0 0 0 0 0 3503 3468 3468 3468 1398 0 0 0 0 0 0 0 0 0 0 0 757
    757 757 754 750 744 744 744 741 739 736 733 731 730 728 725 722 719
    716 714 713 711 708 707 704 703 701 698 694 691 691 690 687 686 684
    684 684 686 686 688 696 698 701 704 710 713 714 720 725 728 730 733
    739 746 747 750 755 761 761 767 0 0 0 0 0 0 0 3468 3468 3468 3468
    1392 0 0 0 0 0 0 0 0 0 0 0 0 757 757 754 750 746 746 744 741 739 738
    734 733 731 728 725 720 719 717 714 713 711 710 707 704 703 701 698
    694 693 691 690 687 686 684 684 684 686 686 693 696 697 700 703 708
    713 714 720 725 728 728 730 746 746 747 755 755 761 762 0 0 0 0 0 0
    0 0 3468 3468 3468 3468 1387 0 0 0 0 0 0 0 0 0 0 0 0 757 757 754 750
    749 746 744 742 739 738 734 733 731 730 727 720 720 717 714 714 713
    710 708 707 704 701 698 694 693 691 690 688 686 684 684 684 686 687
    691 696 697 700 703 708 713 714 719 723 728 728 730 747 747 747 757
    757 0 0 0 0 0 0 0 0 0 0 0 3468 3468 3468 1381 4582 0 0 0 0 0 0 0 0 0
    0 0 757 757 755 752 750 749 746 742 739 739 736 734 733 730 727 722
    720 717 714 714 713 711 708 707 706 703 698 697 694 691 691 690 687
    686 684 684 686 687 691 696 697 701 703 710 713 714 719 722 728 730
    730 0 0 0 0 0 0 0 0 0 0 0 0 0 0 0 0 3433 3433 3468 1381 4582 0 0 0 0
    0 0 0 0 0 0 0 0 757 755 754 754 750 746 742 739 739 736 734 733 730
    728 723 720 717 716 714 713 711 708 707 706 703 700 697 694 693 691
    690 688 686 686 686 686 688 693 696 697 700 703 713 713 714 720 722
    728 730 0 0 0 0 0 2883 2883 0 0 0 0 0 0 0 0 0 0 3433 3433 3433 3433
    4522 0 0 0 0 0 0 0 0 0 0 0 0 759 757 755 754 750 746 742 741 739 738
    736 733 731 728 723 720 719 717 714 713 711 708 708 706 704 701 700
    696 693 691 690 688 687 686 686 687 688 691 694 697 698 0 0 0 0 0 0
    0 0 0 0 0 0 2883 2883 2859 2859 0 0 0 0 0 0 0 0 0 0 3433 3433 3399
    4463 4463 0 0 0 0 0 0 0 0 0 0 0 761 757 757 755 750 749 746 741 739
    738 738 734 731 728 725 722 720 719 716 713 711 710 708 707 706 701
    700 696 694 693 691 688 688 686 686 687 687 691 694 697 698 0 0 0 0
    0 0 0 0 0 0 0 0 2883 2859 2859 2812 2812 0 0 0 0 0 0 0 0 0 3468 3433
    3399 4463 4463 4582 4582 0 0 0 0 0 0 4463 4463 4463 761 759 757 755
    750 749 746 744 742 739 738 734 733 728 725 722 720 719 717 714 711
    710 708 707 706 701 700 696 696 693 691 690 688 687 687 687 687 697
    697 0 0 0 0 0 0 0 0 0 0 0 0 0 0 2883 2859 2859 2812 2812 0 0 0 0 0 0
    0 0 0 3468 3468 3433 4522 4522 4522 4463 4463 0 0 0 4522 4463 4463
    4405 4405 762 761 759 755 752 750 746 746 742 741 738 734 733 733
    727 722 720 719 717 716 713 710 708 707 706 701 700 697 696 693 691
    690 690 687 687 687 3816 3816 0 0 0 0 0 0 0 0 0 0 0 0 0 0 0 2859
    2859 2859 2812 2812 0 0 0 0 0 0 0 0 0 0 3468 3433 4522 4522 4522
    4463 4463 4463 4463 4522 4463 4463 4405 4349 4349 762 761 761 757
    757 750 746 746 744 741 736 734 733 728 727 722 720 719 717 717 0 0
    0 0 0 0 0 697 697 0 0 3774 3774 3774 3816 3816 3816 3816 0 0 0 0 0 0
    0 0 0 0 0 0 0 0 0 2859 2859 2859 2812 2812 2812 0 0 0 0 0 0 0 0 0
    3433 3433</data></Depth7094>
</opencv_storage>
