<?xml version="1.0"?>
<opencv_storage>
<Depth2837 type_id="opencv-matrix">
  <rows>35</rows>
  <cols>45</cols>
  <dt>w</dt>
  <data>
    4582 4582 4582 4582 4582 4582 4582 4582 4582 4582 4582 2579 2579
    4463 2579 2560 2560 2560 2560 4582 4582 4463 4405 4405 4463 4463
    4405 4405 4405 4405 4349 4349 4349 4405 4405 4405 4405 4405 4349
    4349 4349 4349 4295 4295 4295 4645 4582 4582 4582 4582 4582 4582
    4582 4582 4582 2598 2579 2579 2579 2560 2560 2560 2560 2560 2560
    2560 2560 4463 4463 4463 4463 2560 2560 2560 2560 4349 4349 4349
    4349 4405 4405 4405 4405 4405 4405 4405 4349 4349 4349 4349 4645
    4645 4645 4645 4582 4582 4582 4582 4582 4582 2598 2579 2579 2560
    2560 2560 2560 2560 2560 2560 2560 2560 2560 2560 2560 4463 2560
    2560 2560 2560 2560 2560 2560 4349 4405 4463 4463 4405 4405 4405
    4405 4405 4349 4349 4295 4645 4645 4645 4645 4645 4582 4582 4582
    4582 4582 2598 2579 2579 2560 2560 2560 2560 2560 2560 2560 2560
    2560 2560 2560 2560 2560 2541 2541 2541 2560 2560 2560 2541 2541
    2522 2522 2541 2541 2541 4405 4405 4405 4349 4349 2541 4645 4645
    4645 4645 4645 4582 4582 4582 4582 4582 2579 2579 2560 2560 2560
    2560 2560 2560 2560 2560 2560 2560 2560 2541 2541 2541 2541 2541
    2541 2541 2541 2541 2541 2522 2522 2522 2541 2522 2522 2522 2522
    4405 4405 4349 2541 4645 4708 4645 4645 4645 4582 4582 2579 2560
    2560 2560 2560 2560 2560 2560 2560 2560 2560 2560 2560 2560 2541
    2541 2541 2541 2541 2541 2541 2541 2541 2541 2541 2522 2522 2522
    2522 2522 2522 2522 2522 2522 4405 4405 4349 2541 4708 4708 4708
    4645 4645 4582 2579 2579 2560 2560 2560 2560 2560 2560 2560 2560
    2560 2560 2560 2541 2541 2541 2541 2541 2541 2541 2541 2541 2541
    2541 2541 2541 2522 2522 2522 2522 2522 2522 2522 2541 2541 4405
    4405 4349 2541 4708 4708 4708 4645 4645 2560 2560 2560 2560 2560
    2541 2541 2541 2541 2541 2560 2541 2541 2560 2541 2541 2541 2541
    2541 2541 2541 2541 2541 2522 2522 2522 2522 2541 2541 2522 2522
    2522 2522 2522 2541 2541 4405 2560 2560 2560 4774 4708 4708 2541
    2541 2541 2541 2541 2541 2541 2541 2541 2541 2541 2541 2541 2541
    2541 2541 2541 2541 2541 2541 2541 2541 2541 2541 2541 2522 2522
    2522 2522 2541 2541 2522 2522 2522 2522 2522 2541 2541 2541 2560
    2560 2560 4774 4708 2598 2541 2541 2541 2541 2541 2541 2541 2541
    2541 2541 2541 2541 2541 2541 2541 2541 2541 2541 2541 2541 2541
    2541 2541 2541 2541 2541 2522 2522 2522 2541 2541 2522 2522 2522
    2522 2522 2541 2541 2541 2560 2560 2560 4774 2560 2541 2522 2522
    2522 2522 2522 2541 2541 2541 2541 2541 2541 2541 2541 2541 2541
    2522 2522 2522 2522 2541 2541 2541 2541 2541 2541 2541 2522 2522
    2522 2541 2522 2522 2522 2522 2522 2522 2522 2522 2541 2541 2541
    2560 2639 2560 2541 2522 2522 2522 2522 2522 2522 2522 2541 2541
    2541 2541 2541 2541 2541 2541 2522 2522 2522 2522 2522 2522 2541
    2541 2541 2541 2541 2522 2522 2522 2522 2522 2503 2503 2522 2522
    2522 2503 2503 2541 2541 2541 2560 2639 2579 2541 2522 2503 2503
    2503 2522 2522 2522 2522 2522 2541 2541 2541 2541 2541 2541 2522
    2522 2503 2503 2522 2522 2522 2522 2522 2503 2503 2503 2503 2503
    2522 2522 2503 2503 2503 2503 2503 2485 2485 2522 2541 2560 2560
    2639 2560 2541 2522 2503 2503 2503 2522 2522 2522 2522 2522 2522
    2522 2522 2522 2522 2522 2522 2522 2503 2485 2485 2503 2503 2522
    2522 2503 2503 2485 2485 2485 2503 2503 2503 2485 2485 2485 2485
    2485 2485 2503 2541 2541 2560 2618 2560 2541 2522 2503 2503 2503
    2503 2503 2522 2522 2522 2522 2522 2503 2503 2503 2522 2522 2503
    2503 2485 2485 2485 2485 2503 2503 2503 2485 2485 2485 2485 2485
    2485 2485 2485 2485 2485 2467 2467 2467 2485 2541 2541 2560 2598
    2560 2541 2522 2503 2503 2503 2503 2503 2522 2503 2503 2503 2503
    2485 2485 2485 2503 2522 2503 2503 2485 2485 2485 2485 2503 2503
    2485 2485 2485 2485 2485 2485 2485 2485 2485 2485 2467 2467 2467
    2467 2467 2522 2560 2560 2598 2560 2541 2522 2503 2503 2503 2522
    2522 2503 2503 2503 2503 2503 2485 2485 2485 2503 2522 2503 2503
    2485 2485 2485 2485 2503 2503 2485 2485 2485 2485 2485 2485 2485
    2485 2467 2467 2467 2467 2450 2450 2467 2522 2560 2560 2598 2560
    2541 2522 2503 2503 2503 2522 2522 2503 2503 2503 2503 2503 2485
    2485 2485 2503 2503 2503 2485 2485 2485 2485 2485 2485 2485 2485
    2485 2485 2485 2485 2467 2467 2467 2467 2467 2467 2450 2450 2432
    2432 2432 4645 4522 2618 2560 2541 2522 2503 2503 2503 2522 2522
    2503 2503 2503 2503 2503 2503 2485 2485 2503 2503 2503 2485 2485
    2485 2485 2485 2485 2485 2485 2485 2485 2485 2485 2467 2467 2467
    2467 2467 2467 2450 2450 2432 2432 4582 4582 4582 2618 2560 2541
    2522 2522 2522 2522 2522 2503 2485 2485 2485 2485 2503 2522 2503
    2485 2485 2485 2485 2485 2485 2485 2485 2485 2485 2485 2485 2485
    2485 2467 2467 2467 2467 2467 2467 2467 2467 2450 2450 2450 2450
    2467 4582 4582 4983 2541 2541 2522 2522 2522 2522 2503 2503 2485
    2485 2485 2485 2522 2522 2503 2485 2485 2485 2485 2485 2485 2485
    2485 2485 2485 2485 2485 2485 2467 2467 2467 2467 2467 2467 2467
    2467 2467 2450 2450 2450 2450 2467 4582 4582 4983 2541 2522 2522
    2522 2522 2522 2503 2503 2485 2485 2485 2503 2503 2503 2503 2503
    2485 2485 2485 2485 2485 2485 2485 2485 2485 2485 2467 2467 2467
    2467 2467 2467 2467 2467 2467 2467 2467 2450 2450 2450 2450 2485
    4645 4645 5056 5056 2522 2522 2522 2522 2522 2503 2503 2503 2503
    2503 2503 2503 2503 2503 2485 2485 2485 2485 2485 2485 2485 2485
    2485 2485 2485 2467 2467 2467 2467 2467 2467 2467 2467 2467 2467
    2467 2450 2450 2450 2467 2503 2522 4645 5056 5056 2522 2522 2522
    2522 2522 2522 2503 2503 2503 2503 2503 2522 2503 2503 2485 2485
    2485 2485 2485 2485 2485 2485 2485 2467 2467 2467 2467 2467 2467
    2467 2467 2467 2467 2467 2467 2467 2467 2467 2467 2485 2485 2485
    4645 5132 5132 2541 2541 2522 2522 2522 2522 2522 2522 2522 2522
    2522 2503 2503 2503 2503 2503 2485 2485 2485 2485 2485 2485 2485
    2467 2467 2467 2467 2467 2467 2467 2467 2467 2467 2467 2467 2467
    2467 2467 2467 2485 2467 2467 4708 5132 5132 5132 2541 2541 2522
    2522 2522 2522 2541 2541 2522 2522 2503 2503 2503 2503 2503 2503
    2503 2485 2485 2485 2485 2485 2485 2485 2485 2467 2467 2467 2467
    2467 2467 2467 2467 2467 2467 2467 2467 2467 2467 2450 2450 4774
    5132 5132 5210 2541 2541 2522 2522 2522 2522 2541 2541 2541 2522
    2522 2522 2522 2522 2522 2522 2503 2485 2485 2485 2485 2485 2485
    2485 2485 2467 2467 2467 2467 2467 2467 2467 2467 2467 2467 2467
    2467 2467 2467 2450 2450 4842 5210 5132 5132 2541 2541 2541 2541
    2541 2541 2541 2541 2541 2522 2522 2522 2522 2522 2522 2522 2503
    2503 2503 2485 2485 2485 2485 2485 2485 2485 2485 2485 2467 2467
    2467 2467 2467 2467 2467 2467 2467 2485 2485 2450 2450 4842 5210
    5132 5132 2541 2541 2541 2560 2541 2541 2541 2541 2541 2522 2522
    2522 2522 2522 2522 2503 2503 2503 2503 2503 2503 2503 2485 2485
    2485 2485 2485 2485 2485 2467 2467 2467 2467 2467 2467 2467 2467
    2485 2485 2485 4842 4842 5210 5132 5132 5210 2560 2560 2560 2560
    2541 2541 2541 2541 2541 2541 2522 2522 2522 2522 2503 2503 2503
    2503 2503 2503 2503 2485 2485 2485 2485 2485 2485 2485 2467 2467
    2467 2467 2467 2467 2467 2467 2485 2485 2485 4842 4842 5210 5210
    5210 5210 5210 5132 5132 5132 5132 2541 2541 2541 2541 2541 2522
    2522 2522 2522 2522 2503 2503 2522 2503 2503 2503 2503 2503 2503
    2503 2485 2485 2485 2467 2467 2467 2467 2450 2450 2450 2467 2503
    2503 2503 4645 4842 5210 5210 5210 5210 5210 5132 5132 5132 5132
    5210 5210 5210 5210 5132 2522 2522 2522 2522 2541 2541 2522 2522
    2522 2522 2522 2522 2522 2503 2503 2485 2485 2485 2467 2467 2485
    2467 2450 2450 2450 2467 2485 2485 2485 4645 4842 5210 5210 5210
    5291 5210 5210 5210 5132 5132 5210 5210 5210 5210 5132 5132 5210
    5210 5132 5132 5056 2541 2541 2522 2522 2522 2522 2522 2485 2485
    2485 2485 2485 2485 2485 2485 2467 2467 2467 2467 2485 2485 2485
    2485 4842 4842 5210 5210 5210 5291 5210 5210 5210 5210 5210 5210
    5210 5210 5210 5210 5210 5210 5132 5132 5132 5132 5132 5056 5056
    5056 5056 5132 2522 2485 2485 2485 2485 2485 2485 2485 2485 2467
    2467 2467 2485 2485 2485 2503 4842 4842 4842 5210 5210 5210 5291
    5210 5210 5210 5210 5210 5210 5210 5210 5210 5210 5210 5132 5132
    5132 5132 5132 5132 5056 5056 5056 5132 5132 5132 5056 5056 5056
    4983 2522 2503 2485 2485 2467 2467 2467 2485 2467 2467 2503 4842
    4842 4911</data></Depth2837>
</opencv_storage>
