<?xml version="1.0"?>
<opencv_storage>
<Depth11585 type_id="opencv-matrix">
  <rows>128</rows>
  <cols>93</cols>
  <dt>w</dt>
  <data>
    2040 2040 2053 2053 2053 2053 2053 2053 746 746 746 746 2078 2078
    769 774 774 774 776 778 780 781 781 785 780 778 778 776 776 776 764
    764 764 0 0 0 0 0 0 0 3399 3365 3365 3365 3433 3433 3433 3433 3433
    3433 3433 3433 3468 3468 3468 3468 3468 3468 3468 3468 3468 3433
    3433 3433 3468 3468 3468 3468 3468 3468 3468 3468 3468 3468 3503
    3503 3503 3503 3503 3503 3539 3503 3503 3503 3539 3539 3539 3539
    3539 3539 3539 3539 3539 2040 2040 2053 2053 2053 2053 744 742 742
    746 746 746 746 746 769 769 769 769 771 773 769 769 767 767 767 769
    773 774 774 774 764 764 764 0 0 0 0 0 0 0 0 3365 3365 3365 3468 3468
    3468 3468 3433 3433 0 3468 3468 3468 3468 3468 3468 3468 3468 3468
    3399 3399 3399 3433 3468 3468 3468 3468 3468 3468 3468 3468 3503
    3503 3503 3503 3503 3503 3503 3503 3539 3503 3503 3503 3503 3539
    3539 3539 3539 3539 3539 3539 3539 2053 2040 2040 2040 2053 746 744
    741 741 742 742 744 746 766 766 766 766 766 766 766 766 766 766 766
    764 764 764 771 774 774 762 762 762 764 764 0 0 0 0 0 0 3365 3365
    3365 3468 0 0 0 0 0 0 3503 3503 3468 3468 3468 3468 3468 3468 3468
    3399 3399 3399 3433 3468 3468 3468 3468 3468 3468 3468 3468 3503
    3539 3539 3539 3503 3503 3503 3503 3539 3503 3503 3503 3503 3539
    3539 3539 3503 3503 3539 3539 3539 2053 2040 2040 2040 2053 746 744
    741 741 742 742 744 747 764 764 764 764 762 761 761 761 764 764 764
    761 759 759 766 766 766 759 759 759 764 764 0 0 0 0 0 0 0 3468 3468
    3468 0 0 0 0 0 0 0 3576 3503 3503 0 0 3503 687 687 688 688 688 3433
    3433 3433 3468 3468 3468 3468 3468 3468 3539 3539 3539 3503 3503
    3503 3503 3503 3503 3503 3539 0 0 0 0 3539 3503 3503 3539 3539 3539
    749 747 747 747 747 744 744 742 741 741 742 746 747 764 764 764 759
    759 757 757 757 759 764 764 757 757 757 755 755 755 752 752 759 0 0
    0 0 0 0 0 636 636 636 0 0 0 0 0 0 0 0 0 0 0 0 0 0 0 0 687 687 687
    687 688 3433 3433 3468 676 676 676 672 3539 3539 3503 3503 3503 3503
    3503 3503 3503 3503 3503 3503 0 0 0 0 0 0 3539 3539 3539 3539 749
    747 747 747 747 747 727 738 738 738 739 747 749 764 764 764 755 755
    757 757 757 759 759 757 757 757 757 755 755 755 752 752 0 0 0 0 0 0
    0 0 636 636 640 0 0 0 0 0 0 0 0 0 0 0 0 0 0 667 667 687 687 683 683
    683 678 676 675 674 674 672 672 672 3539 3503 3503 3503 3539 3503
    3503 3503 0 0 0 0 0 0 0 0 0 3539 3503 3503 3503 749 747 744 738 738
    738 727 725 725 728 728 728 713 766 766 766 746 746 746 746 676 676
    676 700 688 688 688 688 688 0 0 0 0 0 0 0 0 0 0 0 0 640 640 641 641
    0 0 0 0 0 0 0 0 0 0 0 670 667 667 667 667 667 671 672 672 672 672
    672 672 671 668 668 668 658 658 658 657 642 649 0 0 0 0 0 0 0 0 0 0
    0 3503 3503 3503 749 749 742 736 733 730 727 725 725 723 719 714 713
    713 713 746 746 746 746 711 676 676 676 700 688 688 688 688 688 688
    688 0 0 0 0 0 0 0 0 0 637 637 638 640 641 0 0 0 0 0 0 0 0 0 0 0 670
    668 667 667 667 667 668 670 671 671 671 670 670 667 666 661 658 658
    658 657 0 0 0 0 0 650 650 650 652 0 0 0 0 0 0 3539 3539 750 749 742
    736 733 730 728 725 725 720 716 711 710 708 701 698 697 697 711 711
    676 676 676 700 693 688 687 687 686 686 686 0 0 0 0 0 0 0 0 0 637
    637 638 640 0 0 0 0 0 0 0 0 678 678 676 674 670 668 668 667 666 666
    667 666 666 658 658 658 657 657 658 658 658 657 657 657 642 642 642
    649 649 649 650 650 652 655 655 0 0 0 0 0 0 750 750 741 738 736 731
    728 727 725 720 716 711 708 707 701 698 697 696 693 690 676 676 676
    675 675 688 687 684 680 679 679 679 0 0 0 0 661 661 661 0 641 641
    641 641 0 0 0 0 0 0 0 614 614 678 676 674 671 668 668 666 664 664
    664 659 658 657 657 655 655 655 655 657 658 657 657 657 642 642 642
    643 646 647 649 650 653 654 654 0 0 0 0 0 0 752 752 741 738 736 733
    728 727 725 720 716 711 708 707 703 698 696 694 691 686 680 678 676
    675 672 671 668 666 666 678 650 650 670 664 663 662 659 655 653 653
    646 641 641 640 640 640 0 0 0 0 0 611 611 612 612 671 671 668 668
    666 664 664 655 655 657 654 653 653 654 654 655 623 623 658 635 635
    636 638 641 643 646 647 649 650 653 654 654 0 0 0 0 0 0 754 752 742
    739 738 733 731 728 727 720 716 711 710 707 704 700 696 694 691 686
    683 680 678 675 672 671 668 662 658 655 650 649 648 643 643 659 657
    655 653 650 646 644 642 640 640 640 0 0 0 0 0 611 611 612 614 614
    618 634 634 632 632 637 637 637 637 653 650 650 650 622 622 623 623
    630 632 634 635 637 641 643 646 647 648 650 654 657 657 0 0 0 0 0 0
    754 754 746 741 738 733 731 730 727 723 719 711 710 707 704 701 698
    696 691 686 683 680 678 675 672 671 668 662 658 655 652 649 648 643
    641 636 635 631 631 650 647 646 643 640 640 638 631 630 630 630 630
    613 613 613 614 618 618 634 634 632 632 634 637 637 637 642 648 619
    619 620 622 623 623 630 631 632 634 637 641 643 646 647 648 652 655
    657 657 0 0 0 0 0 0 755 754 749 742 738 733 731 730 728 725 720 713
    710 707 704 701 698 696 693 687 684 680 678 675 672 671 668 663 661
    658 654 650 648 644 641 636 635 631 629 627 624 622 622 622 613 613
    631 630 629 628 628 615 615 615 616 618 618 632 632 631 631 632 637
    638 640 613 613 615 618 620 622 623 623 630 631 632 634 637 641 642
    646 647 648 654 657 658 661 0 0 0 0 0 0 755 754 750 746 739 734 733
    731 730 725 720 714 711 707 704 701 700 698 696 688 686 682 679 676
    674 671 670 663 661 658 655 653 649 644 641 638 635 631 629 627 624
    622 621 618 613 613 613 613 629 628 628 598 598 616 592 591 591 624
    627 630 604 604 604 607 608 612 612 615 618 620 621 623 624 630 631
    632 634 637 641 642 646 647 648 654 657 658 659 0 0 0 0 0 0 757 754
    752 747 741 734 733 731 730 727 720 716 713 708 706 703 700 698 696
    690 686 682 679 678 675 672 670 667 661 658 655 654 650 646 642 640
    636 634 630 627 625 623 621 618 615 613 610 608 604 602 600 598 596
    593 592 591 591 593 596 599 599 600 603 606 608 610 612 615 618 620
    621 623 627 630 631 632 634 640 643 644 646 648 649 655 658 659 659
    0 0 0 0 0 0 0 0 752 749 742 738 734 733 731 728 720 716 713 710 707
    704 701 698 697 691 687 683 680 679 676 672 671 668 661 659 657 654
    650 648 643 640 638 635 631 628 627 624 622 619 616 614 610 608 604
    602 600 599 596 593 592 591 591 593 596 599 599 599 603 606 608 610
    613 616 618 620 621 624 628 631 631 634 636 640 642 646 646 648 652
    655 658 659 661 0 0 0 0 0 0 0 0 752 750 744 739 738 734 731 728 722
    717 714 710 708 706 701 700 697 693 688 686 683 679 676 674 672 670
    661 659 657 655 652 648 644 642 640 636 632 629 627 625 622 620 618
    615 610 608 606 603 601 599 597 595 593 592 592 594 596 599 599 599
    603 607 609 610 614 618 619 621 622 625 628 631 632 636 637 641 642
    646 646 648 653 655 658 659 661 0 0 0 0 0 0 0 755 752 750 746 741
    738 734 731 730 722 719 714 711 710 707 703 700 698 693 690 686 683
    680 678 675 672 670 663 661 658 655 652 648 646 643 641 636 632 630
    628 625 623 621 618 616 613 609 606 603 601 599 598 596 594 593 593
    594 596 599 599 599 606 609 610 610 615 619 619 621 623 627 628 632
    634 636 637 641 642 646 646 648 653 657 658 659 661 0 0 0 0 0 0 0
    755 754 750 747 742 739 734 733 727 723 720 716 714 711 707 704 701
    698 694 691 688 684 680 678 676 674 671 668 662 659 655 654 650 647
    644 643 636 632 630 628 627 624 622 620 618 614 609 607 603 601 599
    598 597 595 594 594 595 597 599 599 603 608 609 610 610 615 619 621
    623 625 628 628 632 634 636 637 641 643 646 647 649 653 657 659 661
    661 0 0 0 0 0 0 0 755 754 752 747 744 741 736 733 727 723 720 717
    714 711 708 706 704 700 694 691 688 686 682 679 676 674 671 670 662
    659 657 654 650 647 644 644 641 634 631 629 627 624 622 620 618 614
    610 608 604 601 599 598 597 595 595 595 596 597 599 599 606 607 609
    610 612 616 619 621 623 625 628 628 632 634 636 637 644 646 647 648
    650 653 657 659 661 661 0 0 0 0 0 0 0 755 755 752 747 744 742 738
    734 728 725 722 719 716 713 708 707 704 701 694 693 690 686 683 679
    676 675 672 670 662 659 658 655 652 648 646 644 641 634 631 629 628
    625 623 621 619 614 612 610 606 602 600 599 597 595 595 595 596 597
    599 599 607 607 610 612 612 616 619 621 623 627 628 629 632 634 636
    638 643 644 647 650 652 653 658 661 662 662 0 0 0 0 0 0 0 757 757
    754 749 746 744 739 734 731 727 722 720 719 713 710 707 706 703 698
    693 690 687 684 680 676 675 672 670 663 661 658 657 653 649 646 644
    642 635 634 630 628 627 624 622 620 615 612 610 607 603 600 599 597
    595 595 596 596 597 600 600 606 607 610 612 615 615 618 621 623 627
    628 629 632 635 637 640 643 644 647 649 652 653 657 661 663 663 666
    0 0 0 0 0 0 759 757 755 750 747 744 739 736 733 728 725 722 719 714
    710 707 707 704 700 694 691 687 686 683 678 675 674 671 663 661 659
    658 654 650 647 646 642 637 635 632 630 627 625 622 620 616 613 610
    607 604 602 600 597 596 596 596 596 597 598 600 604 607 612 612 615
    615 618 621 624 627 628 630 632 635 638 641 643 644 647 649 652 653
    655 661 664 664 666 0 0 0 0 0 0 759 759 755 752 750 746 741 738 733
    728 725 722 719 716 711 707 707 704 701 694 691 688 686 684 680 676
    675 672 666 662 659 658 654 650 649 647 643 638 636 632 630 628 625
    623 621 616 613 610 607 604 603 601 598 596 596 596 596 598 598 600
    604 609 611 613 615 616 619 622 625 627 629 631 632 635 638 641 643
    646 648 650 653 653 655 661 664 666 666 0 0 0 0 0 0 759 759 757 752
    750 747 744 741 734 728 725 723 720 717 713 708 708 706 701 698 693
    688 686 684 682 679 675 672 666 663 661 658 655 652 650 648 642 640
    637 634 631 629 627 624 622 618 614 610 608 606 604 602 600 596 596
    596 596 598 598 602 606 611 611 613 615 616 619 623 625 627 629 631
    634 636 640 642 644 646 648 650 653 653 655 662 664 666 666 0 0 0 0
    0 0 759 759 757 754 750 749 744 741 736 733 727 723 720 717 714 711
    708 707 703 698 693 690 687 686 683 679 676 674 667 664 662 659 657
    653 650 649 642 640 637 635 632 630 627 625 622 618 615 612 609 606
    604 603 601 599 596 596 596 599 599 603 608 611 611 613 615 616 619
    623 627 627 629 631 634 636 640 642 644 647 648 650 653 654 657 661
    664 666 666 0 0 0 0 0 0 0 761 759 755 750 749 746 742 738 734 728
    725 722 719 716 713 711 708 704 700 696 693 688 686 683 680 678 675
    668 666 662 659 657 654 652 649 643 641 638 636 634 631 628 627 622
    619 615 613 611 607 604 603 601 600 596 596 596 598 598 604 609 611
    611 613 616 618 620 624 627 628 629 631 635 637 640 643 644 647 649
    652 654 655 657 661 664 666 666 0 0 0 0 0 0 0 762 762 757 752 749
    746 742 739 736 733 727 723 719 716 714 713 710 704 701 697 693 690
    687 686 682 678 675 668 666 663 661 658 655 653 649 644 642 638 636
    634 631 629 627 622 619 616 613 612 609 606 603 601 600 597 597 597
    598 598 606 610 611 611 614 616 618 620 624 627 628 629 632 635 637
    640 643 644 647 649 652 655 655 658 661 666 667 667 0 0 0 0 0 0 0 0
    762 759 755 750 747 744 742 738 734 727 723 720 717 714 713 710 706
    701 697 694 690 687 686 682 679 675 672 667 664 661 659 657 654 650
    646 643 640 636 635 632 630 628 622 620 618 615 613 610 607 604 602
    600 599 598 598 598 599 606 610 611 611 614 616 619 621 624 627 628
    630 632 635 638 641 643 646 648 650 653 655 657 658 664 667 667 667
    0 0 0 0 0 0 0 0 762 759 757 752 749 746 742 739 734 728 725 723 719
    716 713 710 706 701 700 697 691 687 686 683 680 675 672 668 666 662
    659 658 655 653 647 644 642 637 636 632 630 628 625 621 618 615 613
    611 608 606 603 601 600 599 599 599 601 606 610 611 611 615 616 619
    621 624 625 629 630 632 635 638 641 643 646 648 650 654 657 657 659
    666 667 667 667 0 0 0 0 0 0 0 762 762 761 757 752 750 747 742 739
    736 730 727 723 720 717 714 710 707 703 700 697 693 690 687 684 680
    676 674 671 666 662 661 658 657 653 648 646 642 640 637 635 632 630
    627 622 620 616 613 611 608 606 604 602 601 599 599 599 601 606 610
    611 612 616 618 619 621 625 625 629 631 634 636 638 641 642 646 649
    652 654 657 657 659 666 667 668 668 670 0 0 0 0 0 0 762 762 761 757
    754 750 749 744 741 736 730 727 725 722 719 716 711 708 704 701 697
    694 691 688 684 682 678 675 672 668 664 661 659 658 654 649 647 643
    640 637 636 634 630 628 622 621 619 614 612 609 606 604 602 602 600
    600 600 602 606 611 611 613 616 618 620 622 624 627 630 631 635 636
    640 641 642 646 650 652 654 657 658 659 666 668 668 670 670 0 0 0 0
    0 0 764 762 761 757 754 752 749 744 741 736 731 728 725 723 720 716
    713 710 704 701 698 694 693 688 686 682 678 675 672 670 666 662 659
    658 654 649 647 644 642 638 636 635 631 628 625 621 619 616 613 610
    608 606 604 602 601 600 600 603 607 611 611 613 616 618 620 622 624
    627 631 632 635 636 640 641 642 648 652 653 655 657 658 658 666 668
    670 670 670 0 0 0 0 0 0 766 764 762 759 755 752 749 746 742 736 733
    730 727 723 720 717 714 708 704 703 698 694 693 690 687 683 678 676
    674 671 667 662 661 658 655 653 648 644 642 640 637 635 632 630 627
    622 619 616 614 611 609 607 604 603 601 601 601 606 608 611 611 615
    616 618 621 622 625 628 631 632 635 637 641 641 643 648 652 654 655
    657 658 658 667 670 671 671 672 0 0 0 0 0 0 766 766 764 759 757 754
    749 746 744 738 733 730 728 725 722 717 714 708 706 703 700 696 693
    691 688 684 679 676 674 671 667 664 662 659 657 654 648 646 643 640
    637 635 634 630 628 625 620 618 614 612 609 608 606 603 601 601 602
    606 608 611 611 615 618 619 621 624 628 628 631 632 635 638 641 642
    644 648 650 653 655 657 658 661 667 670 671 672 672 0 0 0 0 0 0 0
    766 766 762 757 754 750 747 744 738 734 731 730 727 722 719 716 710
    706 703 701 697 694 691 690 686 679 676 675 671 668 666 663 659 658
    654 648 646 644 641 638 636 634 631 629 627 621 619 616 612 609 608
    607 604 602 602 603 607 608 611 611 616 618 619 621 625 627 628 631
    634 637 640 641 643 646 648 650 653 655 657 659 662 664 668 671 672
    0 0 0 0 0 0 0 0 769 769 766 759 755 752 749 746 738 734 733 730 727
    722 720 716 710 707 704 701 698 696 693 690 687 679 678 675 672 670
    666 663 661 658 655 652 647 644 641 638 636 634 631 629 627 621 619
    616 613 610 608 608 606 603 603 603 607 608 611 611 618 618 620 622
    624 627 628 631 634 637 640 642 644 646 648 652 653 655 659 661 662
    664 668 671 672 0 0 0 0 0 0 0 0 769 769 766 761 757 754 750 744 739
    736 733 731 727 723 722 717 711 708 706 703 700 697 694 691 688 684
    679 675 672 670 667 664 661 659 655 653 648 646 642 640 637 635 632
    630 627 622 620 618 614 611 609 608 606 604 604 604 607 608 611 611
    618 619 620 622 624 627 628 631 635 637 641 642 644 647 649 652 653
    657 659 662 663 664 668 671 674 0 0 0 0 0 0 0 0 769 769 766 762 757
    754 752 744 741 738 734 731 728 725 723 719 711 708 706 703 700 698
    696 693 688 684 679 676 674 671 668 666 662 659 655 654 650 647 642
    640 638 636 634 630 627 622 620 618 615 612 610 608 606 604 604 606
    607 609 611 615 618 619 621 622 624 627 629 632 635 638 641 642 644
    648 650 652 654 658 661 662 663 664 670 672 674 0 0 0 0 0 0 0 0 771
    769 767 762 759 754 752 746 742 739 736 733 728 725 723 720 716 710
    706 703 700 698 697 693 688 686 684 678 674 671 668 666 662 659 657
    655 649 647 643 641 640 637 635 631 627 623 621 619 616 614 610 609
    606 604 604 606 607 609 611 614 618 620 621 623 624 627 630 634 636
    637 642 644 646 648 650 653 655 658 661 662 663 664 670 674 675 0 0
    0 0 0 0 0 0 773 771 769 762 759 757 754 746 744 739 736 733 730 727
    725 720 719 710 706 704 701 698 697 694 690 687 684 679 676 674 670
    667 664 661 658 657 649 647 644 642 640 637 635 634 627 624 621 620
    618 616 612 609 606 606 606 606 607 609 612 614 618 620 621 623 625
    628 631 634 636 637 641 644 647 649 652 653 657 659 661 662 663 664
    671 676 676 0 0 0 0 0 0 0 0 778 773 771 762 759 757 755 752 744 741
    738 734 730 727 725 722 719 711 708 704 703 700 697 694 691 687 686
    679 676 674 671 668 664 661 659 658 650 649 646 643 641 638 636 634
    628 624 622 621 619 616 613 610 606 606 606 606 607 609 612 614 618
    620 622 623 627 629 632 634 636 637 641 644 647 649 652 654 657 659
    661 662 663 664 671 676 676 0 0 0 0 0 0 0 0 778 774 773 767 761 757
    757 754 746 742 739 736 733 728 727 723 720 716 708 706 703 701 698
    696 691 687 686 684 676 674 671 668 666 662 661 658 650 649 647 644
    642 640 636 634 629 625 623 621 619 616 614 611 607 606 606 606 608
    610 612 615 619 620 622 624 628 629 632 634 636 637 641 644 647 649
    652 654 657 659 662 663 663 666 671 676 676 679 0 0 0 0 0 0 0 778
    774 774 771 762 757 757 754 752 744 739 736 733 730 728 725 722 717
    710 708 706 703 700 697 693 688 686 682 678 675 674 670 667 664 662
    659 650 650 648 646 643 640 636 635 630 627 624 622 621 618 614 612
    608 607 607 608 609 610 613 616 619 620 622 625 628 629 632 634 636
    638 642 644 647 649 652 654 657 659 662 663 663 666 671 676 678 679
    0 0 0 0 0 0 0 0 774 774 771 764 759 757 755 752 746 741 738 734 731
    728 727 723 719 711 708 706 703 701 697 694 690 688 682 679 675 674
    670 667 664 662 657 653 650 648 646 643 640 637 632 631 628 625 623
    621 619 614 613 609 608 608 608 609 611 614 616 619 621 624 625 628
    629 632 635 637 640 642 644 647 649 653 655 657 659 662 663 664 667
    671 678 678 0 0 0 0 0 0 0 0 0 778 778 773 767 761 759 757 752 750
    742 739 734 731 730 727 725 720 717 710 707 704 701 697 696 693 690
    684 682 678 675 671 668 666 663 657 654 652 649 647 644 641 638 632
    631 629 627 624 622 619 615 613 609 608 608 609 610 611 614 616 620
    621 624 627 628 629 632 636 638 641 643 644 647 650 653 655 657 659
    662 664 664 668 675 678 679 0 0 0 0 0 0 0 0 0 780 780 774 767 762
    759 757 754 750 744 739 736 733 730 728 727 722 714 711 708 706 701
    698 696 693 690 686 682 678 676 671 668 667 666 658 655 653 650 647
    644 642 640 634 632 629 627 624 623 620 616 614 610 609 609 609 610
    611 614 618 621 622 624 627 628 629 634 636 638 642 644 646 647 650
    654 655 657 658 662 664 666 668 675 678 679 0 0 0 0 0 0 0 0 0 780
    780 776 769 764 761 759 755 750 744 741 738 734 731 728 727 725 714
    711 708 707 703 698 696 693 690 687 682 678 676 674 670 667 666 658
    655 654 652 650 647 643 641 635 632 630 628 625 624 621 618 615 610
    609 609 609 610 611 614 620 621 623 623 627 628 631 635 636 638 642
    644 647 648 650 654 655 657 658 663 666 667 671 675 679 679 0 0 0 0
    0 0 0 0 0 780 778 776 773 766 762 759 755 752 746 742 739 734 733
    728 727 725 717 711 708 708 704 700 697 694 690 687 683 678 676 674
    671 668 666 659 658 655 652 650 648 644 642 636 634 631 629 628 625
    621 618 615 613 610 609 609 610 612 616 619 621 623 623 627 629 632
    635 637 638 642 644 647 649 652 653 655 657 659 664 666 667 672 676
    679 680 0 0 0 0 0 0 0 0 0 0 778 776 773 767 764 761 757 752 746 744
    739 736 734 731 728 725 719 713 710 708 706 703 698 694 690 687 684
    679 676 675 672 668 667 661 658 655 653 650 649 647 643 636 634 632
    630 628 625 623 619 616 614 613 610 610 611 613 618 619 621 623 624
    628 630 634 636 637 638 642 644 648 649 652 653 655 658 661 664 666
    667 675 678 679 680 682 0 0 0 0 0 0 0 0 780 778 776 774 769 766 761
    757 752 747 744 739 736 736 733 728 727 722 714 710 708 707 703 698
    696 691 688 686 679 678 675 674 670 667 662 658 655 653 650 648 647
    644 641 635 632 630 629 627 623 620 616 615 613 613 612 612 614 618
    619 622 623 625 629 631 632 635 637 638 642 644 647 649 652 654 657
    659 662 664 664 668 675 678 679 680 682 0 0 0 0 0 0 0 0 780 780 778
    774 771 766 761 759 752 749 746 742 738 738 734 731 727 723 717 711
    708 707 704 700 697 691 690 687 683 679 675 674 670 667 663 661 657
    654 650 648 647 646 642 636 634 631 629 627 624 621 618 615 614 613
    613 613 614 618 620 622 623 628 630 631 632 635 638 640 642 644 647
    650 652 654 658 661 662 664 664 668 676 678 680 682 683 0 0 0 0 0 0
    0 0 781 781 778 776 771 767 764 759 754 750 747 742 739 738 734 731
    727 723 719 714 710 707 704 701 698 693 690 687 684 680 676 674 671
    667 666 662 658 655 652 649 648 646 643 640 635 631 630 627 625 621
    618 615 614 613 613 613 614 618 620 622 625 628 630 631 632 636 638
    641 643 646 647 650 653 655 659 661 663 664 667 668 675 678 680 683
    684 0 0 0 0 0 0 0 0 783 783 781 776 773 769 764 759 755 752 747 744
    739 739 736 733 727 725 719 716 711 708 704 701 700 694 691 687 686
    683 680 676 671 668 667 663 659 655 653 650 648 646 644 641 635 632
    630 628 627 623 618 616 615 614 613 613 615 618 620 623 627 628 630
    632 634 636 640 642 643 646 647 650 653 657 659 662 664 666 668 671
    674 678 682 684 684 0 0 0 0 0 0 0 0 785 783 783 778 773 771 766 761
    755 752 749 744 741 739 736 733 728 725 719 716 714 708 706 703 701
    694 691 688 687 683 682 678 674 670 668 662 661 658 655 652 649 647
    644 641 636 634 631 629 627 624 619 618 616 614 614 614 616 618 621
    623 627 629 630 632 635 637 640 642 643 646 648 652 654 658 661 662
    664 667 671 671 674 678 683 684 684 0 0 0 0 0 0 0 0 0 785 783 780
    774 773 767 762 757 755 749 746 742 741 738 734 731 725 720 717 714
    710 707 704 701 694 691 688 687 683 682 678 675 671 668 662 661 658
    655 653 650 647 644 642 636 634 631 629 628 625 621 618 616 614 614
    614 616 619 621 623 627 629 630 634 636 637 640 642 644 647 648 652
    655 658 661 662 666 667 671 671 674 678 683 684 686 0 0 0 0 0 0 0 0
    0 785 783 781 776 773 767 761 759 755 750 746 744 742 738 734 731
    725 720 717 716 711 708 707 703 698 691 690 687 684 680 678 675 672
    671 663 661 659 657 654 650 648 646 643 641 635 632 630 628 625 622
    620 618 614 614 615 616 620 621 623 628 630 631 634 636 637 640 642
    646 647 649 653 655 658 661 663 666 668 671 671 674 678 683 684 686
    688 0 0 0 0 0 0 0 0 785 783 783 778 774 769 761 759 757 752 747 744
    742 739 734 733 725 720 717 716 713 708 707 704 701 693 690 690 686
    680 678 676 674 671 663 661 659 658 657 652 648 646 644 642 636 634
    630 628 625 623 621 618 615 615 615 616 619 621 622 628 631 632 634
    636 637 638 642 646 648 650 653 655 658 661 663 666 668 671 672 674
    678 682 686 686 688 0 0 0 0 0 0 0 0 787 785 785 781 776 773 762 759
    757 752 749 744 742 739 736 734 728 722 717 716 714 711 707 704 703
    693 691 690 686 680 679 676 675 672 670 662 661 659 658 653 648 646
    644 641 636 635 632 629 627 624 622 620 616 616 616 616 619 621 622
    628 631 632 634 636 637 638 643 647 648 650 653 655 658 661 664 667
    670 671 672 674 678 682 686 686 0 0 0 0 0 0 0 0 0 787 787 785 783
    778 774 764 762 759 754 750 746 744 741 738 734 728 723 720 717 714
    713 708 706 704 700 691 690 687 682 679 676 675 672 670 663 661 659
    658 654 649 647 644 641 636 635 634 630 627 624 623 620 618 616 616
    618 620 621 623 628 631 632 632 636 638 640 642 644 649 650 654 655
    658 662 664 667 670 672 674 675 678 682 686 686 0 0 0 0 0 0 0 0 0
    790 787 787 783 778 774 766 764 761 755 752 749 746 742 739 736 733
    723 720 717 716 713 710 706 704 701 693 690 687 684 682 679 676 672
    670 664 662 661 658 655 650 648 646 641 637 636 634 630 628 625 623
    620 618 616 616 618 620 622 624 629 631 632 632 636 638 640 642 644
    649 650 654 655 658 662 664 667 670 672 674 675 678 686 687 687 0 0
    0 0 0 0 0 0 0 0 789 787 785 780 774 771 766 762 757 754 750 747 744
    741 738 734 725 722 720 717 713 710 708 704 701 694 690 687 686 683
    682 678 674 671 666 663 661 658 654 652 649 646 642 640 636 634 631
    630 627 623 620 618 618 618 618 621 622 624 630 632 632 634 636 640
    641 643 644 649 652 654 655 658 664 666 668 670 672 675 676 678 686
    687 687 690 0 0 0 0 0 0 0 0 0 789 787 785 781 778 771 766 764 759
    754 750 749 744 741 739 736 727 723 720 719 714 711 708 707 703 697
    694 688 686 684 682 679 675 671 666 664 662 659 654 652 650 647 642
    641 638 636 631 630 628 624 620 619 619 618 618 621 623 625 630 632
    632 634 636 641 642 644 644 650 652 655 655 659 663 666 668 670 674
    676 676 679 687 688 688 690 0 0 0 0 0 0 0 0 0 0 787 785 781 778 773
    769 764 761 755 752 749 746 742 739 738 733 725 722 720 714 711 708
    707 704 697 696 691 686 684 683 680 678 671 667 666 663 659 655 653
    650 647 643 641 640 636 632 631 629 625 620 619 619 618 618 621 623
    627 631 632 632 634 637 641 642 646 647 650 653 655 657 659 663 666
    668 671 674 676 678 680 687 688 690 690 0 0 0 0 0 0 0 0 0 0 787 787
    783 778 774 771 764 761 757 752 750 747 744 741 738 734 727 723 720
    717 711 708 707 704 698 696 693 688 686 683 682 678 672 670 666 663
    661 659 654 652 647 643 641 640 637 634 631 629 625 621 620 620 619
    619 622 623 627 631 632 634 636 637 641 643 646 648 650 654 655 657
    659 662 666 670 672 674 676 678 682 687 690 691 691 0 0 0 0 0 0 0 0
    0 0 789 789 785 780 776 773 766 761 757 754 754 749 744 741 738 733
    728 723 720 717 713 710 707 704 698 696 693 688 686 683 682 678 674
    671 667 664 661 659 657 654 648 644 642 640 638 635 632 630 627 622
    621 620 620 620 622 624 627 631 632 634 636 637 641 642 646 649 652
    654 655 658 661 662 664 671 672 674 676 679 683 688 690 691 691 0 0
    0 0 0 0 0 0 0 0 790 790 787 781 776 773 766 762 759 755 754 749 746
    742 739 733 730 725 722 719 714 711 708 703 698 697 694 690 687 683
    682 678 675 671 667 664 662 661 657 654 649 646 643 641 640 636 634
    631 628 622 621 621 621 621 622 624 627 630 634 635 637 638 641 642
    646 649 652 654 657 658 661 662 664 671 674 674 676 679 682 688 691
    691 691 0 0 0 0 0 0 0 0 0 0 792 790 787 781 778 774 766 762 759 755
    754 750 747 742 739 734 731 727 723 720 717 714 710 703 698 697 696
    691 687 684 682 679 675 671 667 666 663 662 659 655 654 647 644 642
    640 636 634 631 628 625 622 621 621 622 623 624 627 629 634 636 637
    638 642 643 647 649 652 654 657 659 661 663 666 671 674 675 678 679
    682 688 691 693 693 0 0 0 0 0 0 0 0 0 0 792 790 789 783 780 774 771
    762 761 757 755 752 747 744 741 734 731 727 723 720 717 714 713 704
    700 698 697 691 687 686 683 679 676 672 670 667 664 662 659 657 654
    648 644 642 640 637 634 631 629 627 622 622 622 622 623 625 627 629
    635 636 638 640 642 644 647 649 652 654 657 659 661 663 668 670 674
    676 679 680 682 688 691 693 693 0 0 0 0 0 0 0 0 0 0 0 790 789 785
    780 774 767 764 761 757 757 754 749 744 741 734 731 727 725 722 719
    716 713 704 701 700 697 694 690 687 684 679 676 674 671 670 666 662
    659 657 654 649 646 643 641 638 635 632 629 627 625 622 622 622 624
    625 627 629 635 637 638 641 642 644 648 650 652 655 658 659 662 664
    668 670 674 676 680 680 683 688 693 693 694 0 0 0 0 0 0 0 0 0 0 0
    790 789 787 781 778 767 766 762 759 757 754 750 746 742 736 731 728
    727 723 719 717 714 706 703 701 698 694 691 688 684 682 678 675 671
    670 666 663 659 657 655 649 647 643 642 640 636 632 630 628 625 624
    622 622 624 625 628 630 635 637 638 641 642 644 648 650 652 655 659
    661 663 667 668 670 674 678 682 682 683 688 693 693 694 0 0 0 0 0 0
    0 0 0 0 0 792 790 789 785 780 771 767 764 761 759 755 750 747 741
    739 733 728 728 725 720 717 714 707 704 701 698 696 694 690 686 683
    679 676 674 670 667 663 661 657 655 653 647 644 643 640 637 634 631
    629 627 624 623 623 624 627 628 630 635 637 640 642 643 646 648 650
    652 655 659 661 664 667 668 671 675 679 682 682 684 690 693 693 694
    0 0 0 0 0 0 0 0 0 0 0 792 792 790 787 780 773 769 766 761 759 755
    752 749 741 738 734 730 728 727 722 719 716 707 704 703 700 696 694
    691 687 683 679 676 674 670 667 664 662 658 655 653 648 646 644 642
    638 635 632 629 627 625 624 624 625 627 628 631 636 638 641 642 644
    646 648 650 652 658 661 662 664 667 670 672 675 679 682 683 684 693
    694 694 696 0 0 0 0 0 0 0 0 0 0 0 794 792 790 787 781 773 769 766
    762 761 757 754 750 741 738 734 731 728 727 723 720 717 710 707 703
    700 697 696 693 688 684 682 678 674 670 667 666 663 659 655 654 649
    648 644 642 640 637 635 631 627 625 624 624 625 627 628 630 636 640
    641 643 644 647 647 650 652 659 661 662 664 668 671 672 675 680 683
    683 686 691 696 696 697 0 0 0 0 0 0 0 0 0 0 0 798 794 790 787 780
    774 769 766 762 761 759 755 750 742 741 736 733 730 727 723 720 717
    711 708 704 701 698 696 693 690 686 683 678 675 671 668 667 663 659
    657 655 654 649 646 643 640 637 635 631 628 625 624 624 627 627 628
    630 636 641 641 643 644 646 647 650 653 661 662 663 666 668 671 674
    675 680 683 684 686 691 696 697 698 0 0 0 0 0 0 0 0 0 0 0 796 796
    792 789 780 774 771 767 764 762 759 755 752 744 741 736 733 730 727
    725 722 719 711 708 706 703 700 697 693 690 687 684 679 676 672 670
    668 664 661 658 655 654 649 647 644 641 638 635 631 630 625 625 625
    627 628 628 631 637 641 642 642 644 646 649 652 657 659 662 664 666
    668 671 674 676 680 683 684 686 690 696 697 698 698 0 0 0 0 0 0 0 0
    0 0 796 796 792 789 780 776 773 769 766 764 761 757 752 746 742 739
    734 730 728 727 722 719 716 710 707 703 700 697 694 690 688 686 682
    679 672 670 668 666 663 659 657 654 650 648 644 642 640 636 632 630
    627 627 627 628 628 629 631 636 641 641 642 644 646 649 652 657 659
    663 664 667 670 671 674 676 682 683 686 687 688 696 698 698 698 698
    0 0 0 0 0 0 0 0 0 796 796 794 790 781 778 774 771 767 767 762 757
    754 746 744 741 738 731 728 727 723 720 717 710 708 706 701 698 696
    691 690 686 683 679 675 671 668 666 663 661 659 657 650 648 644 641
    640 637 632 631 628 627 627 629 629 630 631 636 640 641 642 644 647
    650 653 657 659 663 666 667 670 671 674 678 682 684 687 687 688 696
    698 700 698 698 0 0 0 0 0 0 0 0 0 0 796 796 792 783 780 776 773 769
    767 764 761 757 754 744 742 739 733 728 727 723 720 717 710 708 706
    703 700 696 693 690 687 684 679 676 672 670 667 664 662 659 654 652
    648 644 641 640 637 635 631 629 628 628 629 629 631 632 637 640 641
    642 644 647 652 654 657 659 662 666 667 670 672 675 678 682 684 687
    687 688 697 700 700 698 698 0 0 0 0 0 0 0 0 0 0 800 798 794 785 781
    776 773 769 769 766 762 759 755 746 742 741 738 730 728 727 723 717
    711 708 707 704 701 696 693 691 688 684 680 676 674 670 667 666 663
    661 654 652 649 646 642 640 637 635 631 629 628 628 629 629 631 632
    637 638 641 643 647 648 652 654 657 659 662 666 667 671 672 676 679
    682 684 687 687 688 698 700 701 701 701 0 0 0 0 0 0 0 0 0 0 800 798
    794 790 783 778 773 771 769 766 762 759 757 746 744 744 739 733 728
    727 725 720 717 710 707 706 703 697 693 691 688 686 680 678 675 671
    668 666 663 661 655 652 649 646 643 641 638 636 631 629 628 628 629
    629 631 632 637 638 641 643 648 649 652 655 657 659 663 666 667 671
    674 676 679 682 684 687 687 691 698 701 701 701 0 0 2156 0 0 0 0 0 0
    0 0 802 800 796 790 785 780 774 771 769 766 764 761 759 754 746 744
    741 734 730 728 725 722 720 711 707 706 703 700 696 693 690 687 680
    678 676 674 670 666 664 662 655 652 650 648 644 641 640 636 632 630
    629 629 629 630 631 634 638 640 642 644 648 650 653 655 657 659 663
    666 668 671 675 678 679 682 684 687 688 694 698 701 701 701 0 0 2156
    0 0 0 0 0 0 0 0 802 800 796 792 785 781 776 771 769 766 764 761 759
    754 746 746 741 736 733 730 727 722 720 714 708 706 704 701 697 693
    691 686 682 679 676 674 671 667 664 662 657 652 650 648 646 643 641
    637 634 631 629 629 630 630 632 634 638 641 642 646 649 650 654 655
    658 661 664 667 670 672 675 678 679 682 684 687 690 694 698 701 701
    703 0 0 2129 0 0 0 0 0 0 0 0 0 802 798 794 789 783 778 773 769 767
    764 761 759 755 750 746 741 738 734 730 727 723 722 714 710 707 704
    701 698 694 691 686 683 682 678 675 672 671 667 661 659 657 652 649
    646 643 641 638 634 631 629 629 630 631 632 635 638 641 643 646 649
    650 653 655 658 662 666 667 670 672 675 678 680 683 684 688 690 696
    698 703 703 704 0 0 2103 0 0 0 0 0 0 0 0 0 802 800 796 792 785 780
    776 773 769 766 762 759 755 750 746 741 738 734 733 727 723 722 716
    711 708 706 703 698 696 693 687 684 683 679 675 672 671 668 661 659
    657 653 650 648 646 644 640 635 632 630 630 631 631 632 635 638 641
    644 647 649 650 653 655 658 662 666 668 671 672 675 678 680 683 684
    688 690 696 698 703 704 704 0 0 2090 0 0 0 0 0 0 0 0 0 802 800 796
    794 785 781 778 776 771 767 762 759 755 750 747 744 738 734 731 728
    727 723 716 713 710 707 703 700 696 693 687 686 684 680 676 672 671
    668 662 661 658 654 652 649 646 644 642 636 634 631 631 632 632 632
    635 638 642 646 647 649 652 654 657 658 662 666 668 671 672 675 678
    680 684 688 690 691 696 700 704 704 704 704 0 2090 2090 0 0 0 0 0 0
    0 0 802 800 796 796 792 781 778 778 774 769 764 759 755 750 749 744
    739 734 731 728 727 722 716 713 710 708 704 701 697 694 687 686 684
    682 678 674 671 670 663 661 658 655 653 650 647 644 643 640 635 632
    632 632 632 634 635 638 644 646 647 649 652 654 657 658 663 666 668
    671 672 675 678 682 684 690 690 693 696 700 704 706 704 704 0 2090
    2090 0 0 0 0 0 0 0 0 0 802 798 796 789 783 780 778 774 771 766 761
    757 752 750 746 739 736 733 730 727 722 719 713 710 708 706 701 697
    693 688 687 686 683 679 675 672 671 663 662 659 655 654 652 648 646
    643 640 635 632 632 632 634 634 636 638 644 646 647 649 653 655 658
    661 663 666 668 671 672 675 678 682 686 690 691 693 696 700 704 706
    706 707 0 2090 2090 0 0 0 0 0 0 0 0 0 803 798 796 789 785 781 780
    774 771 767 764 759 752 750 749 741 736 733 731 728 722 719 714 711
    710 707 703 698 693 690 687 686 684 680 676 674 671 668 662 659 657
    655 653 648 646 644 641 635 634 634 634 635 636 637 638 644 646 648
    650 652 655 658 662 663 667 668 672 674 676 678 682 686 690 691 693
    694 700 704 707 707 707 0 2103 2103 0 0 0 0 0 0 0 0 0 803 802 798
    790 787 783 780 776 773 769 766 759 754 752 749 742 739 736 733 730
    723 720 716 711 710 707 704 700 694 691 688 686 684 680 676 675 672
    670 663 659 658 655 653 648 646 644 643 636 635 635 635 636 637 637
    640 644 646 648 652 652 657 659 662 663 667 670 672 676 678 680 683
    687 690 691 693 694 703 706 707 707 710 0 2129 2129 0 0 0 0 0 0 0 0
    0 0 802 800 790 789 785 781 778 774 771 766 759 755 752 750 744 739
    736 734 733 725 722 717 713 710 708 706 701 694 693 690 687 684 682
    676 675 672 670 663 661 658 657 654 649 646 646 643 636 635 635 636
    636 637 638 641 644 646 648 652 653 657 659 662 664 668 671 672 676
    679 680 684 687 691 691 694 696 701 707 708 708 710 0 2129 2129 0 0
    0 0 0 0 0 0 0 803 802 800 792 789 785 781 778 776 771 767 761 757
    754 750 746 741 736 734 733 727 722 719 714 713 710 706 703 700 694
    691 688 684 682 678 675 672 671 668 661 658 657 654 650 647 646 644
    641 640 637 637 637 637 638 642 644 648 649 652 654 657 659 662 664
    670 672 674 676 679 682 684 688 691 693 694 696 701 710 710 710 710
    710 2103 2116 0 0 0 0 0 0 0 0 0 803 803 800 794 789 785 783 780 778
    773 767 762 759 755 750 746 742 739 736 734 727 723 719 716 714 710
    707 704 700 694 693 690 686 682 679 676 674 671 668 662 659 657 655
    653 649 647 644 642 641 637 637 637 637 640 643 646 648 650 652 654
    658 659 662 664 670 672 674 676 680 682 684 688 691 693 696 697 701
    708 710 710 710 710 2103 2116 2143 0 0 0 0 0 0 0 0 805 805 800 796
    790 785 785 781 778 773 767 762 759 757 752 747 744 741 736 734 728
    723 720 717 714 711 708 704 701 698 694 691 687 683 679 676 675 672
    670 663 659 657 655 654 650 647 644 642 641 638 637 637 637 641 644
    647 649 650 652 655 658 661 663 666 670 672 675 678 680 682 684 688
    693 694 696 698 703 708 711 711 711 711 2103 2116 2143 0 0 0 0 0 0 0
    0 807 805 800 796 792 787 787 781 778 774 769 762 759 757 752 749
    746 744 739 734 728 723 720 717 716 713 710 706 703 700 694 691 688
    684 682 678 675 672 671 668 661 658 657 654 652 648 644 642 640 638
    637 637 638 642 644 648 650 650 652 655 658 661 664 666 670 672 676
    678 680 683 686 688 693 694 696 700 704 708 711 714 714 714 2103
    2103 0 0 0 0 0 0 0 0 0 811 811 802 798 796 789 787 783 780 776 771
    764 761 757 754 749 746 744 741 736 734 723 720 719 716 713 710 706
    704 701 698 691 688 686 683 679 676 675 672 668 663 661 658 655 652
    649 647 643 640 638 638 637 637 644 646 648 650 650 652 657 661 662
    664 667 668 672 676 678 680 683 687 690 693 694 697 700 706 708 711
    714 714 716 2103 2103 0 0 0 0 0 0 0 0 0 813 813 803 800 798 794 790
    785 781 778 774 764 762 759 755 750 747 746 742 738 734 725 722 720
    717 713 710 706 704 703 700 693 688 686 684 680 676 675 672 670 663
    661 658 655 653 649 647 644 640 640 638 637 637 642 644 648 650 650
    652 658 661 662 664 667 668 672 676 679 682 683 687 691 693 696 697
    700 706 710 711 713 714 714 2116 0 0 0 0 0 0 0 0 0 0 815 813 805 802
    798 794 790 787 783 780 776 769 764 761 757 754 749 746 742 739 736
    727 725 722 717 714 711 708 704 703 700 693 688 687 684 682 679 675
    672 670 664 663 659 657 654 650 649 646 641 640 638 638 638 642 644
    648 650 652 653 659 662 663 664 667 670 674 676 679 682 683 687 691
    694 696 698 701 706 710 711 713 714 714 0 0 0 0 0 0 0 0 0 0 0 815
    815 807 802 798 794 794 789 783 781 778 773 766 761 757 755 752 749
    746 742 736 733 727 723 719 714 711 708 706 704 701 693 690 687 684
    682 679 678 674 667 664 663 659 657 654 652 649 647 641 641 641 641
    641 642 644 648 650 652 654 658 662 663 664 667 671 675 676 679 682
    683 688 693 694 696 698 701 704 708 713 714 714 714 0 0 0 0 0 0 0 0
    0 0 0 0 815 813 803 800 796 796 790 783 781 778 774 771 762 759 755
    752 749 746 744 738 733 728 725 722 719 713 710 706 704 703 696 691
    688 687 684 680 678 675 667 664 663 661 658 654 652 649 646 642 642
    641 641 641 642 644 647 652 653 654 658 662 664 666 667 672 676 678
    680 683 684 688 691 694 696 700 701 704 708 713 716 714 714 0 0 0 0
    0 0 0 0 0 0 0 0 817 813 803 800 798 796 792 787 783 780 776 773 764
    761 757 752 749 746 744 739 734 728 725 722 720 716 711 708 707 704
    697 693 688 687 684 682 679 676 668 664 663 662 659 654 652 649 644
    642 642 642 642 642 643 644 647 654 654 655 659 663 664 666 668 672
    676 678 680 683 686 688 691 694 696 700 701 706 710 713 716 716 716
    2016 2016 2040 0 0 0 0 0 0 0 0 0 817 813 805 802 800 796 792 787 783
    780 776 773 766 762 759 754 749 746 744 741 736 730 727 723 720 717
    714 708 707 701 698 694 691 688 687 683 679 676 671 666 663 662 659
    657 653 650 644 643 642 642 642 642 643 644 648 655 655 657 659 662
    666 667 668 672 676 679 682 684 687 688 691 694 697 700 703 706 710
    716 717 717 717 2016 2016 2040 0 0 0 0 0 0 0 0 0 0 813 807 802 800
    796 794 789 785 781 778 774 771 764 761 757 750 747 744 741 736 731
    728 723 720 719 716 710 708 701 698 694 691 688 687 684 680 678 674
    670 666 663 661 657 654 652 646 644 643 642 642 642 643 644 649 655
    657 657 659 662 666 667 670 672 678 680 682 684 687 688 690 694 698
    703 703 706 711 716 717 719 720 2005 2005 2053 0 0 0 0 0 0 0 0 0 0
    817 815 805 802 802 794 789 787 783 780 774 773 764 761 757 752 747
    746 741 738 733 728 723 720 719 716 713 708 704 698 694 693 691 688
    684 682 678 674 671 667 664 661 658 657 653 647 644 644 643 643 643
    643 646 650 653 657 658 659 662 666 668 670 674 678 680 682 684 687
    688 690 696 700 703 704 707 711 716 717 717 719 1993 1993 2005 0 0 0
    0 0 0 0 0 0 825 819 817 805 802 802 798 790 787 785 780 776 773 766
    762 757 754 749 746 742 739 733 730 725 722 719 717 714 711 706 701
    696 693 691 688 686 683 678 674 671 667 664 662 661 658 655 649 646
    646 644 643 643 643 646 650 652 655 658 661 663 666 668 671 675 678
    679 682 686 688 690 693 696 700 703 704 708 711 716 717 717 719 1981
    1981 1993 1993 0 0 0 0 0 0 0 0 825 821 817 807 803 802 798 792 789
    785 781 778 773 767 764 759 755 752 747 742 739 734 730 727 722 719
    717 714 711 707 704 698 693 691 688 686 684 678 675 674 670 666 662
    661 658 655 653 647 647 646 644 644 646 648 650 650 655 659 662 664
    667 670 672 675 678 679 683 687 688 691 693 696 700 704 706 708 711
    716 717 717 719 1970 1970 1970 1970 0 0 0 0 0 0 0 0 823 821 819 809
    803 803 800 794 789 787 783 778 771 767 764 761 757 754 749 744 739
    734 730 727 722 719 717 714 713 707 704 701 696 693 690 687 686 679
    676 674 672 667 663 661 659 657 654 648 647 646 646 646 647 648 650
    650 659 661 662 666 668 671 672 675 678 679 683 687 690 691 694 696
    700 704 706 710 711 716 717 719 719 1959 1959 1970 1959 1959 0 0 0 0
    0 0 0 823 821 819 809 805 803 800 796 790 787 785 781 771 767 766
    761 759 755 750 747 739 736 733 728 725 720 717 716 711 707 704 701
    697 693 691 688 686 683 676 675 672 668 663 662 659 658 655 649 648
    647 647 647 648 649 650 652 659 661 662 666 670 671 672 675 679 680
    683 687 688 693 694 697 701 704 706 708 711 717 719 720 720 1947
    1947 1959 1947 1947 1947 0 0 0 0 0 0 823 823 821 811 807 805 802 796
    792 789 787 780 771 767 766 762 759 755 750 747 741 736 733 730 727
    722 719 716 711 707 704 701 698 694 691 690 687 683 678 675 672 670
    666 663 661 658 655 653 649 648 647 647 648 649 650 652 659 662 662
    666 670 671 674 676 679 682 683 687 688 693 696 698 701 704 706 708
    711 717 720 720 720 1936 1936 1947 1936 1936 1947 0 0 0 0 0 0 0 823
    821 813 807 805 802 798 792 789 787 780 773 767 766 764 759 755 752
    749 741 738 734 731 727 722 720 717 711 707 704 701 698 696 693 691
    687 686 679 675 672 670 667 664 662 659 655 653 650 648 648 648 648
    649 650 653 659 662 662 666 670 671 674 676 679 682 684 687 690 693
    697 700 703 704 706 708 711 717 722 722 722 1915 1926 1915 1915 1915
    1915 0 0 0 0 0 0 0 825 821 813 809 807 805 800 792 789 789 781 774
    771 767 766 761 755 752 750 742 738 734 733 728 723 722 719 716 708
    704 703 700 696 694 691 690 687 683 676 674 671 668 666 662 659 655
    653 652 649 648 648 648 649 650 654 659 662 663 667 670 671 675 676
    680 682 684 688 691 693 697 700 703 704 706 708 716 720 722 723 723
    1915 1915 1915 1904 1904 1904 0 0 0 0 0 0 0 831 821 813 809 809 805
    800 796 792 790 781 776 771 769 767 764 757 754 752 746 739 736 733
    728 725 723 720 716 710 706 704 701 697 694 693 690 687 684 676 674
    671 668 666 663 661 657 653 652 649 648 648 648 648 650 655 661 662
    664 667 670 671 675 678 680 683 686 688 691 693 697 700 703 704 707
    708 717 720 722 723 725 1904 1904 1894 1894 1883 1883 0 0 0 0 0 0 0
    831 821 815 809 809 805 802 796 792 790 781 776 773 769 767 764 759
    755 752 746 741 738 734 730 725 723 720 717 711 707 704 701 698 696
    693 690 687 684 678 675 674 670 667 663 661 659 654 652 650 648 648
    648 648 652 657 661 662 664 667 670 671 675 678 682 684 686 688 691
    694 697 701 704 706 708 711 719 720 723 723 725 1883 1873 1873 1873
    1883 1883 0 0 0 0 0 0 0 831 823 817 813 809 803 802 800 796 794 781
    778 774 769 767 766 761 755 752 752 741 739 736 731 727 725 722 719
    716 708 704 703 700 697 694 690 687 684 679 676 675 671 668 666 663
    661 655 653 650 649 649 649 649 652 657 661 662 666 667 670 671 675
    678 680 684 687 688 691 694 697 701 706 707 710 713 719 720 723 723
    725 1863 1863 1863 1863 1853 1853 0 0 0 0 0 0 0 0 823 819 815 811
    803 802 800 796 794 790 780 774 771 769 766 762 755 752 752 744 739
    738 733 730 727 722 719 716 710 706 703 701 698 696 693 688 686 683
    678 675 672 668 666 664 662 658 653 652 650 650 650 652 653 657 661
    663 666 667 670 672 675 678 680 684 687 690 693 696 698 701 706 708
    710 713 719 722 723 723 725 1843 1843 1853 1843 1843 1823 1823 0 0 0
    0 0 0 0 823 819 815 813 807 802 800 796 794 790 781 776 773 769 766
    762 759 754 750 744 741 738 734 731 730 723 720 717 710 706 704 703
    700 697 694 688 686 684 678 675 672 670 667 664 662 658 653 652 650
    650 652 652 654 657 661 664 666 668 671 672 676 678 680 684 687 690
    693 697 698 700 707 710 710 713 717 720 723 727 727 1833 1833 1843
    1843 1843 1823 1823 1823 1823 0 0 0 0 0 0 0 0 813 809 807 805 798
    794 792 783 776 774 771 767 762 761 755 750 746 744 739 734 731 730
    727 722 717 711 707 704 703 700 698 696 691 687 684 679 676 674 671
    668 666 662 659 655 653 652 652 652 653 654 657 662 664 667 670 671
    674 676 679 682 683 687 691 694 697 698 700 707 711 711 714 717 720
    725 728 728 1813 1813 1833 1833 1833 1823 1823 1823 1823 1823 0 0 0
    0 0 0 0 0 809 809 803 796 794 792 785 780 776 773 769 764 761 757
    752 749 744 739 736 733 730 727 722 719 716 708 706 703 700 698 696
    693 688 684 680 678 675 674 670 666 662 661 657 655 653 653 653 653
    654 657 662 666 667 670 671 674 676 679 682 683 687 691 694 698 700
    701 707 711 711 714 717 722 727 728 728 1804 1804 1823 1823 1823
    1823 1823 1833 1823 1823 1823 1823 1823 1833 0 0 0 0 0 0 802 796 794
    792 790 781 778 774 771 767 764 761 759 752 744 741 736 733 731 728
    723 720 716 711 707 704 700 698 697 694 690 684 680 678 675 674 671
    667 662 661 659 655 653 653 653 653 654 657 663 666 668 670 672 675
    678 680 682 684 687 691 694 698 700 701 708 711 713 716 717 723 728
    728 728 1794 1794 1794 1804 1804 1804 1813 1813 1823 1813 1813 1804
    1804 1804 1804 0 0 0 0 0 802 798 796 792 790 783 780 774 771 767 766
    762 759 754 746 742 739 736 733 728 725 722 717 714 710 704 701 698
    697 694 691 684 682 679 676 674 671 667 664 662 659 657 654 653 653
    654 657 658 663 666 668 670 672 675 679 682 683 684 687 693 696 698
    700 703 708 713 714 716 717 723 727 728 728 1785 1785 1794 1794 1794
    1794 1794 1804 1794 1785 1785 1776 1776 1776 1766 1766 0 0 0 0 0 0
    796 792 789 787 781 774 771 767 766 764 761 755 747 744 741 738 734
    730 725 722 717 714 711 706 703 700 697 696 693 686 683 680 676 675
    671 667 664 661 659 657 655 654 654 655 657 658 663 667 668 670 672
    675 679 682 683 686 688 693 697 698 700 704 708 713 714 716 719 723
    727 728 728 1766 1766 1785 1785 1785 1776 1776 1785 1785 1776 1776
    1776 1776 1776 1766 1757 1757 0 0 0 0 0 0 792 789 787 787 774 771
    769 766 764 762 757 747 746 742 741 736 730 727 723 717 714 711 708
    707 703 698 696 693 686 684 682 678 675 671 668 666 661 659 657 655
    655 655 655 658 662 662 667 668 671 672 676 680 683 683 686 688 693
    697 698 700 703 708 713 714 716 720 727 728 730 730 1766 1766 1776
    1776 1776 1766 1757 1757 1748 1748 1748 1757 1766 1757 1757 1757
    1757 0 0 0 0 0 0 0 0 0 0 0 771 771 767 766 762 757 749 746 742 741
    736 731 727 723 719 716 713 710 708 706 701 697 694 688 686 683 679
    675 672 670 668 662 661 658 657 655 655 657 659 662 662 667 668 672
    674 678 680 683 684 687 690 694 697 700 700 703 710 713 714 716 720
    725 730 731 731 1766 1757 1757 1757 1757 1757 1748 1748 1739 1739
    1748 1748 1748 1748 1739 1739 1757 0 0 0 0 0 0 0 0 0 0 0 0 771 767
    766 761 759 750 747 744 741 738 733 728 727 719 717 714 711 708 706
    703 698 693 690 687 684 680 676 675 671 670 662 661 658 657 657 657
    657 661 662 663 667 668 674 675 678 680 683 684 687 690 694 697 700
    701 704 710 711 714 717 722 725 730 733 733 1757 1757 1748 1748 1748
    1748 1739 1739 1731 1731 1731 1731 1731 1739 1739 1739 0 0 0 0 0 0 0
    0 0 0 0 0 0 771 769 762 761 755 752 749 746 741 736 734 731 728 720
    717 716 713 710 706 703 700 693 691 688 684 680 678 675 674 671 667
    662 658 657 657 657 657 661 662 664 667 668 674 675 678 680 683 686
    688 690 694 698 700 703 706 708 711 714 719 723 727 731 733 734 1748
    1748 1748 1739 1731 1731 1731 1731 1731 1731 1731 1722 1722 1739
    1739 0 0 0 0 0 0 0 0 0 0 0 0 0 0 0 0 762 761 755 754 750 747 741 736
    734 733 731 720 717 716 714 710 707 704 701 693 691 688 684 682 679
    676 674 671 667 663 661 659 658 658 658 659 662 664 667 670 674 675
    679 680 683 687 688 690 694 698 701 704 706 708 711 714 722 723 727
    733 734 734 1748 1748 1748 1739 1731 1731 1731 1731 1739 1731 1731
    1722 1722 1739 0 0 0 0 0 0 0 0 0 0 0 0 0 0 0 0 0 0 761 757 754 752
    749 746 738 734 733 731 723 720 717 714 710 707 704 703 694 691 690
    686 683 680 678 675 671 668 666 662 659 658 658 658 659 662 666 670
    672 674 675 679 680 684 687 688 690 694 698 701 704 707 710 713 716
    722 723 727 733 734 734</data></Depth11585>
</opencv_storage>
