<?xml version="1.0"?>
<opencv_storage>
<Depth19357 type_id="opencv-matrix">
  <rows>28</rows>
  <cols>37</cols>
  <dt>w</dt>
  <data>
    5056 5056 4349 4349 4349 4405 4405 4405 4463 4463 4522 2129 2129
    2129 4582 4582 4645 4645 4645 4708 4708 4774 4842 4842 4842 4842
    4774 2349 2333 2333 2333 4911 4842 4842 4774 4708 4708 5056 5056
    5056 4405 4405 4463 4463 4463 4463 4463 4522 2156 2156 2156 4582
    4582 4645 4645 2184 2184 4645 4774 4842 4842 4842 4842 2333 2317
    2301 2301 2301 4911 2256 2256 2256 4708 4708 5056 5056 4582 4463
    4463 4463 4463 4463 4463 4463 2156 2156 2156 2156 2156 4645 4645
    2170 2170 2170 2170 4842 4842 2271 2271 2286 2286 2301 2241 2241
    2226 2226 2226 2241 2241 2241 4708 5056 5056 4522 4463 4405 4405
    4405 4405 4463 2143 2143 2143 2143 2143 2143 2156 2170 2170 2170
    2170 2170 2184 2184 2271 2271 2286 2286 2256 2226 2226 2226 2226
    2226 2226 2241 2241 4708 4842 4645 4522 4405 4405 2184 2170 2156
    2143 2129 2129 2129 2143 2143 2143 2156 2156 2170 2170 2170 2170
    2184 2184 2212 2212 2286 2286 2226 2226 2226 2226 2226 2226 2226
    2241 2241 4708 4842 4645 4522 2198 2156 2156 2156 2143 2143 2116
    2116 2116 2129 2143 2156 2156 2156 2156 2156 2156 2170 2170 2184
    2198 2198 2226 2226 2226 2226 2226 2226 2226 2226 2241 2241 2271
    4708 4983 4983 2170 2156 2156 2156 2156 2143 2116 2116 2116 2116
    2129 2143 2143 2156 2156 2156 2156 2156 2170 2170 2184 2184 2184
    2184 2198 2212 2212 2212 2226 2226 2226 2241 2241 2256 2256 5056
    2156 2143 2143 2143 2143 2156 2143 2116 2116 2116 2116 2129 2143
    2143 2143 2156 2156 2156 2156 2170 2170 2170 2184 2184 2184 2198
    2198 2212 2212 2212 2226 2226 2226 2241 2241 2241 5056 2156 2143
    2143 2143 2143 2156 2143 2116 2116 2116 2116 2116 2129 2129 2143
    2143 2156 2156 2156 2170 2170 2170 2170 2184 2184 2184 2198 2212
    2212 2212 2212 2226 2226 2226 2241 2241 5056 2156 2143 2143 2143
    2143 2156 2143 2116 2116 2116 2116 2116 2129 2129 2143 2143 2143
    2156 2156 2156 2170 2170 2170 2170 2184 2184 2198 2212 2212 2212
    2212 2226 2226 2226 2226 2226 5056 2156 2143 2143 2143 2143 2156
    2143 2116 2116 2116 2116 2116 2129 2129 2129 2129 2143 2143 2156
    2156 2156 2170 2170 2170 2184 2184 2198 2198 2212 2212 2212 2226
    2226 2226 2226 2226 2156 2156 2143 2143 2143 2143 2143 2143 2116
    2116 2116 2116 2116 2116 2116 2129 2129 2129 2143 2143 2156 2156
    2156 2170 2170 2170 2184 2198 2198 2212 2212 2212 2212 2212 2212
    2212 2212 2156 2156 2143 2143 2143 2143 2143 2129 2116 2116 2116
    2116 2116 2116 2116 2116 2116 2129 2143 2143 2156 2156 2156 2170
    2170 2170 2170 2184 2198 2198 2212 2212 2212 2212 2212 2212 2212
    2156 2156 2143 2143 2143 2143 2143 2116 2116 2116 2116 2116 2116
    2116 2116 2116 2116 2129 2143 2143 2156 2156 2156 2156 2156 2170
    2170 2170 2198 2198 2212 2212 2212 2212 2212 2212 2212 5056 2143
    2143 2143 2143 2143 2143 2116 2116 2116 2116 2116 2116 2116 2116
    2116 2116 2129 2143 2143 2156 2156 2156 2156 2156 2156 2170 2170
    2184 2198 2198 2212 2212 2212 2212 2212 2212 5056 2143 2143 2143
    2143 2143 2143 2116 2116 2116 2116 2116 2116 2116 2116 2116 2116
    2129 2143 2143 2156 2156 2156 2156 2156 2156 2170 2170 2184 2198
    2198 2198 2198 2212 2212 2212 2212 5132 2143 2143 2143 2129 2129
    2129 2116 2116 2103 2103 2103 2116 2116 2116 2116 2116 2129 2129
    2143 2156 2156 2156 2156 2156 2156 2156 2170 2170 2184 2184 2198
    2198 2198 2198 2198 2198 5056 2143 2143 2143 2129 2129 2116 2116
    2103 2103 2103 2103 2116 2116 2116 2116 2116 2116 2129 2129 2156
    2156 2156 2156 2156 2156 2156 2170 2170 2184 2184 2184 2184 2198
    2184 2184 2184 5056 2143 2143 2129 2129 2129 2116 2116 2103 2103
    2103 2103 2103 2103 2103 2116 2116 2116 2116 2129 2143 2156 2156
    2156 2156 2156 2156 2170 2170 2184 2184 2184 2184 2184 2184 2170
    2170 5056 2143 2116 2116 2116 2129 2129 2116 2103 2090 2090 2090
    2103 2103 2103 2116 2116 2116 2116 2116 2129 2143 2156 2156 2156
    2156 2156 2170 2170 2184 2184 2184 2184 2184 2184 2170 2170 2156
    2129 2103 2103 2103 2129 2129 2116 2103 2090 2090 2090 2103 2103
    2103 2103 2103 2116 2116 2116 2116 2129 2143 2143 2156 2156 2156
    2170 2170 2184 2184 2184 2184 2184 2184 2184 2184 2129 2116 2103
    2103 2103 2116 2116 2116 2103 2090 2090 2103 2103 2103 2103 2103
    2103 2103 2103 2116 2116 2129 2143 2143 2156 2156 2156 2170 2170
    2170 2170 2170 2184 2184 2184 2198 2198 2116 2116 2103 2103 2103
    2116 2116 2116 2103 2090 2090 2090 2090 2090 2090 2090 2090 2103
    2103 2116 2116 2129 2129 2143 2143 2156 2156 2170 2170 2170 2170
    2170 2170 2184 2184 2184 2184 2116 2116 2103 2103 2103 2103 2103
    2103 2090 2090 2090 2090 2090 2090 2090 2090 2090 2103 2103 2116
    2116 2116 2129 2129 2143 2156 2156 2170 2170 2170 2170 2170 2170
    2184 2184 2184 2184 2116 2116 2103 2103 2103 2103 2103 2103 2090
    2090 2090 2090 2090 2090 2090 2090 2090 2103 2103 2116 2116 2116
    2129 2129 2143 2143 2156 2156 2170 2170 2170 2184 2184 2184 2170
    2170 2170 2116 2103 2103 2090 2090 2103 2103 2103 2090 2078 2078
    2090 2090 2090 2090 2090 2090 2103 2103 2116 2116 2116 2129 2129
    2129 2129 2143 2156 2170 2170 2170 2170 2170 2184 2170 2170 2170
    2116 2103 2103 2090 2090 2103 2103 2090 2090 2078 2078 2090 2090
    2103 2090 2090 2103 2103 2103 2103 2103 2116 2129 2129 2129 2129
    2143 2143 2156 2170 2170 2170 2170 2170 2170 2170 2170 2129 2103
    2103 2103 2103 2103 2103 2090 2090 2078 2078 2078 2078 2090 2090
    2103 2103 2103 2103 2103 2103 2116 2116 2129 2129 2129 2143 2143
    2156 2156 2156 2170 2170 2170 2170 2170 2170</data></Depth19357>
</opencv_storage>
