<?xml version="1.0"?>
<opencv_storage>
<Depth16579 type_id="opencv-matrix">
  <rows>143</rows>
  <cols>96</cols>
  <dt>w</dt>
  <data>
    2579 2598 2598 2579 2579 2579 2579 2560 2560 2598 2579 2579 2579
    2579 2560 2560 2560 2560 2560 2560 2560 2560 2560 2560 2541 2541
    2541 2541 2541 2541 2560 2560 2560 2560 2560 2541 2541 2541 2541
    2541 2541 2541 2522 2522 2522 2541 2560 2560 2541 2541 2541 2522
    2522 2503 2503 2503 2503 2503 2503 2503 2503 2503 774 774 776 778 0
    778 778 2432 0 2432 2432 2432 2432 2432 2432 2432 2432 2450 2467
    2467 2485 2485 2485 2485 2485 2485 2485 2485 2485 2485 2485 2467
    2467 2450 2598 2598 2598 2598 2579 2579 2579 2579 2579 2598 2579
    2579 2579 2579 2579 2560 2560 2560 2560 2560 2560 2560 2560 2560
    2541 2541 2541 2541 2541 2541 2560 2560 2560 2560 2560 2541 2541
    2541 2541 2541 2541 2560 0 0 0 0 0 0 0 0 0 0 2522 2522 2522 2503
    2503 2503 2503 2503 2503 774 774 774 776 778 0 0 0 0 2432 2432 2432
    2450 2432 2432 2432 2432 2432 2450 2450 2485 2485 2485 2485 2485
    2485 2485 2485 2485 2485 2485 2485 2467 2467 2467 2598 2598 2598
    2598 2598 2598 2579 2579 2579 2579 2579 2579 2579 2579 2579 2579
    2579 2560 2560 2560 2560 2560 2560 2560 2541 2541 2541 2541 2541
    2541 2560 2560 2560 2560 2560 2541 2541 2541 2541 2541 0 0 0 0 0 0 0
    0 0 0 0 0 0 0 2560 2560 0 0 0 0 0 778 778 776 776 778 0 774 0 0 0
    2450 2450 2450 2432 2432 2432 2432 2432 2450 2450 2485 2485 2485
    2485 2485 2485 2485 2485 2485 2485 2485 2485 2485 2485 2485 2598
    2598 2598 2598 2598 2598 2579 2579 2579 2579 2579 2579 2579 2579
    2579 2579 2579 2579 2579 2579 2560 2560 2560 2560 2541 2541 2541
    2541 2541 2541 2560 2560 2560 2560 2560 2560 2560 2541 2541 0 0 0 0
    0 0 0 0 0 0 0 0 0 0 0 0 0 0 0 0 0 0 778 778 776 776 774 774 774 0 0
    0 2450 2450 2450 2432 2432 2432 2432 2450 2450 2467 2485 2485 2485
    2485 2485 2485 2485 2485 2485 2485 2503 2503 2485 2467 2467 2598
    2598 2598 2598 2598 2598 2579 2579 2579 2579 2579 2579 2579 2579
    2579 2579 2579 2579 2579 2579 2560 2560 2560 2560 2541 2541 2541
    2541 2541 2541 2560 2560 2560 2560 2560 596 596 596 596 597 0 0 0 0
    0 0 0 0 0 0 0 0 0 0 0 0 0 0 0 0 0 0 776 776 767 767 769 0 0 0 0 0
    2432 2432 2432 2432 2432 2432 2432 2432 2450 2467 2485 2485 2485
    2485 2485 2485 2485 2503 2503 2503 2485 2485 2467 2467 2598 2598
    2598 2598 2598 2598 2579 2579 2579 2579 2579 2579 2579 2579 2579
    2579 2579 2579 2579 2579 2560 2560 2560 2560 2541 2541 2541 2541
    2541 2541 2560 2560 596 596 596 595 595 596 596 596 596 0 0 0 0 0 0
    0 0 0 0 0 0 0 0 0 0 0 0 0 736 736 736 736 738 764 767 767 0 0 0 0
    2432 2432 2432 2432 2432 2432 2432 2432 2432 2432 2467 2485 2485
    2485 2485 2485 2485 2503 2503 2503 2485 2467 2467 2467 2598 2598
    2598 2598 2598 2598 2598 2598 2579 2579 2579 2579 2579 2579 2579
    2579 2579 2579 2579 2579 2560 2560 2560 2560 2541 2541 2560 2541
    2541 2541 598 597 596 596 595 595 595 596 596 595 595 595 0 0 0 0 0
    0 0 0 0 0 0 0 0 0 0 0 0 0 736 736 736 736 738 759 762 766 0 0 0 0
    2432 2432 2432 2432 2432 2432 2432 2432 2432 2432 2450 2485 2485
    2485 2485 2467 2467 2503 2503 2503 2467 2467 2467 2467 2598 2598
    2598 2579 2579 2579 2598 2598 2598 2579 2579 2579 2579 2579 2579
    2579 2579 2579 2579 2560 2560 2560 2560 2560 2560 2560 2560 596 597
    597 597 596 596 595 595 595 595 594 594 594 595 595 0 0 0 0 0 0 0 0
    0 0 0 0 0 0 0 0 0 0 734 734 734 736 742 759 762 766 0 0 0 0 0 2450
    2450 2450 2450 2450 2432 2432 2450 2450 2450 2467 2485 2485 2485
    2467 2467 2503 2485 2485 2467 2467 2467 2467 2598 2598 2579 2579
    2579 2579 2598 2598 2598 2579 2579 2579 2579 2579 2579 2598 2579
    2560 2560 2560 2560 2579 2560 2560 2560 0 0 0 596 596 597 596 596
    595 595 595 596 594 594 594 596 596 0 0 0 0 0 0 0 0 0 0 0 0 0 0 0 0
    0 0 734 734 734 736 739 761 769 771 771 0 0 0 0 2450 2450 2432 2432
    2432 2432 2450 2450 2450 2450 2467 2485 2485 2485 2485 2485 2503
    2485 2485 2467 2467 2467 2467 2598 2598 2579 2579 2579 2579 2598
    2618 2598 2579 2579 2579 2579 2579 2598 2579 2579 2560 2560 2560
    2560 2598 0 0 0 0 0 0 596 596 596 596 595 595 595 595 596 596 595
    595 595 596 0 0 0 0 0 0 0 0 0 0 0 0 0 0 0 0 0 0 733 733 734 736 736
    739 769 771 771 0 0 0 0 0 2450 2432 2432 2432 2432 2450 2450 2450
    2467 2467 2485 2485 2485 2485 2485 2503 2503 2485 2467 2467 2485
    2485 2598 2598 2598 2579 2579 2598 2598 2598 2598 2579 2579 2598
    2579 2579 2579 2579 2579 2560 2560 2560 0 0 0 0 0 0 0 0 596 596 596
    596 595 595 595 595 596 595 592 592 595 585 584 584 584 0 0 0 0 0 0
    0 0 0 0 0 0 697 697 697 733 730 730 734 736 738 771 771 771 0 0 0 0
    0 2450 2432 2432 2432 2450 2450 2467 2467 2467 2467 2485 2485 2485
    2485 2485 2503 2503 2485 2485 2485 2485 2485 2618 2618 2618 2598
    2598 2598 2598 2598 2598 2579 2579 2598 2579 2579 2579 2579 0 0 0 0
    0 0 0 0 0 0 0 0 597 597 597 596 595 595 595 595 592 591 589 588 586
    585 584 584 584 584 585 0 0 0 0 0 0 0 0 0 0 697 697 697 697 698 730
    734 736 736 736 771 771 771 0 0 0 0 2450 2450 2450 2450 2450 2450
    2467 2467 2467 2467 2485 2485 2485 2485 2485 2503 2503 2503 2485
    2485 2503 2485 2618 2618 2618 2618 2598 2598 2598 2598 2579 2579
    2598 2598 2579 2579 2579 2579 0 0 0 0 0 0 0 0 0 0 0 0 597 597 597
    596 595 594 592 590 589 589 588 586 586 585 585 584 584 584 585 0 0
    0 0 0 0 0 0 678 678 678 694 696 696 697 698 736 736 736 736 769 769
    771 0 0 0 0 0 2450 2450 2450 2450 2450 2467 2450 2450 2467 2467 2485
    2485 2503 2503 2503 2503 2503 2503 2503 2503 2485 2618 2618 2618
    2618 2598 2598 2598 2598 2579 2579 0 0 0 0 0 0 0 0 0 0 0 0 0 0 0 0 0
    0 598 598 598 595 594 593 590 589 589 588 587 586 585 585 585 585
    584 584 585 585 0 0 0 0 0 0 0 678 678 678 691 694 696 697 698 736
    736 738 738 769 769 771 0 0 0 0 0 2467 2467 2467 2467 2467 2467 2450
    2450 2467 2467 2485 2485 2503 2503 2503 2503 2503 2503 2503 2503
    2503 2618 2598 2598 2598 2598 2598 2598 0 0 0 0 0 0 0 0 0 0 0 0 0 0
    0 600 600 0 0 0 0 0 593 593 592 592 591 590 589 589 588 587 585 585
    585 585 585 585 585 585 585 0 0 0 0 0 0 0 679 678 678 691 694 696
    697 697 698 736 738 738 771 771 773 773 0 0 0 0 2485 2450 2450 2467
    2467 2467 2450 2450 2450 2467 2485 2485 2503 2503 2503 2503 2503
    2503 2503 2503 2503 2618 2598 2598 2598 2598 2598 2598 0 0 0 0 0 0 0
    0 0 0 0 0 602 601 601 600 600 598 597 596 595 593 591 590 590 590
    589 589 588 588 587 586 585 585 585 585 585 585 585 585 584 584 0 0
    0 0 0 0 0 678 678 694 694 696 697 697 698 736 738 738 738 773 773
    773 0 0 0 0 0 2450 2450 2467 2467 2467 2450 2450 2450 2450 2485 2485
    2503 2503 2503 2503 2503 2503 2503 2503 2503 2618 2618 2618 2618
    2639 0 0 0 0 0 0 0 0 0 0 0 0 0 602 602 601 601 600 600 598 597 596
    595 593 591 590 590 590 589 589 588 588 587 586 585 585 584 584 585
    585 585 585 584 584 0 0 0 0 0 0 0 0 0 693 693 696 697 697 698 736
    739 738 738 771 771 773 774 0 0 0 0 2450 2450 2467 2467 2467 2450
    2450 2450 2450 2485 2485 2503 2503 2503 2503 2503 2503 2503 2503
    2503 2618 2618 2618 0 0 0 0 0 0 0 0 0 613 613 613 0 0 604 602 602
    601 601 601 600 599 598 597 596 595 592 592 591 590 589 589 588 588
    587 586 585 585 584 584 584 585 585 585 585 0 0 0 0 0 0 0 0 0 0 693
    693 694 697 697 697 736 739 738 738 769 769 771 774 0 0 0 0 0 2467
    2467 2467 2450 2450 2432 2432 2450 2485 2485 2503 2503 2503 2503
    2503 2503 2503 2503 2503 2639 0 0 0 0 0 0 0 0 0 0 613 612 611 611
    608 606 604 603 603 602 602 601 600 600 599 597 596 596 594 594 593
    591 590 589 589 588 588 587 586 585 585 584 584 585 585 585 585 0 0
    0 0 0 0 0 0 0 0 693 693 694 697 697 697 698 741 741 741 769 769 771
    771 0 0 0 0 0 2467 2467 2467 2450 2432 2432 2432 2450 2485 2485 2503
    2503 2503 2503 2503 2503 2503 2503 2503 0 0 0 0 0 0 0 618 618 0 613
    613 612 611 610 608 606 604 604 604 603 602 601 601 600 599 598 597
    596 596 595 594 593 590 590 589 589 589 588 588 586 585 585 585 585
    584 582 582 0 0 0 0 0 0 0 0 0 0 0 696 696 697 698 698 698 741 741
    741 742 769 771 771 0 0 0 0 0 2467 2467 2467 2450 2432 2432 2450
    2450 2485 2485 2485 2485 2503 2503 2503 2503 2503 2503 2503 0 0 0 0
    0 620 618 616 615 613 613 612 612 611 610 609 608 606 604 604 603
    603 602 601 601 600 598 598 597 597 596 596 594 590 590 589 589 589
    589 588 587 587 587 587 586 584 581 581 0 0 0 0 0 0 0 0 0 0 0 696
    696 698 698 698 698 741 741 741 742 769 769 771 0 0 0 0 0 2467 2467
    2467 2467 2450 2450 2467 2467 2485 2485 2485 2485 2503 2503 2503
    2503 2503 2503 2503 0 0 0 620 620 619 618 616 614 613 613 612 612
    612 611 610 608 607 607 606 604 604 602 601 601 600 600 599 598 598
    597 597 594 593 592 590 590 590 589 588 587 587 587 587 586 584 581
    581 0 0 0 0 0 0 0 0 0 0 0 696 696 698 698 698 698 700 738 742 744
    767 767 771 0 0 0 0 0 0 2450 2450 2467 2467 2467 2467 2467 2467 2485
    2485 2503 2503 2503 2522 2522 2503 2503 2503 0 0 621 620 620 619 618
    616 614 613 613 613 612 612 611 610 609 608 607 606 606 606 604 602
    601 600 599 599 599 598 597 597 596 596 595 593 593 592 590 589 588
    587 587 587 586 585 582 582 582 585 585 0 0 0 0 0 0 0 0 0 694 694
    697 697 698 700 734 738 741 759 766 771 774 776 0 0 0 0 2450 2450
    2467 2467 2467 2467 2467 2467 2485 2485 2503 2522 2522 2522 2522
    2503 2503 2503 622 621 621 620 620 619 618 616 615 614 614 613 613
    612 611 611 609 609 609 608 608 607 606 603 601 600 599 599 599 598
    598 597 596 596 595 594 594 593 593 592 589 588 587 587 587 586 585
    585 585 585 585 0 0 0 0 0 0 0 679 679 682 683 694 696 698 704 734
    736 739 759 762 771 774 774 0 0 0 0 0 0 2485 2485 2450 2450 2450
    2450 2485 2503 2503 2522 2522 2503 2503 2503 2503 2503 622 621 621
    620 620 619 618 616 615 615 615 614 613 612 612 611 609 609 609 608
    608 607 606 604 602 600 600 599 599 599 598 597 596 596 595 595 594
    593 593 592 591 589 588 588 587 587 587 586 585 585 585 0 0 0 0 0 0
    0 679 679 682 683 693 694 698 701 736 736 739 742 762 769 773 774 0
    0 0 0 0 0 2485 2485 2450 2450 2450 2450 2485 2485 2503 2522 2522
    2503 2503 2503 2503 2522 622 622 621 621 620 620 619 618 618 616 616
    615 614 613 612 611 610 609 609 609 608 608 607 604 603 601 601 600
    599 599 598 596 596 595 595 594 594 594 593 593 592 591 590 588 588
    587 587 586 586 586 0 0 0 0 0 0 0 0 0 0 687 687 691 694 698 701 703
    736 741 742 764 769 773 774 0 0 0 0 0 0 2485 2485 2450 2450 2450
    2450 2485 2485 2485 2522 2503 2503 2503 2522 2522 2522 623 622 622
    622 621 621 620 619 619 618 616 615 614 613 612 611 610 609 609 609
    609 608 607 604 603 601 601 601 600 600 598 596 596 595 595 594 594
    594 593 593 592 592 590 589 588 588 588 588 587 587 0 0 0 0 0 0 0 0
    0 690 690 690 691 693 697 700 703 738 741 742 771 771 773 774 0 0 0
    0 0 0 2485 2485 2467 2450 2450 2450 2485 2485 2485 2522 2503 2503
    2503 2522 2522 2522 623 622 622 622 621 621 621 621 620 619 618 615
    614 613 612 611 611 610 609 609 609 608 607 606 604 602 602 601 600
    600 599 597 596 596 595 594 594 594 593 593 593 592 592 590 588 588
    587 587 587 587 0 0 0 0 0 0 0 632 632 632 690 690 691 693 696 697
    701 739 741 741 741 771 773 774 780 0 0 0 0 0 2503 2485 2485 2467
    2467 2467 2467 2485 2485 2522 2522 2522 2522 2522 2522 2522 623 622
    622 622 622 622 621 621 621 620 618 615 614 613 612 611 611 610 610
    609 609 608 607 606 604 603 602 601 601 601 599 597 597 596 595 594
    594 594 594 593 593 593 592 591 589 588 587 587 587 587 0 0 0 0 0 0
    0 632 632 632 691 691 691 693 696 696 698 698 739 741 741 769 773
    774 778 0 0 0 0 0 0 2485 2485 2485 2485 2467 2467 2485 2485 2522
    2522 2522 2522 2522 2522 2522 0 621 621 622 622 622 621 621 621 620
    618 616 614 613 613 612 612 611 610 610 609 609 608 607 606 603 602
    602 601 601 600 600 597 596 596 595 595 595 595 594 593 593 592 591
    590 589 588 588 588 588 0 0 0 0 0 632 632 632 632 632 649 694 694
    694 696 696 696 696 739 741 741 767 769 771 776 0 0 0 0 0 0 2485
    2485 2485 2485 2467 2467 2485 2485 2522 2522 2522 2522 2522 2522
    2522 0 621 621 622 622 622 622 621 621 620 619 616 614 614 613 613
    612 612 611 611 610 609 609 608 607 604 603 602 602 602 601 601 599
    597 597 596 596 596 596 595 594 593 593 592 590 589 588 588 588 588
    589 589 0 0 0 632 631 631 632 650 649 649 694 694 696 696 696 696
    696 739 739 767 767 769 774 778 0 0 0 0 0 2485 2485 2485 2485 2467
    2467 2485 2485 2522 2522 2522 2522 2522 2522 2522 0 0 622 622 623
    622 622 622 621 620 619 616 615 615 614 613 613 612 612 611 611 610
    609 608 607 606 604 603 603 603 602 601 600 599 597 597 596 596 596
    595 595 594 593 592 590 589 588 588 588 589 589 589 0 628 628 627
    627 631 632 636 649 649 650 694 696 696 696 696 696 738 738 766 766
    769 774 776 0 0 0 0 0 0 2485 2485 2485 2485 2485 2485 2485 2522 2522
    2522 2522 2541 2522 2522 0 0 625 624 624 623 622 622 622 620 619 618
    616 616 615 615 615 614 613 613 613 610 610 609 608 607 606 606 604
    604 603 602 601 600 597 597 597 597 596 596 595 594 594 593 591 590
    589 589 589 589 589 589 589 627 627 627 627 631 632 636 649 650 649
    649 696 696 697 696 696 736 738 741 766 769 774 776 0 0 0 0 0 0 2485
    2485 2485 2485 2485 2485 2485 2522 2522 2541 2541 2560 2541 2541 0 0
    625 625 624 624 624 622 622 621 620 618 616 616 616 616 615 615 613
    613 613 612 610 610 609 608 607 606 604 604 604 603 601 600 600 598
    597 597 596 596 596 595 595 594 592 591 590 589 589 589 589 589 589
    589 627 627 627 631 629 629 650 652 649 649 694 696 698 697 697 736
    736 741 766 769 774 776 776 0 0 0 0 0 2485 2485 2485 2485 2485 2485
    2485 2522 2541 2541 2541 2560 2541 2541 0 0 0 625 625 624 624 624
    622 621 621 619 618 616 616 616 616 615 614 614 614 613 610 610 609
    608 608 607 607 606 604 603 602 601 600 599 598 597 597 597 596 596
    596 595 593 592 591 590 590 589 589 589 588 588 627 627 632 632 629
    629 650 650 649 649 694 696 696 697 697 736 736 739 773 773 774 776
    776 0 0 0 0 0 0 2503 2485 2485 2485 2485 2485 2522 2541 2560 2560
    2560 2560 2560 0 0 0 628 625 625 625 624 624 622 621 619 618 618 618
    618 616 616 614 614 614 613 611 610 609 609 609 607 607 606 606 603
    602 602 600 600 598 598 597 597 596 596 596 595 594 593 592 590 590
    590 589 589 588 588 588 632 632 632 629 629 650 650 649 649 694 694
    696 696 697 736 738 739 739 773 773 776 781 0 0 0 0 0 0 2503 2485
    2485 2485 2485 2485 2522 2541 2560 2560 2579 2560 2560 0 0 0 629 627
    625 625 625 624 622 622 620 619 618 618 618 616 616 615 614 614 613
    612 611 610 609 609 608 608 607 606 604 602 602 601 600 599 599 599
    598 597 597 597 596 595 594 593 591 591 590 590 589 589 589 589 632
    632 632 629 629 652 652 652 652 694 694 696 696 697 736 738 739 739
    744 773 780 781 785 0 0 0 0 0 2522 2503 2503 2485 2485 2485 2522
    2541 2560 2560 2579 2560 2560 0 0 0 631 628 627 625 625 624 623 622
    621 620 619 618 618 616 616 615 614 614 613 613 612 611 610 609 609
    609 607 606 604 603 603 602 601 600 599 599 599 598 598 597 596 596
    595 594 592 591 591 591 590 590 593 611 611 611 632 632 650 652 652
    653 654 655 696 696 696 697 698 738 739 739 744 755 769 781 785 0 0
    0 0 0 0 2503 2503 2485 2485 2485 2522 2541 2560 2560 2560 2560 2560
    0 0 0 631 628 627 627 625 625 623 622 621 621 619 619 618 618 616
    616 615 615 614 613 612 611 610 609 609 609 608 607 606 604 604 602
    601 600 600 600 599 599 598 597 597 596 596 593 593 592 592 592 592
    592 593 611 611 611 612 646 650 650 652 654 655 655 696 696 697 698
    698 741 741 741 747 755 767 771 776 0 0 0 0 0 0 2503 2503 2503 2485
    2485 2503 2522 2541 2560 2560 2560 2560 0 0 0 0 627 627 625 625 625
    624 623 622 621 620 619 618 618 618 616 616 616 614 613 613 612 611
    610 610 609 608 607 606 606 604 603 602 601 601 600 600 600 598 598
    597 596 596 593 593 592 592 592 592 592 592 612 611 611 612 650 649
    649 650 653 654 654 697 697 697 698 698 741 741 742 747 757 767 771
    774 0 0 0 0 0 0 2503 2503 2503 2503 2503 2503 2522 2522 2560 2560
    2560 2560 0 0 0 0 627 625 625 625 625 624 623 622 621 620 619 619
    618 618 618 616 616 614 614 613 613 612 611 610 609 609 607 606 606
    604 603 602 602 601 601 600 600 600 599 598 597 596 594 593 592 592
    592 592 592 613 612 611 611 612 612 647 647 648 650 654 654 696 696
    697 700 700 704 742 742 747 749 767 771 774 0 0 0 0 0 0 2503 2503
    2503 2485 2485 2503 2522 2522 2560 2579 2579 2560 0 0 0 0 0 625 625
    625 625 625 624 623 622 621 620 620 619 618 618 616 616 615 614 613
    613 612 611 610 610 609 608 607 606 604 604 603 603 602 601 601 601
    600 599 598 597 596 594 593 593 593 592 592 593 593 613 612 612 612
    612 647 647 648 650 652 652 653 694 700 703 704 704 746 746 747 749
    773 773 774 780 0 0 0 0 0 2503 2503 2503 2485 2485 2503 2522 2522
    2541 2579 2579 2560 0 0 0 0 0 627 625 625 625 625 625 624 623 622
    621 620 619 618 618 616 616 615 615 614 613 613 612 611 610 609 608
    607 607 606 604 604 604 603 603 602 601 600 600 599 598 597 595 594
    593 593 592 592 593 592 592 613 612 612 612 647 647 648 650 652 652
    653 657 698 701 703 704 704 747 747 747 750 771 774 780 781 0 0 0 0
    0 2503 2503 2503 2522 2522 2522 2522 2541 2560 2579 2560 0 0 0 0 0 0
    627 627 625 625 625 624 623 622 621 621 620 618 618 618 618 616 615
    614 613 613 613 612 611 610 609 608 607 606 606 604 604 603 603 602
    601 600 600 599 598 597 596 596 594 593 593 593 593 592 592 613 612
    612 612 646 646 647 650 650 652 654 657 698 701 703 704 704 747 747
    747 749 771 774 778 778 0 0 0 0 0 0 2503 2503 2522 2522 2522 2522
    2541 2560 2579 2579 0 0 0 0 0 0 627 627 627 627 625 625 624 622 622
    621 621 620 619 619 618 616 616 614 614 614 613 613 612 611 610 609
    609 607 606 606 604 604 604 603 602 601 600 600 599 598 597 596 595
    595 593 593 593 593 592 592 612 612 613 613 646 647 650 650 652 654
    655 698 700 703 704 704 746 746 746 749 773 774 778 778 0 0 0 0 0 0
    2503 2503 2522 2522 2522 2522 2541 2560 2579 2579 2744 0 0 0 0 0 0
    628 627 627 627 625 625 623 622 621 621 620 619 619 619 618 616 615
    615 614 614 613 613 611 610 610 609 608 607 606 604 604 604 603 602
    601 600 600 600 599 599 597 596 595 594 594 594 593 592 592 613 613
    612 612 647 647 650 650 652 652 652 697 697 703 704 707 707 746 746
    747 747 774 778 781 0 0 0 0 0 0 2503 2503 2522 2522 2522 2522 2541
    2560 2579 2579 2723 0 0 0 0 0 0 628 628 627 627 627 625 624 622 621
    621 621 620 619 619 618 618 616 616 615 614 614 613 612 611 610 609
    608 608 606 606 606 604 603 602 601 600 600 600 599 599 597 596 596
    595 595 595 593 593 614 614 613 612 612 646 646 647 648 650 650 650
    653 690 704 706 707 707 746 746 747 747 774 778 781 785 0 0 0 0 0
    2503 2503 2522 2522 2522 2522 2522 2541 2579 2579 2701 0 0 0 0 0 0
    629 629 628 627 627 627 625 624 622 622 621 621 620 619 619 618 618
    616 616 615 614 613 613 612 611 609 609 608 607 606 606 604 603 603
    602 601 601 600 600 600 599 597 596 596 595 595 593 593 593 614 613
    613 647 646 646 647 648 649 650 650 652 687 687 706 708 708 742 742
    749 749 773 780 783 785 0 0 0 0 0 2503 2503 2522 2522 2522 2522 2522
    2541 2579 2579 2701 2723 0 0 0 0 0 630 630 629 629 629 628 628 627
    624 623 622 621 620 620 619 619 618 618 616 615 614 614 613 612 612
    610 610 609 609 607 607 606 604 603 602 601 601 600 600 600 599 597
    597 596 595 595 593 593 593 615 614 613 613 613 644 644 646 646 650
    650 652 687 687 706 708 708 742 742 742 773 771 771 780 785 0 0 0 0
    0 2503 2503 2522 2522 2522 2522 2522 2560 2579 2579 2701 2701 0 0 0
    0 0 631 630 630 629 629 628 628 627 625 624 622 622 621 621 620 620
    619 618 618 616 615 615 613 613 612 610 610 609 609 608 607 606 604
    603 602 601 601 600 600 600 600 599 597 596 595 595 594 594 594 594
    614 613 613 613 643 643 641 641 652 652 654 687 687 690 708 708 710
    710 767 767 767 767 780 785 792 0 0 0 0 2503 2503 2522 2522 2522
    2522 2522 2560 2579 2579 2701 2701 0 0 0 0 0 631 630 630 630 630 629
    628 627 625 625 623 622 622 622 621 621 620 619 619 618 616 615 614
    613 613 612 611 610 609 609 608 606 604 604 603 601 601 600 600 600
    600 600 597 596 595 595 594 594 594 594 615 614 614 614 643 642 641
    641 657 655 655 688 688 690 708 708 704 704 704 767 766 766 769 789
    790 0 0 0 0 0 2541 2522 2522 2522 2522 2522 2541 2579 2579 2701 2701
    0 0 0 0 0 0 630 630 630 630 629 628 628 627 625 625 623 622 622 622
    622 621 620 619 619 618 616 615 614 613 613 612 610 609 609 608 607
    606 604 603 602 601 601 600 600 600 600 599 597 596 595 595 595 595
    595 615 615 615 615 616 642 641 641 659 658 658 659 688 710 710 710
    704 704 750 750 750 766 769 787 787 0 0 0 0 0 2541 2522 2522 2522
    2522 2522 2541 2560 2579 2701 2701 2701 0 0 0 0 0 630 630 630 630
    629 628 628 627 627 625 624 623 623 622 622 621 620 619 619 618 616
    615 614 614 613 613 612 610 609 608 607 606 604 604 603 601 601 601
    601 601 601 600 598 596 596 595 595 596 596 597 615 615 616 616 643
    642 642 659 658 658 659 659 708 708 710 704 704 750 750 750 755 769
    785 787 790 0 0 0 0 2579 2541 2522 2522 2522 2522 2541 2560 2579
    2701 2701 2701 0 0 0 0 0 630 630 630 630 629 629 628 628 627 625 625
    623 623 623 622 621 621 620 619 619 618 616 616 614 613 613 612 610
    609 609 608 607 606 604 604 602 601 601 601 601 601 600 599 597 596
    596 596 596 597 597 597 615 616 616 643 643 644 657 657 659 661 661
    707 707 710 710 711 749 749 749 755 769 783 785 790 0 0 0 0 0 2541
    2522 2522 2522 2522 2541 2560 2579 2701 2701 2701 0 0 0 0 0 0 631
    631 631 630 630 629 628 627 627 625 624 624 624 623 622 621 620 619
    619 618 618 616 614 614 613 612 610 610 609 609 608 607 606 604 603
    603 602 602 602 601 600 600 598 596 596 596 596 597 596 596 615 615
    615 615 643 644 654 654 661 662 662 704 704 708 710 713 714 746 749
    750 769 780 783 790 796 0 0 0 0 2579 2541 2522 2522 2522 2541 2560
    2579 2701 2701 2701 2723 0 0 0 0 0 631 631 631 630 630 630 629 628
    627 625 624 624 624 623 622 622 621 620 619 618 618 618 615 614 614
    613 611 610 610 609 609 608 607 606 604 604 603 603 603 602 601 600
    599 597 597 596 596 596 596 596 615 615 614 614 615 644 654 654 661
    662 668 667 667 708 708 711 714 744 750 750 771 771 781 792 796 0 0
    0 0 0 2541 2541 2541 2541 2541 2560 2560 2701 2701 2701 2723 0 0 0 0
    0 631 631 631 631 631 630 630 629 628 627 625 625 624 623 623 622
    622 621 620 619 618 618 616 614 614 614 612 611 610 610 610 609 607
    606 606 606 604 604 603 602 601 600 599 597 597 597 597 596 596 597
    615 615 614 614 615 642 642 642 661 662 666 667 667 708 708 711 742
    744 749 749 771 771 781 789 794 0 0 0 0 0 2541 2541 2541 2541 2541
    2560 2560 2701 2701 2701 0 0 0 0 0 0 0 0 630 630 631 630 630 629 629
    628 627 627 625 623 623 623 622 622 620 619 619 618 616 615 614 614
    613 612 611 610 610 609 608 607 607 607 606 604 604 603 602 601 600
    598 597 597 597 597 597 597 598 615 615 615 642 642 642 642 664 664
    666 667 667 707 707 708 708 746 747 749 769 769 778 778 794 0 0 0 0
    0 2560 2541 2541 2541 2541 2560 2560 2701 2701 2701 2701 0 0 0 0 0 0
    0 630 630 631 630 630 630 629 629 627 627 625 624 623 623 623 622
    620 619 619 618 618 616 615 614 613 612 611 611 611 610 609 608 608
    607 606 606 604 603 603 602 600 598 597 597 597 597 597 598 598 599
    619 620 644 642 642 641 641 664 666 666 667 707 707 708 708 747 747
    749 764 769 773 778 787 0 0 0 0 0 2560 2541 2541 2541 2541 2541 2560
    2701 2701 2701 2701 0 0 0 0 0 0 0 0 631 631 631 631 631 630 629 628
    628 627 625 624 623 623 622 621 619 619 619 618 618 616 615 614 613
    612 612 611 610 610 609 608 607 606 606 604 604 603 602 601 600 598
    598 598 598 598 599 599 598 598 619 644 642 642 641 641 646 663 663
    667 708 706 706 708 710 747 749 764 773 773 776 787 0 0 0 0 0 2560
    2541 2541 2541 2541 2541 2541 2701 2701 2701 2701 0 0 0 0 0 0 0 0
    631 631 631 631 631 630 630 628 628 628 625 624 624 623 622 622 621
    620 620 619 619 618 616 614 614 613 613 612 610 610 609 609 608 608
    607 604 604 604 604 603 602 601 600 600 599 599 599 599 598 598 619
    620 643 643 640 640 646 662 662 662 662 701 701 706 708 747 749 761
    764 773 774 798 798 803 0 0 0 2579 2541 2541 2541 2522 2522 2541
    2701 2701 2701 2701 2701 0 0 0 0 0 0 0 0 632 632 631 631 631 630 628
    628 628 627 625 624 623 622 622 622 622 621 620 620 619 616 616 614
    613 613 613 611 610 609 609 609 608 607 606 606 604 604 603 603 602
    601 600 599 599 600 600 599 599 619 619 642 641 640 640 662 662 662
    662 662 701 701 706 708 747 749 750 761 774 774 789 794 798 0 0 0 0
    0 2560 2541 2522 2522 2541 2701 2701 2701 2701 2659 2659 0 0 0 0 0 0
    0 632 632 632 631 631 631 630 630 629 627 625 625 624 623 623 623
    622 622 621 621 619 618 616 615 614 614 613 612 611 610 609 609 609
    608 606 606 606 604 604 603 603 602 600 600 600 600 600 600 600 600
    619 642 641 640 640 662 662 662 662 662 706 706 706 710 749 749 750
    757 776 776 789 794 796 0 0 0 0 0 2560 2541 2541 2541 2541 2701 2701
    2701 2701 2659 2659 0 0 0 0 0 0 0 632 632 632 631 631 631 631 631
    629 628 627 627 625 624 624 623 623 623 622 621 620 618 618 615 614
    614 613 613 612 611 610 610 609 608 606 606 606 606 606 604 603 602
    601 600 600 600 600 600 600 600 600 642 642 641 632 632 662 662 662
    662 706 706 706 710 713 713 750 757 762 792 792 796 796 0 0 0 0 0
    2579 2560 2541 2541 2541 2723 2723 2701 2701 2680 2680 2680 0 0 0 0
    0 0 634 634 634 632 632 632 631 631 630 628 627 627 627 625 625 624
    623 623 622 621 620 619 618 616 614 614 614 613 613 612 611 610 610
    609 607 606 606 606 606 604 604 602 601 600 600 600 600 599 599 599
    599 642 642 641 631 631 663 662 662 666 666 708 708 711 713 713 752
    755 759 759 794 794 796 798 0 0 0 0 2579 2560 2541 2522 2522 2723
    2723 2701 2701 2701 2680 2680 0 0 0 0 0 0 0 635 635 634 632 632 631
    631 630 629 628 628 627 627 627 624 624 623 622 622 621 619 618 616
    615 614 614 613 613 612 611 610 610 609 607 606 606 606 606 606 604
    603 602 601 600 600 600 599 599 599 599 644 644 643 631 631 667 667
    666 666 710 710 711 711 711 713 752 755 759 759 794 792 792 798 0 0
    0 0 0 2541 2541 2522 2522 2723 2723 2723 2701 2701 2701 2701 0 0 0 0
    0 0 0 635 635 635 634 634 632 632 631 630 628 628 628 627 627 625
    624 623 622 622 621 619 618 618 616 615 614 614 613 613 612 611 610
    609 608 607 606 606 606 606 604 604 602 601 601 600 600 599 599 600
    600 599 599 667 667 667 667 667 666 664 664 710 710 710 711 713 754
    757 759 761 761 792 792 798 0 0 0 0 0 2541 2541 2522 2522 2723 2723
    2723 2701 2701 2701 2701 0 0 0 0 0 0 0 0 635 635 635 635 634 634 631
    631 630 628 628 627 627 625 624 623 623 622 621 620 619 618 618 616
    615 614 613 613 612 611 610 609 609 608 608 607 606 606 606 604 603
    602 601 600 600 599 599 599 599 599 0 0 0 668 668 668 667 664 664
    708 708 708 708 714 754 759 759 761 761 794 794 0 0 0 0 0 0 2541
    2541 2541 2541 2723 2723 2723 2701 2701 2701 2723 0 0 0 0 0 0 0 0
    636 635 635 635 634 634 632 631 630 629 628 628 627 627 627 625 624
    623 621 620 619 619 618 618 616 615 614 613 612 611 610 610 609 609
    608 607 606 606 606 604 604 602 601 601 600 600 600 599 599 599 624
    634 634 666 666 666 667 666 666 707 706 706 708 714 755 759 759 759
    764 796 796 800 0 0 0 0 0 2560 2560 2541 2541 2723 2723 2723 2723
    2723 2723 2723 2723 2723 0 0 0 0 0 0 636 635 635 635 635 635 634 632
    631 630 629 628 628 627 627 625 625 623 623 622 622 621 619 618 618
    616 615 614 613 612 611 610 610 609 609 607 607 606 606 606 604 603
    602 601 601 600 600 600 599 599 624 634 634 666 666 666 668 668 670
    670 704 704 708 716 720 757 759 759 761 798 798 800 800 0 0 0 0 0
    2579 2560 2541 2723 2723 2723 2723 2723 2723 2723 2723 2723 0 0 0 0
    0 0 0 636 636 636 635 635 635 632 631 631 630 629 628 628 627 627
    625 624 624 623 622 621 620 619 619 618 616 615 614 613 612 610 610
    610 609 608 607 607 607 606 606 604 602 602 601 600 600 600 599 599
    624 628 628 628 666 666 666 668 670 670 704 704 707 716 720 720 757
    759 761 794 794 800 800 0 0 0 0 0 0 2560 2541 2723 2723 2723 2723
    2723 2723 2701 2701 2701 2701 0 0 0 0 0 0 636 636 636 636 636 636
    635 632 631 631 629 629 628 627 627 627 625 624 624 622 622 621 620
    619 618 616 615 614 614 613 613 612 610 609 608 607 607 607 607 606
    604 603 602 601 601 601 601 600 600 627 627 627 632 632 666 666 668
    670 671 704 704 707 716 717 719 754 755 759 794 794 800 800 803 0 0
    0 0 0 2560 2541 2723 2723 2723 2723 2723 2723 2701 2701 2701 2701 0
    0 0 0 0 0 640 637 636 636 636 636 635 632 631 631 630 630 629 628
    628 627 625 624 624 623 622 622 620 619 619 618 616 615 614 613 613
    612 611 610 609 609 608 607 607 606 606 604 603 602 601 601 601 600
    600 627 627 627 628 628 663 663 663 667 671 704 704 708 714 716 717
    752 755 759 767 794 798 798 803 0 0 0 0 0 0 2541 2723 2723 2723 2723
    2723 2723 2701 2701 2701 2701 0 0 0 0 0 0 640 637 637 636 636 636
    635 634 632 631 630 630 629 628 628 627 627 624 624 623 622 622 621
    619 619 618 616 615 614 614 613 612 612 610 610 610 609 609 609 607
    606 604 604 602 602 601 601 601 600 600 625 627 627 627 627 663 663
    667 667 704 704 708 714 716 717 750 754 757 767 771 798 798 802 805
    0 0 0 0 0 2541 2723 2723 2723 2723 2723 2723 2723 2701 2701 2680
    2680 0 0 0 0 0 0 638 637 636 636 637 636 635 632 631 631 631 630 629
    628 628 627 625 624 624 622 622 621 619 619 618 618 616 615 614 614
    613 612 612 611 611 610 610 609 608 607 606 604 603 602 601 601 601
    600 600 625 627 627 627 627 662 662 662 662 700 700 707 707 716 716
    750 752 755 766 769 798 798 802 805 0 0 0 0 0 0 2723 2723 2723 2723
    2723 2723 2723 2723 2701 2680 2680 0 0 0 0 0 0 640 637 637 637 637
    637 636 635 632 631 631 630 630 629 628 627 625 624 624 623 623 621
    620 619 619 618 616 616 614 614 613 613 612 612 611 611 611 610 609
    608 607 606 604 603 603 602 601 601 601 628 628 630 632 641 661 661
    661 662 664 664 704 704 714 714 717 752 755 764 766 790 796 802 805
    0 0 0 0 0 2579 2723 2723 2723 2723 2723 2723 2723 2723 2701 2701
    2701 2701 0 0 0 0 0 0 638 637 637 637 637 636 636 634 631 631 630
    630 629 628 627 627 625 625 624 623 622 621 619 619 618 616 616 616
    614 614 614 613 612 611 611 610 610 610 609 608 606 604 604 603 603
    602 602 602 628 628 631 634 634 636 638 661 661 661 664 703 703 713
    713 717 722 761 762 764 769 796 798 800 0 0 0 0 0 2579 2723 2723
    2723 2723 2723 2723 2723 2723 2701 2701 2701 2701 0 0 0 0 0 0 638
    638 638 637 637 637 636 635 632 631 631 630 629 628 628 627 627 627
    624 623 622 622 621 620 619 618 618 616 615 615 614 613 612 611 611
    610 610 610 609 609 608 607 606 604 604 602 602 603 628 628 631 634
    634 635 638 659 659 661 664 700 700 713 713 717 722 725 762 764 767
    798 798 800 0 0 0 0 0 0 2723 2723 2723 2723 2723 2723 2723 2723 2701
    2701 2701 2701 0 0 0 0 0 0 0 637 637 638 637 637 637 636 634 631 631
    631 629 629 628 628 627 627 625 624 623 622 621 620 620 619 619 618
    616 616 615 614 613 611 611 610 610 610 610 609 609 608 607 606 604
    603 603 603 603 631 631 631 631 632 659 659 659 661 664 698 698 714
    714 720 723 725 762 764 767 798 798 798 0 0 0 0 0 0 2723 2723 2723
    2723 2723 2723 2723 2723 2723 2723 2701 2701 0 0 0 0 0 0 0 637 637
    638 637 637 637 637 635 632 631 631 630 629 629 628 628 628 627 624
    623 622 621 621 620 619 619 619 618 616 615 614 613 612 611 610 610
    610 610 610 609 609 608 606 604 604 603 603 603 630 630 631 631 631
    658 658 658 662 664 698 698 716 716 720 723 762 762 762 767 767 798
    798 0 0 0 2467 0 0 2723 2723 2723 2723 2723 2723 2723 2723 2723 2723
    2723 2723 0 0 0 0 0 0 0 638 638 640 640 638 638 637 636 635 632 631
    631 630 629 629 628 628 627 625 623 623 622 622 621 620 620 619 618
    616 616 614 614 613 612 611 610 610 610 610 610 609 608 606 604 604
    603 603 603 604 629 629 630 630 658 658 658 666 667 698 698 700 722
    722 722 761 761 762 764 766 800 800 800 0 0 2467 2467 2467 2723 2723
    2723 2723 2723 2723 2723 2723 2723 2744 2744 2744 2767 0 0 0 0 0 636
    636 638 641 640 640 638 637 637 636 634 632 632 631 630 629 629 628
    628 625 624 623 623 622 622 621 620 620 618 618 616 615 614 613 613
    612 611 611 610 610 610 609 609 606 606 604 604 604 604 604 629 629
    628 628 629 658 658 667 667 667 700 700 720 720 720 759 759 761 759
    759 759 800 800 0 0 2467 2467 2467 2744 2744 2744 2744 2723 2723
    2723 2723 2723 2744 2744 2744 2767 2789 2812 0 0 0 636 636 638 638
    638 640 638 637 637 636 635 632 632 631 631 631 630 628 628 627 625
    625 624 623 622 622 621 621 619 619 616 615 614 614 613 612 612 612
    611 610 610 610 609 607 606 606 606 606 606 606 629 629 628 628 629
    658 659 666 667 667 670 704 720 720 720 759 759 761 759 759 759 796
    796 0 0 796 2560 0 2744 2744 2744 2744 2723 2723 2723 2723 2723 2744
    2744 2744 2767 2767 2812 0 0 0 0 0 640 638 638 641 640 638 637 636
    635 634 632 632 631 631 631 628 628 628 627 627 625 623 623 622 621
    621 620 620 618 616 615 614 614 613 612 612 612 611 611 610 610 607
    606 606 606 606 606 604 604 629 629 629 631 662 662 663 666 667 670
    670 719 719 720 723 762 762 762 762 762 796 796 0 0 0 0 0 2744 2744
    2744 2744 2723 2723 2723 2723 2723 2744 2744 2744 2744 2744 2744 0 0
    0 0 0 0 641 641 641 640 638 637 637 636 634 632 632 631 631 631 629
    629 628 627 627 625 624 623 623 622 622 621 621 618 618 615 615 614
    613 613 613 612 612 612 611 610 608 607 607 606 606 606 604 604 631
    631 631 632 637 637 662 664 667 667 667 719 719 720 722 762 762 764
    764 767 790 792 0 0 0 0 0 2744 2744 2744 2744 2723 2723 2723 2723
    2723 2744 2744 2723 2723 2723 2744 0 0 0 0 0 0 0 642 641 641 641 640
    638 637 636 634 632 632 632 631 630 629 628 627 627 627 625 624 623
    622 622 621 621 619 618 616 616 615 614 614 613 613 613 613 612 611
    609 608 607 606 606 606 606 606 631 631 632 635 637 637 662 664 667
    667 667 717 717 719 720 762 762 764 764 767 774 792 800 0 0 0 0 2744
    2744 2744 2744 2723 2723 2723 2723 2723 2723 2744 2723 2723 2723
    2723 0 0 0 0 0 0 0 642 642 641 641 640 640 638 636 636 635 634 632
    632 631 630 629 628 628 628 627 625 623 622 622 621 620 619 619 618
    618 616 615 614 613 613 613 613 613 611 609 608 607 606 606 606 606
    606 607 632 634 636 636 636 662 662 667 670 711 711 714 717 719 762
    762 762 764 767 773 792 800 0 0 0 0 2744 2744 2744 2723 2723 2723
    2723 2723 2723 2723 2723 2723 2723 2723 2723 0 0 0 0 0 0 0 642 642
    641 641 641 641 638 637 636 635 635 634 632 631 631 630 629 628 628
    627 625 624 623 622 622 620 619 619 619 618 618 616 615 614 614 613
    613 613 612 610 609 608 607 606 606 606 607 607 635 635 636 636 636
    637 662 670 670 711 711 713 714 717 762 762 762 762 766 771 773 800
    805 0 0 0 2723 2723 2723 2723 2723 2723 2723 2723 2723 2723 2723
    2723 2723 2723 2723 0 0 0 0 0 0 0 643 642 642 642 641 641 640 638
    637 636 635 634 632 632 631 630 629 628 628 627 625 625 624 623 622
    621 621 620 619 619 618 618 615 614 614 614 614 613 612 610 609 608
    607 607 607 607 607 606 606 635 635 636 637 637 637 670 666 666 711
    711 713 717 727 762 762 762 766 769 773 802 803 0 0 0 2723 2723 2723
    2723 2723 2723 2723 2723 2723 2723 2723 2723 2723 2723 2723 0 0 0 0
    0 0 0 643 642 642 642 641 641 641 640 637 636 636 635 632 632 631
    631 630 629 628 628 627 625 625 624 623 622 622 622 620 619 618 618
    615 614 614 614 614 613 613 612 609 609 608 608 608 608 608 606 606
    607 631 631 637 637 659 668 666 666 711 711 713 717 727 727 762 762
    767 767 771 802 803 0 0 0 2744 2744 2744 2723 2723 2723 2723 2723
    2723 2723 2723 2723 2723 2701 2701 0 0 0 0 0 0 0 643 642 642 642 642
    641 641 641 638 636 636 635 634 634 632 631 631 630 629 628 627 627
    625 625 624 623 622 622 621 620 619 618 616 615 614 614 614 613 613
    613 610 609 608 608 608 608 608 606 606 607 631 631 657 655 655 657
    666 666 667 713 714 723 727 727 762 762 766 767 771 802 803 807 0 0
    2744 2744 2744 2744 2744 2723 2723 2744 2744 2723 2723 2723 2723
    2701 2701 0 0 0 0 0 0 0 644 643 642 642 642 642 641 641 640 637 636
    636 635 634 632 632 631 631 630 629 628 628 627 627 624 624 622 622
    621 621 619 619 618 616 616 615 614 614 614 613 610 609 609 608 608
    608 608 607 607 629 631 631 657 653 653 653 666 666 667 714 714 720
    725 727 761 761 762 767 771 800 802 805 0 0 2744 2744 2744 2744 2744
    2744 2744 2744 2744 2723 2723 2723 2723 2723 2723 0 0 0 0 0 0 0 0
    643 642 642 642 642 642 642 641 640 637 636 635 635 634 632 632 631
    631 631 629 628 627 627 625 624 623 622 622 621 620 619 619 618 616
    616 615 615 614 614 613 610 610 609 609 609 609 608 608 629 630 631
    650 650 652 653 654 657 672 714 714 717 722 727 727 759 759 767 771
    778 802 805 813 0 2767 2767 2767 2767 2744 2744 2744 2744 2723 2723
    2701 2701 2701 2701 2701 0 0 0 0 0 0 0 0 643 642 642 642 642 642 642
    641 641 638 636 636 635 634 632 632 631 631 631 630 629 628 627 625
    624 624 622 622 621 620 620 619 619 618 616 616 615 615 614 613 613
    611 610 610 610 610 610 610 630 630 631 631 649 649 650 650 655 716
    713 713 713 716 727 723 723 759 769 773 778 780 811 807 807 2744
    2744 2744 2744 2744 2744 2744 2744 2723 2723 2701 2701 2701 2701
    2701 2723 0 0 0 0 0 0 0 0 643 643 643 642 642 642 642 641 638 637
    636 636 635 634 632 632 631 631 630 629 628 627 627 625 624 623 622
    622 621 621 620 619 619 619 618 616 615 614 614 613 612 610 610 610
    610 610 610 610 611 631 631 647 649 650 650 655 655 713 710 710 716
    728 723 723 771 771 771 778 780 807 807 807 2723 2723 2723 2723 2723
    2723 2723 2723 2723 2723 2723 2701 2701 2701 2701 2701 0 0 0 0 0 0 0
    0 646 644 643 643 643 642 642 641 638 637 636 636 636 635 634 632
    632 631 631 630 628 628 627 625 625 624 623 622 622 621 621 619 619
    619 618 616 615 614 614 614 613 611 611 610 610 610 610 610 611 611
    646 644 644 649 652 654 654 713 710 710 717 728 727 727 771 769 769
    771 776 807 807 807 2723 2723 2723 2723 2723 2723 2723 2723 2723
    2701 2701 2701 2701 2701 2701 2680 2680 0 0 0 0 0 0 0 0 646 644 644
    643 643 642 641 641 638 636 636 636 636 635 634 632 632 631 631 629
    629 627 627 625 624 623 622 622 622 621 620 619 619 618 616 616 615
    615 615 614 613 611 611 611 611 611 611 610 610 641 642 642 649 650
    654 654 659 711 711 711 713 728 728 769 769 769 769 771 787 807 809
    2723 2723 2723 2723 2723 2723 2723 2723 2701 2701 2701 2701 2701
    2701 2701 2680 2680 2680 0 0 0 0 0 0 0 647 646 644 644 643 642 642
    641 638 638 637 636 636 635 634 634 632 632 631 630 629 628 627 627
    625 623 623 623 622 622 621 620 619 618 618 616 616 616 615 615 613
    612 611 611 611 611 611 610 610 640 640 641 650 650 654 659 659 711
    711 711 713 733 733 767 767 767 767 771 787 802 807 2723 2723 2723
    2723 2723 2723 2723 2723 2701 2701 2701 2701 2701 2701 2701 2680
    2680 2680 2701 0 0 0 0 0 0 647 646 646 646 644 643 643 642 641 640
    638 637 636 636 635 634 634 632 631 630 630 629 628 628 627 624 623
    623 622 622 621 621 619 619 618 618 618 616 616 615 614 613 612 611
    611 611 611 610 610 610 637 638 654 654 658 659 659 711 711 711 711
    711 734 736 764 766 767 769 790 802 803 2723 2723 2723 2723 2723
    2723 2723 2701 2701 2701 2701 2701 2701 2701 2701 2701 2680 2680
    2701 0 0 0 0 0 0 647 646 646 646 644 644 643 642 642 641 640 638 637
    636 636 635 634 632 632 631 630 629 628 628 628 625 624 623 623 622
    622 621 619 619 619 618 618 616 616 616 615 613 613 611 611 611 611
    610 610 610 637 638 657 657 659 658 658 658 710 710 711 711 731 733
    764 766 767 767 767 800 798 2723 2723 2723 2723 2723 2723 2723 2701
    2701 2701 2701 2701 2701 2701 2701 2701 2701 2701 2701 2701 0 0 0 0
    0 647 646 646 646 646 644 644 643 642 641 641 638 637 636 636 636
    635 634 634 631 631 629 629 628 628 627 627 624 623 623 622 621 621
    620 619 618 618 616 616 616 616 614 613 612 612 611 611 611 610 610
    636 638 658 658 659 658 658 658 710 710 711 711 730 731 731 767 766
    766 767 800 798 2723 2723 2723 2723 2723 2723 2701 2701 2701 2701
    2701 2701 2701 2701 2701 2701 2701 2701 2701 2701 0 0 0 0 0 0 646
    646 646 646 646 644 644 643 642 641 640 638 637 637 636 635 635 634
    632 632 631 630 629 628 628 627 624 624 623 622 622 621 621 619 619
    619 616 616 618 618 616 614 612 612 612 611 611 610 610 635 638 658
    658 658 658 658 658 710 710 710 710 730 731 731 766 766 766 769 769
    0 2723 2723 2723 2723 2723 2723 2701 2701 2701 2701 2723 2701 2701
    2701 2701 2701 2701 2723 2701 2701 0 0 0 0 0 0 646 646 646 646 646
    646 646 643 642 641 640 638 637 637 637 636 636 635 634 634 632 631
    630 629 628 627 625 624 624 623 622 622 621 620 619 619 618 618 618
    618 618 614 613 612 612 612 612 611 611 635 638 638 658 658 658 658
    667 710 710 710 710 730 731 731 731 767 767 769 785 785 2723 2723
    2723 2723 2723 2723 2723 2723 2723 2723 2723 2723 2723 2723 2723
    2723 2723 2723 2723 2723 0 0 0 0 0 0 0 0 647 646 646 646 646 644 643
    641 640 638 638 637 637 637 636 636 634 634 632 632 631 629 628 628
    627 625 624 623 622 622 622 621 621 620 619 619 618 618 618 615 613
    613 613 613 613 612 612 635 638 638 641 659 659 667 667 667 710 710
    710 730 731 731 731 766 766 769 780 785 2723 2723 2723 2723 2723
    2723 2723 2723 2723 2744 2744 2744 2744 2744 2744 2744 2744 2744
    2744 2744 0 0 0 0 0 0 0 0 646 646 646 646 646 646 646 642 641 640
    640 638 637 637 637 636 635 634 634 632 631 630 629 628 628 627 624
    623 622 622 622 622 621 620 619 619 619 618 618 616 614 613 613 613
    613 613 610 610 638 638 640 642 661 667 667 667 710 708 708 730 731
    733 733 764 764 766 780 785 2723 2723 2723 2723 2723 2744 2744 2744
    2744 2767 2767 2767 2767 2767 2789 2789 2767 2767 2767 2767 2789 0 0
    0 0 0 0 0 646 646 647 647 646 646 646 644 641 641 640 640 638 637
    637 636 635 635 634 634 632 631 630 629 628 628 627 625 623 623 622
    622 622 621 619 619 619 618 618 616 614 613 613 613 613 613 610 610
    637 637 637 642 666 666 666 666 710 708 707 707 731 733 733 764 764
    766 785 785 2723 2723 2723 2723 2744 2767 2767 2767 2767 2767 2767
    2767 2789 2789 2789 2789 2789 2767 2767 2789 2789 2789 0 0 0 0 0 0
    647 647 647 647 647 647 647 646 642 642 641 641 640 638 638 637 637
    636 636 634 632 631 631 630 629 628 627 627 624 623 623 622 622 622
    620 619 619 619 618 618 615 614 614 614 614 614 613 613 634 634 634
    634 663 664 664 668 710 708 707 707 730 731 736 736 764 766 0 0 2767
    2744 2744 2767 2767 2789 2789 2767 2767 2789 2789 2789 2789 2789
    2789 2789 2789 2789 2789 2789 2789 2789 0 0 0 0 0 0 0 649 648 648
    648 647 647 647 643 642 641 641 641 640 640 638 637 637 637 636 632
    631 631 630 629 629 628 627 625 624 623 622 622 622 620 620 619 619
    619 618 616 615 614 614 614 614 614 614 632 632 634 634 663 664 664
    668 668 710 707 707 725 728 734 736 762 766 0 0 2789 2767 2767 2767
    2789 2789 2789 2789 2789 2789 2789 2789 2789 2789 2789 2789 2789
    2789 2789 2789 2789 2812 0 0 0 0 0 0 0 649 649 649 648 648 647 647
    644 643 642 641 641 640 640 638 638 637 637 636 632 632 632 631 631
    630 628 628 627 625 623 623 623 622 621 621 620 620 619 619 618 616
    615 614 614 614 614 614 616 632 632 634 664 664 666 668 679 680 680
    711 722 725 728 736 762 766 0 0 2789 2789 2789 2789 2789 2789 2789
    2767 2767 2789 2789 2789 2789 2789 2789 2789 2789 2812 2812 2812
    2812 2812 0 0 0 0 0 0 0 650 650 650 649 648 648 647 646 644 642 642
    641 641 640 640 638 637 637 636 634 634 632 632 631 631 630 629 628
    627 625 623 623 622 622 621 621 621 620 620 619 618 616 615 615 614
    614 615 616 632 632 632 664 664 666 668 678 680 680 722 722 725 728
    733 736 0 0 0 2789 2789 2789 2789 2789 2789 2789 2767 2767 2789 2789
    2789 2789 2789 2789 2789 2812 2835 2835 2835 2812 2812 0 0 0 0 0 0 0
    0 650 649 648 648 648 647 646 644 643 642 642 641 641 640 640 638
    638 637 635 635 634 632 632 631 631 629 629 628 627 625 624 623 622
    622 622 622 621 621 619 618 616 615 615 614 614 615 616 616 634 641
    643 643 667 668 678 680 680 722 722 725 728 731 731 0 0 0 2789 2789
    2789 2789 2789 2789 2789 2789 2789 2789 2789 2789 2789 2812 2812
    2812 2859 2859 2859 2835 2835 2835 2835 0 0 0 0 0 0 0 0 649 648 648
    649 648 647 646 644 642 642 641 641 641 640 640 638 637 636 636 636
    634 632 632 631 630 629 628 628 627 625 624 623 622 622 622 622 621
    619 618 618 616 615 615 615 615 616 616 635 640 642 643 668 668 678
    680 680 686 722 725 728 730 730 0 0 0 2789 2789 2789 2789 2789 2789
    2789 2789 2789 2789 2789 2789 2812 2812 2835 2859 2859 2859 2859
    2835 2812 2812 2835 0 0 0 0 0 0 0 0 650 649 649 649 648 648 647 646
    643 642 642 641 641 641 641 640 638 637 637 636 635 634 632 631 630
    630 629 628 627 625 625 624 623 622 622 622 622 621 620 619 618 616
    615 615 616 616 616 618 637 638 640 666 666 668 683 683 686 713 713
    723 727 723 723 0 0 2789 2789 2789 2789 2789 2789 2789 2789 2789
    2789 2789 2812 2812 2835 2859 2835 2835 2835 2812 2812 2789 2789
    2812 0 0 0 0 0 0 0 0 650 650 650 650 649 648 647 646 644 642 642 642
    642 641 641 641 640 637 637 636 635 634 632 632 631 631 630 629 629
    627 627 624 624 623 622 622 622 621 621 620 619 618 618 616 615 615
    615 618 637 637 638 664 664 668 683 683 713 708 708 717 722 723 723
    0 0 2789 2789 2789 2789 2812 2812 2812 2812 2812 2812 2812 2812 2812
    2812 2812 2812 2812 2789 2789 2789 2767 2744 2744 0 0 0 0 0 0 0 0
    652 650 650 650 649 649 648 647 646 643 643 642 642 642 641 641 640
    638 637 637 636 636 634 632 632 632 631 630 629 628 627 625 625 624
    623 623 622 622 621 621 619 618 618 616 615 615 615 618 619 637 638
    640 664 672 672 713 713 708 708 713 719 723 0 0 0 2789 2812 2812
    2812 2812 2812 2812 2812 2812 2812 2789 2789 2789 2789 2789 2789
    2789 2767 2767 2767 2744 2723 2723 2723 2723 0 0 0 0 0 0 0 650 650
    650 650 649 649 648 647 646 644 643 642 642 641 641 641 640 637 637
    636 636 635 634 632 632 631 631 629 628 628 627 625 624 624 623 622
    622 622 622 620 619 618 616 615 615 616 618 619 638 638 638 638 680
    680 680 680 713 698 698 719 0 0 0 0 2812 2812 2812 2812 2812 2812
    2812 2812 2789 2789 2789 2789 2789 2767 2767 2767 2767 2767 2744
    2744 2723 2723 2701 2701 2701 0 0 0 0 0 0 0 652 652 652 650 649 649
    648 648 646 644 643 642 642 642 641 641 641 638 637 636 636 636 635
    634 634 631 631 630 629 628 628 627 625 624 623 623 623 622 622 621
    620 619 616 615 615 616 618 620 638 638 638 643 648 680 680 683 693
    694 698 0 0 0 0 0 2812 2812 2812 2812 2789 2789 2789 2789 2789 2789
    2789 2767 2767 2767 2744 2744 2744 2744 2744 2723 2723 2680 2680
    2680 2701 0 0 0 0 0 0 0 653 652 652 652 650 650 649 648 646 644 644
    643 643 642 642 642 641 640 638 637 636 636 635 634 634 632 631 630
    629 628 628 627 625 625 624 624 623 623 623 622 621 619 616 616 616
    616 616 619 640 640 640 643 648 679 679 683 693 694 697 0 0 0 0 0
    2812 2789 2789 2789 2789 2789 2789 2789 2789 2767 2767 2767 2744
    2744 2744 2744 2744 2723 2701 2701 2680 2680 2680 2659 2659 2723
    2723 0 0 0 0 0 653 653 652 652 652 650 649 648 646 646 644 644 643
    643 642 642 641 640 640 638 637 636 636 635 634 632 631 631 630 629
    628 628 627 625 624 624 624 623 623 622 621 619 618 616 616 616 616
    619 642 642 642 643 647 679 679 687 691 691 696 0 0 0 0 0 2812 2789
    2789 2789 2789 2789 2789 2767 2767 2744 2723 2723 2723 2723 2723
    2723 2723 2701 2701 2680 2680 2659 2659 2659 2639 2639 2723 0 0 0 0
    0 0 652 652 652 652 650 649 648 647 646 646 644 644 643 642 642 641
    641 640 638 637 637 636 635 635 632 632 631 631 630 628 628 627 625
    625 624 624 624 623 623 622 620 619 618 618 618 618 619 642 642 642
    642 642 674 674 684 687 687 696 0 0 0 0 0 2789 2789 2789 2789 2767
    2767 2767 2744 2723 2723 2701 2701 2701 2701 2701 2701 2701 2701
    2680 2680 2659 2659 2659 2639 2639 2618 2618 0 0 0 0 0 0 652 652 652
    652 652 650 649 647 646 646 646 644 644 643 642 641 641 640 640 638
    637 636 635 635 634 632 632 631 630 629 628 627 627 625 624 624 624
    624 623 623 621 619 618 618 618 618 619 643 643 643 642 642 674 674
    683 686 687 690 0 0 0 0 0 2789 2789 2767 2767 2744 2744 2744 2723
    2701 2701 2701 2701 2701 2701 2701 2701 2701 2701 2680 2680 2659
    2659 2659 2639 2639 2618 2618 0 0 0 0 0 0 0 653 653 653 652 652 650
    648 647 646 646 646 644 643 642 642 641 641 640 638 638 637 636 636
    634 634 632 632 631 630 629 628 627 627 625 624 624 624 624 623 622
    620 619 619 618 618 619 643 643 643 643 643 679 679 680 683 684 688
    688 0 0 0 0 2767 2767 2744 2744 2723 2723 2723 2701 2701 2701 2701
    2701 2701 2701 2701 2701 2680 2680 2680 2680 2659 2639 2639 2639
    2618 2618 2618 0 0 0 0 0 0 0 0 654 653 653 652 650 649 647 646 646
    646 646 646 643 642 642 641 640 638 638 637 636 636 635 635 634 634
    632 630 629 628 628 627 625 625 625 624 624 623 622 621 619 619 619
    619 619 643 643 644 643 643 678 678 678 679 680 688 688 0 0 0 0 2723
    2723 2723 2723 2723 2701 2701 2701 2701 2701 2701 2701 2701 2701
    2680 2680 2680 2680 2659 2659 2639 2639 2618 2618 2618 2618 2618 0 0
    0 0 0 0 0 0 653 653 653 652 652 650 648 646 646 646 646 646 644 643
    642 641 641 640 638 637 637 636 636 635 635 634 632 631 630 630 628
    628 627 627 625 624 624 623 623 622 620 619 619 619 619 619 644 644
    643 643 676 672 672 676 679 0 0 0 0 0 0 2723 2723 2701 2701 2701
    2701 2701 2701 2701 2701 2701 2701 2701 2680 2659 2659 2659 2659
    2639 2618 2618 2598 2598 2598 2579 2579 2598 0 0 0 0 0 0 0 0 653 653
    653 652 652 650 649 647 647 647 646 646 644 643 642 642 641 640 640
    638 637 637 636 635 635 634 632 632 631 631 629 628 628 627 627 625
    625 624 623 622 621 620 619 619 619 619 644 644 643 643 676 668 668
    674 674 0 0 0 0 0 0 2701 2701 2701 2701 2701 2680 2680 2680 2680
    2680 2680 2680 2680 2659 2659 2639 2639 2639 2639 2598 2598 2579
    2579 2579 2560 2560 2560 2560 0 0 0 0 0 0 0 0 655 653 653 653 652
    652 649 648 647 646 646 646 644 643 642 641 641 640 640 638 637 636
    636 635 635 632 632 632 631 630 630 629 628 628 627 627 625 624 623
    621 620 620 620 620 620 620 644 646 646 646 664 664 667 667 0 0 0 0
    0 0 2680 2680 2680 2680 2680 2659 2659 2659 2659 2659 2659 2659 2659
    2639 2639 2618 2618 2618 2618 2579 2560 2560 2560 2560 2541 2541
    2541 2541 0 0 0 0 0 0 0 0 655 654 653 653 652 652 650 649 648 647
    646 646 644 643 642 641 641 641 640 640 638 637 636 636 635 634 634
    632 631 630 630 629 628 628 627 627 627 625 623 622 621 620 620 620
    620 620 623 647 648 655 655 663 663 666 0 0 0 0 0 0 2680 2680 2659
    2659 2639 2639 2639 2639 2639 2639 2639 2639 2618 2618 2618 2598
    2598 2598 2579 2560 2560 2560 2541 2541 2541 2522 2522 2541 0 0 0 0
    0 0 0 0 657 654 654 653 653 652 652 650 649 647 647 646 646 644 643
    642 641 641 641 640 640 637 636 636 635 634 634 632 631 630 630 629
    629 628 628 627 627 627 625 623 621 620 620 620 620 621 622 648 648
    649 652 659 662 663 0 0 0 0 0 0 2659 2639 2639 2639 2639 2639 2618
    2618 2618 2618 2618 2618 2598 2579 2579 2560 2560 2560 2560 2560
    2541 2541 2541 2522 1863 1863 1863 1863 1894 1894 0 0 0 0 0 0 657
    655 654 653 653 653 653 652 650 648 647 647 647 647 643 642 642 642
    641 641 640 637 637 637 636 635 635 632 631 631 631 630 628 628 628
    627 627 627 627 624 621 621 621 620 620 621 622 647 647 648 649 650
    658 663 0 0 0 0 0 0 2659 2639 2639 2639 2618 2618 2618 2598 2598
    2579 2579 2579 2560 2560 2560 2541 2541 2541 2541 2541 2541 2541
    2522 1873 1863 1863 1863 1863 1883 1883 1894 1894 0 0 0 0 657 655
    655 654 654 654 653 653 652 650 649 648 647 647 646 643 642 642 642
    641 641 640 638 638 637 636 635 632 632 631 631 630 628 628 628 628
    628 627 627 627 623 623 623 621 621 622 622 647 647 647 648 650 652
    0 0 0 0 0 0 0 2639 2639 2639 2618 2618 2598 2598 2579 2560 2560 2560
    2560 2560 2560 2541 2541 2541 2522 1873 1873 1873 1873 1873 1873
    1863 1863 1863 1863 1873 1883 1883 1894 0 0 0 0 658 657 657 655 655
    655 654 653 652 650 649 648 648 648 647 644 643 643 642 642 641 640
    640 640 638 637 637 635 632 632 632 631 629 629 628 628 628 628 628
    627 624 623 623 621 621 622 623 625 647 647 648 648 649 0 0 0 0 0 0
    0 2618 2618 2598 2598 2598 2598 2579 2560 2560 2560 2560 2560 2541
    2541 2541 1873 1873 1873 1873 1873 1873 1873 1873 1863 1853 1853
    1853 1853 1863 1863 1863 1894 0 0 0 0 658 658 657 655 655 655 655
    654 653 650 650 649 649 648 647 647 644 643 642 642 642 641 640 640
    640 638 637 636 635 635 635 632 631 630 628 628 628 628 628 627 625
    624 624 623 623 623 623 624 647 647 647 648 649 652 652 0 0 0 0 0
    2598 2598 2579 2579 2560 2560 2560 2541 2541 2541 2541 2541 1883
    1883 1883 1873 1873 1873 1873 1873 1873 1863 1863 1853 1853 1843
    1843 1843 1843 1833 1823 1823 0 0 0 0 0 658 657 657 657 655 655 654
    653 652 650 649 649 648 648 647 646 646 643 642 642 642 642 641 641
    640 638 636 636 636 635 634 631 631 630 629 629 628 628 628 627 625
    624 623 623 623 623 624 646 644 644 648 649 652 652 0 0 0 0 0 2560
    2560 2560 2560 2560 2560 2541 1894 1894 1894 1883 1883 1883 1883
    1883 1873 1873 1873 1863 1853 1853 1843 1843 1843 1833 1833 1833
    1833 1823 1823 1813 1813 0 0 0 0 0 0 657 657 657 655 655 655 654 654
    652 650 649 649 649 648 647 646 644 643 643 642 642 642 641 641 640
    637 636 636 635 634 631 631 630 630 630 629 629 629 628 625 624 623
    623 623 623 624 643 643 642 642 642 652 652 0 0 0 0 0 1883 1883 1883
    1894 1894 1894 1894 1883 1883 1894 1883 1883 1883 1883 1873 1873
    1863 1853 1853 1843 1843 1833 1833 1823 1823 1823 1813 1813 1813
    1804 1804 1804 0 0 0 0 0 0 0 657 657 657 655 655 655 654 652 652 650
    649 649 648 647 646 644 644 644 643 642 642 641 641 640 637 636 636
    636 634 632 632 631 630 630 630 629 629 628 628 627 624 623 623 624
    624 625 625 641 641 641 641 774 0 0 0 0 0 1883 1883 1883 1883 1883
    1883 1873 1873 1873 1873 1873 1873 1873 1873 1873 1853 1843 1833
    1833 1833 1833 1833 1823 1813 1804 1804 1794 1794 1804 1794 1794
    1794 0 0 0 0 0 0 0 657 657 657 657 657 655 655 653 652 650 650 649
    649 648 647 646 646 644 643 642 642 642 641 640 638 636 636 636 635
    632 632 632 631 630 630 629 629 629 628 628 624 624 624 624 624 625
    625 629 641 641 0 0 774 774 774 776 792 1883 1873 1873 1873 1873
    1873 1863 1863 1863 1863 1863 1853 1843 1833 1823 1823 1813 1813
    1833 1823 1823 1813 1804 1794 1794 1785 1776 1776 1785 1766 1766
    1757 1757 0 0 0 0 0 0 657 657 657 657 657 657 655 654 653 652 650
    649 649 649 647 647 646 646 644 642 642 642 641 640 638 637 636 636
    635 634 634 632 631 631 631 630 629 629 628 628 627 624 624 624 624
    625 625 629 629 629 771 769 773 773 773 774 787 1873 1873 1873 1863
    1863 1863 1853 1853 1853 1853 1853 1833 1823 1823 1813 1804 1804
    1804 1794 1794 1785 1776 1776 1785 1776 1776 1766 1766 1776 1766
    1766 1757 1757 1766 1766 0 0 0 0 657 657 659 658 658 658 657 655 653
    652 652 650 650 649 648 647 647 646 646 642 642 642 641 640 638 638
    637 637 636 635 635 634 631 631 631 630 630 629 629 629 628 625 624
    624 624 625 627 628 628 628 771 769 769 771 773 774 780 1853 1853
    1853 1853 1843 1843 1843 1843 1843 1813 1804 1804 1804 1804 1804
    1794 1785 1785 1776 1776 1776 1766 1766 1766 1766 1766 1766 1766
    1766 1766 1757 1757 1748 1739 1739 0 0 0 0 658 658 659 658 658 659
    658 655 653 653 652 650 650 650 649 648 647 647 646 643 642 642 642
    641 640 638 637 637 637 636 636 634 632 631 631 631 630 629 629 629
    629 625 625 625 625 627 627 628 628 628 771 769 769 769 774 776 778
    1843 1843 1843 1843 1833 1823 1823 1804 1804 1804 1794 1785 1785
    1785 1785 1776 1776 1766 1766 1766 1766 1766 1766 1766 1766 1766
    1766 1766 1766 1766 1757 1757 1748 1739 1739 0 0 0 0 662 661 659 659
    659 659 659 657 654 653 652 652 652 650 649 648 647 647 646 646 643
    642 642 641 640 640 638 638 636 636 636 634 632 632 631 631 630 629
    629 629 629 627 627 627 627 627 628 628 628 628 634 769 769 769 773
    774 776 1823 1823 1823 1813 1804 1794 1794 1794 1794 1794 1785 1785
    1785 1776 1776 1776 1766 1766 1766 1766 1766 1776 1776 1766 1766
    1766 1766 1766 1776 1776 1766 1766 1766 1766 1766 0 0 0 0 0 661 659
    659 659 659 659 657 655 654 653 652 652 652 650 649 648 647 646 646
    644 643 643 641 641 641 640 638 636 636 636 635 632 632 631 631 630
    630 628 628 629 628 628 627 627 627 628 628 629 634 634 643 773 773
    773 774 774 1804 1804 1804 1804 1804 1794 1794 1794 1794 1794 1785
    1785 1785 1776 1776 1776 1766 1766 1766 1766 1766 1776 1776 1776
    1776 1776 1776 1776 1794 1794 1794 1785 1785 1776 1776 0 0 0 0 0 662
    661 661 659 659 659 658 655 655 654 653 652 652 650 650 649 647 646
    646 644 644 643 642 641 641 640 637 637 636 636 635 632 632 631 631
    630 630 628 628 629 628 628 627 627 627 628 629 629 634 638 643 643
    771 769 769 769 1804 1804 1804 1804 1804 1794 1794 1794 1794 1794
    1785 1785 1785 1785 1785 1785 1776 1776 1785 1766 1766 1785 1785
    1785 1785 1785 1785 1785 1794 1804 1804 1804 1804 1804 1804 0 0 0 0
    0 0 661 661 661 659 659 658 657 655 654 653 652 652 650 650 649 648
    647 646 646 644 643 642 641 641 641 637 637 637 636 636 635 632 632
    631 631 630 629 629 629 629 628 627 627 628 629 629 630 632 638 642
    642 771 769 766 764</data></Depth16579>
</opencv_storage>
