<?xml version="1.0"?>
<opencv_storage>
<Depth9690 type_id="opencv-matrix">
  <rows>40</rows>
  <cols>80</cols>
  <dt>w</dt>
  <data>
    4041 4041 4041 4041 3994 3994 1392 1392 1381 1381 1381 1381 1387
    1392 1392 1387 1387 1387 1381 1381 1381 1381 1381 1381 1376 1376
    1370 1365 1365 1365 1365 1359 1359 1359 1365 1359 1359 1359 1359
    1359 1359 3816 3859 3859 3816 3816 3816 3774 3774 3774 1343 1343
    1343 1338 1338 1338 3692 3653 3653 3653 3653 1343 1343 1343 1343
    3774 3816 3859 1333 1333 1338 1338 1338 2984 2908 2883 2883 2883
    2883 2908 4089 1404 1398 1398 1398 1392 1392 1392 1381 1381 1381
    1381 1381 1381 1381 1381 1381 1381 1376 1376 1376 1376 1370 1370
    1376 1376 1370 1365 1365 1365 1365 1359 1359 1359 1365 1359 1359
    1359 1359 1359 1359 1354 1354 1354 3859 3816 3816 3774 1343 1343
    1343 1343 1338 1338 1338 1338 1338 1338 1343 1343 1343 1338 1338
    1343 1343 1343 1343 1338 1333 1333 1333 1333 1338 1338 1338 2908
    2883 2883 2908 2908 1398 1398 1398 1398 1392 1387 1387 1387 1381
    1381 1381 1381 1381 1381 1376 1376 1376 1376 1376 1376 1376 1370
    1370 1370 1370 1370 1370 1365 1365 1365 1365 1365 1365 1359 1359
    1359 1359 1359 1359 1359 1354 1349 1349 1349 1343 1343 1343 1343
    1343 1343 1343 1343 1338 1338 1338 1338 1338 1338 1338 1338 1338
    1338 1338 1343 1338 1338 1338 1338 1333 1333 1333 1333 1338 1333
    1333 1333 2883 2883 2908 2883 1398 1398 1398 1398 1387 1381 1381
    1381 1381 1381 1376 1376 1376 1376 1376 1376 1376 1370 1370 1370
    1370 1370 1365 1365 1365 1365 1365 1365 1365 1359 1359 1359 1359
    1359 1359 1359 1354 1354 1354 1354 1343 1343 1343 1343 1343 1343
    1343 1338 1338 1338 1338 1338 1338 1338 1338 1333 1333 1338 1338
    1338 1333 1333 1338 1338 1333 1333 1333 1333 1333 1333 1333 1333
    1333 1328 1328 1322 1322 1322 2908 2883 1404 1398 1392 1392 1387
    1381 1381 1381 1376 1376 1376 1376 1376 1370 1370 1370 1370 1370
    1370 1370 1370 1365 1365 1365 1365 1365 1365 1359 1359 1359 1359
    1359 1359 1354 1354 1354 1354 1354 1354 1349 1343 1343 1338 1338
    1338 1338 1338 1338 1338 1338 1333 1333 1333 1333 1333 1333 1333
    1333 1333 1333 1333 1333 1333 1333 1333 1328 1328 1328 1328 1328
    1328 1328 1328 1322 1322 1322 1322 1322 2859 2859 1404 1398 1392
    1392 1381 1381 1381 1381 1376 1376 1376 1376 1370 1370 1365 1365
    1370 1365 1365 1365 1365 1365 1365 1365 1359 1359 1359 1359 1359
    1354 1354 1354 1349 1349 1349 1343 1343 1349 1343 1343 1338 1338
    1338 1338 1338 1338 1338 1338 1338 1333 1333 1333 1328 1328 1328
    1328 1328 1322 1322 1322 1328 1328 1328 1328 1328 1328 1328 1328
    1328 1328 1328 1328 1322 1322 1322 1317 1317 1317 2859 2859 1398
    1398 1387 1387 1381 1381 1381 1381 1376 1376 1370 1370 1365 1365
    1359 1359 1359 1359 1359 1359 1365 1359 1359 1359 1359 1354 1354
    1354 1354 1354 1354 1349 1349 1343 1343 1343 1343 1343 1343 1343
    1338 1333 1333 1333 1333 1333 1333 1333 1333 1328 1328 1322 1322
    1322 1328 1328 1322 1322 1322 1322 1322 1322 1322 1328 1328 1322
    1322 1322 1322 1322 1322 1322 1322 1317 1317 1312 1312 1312 2883
    2883 0 1387 1387 1381 1376 1376 1370 1370 1370 1370 1370 1365 1365
    1359 1359 1359 1354 1354 1359 1359 1359 1359 1359 1354 1354 1349
    1343 1343 1349 1349 1349 1343 1343 1343 1343 1338 1338 1338 1338
    1338 1333 1333 1333 1328 1328 1328 1328 1328 1328 1322 1322 1322
    1322 1322 1322 1322 1322 1322 1317 1317 1317 1317 1317 1322 1322
    1322 1322 1322 1322 1322 1322 1317 1317 1317 1317 1312 1312 1312
    2859 2859 0 1381 1381 1376 1370 1370 1365 1365 1365 1365 1365 1359
    1359 1359 1354 1354 1354 1354 1354 1354 1354 1354 1354 1354 1349
    1343 1343 1343 1343 1343 1343 1343 1343 1343 1343 1338 1338 1338
    1333 1333 1333 1333 1333 1328 1328 1328 1328 1322 1322 1322 1317
    1317 1322 1322 1322 1317 1317 1317 1317 1317 1317 1312 1312 1317
    1317 1317 1317 1317 1317 1317 1312 1312 1312 1307 1307 1307 1307
    1307 2859 2859 0 1381 1381 1376 1365 1365 1365 1359 1359 1359 1359
    1359 1359 1354 1354 1354 1354 1354 1349 1349 1349 1349 1349 1349
    1343 1343 1343 1338 1338 1343 1338 1338 1338 1338 1338 1338 1338
    1333 1333 1328 1328 1328 1328 1328 1322 1322 1322 1322 1322 1322
    1317 1317 1317 1317 1317 1317 1312 1312 1312 1312 1312 1307 1307
    1312 1312 1312 1312 1312 1312 1307 1307 1307 1307 1302 1302 1302
    1302 1302 2859 2859 0 0 1365 1365 1365 1359 1359 1359 1354 1354 1354
    1354 1354 1354 1354 1349 1349 1349 1343 1343 1349 1349 1343 1343
    1343 1343 1338 1338 1338 1338 1338 1338 1338 1338 1338 1333 1333
    1328 1328 1322 1322 1322 1322 1322 1322 1322 1322 1317 1317 1317
    1317 1317 1317 1317 1317 1312 1312 1312 1312 1307 1307 1307 1307
    1307 1307 1307 1307 1307 1307 1307 1302 1302 1302 1302 1302 1302
    1297 1297 1297 2859 0 0 0 1359 1359 1359 1354 1354 1354 1349 1349
    1343 1343 1343 1343 1349 1349 1349 1338 1338 1343 1343 1343 1343
    1338 1338 1338 1338 1338 1338 1338 1333 1333 1333 1333 1328 1328
    1322 1322 1322 1322 1322 1322 1322 1322 1322 1322 1317 1317 1317
    1312 1312 1317 1312 1312 1312 1312 1307 1307 1302 1302 1302 1302
    1307 1307 1307 1307 1307 1302 1302 1302 1302 1302 1297 1297 1292
    1292 1297 1297 2789 0 0 1359 1359 1354 1354 1349 1349 1343 1338 1338
    1338 1343 1343 1343 1343 1343 1338 1338 1338 1338 1338 1338 1338
    1338 1338 1338 1333 1333 1333 1333 1333 1328 1328 1322 1322 1322
    1322 1322 1317 1317 1317 1317 1317 1317 1317 1317 1312 1312 1312
    1307 1307 1312 1312 1312 1307 1307 1302 1302 1302 1302 1302 1302
    1302 1302 1302 1302 1302 1302 1302 1297 1297 1297 1292 1292 1288
    1288 1297 1297 2723 0 0 1354 1354 1349 1349 1349 1343 1343 1338 1338
    1338 1338 1338 1338 1338 1338 1338 1338 1338 1338 1338 1338 1338
    1333 1333 1333 1333 1328 1328 1328 1322 1322 1322 1322 1317 1317
    1317 1317 1317 1317 1317 1317 1317 1312 1312 1312 1307 1307 1307
    1307 1307 1307 1307 1307 1307 1302 1302 1297 1297 1297 1297 1297
    1302 1302 1297 1297 1297 1297 1297 1297 1292 1292 1288 1288 1288
    1283 1283 1283 2723 0 0 1354 1349 1343 1338 1338 1338 1338 1338 1333
    1333 1333 1333 1333 1333 1333 1333 1333 1333 1338 1333 1333 1328
    1328 1328 1328 1322 1322 1322 1322 1322 1317 1317 1317 1317 1317
    1317 1317 1312 1312 1312 1312 1312 1307 1307 1307 1307 1307 1302
    1302 1302 1302 1302 1302 1302 1302 1302 1297 1297 1297 1297 1297
    1297 1297 1292 1292 1292 1292 1292 1292 1288 1288 1288 1288 1283
    1283 1283 1283 1283 0 1354 1354 1343 1338 1338 1338 1338 1338 1338
    1333 1328 1328 1328 1328 1328 1333 1333 1333 1333 1328 1328 1328
    1322 1322 1322 1322 1322 1322 1322 1317 1317 1317 1312 1312 1312
    1312 1312 1312 1307 1307 1307 1307 1307 1302 1302 1302 1302 1302
    1302 1302 1302 1302 1302 1302 1302 1297 1297 1297 1297 1292 1292
    1292 1288 1288 1288 1288 1288 1292 1288 1288 1288 1288 1288 1283
    1283 1278 1278 1278 1278 0 1338 1338 1338 1338 1338 1338 1338 1333
    1333 1328 1322 1322 1322 1322 1322 1328 1328 1328 1328 1322 1322
    1322 1322 1317 1317 1317 1317 1317 1317 1317 1317 1312 1312 1307
    1307 1307 1307 1307 1302 1302 1307 1307 1302 1302 1302 1302 1302
    1302 1302 1297 1297 1297 1297 1297 1297 1297 1292 1292 1292 1288
    1288 1288 1288 1288 1288 1288 1288 1288 1288 1288 1288 1283 1283
    1278 1278 1278 1278 1278 1278 3859 1338 1338 1338 1333 1333 1333
    1333 1328 1322 1322 1317 1317 1317 1322 1322 1322 1322 1322 1322
    1317 1317 1317 1317 1317 1312 1312 1307 1307 1307 1307 1312 1307
    1307 1307 1307 1307 1307 1307 1302 1302 1302 1302 1302 1302 1297
    1297 1297 1297 1297 1297 1297 1297 1297 1297 1292 1292 1292 1288
    1288 1288 1283 1283 1288 1288 1288 1288 1288 1288 1283 1283 1283
    1283 1278 1278 1278 1273 1273 1273 1273 3859 1333 1333 1333 1328
    1328 1328 1322 1322 1317 1317 1317 1317 1317 1317 1317 1317 1317
    1317 1317 1317 1317 1317 1317 1317 1312 1307 1307 1302 1302 1302
    1302 1302 1302 1302 1302 1302 1302 1302 1302 1302 1302 1302 1302
    1297 1297 1297 1297 1297 1297 1297 1292 1292 1292 1292 1288 1288
    1288 1283 1283 1283 1283 1283 1288 1288 1288 1283 1283 1283 1283
    1278 1278 1273 1273 1273 1273 1268 1268 1268 1264 3859 1333 1333
    1328 1328 1322 1322 1317 1317 1317 1317 1317 1317 1317 1317 1312
    1312 1312 1312 1312 1317 1317 1312 1312 1312 1307 1307 1302 1302
    1302 1302 1302 1297 1297 1297 1297 1302 1302 1302 1302 1297 1297
    1297 1297 1297 1292 1292 1292 1292 1292 1292 1288 1288 1283 1283
    1288 1288 1288 1283 1283 1283 1278 1278 1283 1283 1283 1283 1283
    1283 1283 1278 1273 1268 1268 1268 1268 1268 1264 1264 1264 0 1338
    1328 1322 1322 1317 1317 1317 1317 1317 1317 1317 1312 1312 1312
    1312 1312 1312 1312 1312 1312 1312 1312 1312 1307 1302 1302 1302
    1302 1302 1302 1302 1297 1297 1297 1297 1297 1297 1297 1297 1297
    1297 1297 1292 1292 1292 1288 1288 1288 1288 1288 1283 1283 1283
    1283 1288 1283 1283 1278 1278 1278 1273 1273 1283 1283 1283 1283
    1278 1278 1278 1278 1273 1268 1268 1264 1264 1264 1264 1264 1264
    3903 1338 1328 1322 1317 1317 1312 1312 1312 1312 1312 1312 1312
    1312 1307 1307 1307 1307 1307 1307 1312 1307 1307 1307 1302 1302
    1302 1297 1297 1297 1297 1297 1297 1297 1292 1292 1292 1292 1292
    1292 1292 1288 1288 1288 1288 1288 1288 1288 1288 1283 1283 1283
    1283 1283 1283 1283 1283 1283 1278 1278 1278 1273 1273 1278 1278
    1278 1278 1278 1278 1278 1278 1273 1264 1264 1264 1264 1264 1264
    1259 1259 3903 1322 1322 1322 1317 1312 1312 1312 1312 1312 1312
    1312 1307 1307 1302 1302 1302 1302 1302 1302 1302 1302 1302 1302
    1302 1302 1297 1297 1297 1297 1297 1297 1297 1292 1292 1288 1288
    1288 1288 1288 1288 1288 1283 1283 1283 1283 1283 1283 1283 1283
    1283 1283 1283 1283 1278 1278 1278 1278 1278 1273 1273 1273 1273
    1273 1273 1273 1273 1273 1273 1273 1273 1268 1264 1264 1264 1264
    1264 1264 1259 1259 3816 1322 1322 1317 1312 1312 1307 1307 1307
    1307 1307 1307 1307 1302 1302 1302 1297 1297 1297 1297 1302 1302
    1302 1297 1297 1297 1297 1297 1292 1292 1292 1292 1292 1288 1288
    1283 1283 1283 1283 1283 1283 1283 1278 1278 1278 1278 1278 1278
    1278 1278 1278 1278 1283 1283 1278 1278 1273 1273 1273 1268 1268
    1268 1268 1273 1273 1273 1273 1268 1268 1268 1268 1264 1259 1259
    1259 1259 1259 1264 1259 1259 3816 1312 1312 1312 1312 1307 1302
    1302 1302 1302 1302 1302 1302 1297 1297 1292 1292 1297 1297 1297
    1297 1297 1297 1297 1297 1297 1297 1292 1292 1288 1288 1288 1288
    1288 1283 1283 1283 1278 1278 1278 1278 1278 1278 1278 1278 1278
    1278 1278 1273 1273 1273 1273 1268 1268 1273 1273 1268 1268 1268
    1264 1264 1264 1264 1268 1268 1268 1268 1268 1264 1264 1264 1264
    1259 1259 1255 1255 1259 1259 1250 1250 3816 0 1307 1307 1307 1307
    1302 1302 1297 1297 1297 1297 1297 1292 1292 1292 1292 1292 1292
    1297 1297 1297 1297 1292 1292 1292 1292 1288 1288 1283 1283 1283
    1283 1283 1283 1278 1278 1278 1278 1278 1278 1278 1278 1278 1278
    1278 1273 1268 1268 1268 1264 1264 1264 1264 1264 1264 1264 1264
    1264 1264 1264 1264 1264 1264 1264 1264 1264 1264 1264 1264 1259
    1259 1255 1255 1250 1250 1250 1250 1245 1241 3816 0 1302 1302 1302
    1302 1297 1297 1297 1297 1297 1297 1297 1288 1288 1288 1288 1292
    1292 1292 1288 1288 1292 1292 1292 1292 1292 1288 1283 1283 1283
    1283 1278 1278 1278 1273 1273 1273 1273 1273 1278 1273 1273 1273
    1273 1273 1273 1268 1264 1264 1264 1264 1259 1259 1264 1264 1259
    1259 1259 1259 1259 1259 1259 1264 1264 1264 1259 1259 1259 1259
    1255 1255 1255 1250 1245 1245 1245 1245 1241 1236 3816 0 1302 1302
    1297 1297 1297 1292 1292 1292 1292 1292 1292 1288 1288 1283 1283
    1283 1283 1283 1283 1283 1288 1283 1283 1283 1283 1283 1283 1283
    1278 1278 1278 1278 1273 1273 1268 1268 1268 1273 1273 1268 1268
    1268 1268 1268 1268 1268 1264 1264 1264 1264 1259 1259 1264 1264
    1259 1259 1259 1259 1259 1259 1259 1264 1259 1259 1259 1255 1255
    1250 1250 1255 1250 1250 1245 1245 1245 1241 1236 1232 0 0 0 1302
    1297 1292 1292 1288 1288 1292 1292 1292 1292 1283 1283 1283 1283
    1283 1283 1283 1283 1283 1283 1283 1283 1283 1283 1278 1278 1278
    1278 1278 1273 1273 1268 1268 1264 1264 1264 1268 1268 1268 1264
    1264 1264 1268 1268 1264 1264 1259 1259 1259 1259 1259 1259 1259
    1259 1259 1255 1255 1255 1255 1255 1259 1255 1255 1255 1250 1250
    1250 1250 1250 1250 1245 1245 1241 1241 1241 1232 1227 0 0 0 1302
    1297 1292 1288 1288 1288 1288 1288 1288 1283 1283 1283 1278 1278
    1278 1278 1283 1283 1283 1283 1278 1278 1278 1273 1273 1273 1273
    1278 1273 1273 1268 1268 1268 1264 1264 1264 1268 1268 1264 1264
    1259 1259 1264 1264 1264 1264 1259 1255 1255 1259 1259 1255 1255
    1255 1255 1255 1255 1255 1255 1255 1255 1250 1250 1250 1250 1245
    1245 1250 1245 1245 1241 1241 1236 1232 1232 1227 1227 0 0 0 1302
    1297 1292 1288 1283 1283 1283 1278 1278 1278 1278 1278 1278 1278
    1278 1278 1278 1278 1278 1278 1278 1278 1273 1273 1273 1273 1273
    1273 1273 1268 1268 1264 1264 1264 1264 1264 1264 1264 1264 1264
    1259 1259 1264 1264 1264 1259 1255 1250 1250 1255 1255 1255 1250
    1250 1245 1245 1245 1245 1245 1250 1250 1250 1250 1245 1241 1241
    1241 1241 1241 1241 1236 1232 1232 1227 1227 1227 1227 0 0 0 1297
    1297 1288 1283 1283 1283 1278 1278 1278 1278 1278 1278 1278 1278
    1273 1273 1278 1278 1278 1278 1278 1273 1273 1273 1268 1268 1268
    1268 1268 1264 1264 1264 1264 1264 1264 1264 1264 1259 1259 1259
    1259 1259 1259 1259 1259 1259 1255 1245 1245 1245 1245 1245 1245
    1245 1245 1245 1245 1245 1245 1245 1245 1245 1245 1241 1241 1241
    1241 1241 1236 1236 1232 1227 1227 1227 1227 1227 1227 0 0 0 1297
    1278 1278 1278 1278 1278 1278 1278 1278 1278 1273 1273 1273 1273
    1273 1273 1273 1273 1268 1268 1268 1268 1268 1268 1268 1268 1268
    1264 1264 1264 1264 1264 1264 1264 1259 1259 1259 1259 1259 1259
    1255 1255 1259 1259 1259 1255 1250 1245 1245 1245 1241 1241 1241
    1245 1245 1245 1245 1241 1241 1245 1245 1245 1241 1236 1236 1236
    1236 1236 1232 1232 1227 1227 1223 1223 1227 1227 1227 3732 0 1278
    1278 1278 1278 1278 1273 1273 1273 1273 1273 1273 1273 1273 1273
    1273 1273 1273 1273 1268 1268 1268 1268 1268 1268 1264 1264 1264
    1264 1264 1264 1264 1264 1259 1259 1259 1259 1259 1259 1255 1255
    1255 1255 1255 1255 1255 1255 1245 1245 1245 1241 1241 1241 1241
    1241 1241 1241 1241 1241 1241 1241 1241 1245 1245 1232 1232 1232
    1232 1232 1232 1232 1232 1227 1227 1223 1223 1219 1214 1214 3732 0
    1264 1273 1273 1273 1273 1273 1273 1273 1268 1268 1268 1268 1268
    1264 1264 1268 1268 1268 1268 1264 1264 1264 1264 1264 1264 1264
    1259 1259 1259 1264 1259 1259 1259 1255 1255 1255 1255 1255 1255
    1255 1255 1255 1255 1250 1245 1245 1241 1241 1241 1241 1241 1241
    1236 1236 1241 1241 1241 1241 1241 1241 1241 1241 1236 1232 1232
    1232 1232 1232 1232 1227 1227 1227 1223 1219 1219 1214 1210 1210
    3732 0 1264 1264 1264 1268 1268 1268 1268 1268 1264 1264 1264 1264
    1264 1259 1259 1259 1259 1264 1264 1264 1264 1264 1264 1264 1259
    1259 1259 1259 1259 1259 1259 1259 1259 1250 1250 1250 1250 1245
    1245 1255 1255 1255 1250 1250 1245 1241 1241 1241 1241 1236 1236
    1236 1236 1236 1236 1236 1236 1236 1232 1232 1236 1236 1236 1232
    1232 1232 1227 1227 1227 1227 1227 1223 1223 1219 1214 1210 1210
    1210 0 1259 1264 1264 1264 1268 1268 1268 1268 1264 1259 1259 1259
    1259 1259 1259 1255 1255 1255 1259 1259 1259 1259 1259 1259 1259
    1259 1259 1255 1255 1259 1255 1255 1255 1255 1250 1250 1250 1250
    1245 1245 1245 1250 1250 1245 1241 1241 1236 1236 1236 1236 1236
    1236 1236 1236 1236 1232 1232 1232 1232 1232 1232 1232 1232 1232
    1227 1227 1227 1227 1227 1223 1223 1223 1219 1219 1214 1210 1210
    1210 1210 0 0 1259 1259 1264 1264 1264 1264 1264 1264 1259 1259 1259
    1259 1259 1255 1255 1255 1255 1259 1255 1255 1255 1255 1255 1255
    1255 1255 1255 1255 1255 1255 1250 1250 1250 1245 1245 1245 1245
    1245 1245 1245 1245 1245 1245 1241 1236 1236 1236 1236 1236 1236
    1236 1236 1236 1236 1232 1232 1232 1227 1227 1227 1227 1232 1227
    1227 1227 1223 1219 1219 1219 1219 1219 1219 1214 1210 1210 1206
    1206 1206 0 0 1259 1259 1264 1264 1259 1259 1259 1259 1259 1259 1255
    1255 1255 1255 1255 1250 1250 1255 1250 1250 1250 1250 1250 1250
    1250 1250 1250 1245 1245 1250 1250 1245 1245 1245 1245 1245 1245
    1245 1245 1241 1241 1241 1241 1236 1236 1232 1232 1236 1232 1232
    1232 1232 1227 1227 1232 1232 1227 1227 1223 1223 1223 1227 1227
    1227 1227 1223 1219 1214 1214 1214 1214 1214 1210 1210 1206 1206
    1206 1206 0 0 1264 1264 1268 1264 1259 1259 1259 1259 1259 1259 1255
    1255 1255 1255 1255 1250 1250 1255 1250 1250 1250 1250 1250 1250
    1250 1250 1250 1245 1241 1241 1245 1245 1241 1241 1241 1241 1241
    1241 1241 1241 1241 1241 1236 1236 1232 1232 1232 1236 1232 1232
    1232 1232 1227 1227 1227 1227 1227 1223 1223 1223 1223 1227 1223
    1223 1223 1219 1214 1214 1214 1214 1214 1210 1210 1206 1206 1206
    1202 1202</data></Depth9690>
</opencv_storage>
