<?xml version="1.0"?>
<opencv_storage>
<Depth9357 type_id="opencv-matrix">
  <rows>99</rows>
  <cols>67</cols>
  <dt>w</dt>
  <data>
    4405 4405 4349 978 978 978 975 975 973 973 970 967 967 967 967 967
    970 4241 4241 4241 4190 4190 4241 4241 4241 4241 4241 4241 4241 4241
    4241 4241 4190 4190 4241 4241 4241 4241 4190 4190 4190 4190 4190
    4190 4139 4139 4139 4139 4041 4041 4041 4041 4139 4139 4190 4190
    4241 4241 4241 4295 4295 998 995 4089 4089 4041 4041 4463 4405 4349
    978 975 975 975 975 973 973 970 967 967 967 967 967 970 967 962 962
    962 4190 4241 4241 4295 4295 4295 4295 4241 4241 4241 4241 4241 4241
    4241 4241 4241 4241 4241 4241 4190 4190 4190 4190 981 981 981 981
    4041 4041 4041 4041 4041 995 995 995 992 992 995 998 998 998 995 995
    995 4041 4041 4582 4582 4582 4582 975 973 970 970 970 970 967 967
    967 967 967 970 970 967 964 962 962 967 975 973 973 975 975 970 973
    967 959 959 959 959 4645 4645 4645 4582 4463 4463 4645 4645 981 981
    981 978 978 981 981 989 992 989 989 995 992 992 992 992 992 995 995
    992 992 992 992 992 987 0 0 0 959 959 959 959 964 964 967 967 967
    967 967 967 967 967 967 964 964 964 964 970 970 970 970 970 970 973
    967 964 959 959 964 970 973 970 967 967 967 970 970 973 975 978 978
    978 975 975 984 987 984 984 989 989 989 989 989 989 989 989 987 987
    987 987 987 987 0 0 0 959 959 959 959 959 959 962 962 964 964 967
    967 967 967 967 964 964 964 964 967 967 967 967 967 970 970 967 964
    964 964 964 970 970 970 967 967 967 970 970 970 973 975 975 975 973
    973 981 981 984 984 984 984 984 984 984 984 984 981 981 981 981 981
    984 984 0 0 956 956 962 962 959 959 959 959 962 962 962 962 962 962
    964 964 964 964 964 964 967 967 967 964 964 964 964 967 964 964 964
    967 967 967 967 967 967 967 970 970 970 970 973 973 973 973 973 978
    978 978 981 981 981 981 981 981 981 978 978 978 981 981 981 981 984
    0 0 956 956 962 959 959 959 959 959 962 959 959 962 962 962 964 964
    964 964 964 964 964 964 964 964 964 964 964 967 967 967 967 967 967
    967 967 967 967 967 967 970 970 970 970 973 973 973 973 975 978 978
    978 978 978 981 981 981 981 978 978 978 981 981 981 981 984 0 0 959
    959 962 959 959 959 959 962 962 959 959 962 962 962 962 962 964 964
    964 964 964 964 964 964 964 964 964 967 967 967 967 967 967 967 967
    967 967 967 967 967 970 970 970 970 970 973 973 975 978 978 978 978
    978 981 981 981 981 981 981 981 981 981 981 981 984 0 0 959 959 962
    962 959 959 959 962 962 962 962 962 962 962 962 962 964 964 964 964
    964 964 967 964 964 967 967 967 967 967 967 967 967 967 967 967 967
    967 967 967 970 970 970 970 970 973 973 975 978 978 981 978 978 978
    981 981 981 981 981 981 981 981 981 981 984 0 0 962 962 964 962 962
    959 959 962 962 962 962 962 964 964 964 964 964 967 967 967 964 964
    967 967 967 967 967 967 967 967 967 967 967 967 967 967 967 967 970
    970 970 970 970 973 973 973 973 975 978 978 981 978 978 978 978 978
    981 981 981 981 981 981 981 981 984 0 0 962 962 964 962 962 959 959
    962 962 962 962 964 964 964 964 964 964 967 967 967 964 964 967 967
    967 967 967 967 967 967 967 967 967 970 970 970 970 970 970 970 970
    970 970 970 970 973 973 975 978 978 981 981 981 981 978 978 981 981
    981 981 981 981 984 984 984 0 0 0 967 964 962 962 962 962 962 964
    964 964 964 964 964 964 964 964 967 967 967 967 967 967 967 967 967
    967 967 967 967 967 967 967 970 970 970 970 970 970 970 970 970 970
    970 970 973 973 975 975 978 978 981 981 981 981 981 981 981 981 981
    981 981 984 984 984 0 0 0 967 964 962 962 962 962 962 962 964 964
    964 964 964 964 967 967 967 967 967 967 967 967 967 967 967 967 967
    967 967 967 967 967 970 970 970 970 970 970 970 970 973 973 973 973
    973 973 975 975 975 978 978 978 978 978 981 981 981 981 981 981 981
    984 984 984 0 0 0 967 964 962 962 962 962 962 962 964 964 964 967
    967 967 967 967 964 964 964 967 967 967 967 967 967 967 967 967 970
    970 967 967 970 970 970 970 970 970 970 970 973 973 973 973 973 973
    975 975 975 975 978 978 978 978 981 981 981 981 981 981 981 984 984
    984 0 0 0 964 964 962 962 962 962 962 962 964 964 967 964 964 964
    967 964 964 964 964 967 967 967 967 967 967 967 967 970 970 970 970
    970 970 970 970 970 970 970 970 970 973 973 975 973 973 973 975 975
    975 975 978 978 978 981 981 984 981 981 981 981 984 984 984 984 0 0
    0 962 962 962 962 962 962 962 962 964 964 964 964 964 964 967 964
    964 964 967 967 967 967 967 967 967 967 967 967 967 970 970 970 970
    970 970 970 970 970 970 970 973 973 975 973 973 975 978 978 978 978
    978 978 981 981 981 984 984 981 981 981 984 984 984 984 0 0 0 962
    962 964 964 964 964 964 964 964 964 964 964 964 964 964 964 964 964
    967 967 967 967 967 967 967 967 967 967 967 970 970 970 970 970 970
    970 973 970 970 970 973 973 975 975 975 975 978 981 978 978 978 978
    981 981 981 984 984 984 984 984 984 984 984 984 0 0 962 962 964 964
    964 964 964 964 964 964 964 964 964 964 964 964 964 964 964 967 967
    967 967 967 967 967 967 967 967 967 970 970 970 970 970 970 970 973
    970 970 973 973 973 975 975 975 978 981 981 981 978 978 978 981 981
    981 981 981 984 984 984 984 984 984 984 0 0 962 962 964 964 964 964
    964 964 964 964 964 964 964 964 967 964 964 967 967 967 967 967 967
    967 967 967 967 967 967 967 970 970 970 970 970 970 970 973 973 973
    973 973 975 975 975 975 978 981 981 981 981 981 981 981 981 981 981
    981 981 984 984 984 984 981 981 0 0 964 964 964 964 964 964 964 964
    964 964 964 967 967 967 967 964 964 967 967 967 967 967 967 967 967
    967 967 967 967 967 970 970 970 970 970 970 970 973 973 973 973 973
    975 975 975 975 978 981 981 981 981 981 981 981 981 981 981 981 981
    984 984 984 984 981 981 0 967 962 962 964 964 964 964 964 964 964
    964 967 967 967 967 967 967 967 967 967 967 967 967 967 967 967 967
    967 970 970 970 970 970 970 970 973 973 973 970 970 973 973 975 975
    975 975 975 978 981 981 981 981 981 981 981 981 981 981 981 981 984
    984 984 984 984 984 0 964 962 962 964 964 964 964 964 964 967 967
    967 967 967 967 967 967 967 967 967 967 967 967 967 967 967 967 967
    970 970 970 970 970 970 970 973 973 973 970 970 973 973 975 975 975
    975 975 975 981 981 981 981 981 981 981 981 981 981 981 984 984 984
    984 984 984 984 0 964 964 964 967 964 964 964 964 967 967 967 967
    967 967 967 967 967 967 967 967 967 967 967 967 967 967 967 970 970
    970 970 970 970 973 973 973 973 973 973 973 973 975 975 975 975 975
    975 975 981 981 981 981 981 981 981 981 981 981 981 984 984 984 984
    984 984 984 0 0 964 964 967 964 964 964 964 967 967 967 967 967 967
    967 967 967 967 967 967 967 967 967 967 967 970 970 970 973 970 970
    970 970 970 973 973 973 973 973 973 973 973 973 975 975 975 975 975
    981 981 981 981 981 981 981 984 984 984 984 984 984 984 984 984 984
    984 0 0 964 964 967 964 964 964 964 967 967 967 967 967 967 967 967
    967 967 967 967 967 967 967 967 967 967 970 970 970 970 970 970 970
    970 973 970 970 973 973 973 973 973 973 975 975 978 978 978 981 981
    981 981 981 981 981 984 984 984 984 984 984 984 984 984 981 981 0 0
    962 962 964 964 964 967 967 967 967 967 967 967 967 967 967 967 967
    967 967 967 967 967 967 967 967 970 970 970 970 970 970 973 973 973
    970 970 973 973 973 973 975 975 975 978 978 978 978 981 981 981 981
    981 981 981 984 984 984 984 984 984 984 984 984 981 981 0 0 962 962
    964 964 964 964 967 967 967 967 967 967 967 967 967 967 967 967 967
    967 967 967 970 967 967 970 973 973 970 970 970 973 973 973 970 970
    973 975 973 973 975 975 975 978 978 978 978 981 981 981 981 981 981
    981 984 984 984 984 984 984 984 984 984 981 981 0 0 964 964 964 964
    964 964 964 967 967 967 967 967 967 967 967 967 967 967 967 967 967
    967 970 970 970 970 970 973 970 970 970 973 973 973 973 973 973 975
    975 975 975 975 975 978 978 978 978 981 981 981 981 981 981 981 984
    984 984 984 984 984 984 984 984 981 981 0 0 962 962 964 964 964 964
    964 964 967 967 967 967 967 967 967 967 967 967 967 967 967 970 970
    970 970 970 970 973 973 973 973 973 973 973 973 973 973 973 973 975
    975 975 975 978 978 978 978 981 981 981 981 981 981 981 981 984 984
    984 984 984 984 984 984 984 984 0 0 962 962 964 964 964 964 964 964
    967 967 967 967 967 967 967 967 967 967 967 967 970 970 970 970 970
    970 970 973 973 973 973 973 973 973 973 973 973 973 973 975 975 975
    975 978 978 978 978 981 981 981 981 981 981 981 981 984 984 984 984
    984 984 984 984 984 984 0 0 964 964 967 964 964 964 964 967 967 967
    967 967 967 967 967 967 967 967 967 967 970 970 970 970 970 970 970
    970 973 973 973 973 973 970 970 973 973 973 973 975 975 978 978 978
    978 978 978 981 981 981 981 981 981 981 984 984 984 984 984 984 984
    984 987 984 984 0 0 964 964 964 964 964 964 964 967 967 967 967 967
    967 967 967 967 967 967 970 970 970 970 967 967 970 970 970 970 973
    973 975 973 973 970 970 973 973 973 973 975 975 978 978 978 978 978
    978 981 981 984 984 984 984 984 984 984 981 981 984 984 987 987 987
    984 984 0 0 0 964 964 964 964 964 964 967 967 967 967 967 967 967
    967 967 967 967 970 970 970 970 967 967 970 970 970 970 973 975 975
    975 973 970 970 973 973 973 973 975 975 978 978 978 978 978 978 981
    981 984 984 984 984 984 984 981 981 981 981 981 984 987 984 984 984
    0 0 0 964 964 964 964 964 964 967 967 967 967 967 967 967 967 967
    967 970 970 970 970 970 970 970 970 973 973 973 973 973 973 975 973
    970 970 973 973 973 973 975 975 978 978 978 978 978 978 981 981 984
    984 984 984 984 984 981 981 981 981 981 984 984 984 984 984 0 0 967
    967 964 964 964 964 964 967 967 967 967 967 967 967 967 967 970 970
    970 970 970 970 970 970 970 973 973 973 973 973 973 975 975 973 973
    973 973 973 973 975 975 975 978 978 978 978 978 981 984 984 984 984
    984 984 981 981 981 981 984 984 984 984 984 984 984 0 0 967 967 964
    964 964 964 964 967 967 967 967 967 967 967 967 967 970 970 970 970
    970 970 970 970 970 973 973 970 970 973 973 975 975 975 973 973 973
    973 973 975 975 975 978 981 981 981 981 984 984 984 984 984 984 984
    981 981 981 981 984 984 984 984 984 984 984 0 973 967 967 967 964
    964 964 964 967 967 967 967 967 967 967 967 970 970 970 970 970 970
    970 970 970 970 973 973 970 970 973 973 975 975 975 975 975 975 973
    973 975 975 978 978 981 981 981 981 984 981 981 984 984 984 984 981
    981 981 981 984 984 987 987 987 987 0 0 970 967 967 967 964 964 964
    967 967 967 967 967 967 967 970 970 970 970 970 970 970 970 970 970
    970 970 973 973 970 970 973 973 975 975 975 975 975 975 975 975 975
    975 978 978 978 978 981 981 984 981 981 984 984 984 984 984 984 984
    984 984 984 984 987 987 987 0 0 970 967 967 967 964 964 964 967 967
    967 967 967 970 970 970 970 970 970 970 970 970 970 970 970 970 970
    973 973 973 973 973 973 975 975 978 978 978 978 975 975 975 975 978
    978 978 978 981 981 984 981 981 981 981 984 984 984 984 984 984 984
    984 984 987 987 987 0 0 0 967 967 967 967 967 967 967 967 967 967
    967 967 970 970 970 970 970 970 970 970 970 970 970 970 970 973 973
    973 973 973 973 975 975 978 978 978 975 975 975 978 978 981 981 978
    978 981 981 984 984 984 981 981 984 984 984 987 984 984 984 984 987
    989 989 989 0 0 0 967 967 967 967 967 967 967 967 967 967 967 967
    970 970 970 970 970 970 970 970 970 970 970 970 970 973 975 975 975
    975 975 975 975 975 978 978 975 975 975 978 978 981 978 978 978 981
    981 984 984 984 984 984 984 984 987 987 984 984 984 984 987 987 987
    987 0 0 0 967 967 967 967 967 967 967 967 967 967 967 967 970 970
    970 970 970 970 970 970 970 970 970 973 973 975 975 975 975 975 975
    975 975 975 978 978 975 975 978 978 978 981 978 978 981 981 981 984
    987 984 984 984 984 984 987 984 984 984 984 984 987 987 987 987 987
    0 973 967 967 967 967 967 967 967 967 967 967 967 967 970 970 970
    970 970 970 970 970 970 970 970 973 973 973 975 975 975 975 975 975
    978 978 978 978 978 978 978 978 978 981 981 981 981 981 981 984 987
    987 984 984 984 984 984 984 984 984 987 987 987 987 987 987 987 0
    970 964 964 967 967 967 967 967 970 970 967 967 967 970 970 970 970
    970 970 970 970 970 970 973 973 973 973 975 975 975 975 975 975 975
    975 978 978 978 978 978 978 978 981 981 981 981 981 981 984 984 987
    984 984 984 984 984 984 984 984 987 987 987 987 987 987 989 0 967
    964 964 967 967 967 967 967 967 970 967 967 967 970 970 970 970 970
    970 970 970 970 970 973 973 973 973 975 975 975 975 975 975 975 975
    975 978 978 978 978 978 978 981 981 981 981 981 981 984 984 987 987
    984 984 984 984 984 984 987 987 987 987 987 987 987 989 0 967 964
    964 967 967 967 967 967 967 967 970 967 967 970 970 970 970 970 970
    970 970 970 973 973 973 973 973 973 973 975 975 975 975 975 975 975
    978 978 978 978 978 978 981 981 981 981 978 978 984 984 987 987 987
    987 987 987 984 984 987 987 987 987 987 989 989 989 0 964 964 964
    967 967 967 967 967 967 967 970 967 967 970 970 970 970 970 970 970
    970 973 973 973 973 973 973 973 973 975 975 975 975 975 975 975 978
    978 978 978 978 978 981 981 981 978 978 978 984 984 987 984 984 987
    987 987 984 984 987 987 987 987 989 989 989 989 0 964 964 964 967
    967 967 967 967 967 967 970 970 970 970 970 970 970 970 970 970 970
    973 973 973 973 973 973 973 973 975 975 975 975 975 975 975 978 978
    978 978 978 981 981 981 981 978 978 978 984 984 984 984 984 984 984
    987 987 987 987 987 987 987 989 989 989 989 0 0 964 964 967 967 967
    967 967 967 967 970 970 970 970 970 970 970 970 970 970 970 973 973
    973 973 975 975 975 975 975 975 975 975 975 975 975 978 978 978 978
    978 981 981 981 981 981 981 981 984 984 984 984 984 984 984 984 984
    984 987 987 987 987 987 989 984 984 0 0 967 967 967 967 967 967 967
    967 967 967 970 970 970 970 970 970 970 970 970 973 973 973 973 973
    975 975 975 975 978 978 978 978 978 978 978 978 978 978 981 981 981
    981 981 981 981 981 981 984 984 984 984 984 984 984 984 984 984 987
    987 987 987 987 989 981 981 0 0 967 967 967 967 967 967 970 970 967
    967 970 970 970 970 970 970 970 970 970 973 973 973 973 973 975 975
    975 978 978 975 975 978 978 978 978 978 978 978 978 981 981 981 981
    981 981 981 981 984 984 984 987 987 987 984 984 984 984 987 987 987
    987 987 987 981 981 984 978 967 967 967 967 967 967 970 970 970 970
    970 970 970 970 973 970 970 970 970 973 973 973 973 973 975 975 978
    978 978 975 975 978 978 978 978 978 978 978 978 981 981 981 981 981
    981 981 981 984 987 987 987 987 987 984 984 984 984 989 989 989 989
    989 987 987 0 984 978 967 967 970 967 967 970 970 970 970 970 970
    970 970 970 973 970 970 970 970 973 973 973 973 973 975 975 978 978
    978 975 975 978 978 978 978 978 978 978 978 981 981 981 981 981 981
    981 981 987 987 987 987 987 987 987 987 987 987 989 989 989 992 992
    992 992 0 0 978 970 970 970 967 967 970 970 970 970 970 970 970 970
    970 973 970 970 973 973 973 975 975 975 975 975 975 978 978 978 978
    978 978 978 978 978 978 978 978 978 981 981 981 981 981 981 984 984
    987 987 987 987 987 984 984 987 987 989 989 989 989 992 992 992 989
    989 0 978 970 970 970 967 967 970 970 970 970 970 970 970 970 970
    970 970 970 973 973 975 975 975 975 975 975 975 978 978 978 978 978
    978 978 978 978 978 978 978 978 981 981 981 981 981 981 984 984 987
    987 989 987 987 984 984 987 987 989 989 989 989 992 995 992 989 989
    0 978 970 970 970 967 967 970 970 970 970 970 970 970 970 970 970
    973 973 973 973 975 975 975 975 975 975 975 978 978 978 978 978 978
    978 978 978 978 978 978 978 981 981 981 981 984 984 984 984 987 987
    989 987 987 987 987 987 987 989 989 989 989 992 992 987 987 995 0
    978 970 970 970 967 967 970 970 970 970 970 970 970 970 970 970 973
    973 973 973 975 975 975 975 975 975 975 978 978 978 978 978 978 978
    978 978 978 978 978 978 981 981 981 981 984 984 984 984 987 987 989
    987 987 987 987 987 987 989 989 989 989 992 992 987 987 987 0 0 967
    967 970 970 970 970 970 970 970 970 970 970 970 970 970 973 973 973
    973 973 973 975 975 975 975 975 978 978 978 978 978 978 978 978 978
    978 978 981 981 981 981 981 981 984 984 984 984 987 987 987 989 987
    987 987 987 989 989 989 989 992 989 989 984 984 984 0 0 967 967 970
    970 970 970 970 970 970 970 970 970 970 970 973 973 973 973 973 973
    973 975 975 975 975 978 978 978 978 978 978 978 978 978 978 978 978
    981 981 981 981 984 984 984 987 984 984 987 987 987 989 989 989 989
    989 989 989 989 989 992 989 989 984 984 0 0 975 970 970 970 970 970
    970 970 970 970 970 970 970 970 970 973 973 973 973 973 973 975 975
    975 975 975 978 978 978 978 978 978 978 978 978 978 978 981 981 981
    981 984 984 984 984 984 984 987 987 987 987 987 987 987 987 989 989
    989 989 989 992 989 989 992 0 0 0 973 970 970 970 970 970 970 970
    970 970 970 970 970 970 970 973 973 975 975 973 973 975 975 975 975
    978 978 978 978 978 978 978 978 978 978 981 981 981 981 981 981 981
    984 981 981 984 984 987 987 987 984 984 987 987 987 989 989 989 989
    989 992 992 992 992 995 0 0 973 967 967 970 970 970 970 970 970 970
    970 970 970 973 973 973 973 975 975 975 975 975 975 975 975 978 978
    978 978 978 978 978 978 978 978 981 981 978 978 981 981 981 981 981
    981 981 984 987 987 987 984 984 987 987 987 989 989 989 989 989 992
    992 992 995 995 0 0 967 967 967 970 970 970 970 970 970 973 973 970
    970 973 973 973 973 975 975 978 978 975 975 978 978 978 978 978 978
    978 978 978 978 978 978 981 978 978 978 981 981 981 981 981 981 981
    984 987 989 989 987 987 987 987 987 989 992 992 992 992 992 992 992
    992 995 0 0 967 967 967 970 970 970 970 970 973 973 973 970 970 973
    973 973 973 975 978 978 978 975 975 978 978 978 978 978 978 978 978
    978 978 978 978 981 978 978 978 981 981 981 981 981 981 981 984 987
    989 989 987 987 987 989 989 992 992 992 992 992 992 992 992 992 995
    0 0 967 967 967 970 970 973 973 973 973 973 973 970 970 970 973 973
    975 975 978 978 978 978 978 978 978 978 978 978 978 978 978 978 978
    978 981 981 981 978 978 981 981 981 981 981 984 984 984 987 987 987
    987 989 989 992 992 992 992 992 992 992 992 992 992 992 995 0 0 967
    967 967 970 970 970 973 973 973 973 973 973 970 970 973 975 975 978
    978 978 978 978 978 978 978 978 978 978 978 978 978 978 978 978 981
    981 981 981 981 981 981 984 984 984 984 984 984 984 984 984 987 989
    989 992 992 992 992 992 992 992 992 992 992 992 992 0 0 967 967 967
    970 970 970 973 973 973 973 973 973 973 973 973 975 975 975 978 978
    978 978 978 978 978 978 978 978 978 978 978 978 978 978 981 981 981
    981 981 981 984 987 987 987 987 984 984 984 984 984 987 989 989 992
    992 992 992 992 992 992 992 992 992 992 992 992 0 967 967 970 970
    970 970 973 973 975 973 973 973 973 973 973 975 975 975 978 978 978
    978 978 978 978 978 978 978 978 978 978 978 981 981 981 981 981 981
    981 981 984 987 987 987 987 984 984 987 987 987 987 989 989 992 992
    992 992 992 992 992 992 992 992 992 989 989 0 970 970 970 970 970
    970 973 973 975 973 973 973 973 973 975 975 975 975 978 978 978 978
    978 978 978 981 981 978 978 978 978 978 981 981 981 981 981 981 981
    984 984 984 987 989 987 987 987 987 989 989 989 989 989 992 992 992
    992 989 989 989 992 992 992 992 989 989 0 970 970 970 970 970 970
    973 975 975 973 973 973 973 975 975 975 975 975 978 978 978 978 978
    978 981 981 981 978 978 981 981 981 981 981 981 981 981 981 984 981
    981 984 987 987 987 987 987 987 989 989 989 989 989 992 992 992 992
    989 989 989 992 992 992 992 992 0 989 973 973 970 970 970 970 973
    975 975 973 973 973 973 975 975 975 975 975 978 978 978 978 978 978
    978 981 981 981 981 981 981 981 981 981 981 981 984 984 984 981 981
    987 987 987 987 987 984 984 989 989 989 992 992 992 992 992 992 992
    992 992 992 992 992 992 987 978 989 973 973 970 970 970 973 975 975
    975 973 973 973 973 973 973 973 973 975 978 978 978 978 978 978 978
    981 981 981 981 981 981 981 981 981 981 981 984 984 984 981 981 984
    987 989 987 987 984 984 987 987 989 989 992 992 992 992 992 992 992
    992 992 992 992 992 987 978 981 973 973 970 970 970 973 975 975 975
    973 973 973 973 973 973 973 973 975 978 978 978 978 978 981 981 981
    981 981 981 981 981 981 981 981 981 981 981 984 984 981 981 984 987
    989 987 987 984 984 987 987 989 989 992 992 992 992 992 992 992 992
    992 992 992 995 989 984 981 975 975 973 973 973 973 975 975 975 973
    973 975 973 973 973 973 975 978 978 978 978 978 978 978 978 981 981
    981 981 981 981 981 981 981 981 981 981 984 984 984 987 987 987 987
    987 987 984 984 989 989 989 992 992 992 992 992 992 992 992 992 992
    992 992 995 992 992 978 975 975 973 973 973 975 975 975 975 975 975
    973 973 973 973 973 975 978 978 978 978 978 978 978 978 981 981 981
    981 981 981 981 981 981 981 981 981 984 984 984 987 987 987 987 987
    987 987 987 989 989 992 992 992 992 992 992 992 992 992 992 992 992
    995 995 995 995 978 975 975 973 973 973 975 975 975 975 975 975 973
    973 973 973 975 978 978 978 978 978 978 978 978 978 978 981 981 981
    981 981 981 981 981 981 981 984 984 984 984 987 987 987 987 987 987
    989 989 992 992 992 992 992 992 992 992 992 992 992 992 992 992 995
    995 995 995 978 975 975 975 975 975 975 975 975 975 975 975 975 975
    975 975 975 978 978 978 978 978 978 978 978 978 978 981 981 981 981
    981 981 984 984 984 984 981 981 984 984 987 987 987 987 987 987 987
    989 992 989 989 989 992 992 992 992 995 995 995 995 995 995 995 995
    995 995 978 975 975 978 978 978 975 975 975 975 975 975 975 975 975
    975 975 978 978 978 978 978 978 978 978 978 978 978 981 981 981 981
    984 984 984 984 984 981 981 984 984 987 987 984 984 984 987 987 987
    989 989 989 989 992 992 992 992 992 995 995 995 995 995 995 992 992
    992 975 975 975 978 978 978 975 975 975 975 975 975 975 975 975 975
    975 978 978 978 978 978 978 978 978 978 978 978 978 981 981 981 984
    984 984 984 984 981 981 984 984 987 987 984 984 984 987 987 987 989
    989 989 989 992 992 992 992 992 992 992 995 995 992 992 992 992 992
    998 973 973 975 975 978 975 975 975 975 975 973 973 973 973 973 975
    975 978 978 978 978 978 978 978 978 978 978 978 981 981 981 981 981
    984 984 984 984 987 984 984 987 987 987 987 987 987 987 989 989 992
    992 992 992 992 992 992 992 992 992 992 992 992 992 989 989 0 978
    973 973 975 975 975 975 975 975 975 975 973 973 973 973 973 975 975
    978 978 978 978 978 978 978 978 978 981 981 981 981 981 981 981 981
    981 984 987 987 987 987 987 987 987 987 987 989 989 989 989 992 992
    992 992 992 992 992 992 992 992 992 992 992 992 989 989 0 975 975
    975 975 975 975 975 975 975 975 975 975 975 975 975 975 975 975 978
    978 978 978 978 981 981 981 981 981 981 981 981 981 981 981 981 981
    981 984 987 987 987 987 987 987 987 987 989 989 989 992 992 992 992
    992 992 992 992 992 992 992 992 992 992 992 992 992 0 975 975 975
    975 975 975 975 975 975 975 975 975 975 975 975 975 975 975 978 978
    978 978 978 981 981 981 981 981 981 981 981 981 981 981 981 981 981
    984 984 984 987 987 987 987 987 987 989 989 989 992 992 989 989 992
    992 992 992 992 992 992 992 992 992 992 992 992 0 975 973 973 975
    975 975 975 975 975 975 975 975 975 975 975 975 975 975 978 978 978
    978 978 981 981 981 981 981 981 981 981 981 984 984 984 981 981 981
    984 984 987 987 987 987 987 987 989 989 989 992 992 989 989 992 992
    992 992 992 992 992 992 992 992 992 989 989 0 975 973 973 975 975
    975 975 975 975 975 975 975 975 975 975 978 978 978 978 978 978 981
    981 981 981 981 981 981 981 981 981 981 981 984 984 981 981 981 981
    984 987 987 987 987 987 987 989 989 989 992 992 992 992 992 992 992
    992 992 992 995 995 995 992 992 989 989 0 975 973 973 975 975 975
    975 975 973 973 973 973 975 978 978 978 978 978 978 978 978 981 981
    981 981 981 981 981 981 981 981 981 981 984 984 984 984 981 981 984
    987 987 987 989 987 987 989 989 989 992 992 992 992 992 992 992 992
    992 992 992 992 992 992 992 987 987 0 975 975 975 975 973 973 973
    973 973 973 973 973 975 978 978 978 978 978 978 978 978 978 978 981
    981 981 981 981 981 981 981 981 981 984 984 984 984 984 984 984 987
    987 989 989 989 989 989 989 989 992 992 992 992 992 992 992 992 992
    992 992 992 992 992 992 987 987 0 978 975 975 975 973 973 973 973
    973 973 973 973 975 978 978 978 978 978 978 978 978 978 978 978 981
    981 981 981 981 981 981 981 981 984 987 984 984 987 984 984 987 987
    989 989 989 989 989 989 989 992 992 992 992 992 992 992 992 992 992
    992 992 992 992 992 989 989 0 978 978 978 975 975 973 973 973 973
    973 973 973 975 975 978 978 978 978 978 978 978 978 978 978 981 981
    981 981 981 981 984 984 987 987 987 984 984 981 981 987 987 987 987
    987 987 987 989 989 989 989 989 992 992 992 992 992 992 992 992 992
    992 992 992 992 987 981 981 981 975 975 975 975 973 973 973 973 973
    973 973 973 975 975 978 978 978 978 978 978 978 978 978 981 981 981
    981 981 984 984 984 987 987 987 984 984 981 981 984 984 987 987 987
    987 987 989 989 989 989 989 992 992 992 992 992 995 995 995 992 992
    992 992 992 987 981 970 981 975 975 975 975 975 973 973 973 973 973
    973 973 975 975 978 978 978 981 978 978 978 978 978 981 981 981 981
    981 984 984 984 984 984 984 984 984 981 981 984 984 987 987 987 987
    987 989 989 989 992 992 992 992 992 992 992 995 995 995 995 995 995
    995 995 992 984 970 981 975 975 973 973 975 975 975 975 973 973 975
    975 975 978 978 978 978 981 981 981 981 981 981 978 978 981 981 981
    981 981 984 981 981 984 984 984 984 984 984 987 987 987 987 987 989
    989 989 989 992 992 992 992 992 992 992 995 995 995 995 995 995 995
    992 992 987 987 981 975 975 973 973 975 975 975 975 975 975 975 975
    978 978 978 978 981 981 981 981 981 981 981 978 978 981 981 981 981
    981 981 981 981 984 984 984 984 984 984 987 989 989 989 989 989 989
    989 989 992 992 992 992 992 992 992 995 995 995 995 995 995 992 992
    989 989 0 978 978 978 975 975 975 975 975 975 975 975 975 975 978
    978 978 978 981 981 981 981 981 981 981 981 981 981 981 981 981 981
    981 981 981 984 984 984 984 984 987 989 989 989 989 989 989 989 989
    989 992 992 992 992 992 992 992 995 995 995 995 995 995 992 992 989
    989 0 978 978 978 978 975 975 975 975 975 975 975 975 975 978 978
    978 978 981 981 981 981 981 984 981 981 981 981 981 984 984 984 981
    981 981 984 984 984 984 987 987 989 987 987 989 989 989 989 989 989
    992 992 992 992 992 995 995 995 995 995 995 995 995 992 992 995 1001
    0 975 975 978 978 978 978 978 978 975 975 975 975 975 975 975 978
    978 981 981 981 981 981 984 981 981 981 981 981 984 984 984 984 981
    981 984 984 984 984 987 987 989 987 987 989 989 989 989 989 989 992
    992 992 992 992 992 995 995 995 995 995 995 995 992 992 995 1001 0
    975 975 978 978 978 978 978 978 975 975 975 975 975 975 975 978 978
    981 981 981 981 981 984 981 981 981 981 981 984 984 984 984 984 984
    987 987 987 987 987 989 987 987 987 989 989 989 989 989 989 992 992
    992 992 992 992 995 995 995 995 992 992 992 992 992 995 0 0 975 975
    978 978 978 978 975 975 975 975 975 975 975 978 978 978 978 981 981
    981 981 981 984 981 981 981 981 981 981 984 984 984 984 984 987 987
    987 987 987 989 987 987 987 989 989 989 987 987 987 989 989 992 992
    992 995 995 995 992 992 992 989 989 992 992 0 0 0 0 978 978 978 978
    978 975 975 975 975 978 978 978 978 978 978 978 981 981 981 981 981
    984 984 984 981 981 981 981 981 984 981 981 984 987 987 987 987 987
    989 987 987 989 989 989 989 987 987 987 989 989 992 992 992 995 995
    998 981 981 984 987 989 0 0 0 0 0</data></Depth9357>
</opencv_storage>
