<?xml version="1.0"?>
<opencv_storage>
<Depth10373 type_id="opencv-matrix">
  <rows>71</rows>
  <cols>41</cols>
  <dt>w</dt>
  <data>
    0 0 0 1161 1153 1149 1149 1149 1149 1141 1138 1138 1134 1134 1134
    1130 1126 1123 1123 1123 1123 1123 1123 1119 1119 1123 1119 1119
    1119 1119 1126 1134 1145 1165 1173 1214 1223 1236 1268 1278 1283 0 0
    0 1149 1149 1149 1149 1149 1145 1145 1141 1138 1138 1138 1134 1134
    1126 1123 1123 1123 1123 1123 1119 1119 1119 1119 1119 1119 1119
    1119 1126 1134 1145 1165 1173 1210 1223 1236 1268 1278 1283 3238 0 0
    0 1149 1149 1149 1149 1145 1141 1138 1138 1138 1138 1134 1134 1126
    1123 1123 1123 1123 1123 1119 1119 1119 1119 1119 1119 1119 1119
    1126 1138 1145 1157 1173 1206 1219 1241 1268 1283 1288 3208 3149 0
    1149 1149 1149 1149 1149 1145 1141 1138 1138 1138 1134 1134 1134
    1126 1126 1123 1123 1123 1123 1119 1119 1119 1119 1119 1119 1119
    1123 1126 1138 1145 1153 1189 1206 1219 1255 1273 1283 1288 3149 0 0
    0 1149 1149 1149 1149 1145 1141 1138 1138 1134 1134 1134 1130 1126
    1126 1123 1123 1123 1123 1123 1119 1119 1119 1115 1115 1119 1123
    1130 1138 1145 1153 1202 1206 1219 1264 1273 1278 1283 3149 0 0 0
    1153 1153 1149 1149 1145 1141 1138 1138 1134 1134 1134 1130 1126
    1126 1126 1123 1123 1123 1123 1123 1119 1119 1115 1115 1119 1123
    1130 1141 1145 1153 1173 1210 1219 1268 1273 1273 1283 3238 3238 0 0
    1153 1153 1149 1149 1149 1145 1141 1138 1134 1134 1130 1130 1130
    1126 1126 1126 1126 1123 1123 1123 1119 1119 1112 1112 1115 1115
    1126 1141 1149 1161 1169 1214 1223 1273 1273 1273 1273 3238 0 0 0
    1153 1153 1149 1149 1149 1145 1141 1138 1134 1134 1130 1130 1130
    1130 1130 1126 1126 1126 1123 1123 1123 1119 1112 1112 1115 1115
    1126 1145 1153 1161 1169 1223 1227 1268 1273 1273 1273 3238 0 1153
    1153 1153 1153 1153 1149 1149 1149 1145 1138 1138 1134 1130 1130
    1130 1130 1130 1126 1126 1126 1126 1123 1123 1119 1112 1112 1115
    1115 1119 1153 1157 1165 1173 1214 1219 1268 1273 1273 1273 3399 0
    1153 1153 1153 1153 1149 1149 1149 1149 1145 1141 1138 1134 1134
    1130 1130 1130 1126 1126 1126 1126 1126 1123 1123 1119 1115 1115
    1115 1115 1115 1153 1161 1165 1173 1214 1219 1268 1278 1278 1278 0 0
    0 1153 1153 1149 1149 1149 1149 1149 1149 1145 1138 1138 1134 1134
    1130 1130 1126 1126 1126 1126 1126 1123 1123 1119 1115 1115 1115
    1115 1115 1153 1165 1165 1189 1219 1227 1264 1278 1283 1283 3399 0
    1153 1153 1153 1149 1149 1149 1149 1149 1149 1145 1141 1138 1134
    1134 1130 1130 1130 1130 1130 1126 1126 1123 1123 1123 1119 1119
    1115 1115 1126 1153 1161 1161 1214 1219 1223 1264 1278 1288 1302
    3399 0 1153 1153 1153 1149 1149 1149 1149 1149 1149 1145 1141 1138
    1134 1134 1130 1130 1130 1130 1130 1126 1126 1123 1123 1123 1123
    1123 1119 1119 1130 1153 1161 1161 1214 1219 1223 1278 1288 1292
    1297 3399 0 1157 1157 1153 1149 1149 1149 1149 1149 1149 1145 1141
    1138 1134 1134 1134 1134 1134 1130 1130 1126 1126 1123 1123 1123
    1123 1123 1123 1123 1134 1149 1165 1165 1214 1219 1223 1278 1288
    1288 1292 0 1169 1157 1157 1153 1153 1153 1149 1149 1149 1149 1145
    1141 1138 1134 1134 1134 1134 1134 1130 1130 1126 1126 1123 1123
    1123 1123 1123 1123 1123 1134 1149 1165 1165 1214 1223 1255 1273
    1288 1288 1292 0 1169 1169 1157 1153 1153 1153 1149 1149 1149 1149
    1149 1141 1138 1134 1134 1134 1134 1134 1130 1130 1126 1126 1123
    1123 1123 1123 1123 1123 1123 1130 1157 1165 1169 1223 1245 1255
    1273 1283 1283 1292 0 0 1169 1157 1153 1153 1153 1149 1149 1149 1149
    1145 1141 1138 1134 1134 1134 1130 1130 1130 1130 1126 1126 1123
    1123 1123 1123 1123 1123 1123 1130 1161 1165 1173 1236 1241 1264
    1273 1283 1283 1283 0 1169 1169 1161 1157 1153 1153 1149 1149 1149
    1145 1145 1138 1138 1134 1134 1134 1130 1130 1130 1130 1126 1126
    1123 1123 1123 1123 1123 1123 1123 1130 1165 1165 1173 1232 1241
    1264 1273 1283 1283 1283 0 1161 1161 1161 1157 1153 1153 1149 1149
    1149 1145 1145 1138 1138 1134 1134 1134 1130 1130 1126 1126 1126
    1126 1123 1123 1123 1123 1123 1123 1126 1141 1161 1169 1177 1223
    1232 1259 1273 1288 1292 1292 0 0 1153 0 1153 1153 1153 1153 1149
    1149 1145 1145 1138 1138 1134 1134 1134 1130 1130 1126 1126 1126
    1126 1123 1123 1123 1123 1123 1123 1126 1138 1161 1169 1189 1223
    1232 1259 1278 1292 1302 1302 0 0 1153 0 1153 1153 1153 1153 1153
    1149 1149 1145 1138 1138 1138 1134 1134 1130 1130 1126 1126 1126
    1126 1126 1126 1123 1123 1123 1123 1126 1138 1161 1173 1197 1219
    1232 1259 1283 1297 1302 1302 0 0 1153 1153 1153 1153 1153 1153 1153
    1149 1149 1145 1141 1138 1138 1134 1134 1130 1126 1126 1126 1126
    1126 1126 1126 1123 1123 1123 1123 1126 1157 1161 1173 1189 1219
    1236 1273 1288 1292 1302 1302 0 1161 1153 1153 1153 1153 1153 1153
    1149 1149 1149 1141 1141 1138 1138 1134 1134 1130 1126 1126 1126
    1126 1126 1126 1126 1123 1123 1123 1123 1130 1161 1169 1177 1189
    1232 1236 1273 1283 1288 1302 1302 3539 0 1161 1153 1153 1153 1153
    1153 1149 1149 1149 1141 1138 1138 1138 1134 1134 1134 1130 1126
    1126 1126 1126 1126 1126 1126 1126 1123 1123 1130 1165 1169 1177
    1189 1232 1236 1250 1278 1278 1278 1278 3539 0 1161 1157 1153 1153
    1153 1149 1149 1149 1145 1141 1138 1138 1134 1134 1134 1134 1130
    1126 1126 1126 1126 1126 1126 1126 1126 1126 1126 1126 1165 1169
    1177 1223 1232 1236 1250 1278 1278 1278 3433 3503 3503 1161 1157
    1153 1153 1153 1149 1149 1149 1145 1138 1138 1134 1134 1134 1134
    1134 1130 1126 1126 1130 1126 1126 1126 1126 1126 1126 1126 1126
    1157 1173 1173 1223 1227 1236 1259 1283 1283 1283 3433 3468 3468
    1161 1157 1153 1153 1153 1149 1149 1149 1145 1138 1138 1134 1134
    1134 1134 1134 1134 1130 1130 1130 1130 1130 1126 1126 1126 1126
    1126 1130 1157 1169 1169 1223 1227 1236 1273 1283 1283 1283 3433
    3468 3468 1161 1157 1153 1153 1153 1149 1149 1149 1145 1141 1138
    1138 1134 1134 1134 1134 1134 1130 1130 1134 1134 1130 1126 1126
    1126 1126 1126 1138 1157 1169 1169 1219 1227 1236 1283 1292 1292
    1292 3433 1165 1165 1165 1157 1153 1153 1153 1149 1149 1149 1145
    1141 1141 1138 1134 1134 1134 1134 1134 1134 1134 1134 1134 1130
    1126 1126 1126 1126 1126 1141 1157 1169 1173 1219 1227 1236 1283
    1292 1297 1297 3433 0 1165 1165 1157 1153 1153 1153 1153 1149 1149
    1145 1145 1141 1138 1134 1134 1134 1134 1134 1134 1134 1134 1134
    1130 1126 1126 1126 1126 1126 1149 1161 1169 1173 1214 1227 1236
    1283 1288 1297 1297 3433 0 0 1161 1157 1157 1153 1153 1153 1149 1149
    1145 1145 1141 1138 1138 1134 1134 1134 1134 1134 1134 1130 1130
    1130 1126 1126 1126 1126 1126 1153 1153 1177 1202 1214 1227 1241
    1278 1288 1302 1302 3433 0 0 1161 1157 1157 1153 1153 1153 1149 1149
    1149 1145 1141 1138 1138 1138 1138 1134 1134 1134 1134 1130 1130
    1126 1126 1126 1126 1126 1126 1153 1153 1165 1202 1214 1227 1245
    1278 1288 1302 1302 3433 0 0 1161 1161 1161 1153 1153 1153 1149 1149
    1149 1141 1141 1138 1138 1138 1138 1134 1134 1134 1134 1134 1130
    1126 1126 1126 1126 1126 1126 1149 1149 1165 1206 1223 1227 1264
    1283 1292 1302 1302 3433 0 0 1157 1157 1157 1153 1153 1153 1149 1149
    1145 1141 1138 1138 1138 1138 1138 1134 1134 1134 1134 1130 1130
    1126 1126 1126 1126 1130 1130 1149 1149 1169 1206 1223 1236 1245
    1283 1307 1307 3433 3433 0 0 1157 1157 1157 1153 1153 1153 1153 1149
    1145 1141 1138 1138 1138 1138 1138 1134 1134 1134 1134 1130 1130
    1126 1126 1126 1126 1126 1130 1157 1157 1173 1232 1232 1236 1245
    1288 1307 1312 1312 3468 0 0 1157 1157 1157 1153 1153 1153 1153 1149
    1145 1141 1138 1138 1138 1138 1134 1134 1134 1134 1134 1134 1130
    1126 1126 1126 1126 1126 1130 1169 1169 1177 1232 1232 1236 1273
    1283 1307 1312 1312 3503 0 0 1157 1157 1157 1153 1153 1153 1153 1149
    1145 1141 1138 1138 1138 1138 1134 1134 1134 1134 1134 1134 1130
    1126 1126 1126 1126 1126 1138 1177 1177 1189 1232 1232 1241 1273
    1283 1307 1312 1312 3468 0 0 1157 1157 1157 1153 1153 1153 1149 1149
    1145 1141 1138 1138 1138 1138 1138 1134 1134 1134 1134 1130 1130
    1126 1126 1126 1126 1126 1145 1153 1181 1185 1197 1241 1259 1273
    1288 1302 1312 1312 3503 1165 1165 1161 1161 1161 1157 1153 1153
    1149 1149 1145 1141 1138 1138 1138 1138 1138 1138 1134 1134 1134
    1130 1130 1126 1126 1126 1126 1130 1145 1153 1177 1185 1193 1241
    1259 1273 1288 1297 1302 1302 3503 1165 1165 1161 1161 1161 1157
    1153 1153 1153 1149 1145 1141 1138 1138 1138 1138 1138 1138 1134
    1134 1134 1130 1130 1126 1126 1126 1130 1134 1157 1157 1177 1189
    1193 1236 1259 1273 1292 1297 1302 1302 3365 1165 1165 1161 1161
    1157 1157 1153 1153 1153 1149 1145 1141 1138 1138 1138 1138 1138
    1138 1134 1134 1134 1130 1130 1126 1126 1126 1130 1130 1169 1169
    1173 1189 1214 1236 1259 1278 1292 1297 1297 3365 3365 1169 1169
    1165 1161 1157 1157 1153 1153 1153 1149 1145 1141 1138 1138 1138
    1138 1138 1134 1134 1134 1134 1130 1130 1126 1126 1126 1130 1130
    1169 1169 1173 1189 1219 1236 1268 1278 1292 1297 1297 3399 3399
    1193 1177 1169 1161 1157 1157 1157 1153 1153 1149 1145 1141 1141
    1138 1138 1138 1138 1134 1134 1134 1134 1130 1130 1130 1126 1126
    1130 1134 1157 1157 1173 1193 1219 1241 1268 1278 1292 1297 1297
    3433 3433 1193 1173 1169 1165 1161 1157 1157 1153 1153 1149 1145
    1145 1141 1138 1138 1138 1138 1138 1134 1134 1134 1134 1134 1130
    1126 1126 1130 1138 1141 1157 1173 1206 1232 1241 1264 1273 1292
    1297 1297 3468 3468 1197 1169 1169 1165 1161 1157 1157 1153 1153
    1149 1145 1145 1141 1138 1138 1138 1138 1138 1134 1134 1134 1134
    1134 1130 1126 1126 1130 1138 1141 1157 1185 1210 1232 1241 1264
    1273 1292 1297 1297 3468 3468 1169 1169 1165 1165 1161 1157 1157
    1153 1153 1149 1145 1145 1141 1138 1138 1138 1134 1134 1134 1134
    1134 1134 1134 1130 1126 1126 1130 1145 1153 1157 1185 1185 1232
    1245 1268 1278 1292 1297 1297 3468 3468 1169 1169 1165 1165 1161
    1157 1153 1153 1153 1149 1145 1145 1141 1138 1138 1138 1134 1134
    1134 1134 1134 1134 1134 1134 1130 1130 1138 1153 1153 1169 1185
    1185 1255 1255 1273 1278 1292 1297 1297 3468 3468 1169 1169 1165
    1165 1161 1157 1153 1153 1153 1149 1149 1145 1141 1138 1138 1138
    1138 1138 1134 1134 1134 1134 1134 1134 1130 1130 1141 1157 1157
    1169 1185 1189 1241 1241 1278 1292 1297 1302 1302 3468 3468 1169
    1169 1165 1165 1165 1157 1157 1153 1153 1149 1149 1149 1145 1141
    1138 1138 1138 1138 1134 1134 1134 1138 1138 1134 1134 1134 1145
    1153 1153 1161 1189 1197 1223 1236 1283 1297 1297 1307 1307 3468
    3468 1169 1169 1169 1165 1165 1161 1157 1153 1153 1149 1149 1149
    1145 1141 1141 1138 1138 1138 1134 1134 1134 1138 1138 1138 1138
    1138 1145 1153 1153 1161 1193 1197 1223 1236 1241 1297 1307 1312
    1312 3399 3399 1169 1165 1165 1165 1161 1161 1157 1153 1153 1149
    1149 1149 1145 1145 1141 1141 1138 1138 1134 1134 1134 1138 1138
    1138 1138 1138 1145 1149 1149 1169 1193 1206 1227 1236 1241 1297
    1312 1317 1317 3399 3399 1169 1165 1165 1165 1161 1161 1157 1153
    1153 1153 1149 1149 1145 1145 1141 1141 1138 1138 1134 1134 1134
    1138 1138 1134 1134 1138 1145 1149 1149 1157 1202 1206 1232 1241
    1250 1297 1312 1317 1317 3433 3433 1165 1165 1165 1165 1161 1161
    1157 1153 1153 1153 1149 1149 1149 1145 1145 1141 1138 1138 1134
    1134 1134 1138 1134 1134 1134 1138 1145 1149 1149 1157 1193 1214
    1232 1241 1264 1297 1307 1317 1317 3433 3433 1165 1165 1165 1165
    1161 1161 1157 1153 1153 1153 1149 1149 1145 1145 1145 1141 1141
    1138 1138 1134 1134 1138 1134 1134 1134 1138 1149 1149 1153 1157
    1193 1214 1232 1241 1268 1283 1302 1317 1317 3433 3433 1161 1161
    1165 1165 1165 1161 1157 1153 1153 1153 1149 1149 1145 1145 1145
    1141 1141 1138 1138 1134 1134 1138 1134 1134 1134 1138 1149 1149
    1157 1165 1193 1232 1236 1241 1273 1283 1297 1297 3433 3433 3433
    1161 1161 1165 1165 1165 1161 1157 1153 1153 1153 1149 1149 1149
    1149 1145 1141 1141 1138 1138 1134 1134 1138 1134 1134 1134 1141
    1153 1153 1165 1189 1232 1232 1236 1241 1273 1288 1297 1297 3503
    3503 3468 1161 1161 1165 1165 1165 1161 1157 1153 1153 1153 1149
    1149 1149 1149 1145 1141 1138 1138 1138 1138 1138 1138 1134 1134
    1134 1141 1157 1157 1169 1189 1232 1232 1236 1245 1288 1288 1297
    1297 3503 3503 3468 1161 1161 1165 1165 1161 1157 1157 1153 1153
    1153 1149 1149 1149 1145 1145 1141 1138 1138 1138 1138 1138 1138
    1134 1134 1134 1141 1157 1157 1169 1189 1206 1232 1241 1245 1288
    1292 1292 3503 3503 3503 3503 1161 1161 1165 1165 1161 1157 1153
    1153 1153 1153 1149 1149 1149 1145 1145 1141 1138 1138 1138 1138
    1138 1138 1134 1134 1134 1141 1157 1157 1169 1202 1202 1232 1241
    1245 1288 1302 1302 3539 3539 3539 3503 1161 1161 1165 1165 1161
    1157 1153 1153 1153 1153 1149 1149 1149 1145 1145 1141 1141 1138
    1138 1138 1138 1138 1134 1134 1134 1141 1145 1157 1169 1193 1202
    1227 1241 1264 1288 1302 1302 3614 3614 3539 3539 1161 1161 1165
    1165 1161 1157 1153 1153 1153 1153 1149 1149 1149 1145 1145 1141
    1141 1138 1138 1138 1138 1138 1134 1134 1134 1141 1145 1145 1193
    1193 1202 1227 1241 1273 1288 1302 1312 1312 3614 3539 3503 1161
    1161 1165 1165 1161 1157 1153 1153 1153 1153 1153 1149 1149 1145
    1145 1141 1141 1138 1138 1138 1138 1138 1134 1134 1134 1138 1141
    1141 1197 1197 1206 1232 1268 1283 1288 1297 1312 1312 3539 3539
    3503 1165 1165 1165 1165 1161 1161 1157 1153 1153 1153 1153 1153
    1149 1149 1145 1141 1141 1138 1138 1138 1138 1138 1134 1134 1138
    1138 1141 1141 1202 1202 1206 1236 1273 1283 1288 1297 1312 1312
    3539 3539 3503 1165 1165 1165 1165 1161 1161 1161 1157 1153 1153
    1153 1153 1153 1149 1145 1141 1141 1138 1138 1138 1138 1138 1138
    1138 1138 1141 1141 1149 1206 1206 1210 1273 1273 1283 1292 1297
    1312 1312 3503 3503 3503 1169 1169 1169 1169 1165 1165 1165 1165
    1157 1153 1153 1153 1157 1157 1157 1138 1138 1138 1138 1141 1141
    1145 1141 1141 1141 1145 1149 1149 1206 1202 1202 1259 1273 1278
    1292 1307 1312 1312 3503 3503 3503 3365 3399 3365 1169 1169 1169
    1165 1165 1165 1165 1165 1165 1165 3433 0 0 1145 1145 1145 1145 1145
    1149 1145 1145 1149 1149 1210 1206 1206 1202 1202 1259 1264 1278
    1283 1307 1307 3503 3503 3503 3503 3365 3399 3365 1169 1169 1173
    1173 1169 1169 1169 1169 0 0 0 0 0 0 0 1149 1149 1149 1157 1165 1165
    1157 1157 1219 1219 1210 1210 1259 1259 1264 1278 1278 1278 3503
    3503 3503 3503 3503 3365 3399 3399 1169 1169 1173 1169 1169 1169
    1177 1177 3433 3433 3433 0 3433 3433 3433 3433 3433 3433 3433 3503
    3178 3178 3178 1283 1278 1268 1264 1264 1264 1273 1278 1278 1278
    3539 3539 3539 3539 3539 3399 3399 3399 3399 3399 3399 1169 1169
    3399 3433 3433 3433 3433 3433 0 3433 3433 3433 3433 3433 3433 3433
    3503 3503 3178 3178 1278 1273 1268 1268 1268 1278 1278 1278 1278
    1278 3576 3576 3576 3539 3539 3399 3399 3433 3399 3399 3399 3399
    3399 3399 3433 3433 3433 3433 3433 3468 3468 3433 3433 3433 3433
    3433 3468 3503 3503 3503 3503 1278 1273 1273 1273 1328 1297 1297
    1317 1317 1317 3576 3576 3576 3539 3539 3399 3399 3399 3433 3399
    3399 3399 3399 3399 3433 3433 3433 3433 3433 3468 3468 3433 3433
    3433 3433 3433 3433 3433 3468 3503 3503 1278 1278 3503 1333 1328
    1317 1317 1317 1317 1317 3576 3576 3576 3539 3539</data></Depth10373>
</opencv_storage>
