<?xml version="1.0"?>
<opencv_storage>
<Depth6349 type_id="opencv-matrix">
  <rows>88</rows>
  <cols>57</cols>
  <dt>w</dt>
  <data>
    3539 3576 3614 1273 1273 1273 1273 1278 3539 3576 3576 3539 3539
    3539 3539 3539 3503 3503 3503 3503 3503 3503 3503 3503 1259 1259
    1259 1255 1255 1255 1255 1259 1264 1264 1264 1255 1255 1255 1255
    1250 1250 1255 1255 1259 1255 1255 1255 1255 3365 1250 1250 1255
    1255 3365 3365 3365 3365 3576 1273 1273 1273 1273 1273 1273 1268
    1268 1268 1268 1268 1268 1268 3539 1264 1264 1268 1264 1264 1264
    1264 1264 1264 1259 1259 1259 1255 1255 1255 1255 1259 1259 1259
    1255 1255 1255 1255 1255 1250 1250 1255 1255 1255 1255 1255 1255
    1250 1250 1250 1250 1250 1255 1255 1255 3365 3365 0 1268 1268 1268
    1268 1268 1268 1268 1268 1268 1268 1268 1264 1264 1264 1264 1264
    1264 1264 1264 1264 1259 1259 1259 1259 1259 1259 1255 1255 1255
    1259 1259 1259 1255 1255 1255 1255 1255 1255 1255 1255 1255 1255
    1255 1255 1255 1250 1250 1250 1250 1250 1250 1245 1245 1245 1245
    3365 0 1268 1268 1268 1268 1268 1268 1268 1268 1268 1268 1264 1264
    1264 1264 1259 1259 1259 1259 1259 1259 1259 1259 1259 1259 1259
    1259 1255 1255 1255 1259 1259 1255 1255 1255 1255 1255 1255 1255
    1255 1255 1255 1255 1255 1255 1255 1250 1250 1250 1250 1250 1250
    1245 1245 1245 3365 3365 0 1268 1268 1268 1268 1268 1268 1268 1268
    1268 1264 1264 1264 1264 1264 1259 1259 1255 1255 1255 1259 1259
    1259 1259 1255 1255 1255 1255 1255 1255 1255 1255 1255 1255 1255
    1255 1255 1255 1255 1255 1255 1255 1255 1255 1255 1255 1250 1250
    1250 1250 1250 1245 1245 1250 1250 3365 3365 0 0 1264 1264 1268 1268
    1268 1268 1264 1264 1264 1259 1259 1264 1264 1259 1255 1255 1255
    1255 1255 1255 1259 1255 1255 1255 1255 1255 1255 1255 1250 1250
    1250 1250 1250 1255 1255 1250 1250 1250 1250 1255 1255 1255 1255
    1250 1250 1245 1245 1245 1250 1245 1245 1245 1250 3365 3365 0 0 1264
    1264 1268 1268 1264 1264 1264 1264 1259 1259 1259 1259 1259 1255
    1255 1255 1255 1255 1255 1255 1255 1255 1255 1255 1255 1255 1255
    1255 1250 1250 1250 1250 1250 1250 1250 1250 1250 1250 1250 1250
    1250 1250 1250 1250 1250 1245 1245 1245 1250 1245 1245 1250 1250
    3365 3365 0 0 1273 1268 1268 1268 1264 1264 1264 1259 1259 1255 1255
    1255 1255 1255 1255 1255 1255 1255 1255 1255 1255 1255 1255 1255
    1255 1255 1255 1255 1250 1250 1250 1250 1250 1250 1250 1250 1250
    1250 1250 1250 1250 1250 1250 1250 1250 1245 1245 1245 1245 1245
    1245 1250 1250 3365 3365 0 1273 1273 1268 1268 1264 1264 1264 1259
    1259 1255 1255 1255 1255 1255 1255 1255 1255 1255 1255 1255 1255
    1255 1255 1255 1255 1255 1255 1255 1255 1250 1250 1250 1250 1250
    1250 1250 1250 1250 1250 1250 1250 1250 1250 1250 1250 1250 1245
    1245 1245 1245 1245 1245 1250 1250 3365 3365 0 1273 1273 1264 1264
    1264 1259 1259 1259 1259 1255 1255 1255 1255 1255 1255 1255 1255
    1255 1255 1255 1255 1255 1255 1255 1255 1255 1255 1255 1255 1250
    1250 1250 1250 1250 1250 1250 1250 1250 1250 1250 1250 1250 1250
    1250 1250 1245 1245 1245 1245 1245 1245 1245 1250 1264 1264 3333 0
    1268 1268 1264 1264 1264 1259 1259 1259 1259 1255 1255 1255 1255
    1255 1255 1255 1255 1255 1255 1255 1255 1250 1250 1250 1250 1250
    1250 1250 1250 1250 1250 1250 1250 1250 1250 1250 1250 1245 1245
    1245 1245 1245 1250 1250 1250 1245 1245 1245 1245 1245 1245 1245
    1245 1245 1245 3333 0 1268 1268 1264 1264 1259 1259 1259 1255 1255
    1255 1255 1255 1255 1255 1255 1255 1255 1255 1255 1255 1255 1250
    1250 1250 1250 1250 1250 1250 1250 1250 1250 1250 1250 1250 1250
    1250 1250 1245 1245 1245 1245 1245 1245 1245 1245 1245 1241 1241
    1241 1241 1245 1241 1241 1245 1245 3300 0 1268 1264 1259 1259 1259
    1259 1259 1255 1255 1255 1255 1255 1255 1255 1255 1255 1255 1250
    1250 1250 1255 1250 1250 1250 1250 1250 1250 1250 1250 1250 1245
    1245 1250 1250 1250 1250 1250 1245 1245 1245 1241 1241 1245 1245
    1245 1241 1241 1241 1241 1241 1241 1236 1236 1236 1236 3300 0 1268
    1264 1259 1259 1259 1259 1259 1255 1255 1255 1255 1255 1255 1255
    1255 1255 1250 1250 1250 1250 1250 1250 1250 1250 1250 1250 1250
    1250 1250 1245 1245 1245 1245 1250 1250 1250 1250 1245 1245 1245
    1241 1241 1245 1241 1241 1241 1241 1241 1245 1245 1241 1236 1236
    1236 0 3365 0 1268 1268 1264 1264 1259 1259 1259 1255 1255 1250 1250
    1255 1255 1255 1255 1250 1250 1250 1250 1250 1250 1250 1250 1250
    1250 1250 1250 1250 1250 1245 1245 1245 1245 1245 1250 1250 1250
    1245 1245 1245 1245 1245 1245 1241 1241 1241 1241 1241 1241 1241
    1241 1236 1236 1236 0 3365 0 1273 1264 1259 1259 1259 1255 1255 1255
    1250 1250 1250 1255 1255 1255 1250 1250 1250 1250 1250 1245 1245
    1245 1245 1250 1250 1250 1250 1245 1245 1241 1241 1241 1241 1245
    1245 1245 1250 1245 1245 1245 1245 1241 1241 1241 1241 1241 1241
    1241 1241 1241 1241 1241 1241 1241 1232 3333 0 1264 1264 1259 1255
    1255 1255 1255 1255 1250 1250 1250 1255 1255 1255 1250 1250 1250
    1250 1245 1245 1245 1245 1245 1250 1245 1245 1250 1245 1245 1241
    1241 1241 1241 1245 1245 1245 1245 1245 1245 1241 1241 1241 1241
    1241 1241 1241 1241 1241 1241 1241 1241 1241 1232 1232 1232 3333 0 0
    1259 1259 1255 1255 1255 1255 1255 1250 1250 1250 1255 1255 1250
    1250 1250 1250 1250 1245 1245 1245 1245 1245 1245 1245 1245 1245
    1245 1241 1241 1241 1241 1241 1241 1241 1245 1241 1241 1241 1241
    1236 1236 1236 1236 1241 1241 1241 1241 1241 1241 1241 1241 1232
    1232 1232 3333 0 0 1259 1255 1255 1255 1255 1255 1255 1250 1250 1250
    1250 1250 1250 1250 1250 1250 1250 1245 1245 1245 1245 1245 1245
    1245 1245 1245 1241 1241 1236 1236 1241 1241 1241 1241 1241 1241
    1241 1241 1236 1236 1236 1236 1236 1236 1241 1241 1241 1241 1236
    1236 1236 1232 1232 1232 3333 0 0 1255 1255 1255 1255 1255 1255 1250
    1250 1250 1250 1250 1250 1250 1250 1250 1250 1250 1245 1245 1245
    1245 1245 1245 1245 1245 1241 1241 1241 1236 1236 1241 1241 1241
    1241 1241 1241 1241 1241 1236 1236 1236 1236 1236 1236 1236 1241
    1241 1241 1236 1236 1236 1232 1232 1232 3333 0 0 1255 1255 1255 1255
    1255 1255 1250 1250 1250 1250 1250 1250 1250 1250 1245 1245 1250
    1245 1245 1245 1245 1245 1245 1245 1241 1241 1241 1241 1241 1241
    1241 1241 1241 1241 1241 1241 1241 1241 1241 1236 1236 1236 1236
    1236 1236 1236 1236 1236 1236 1236 1236 1232 1232 1232 3269 0 0 1255
    1255 1255 1255 1250 1250 1250 1250 1250 1250 1250 1250 1245 1245
    1245 1245 1250 1245 1245 1245 1245 1245 1245 1241 1241 1241 1241
    1241 1241 1241 1241 1241 1241 1241 1241 1236 1236 1236 1236 1236
    1236 1236 1236 1236 1236 1236 1236 1236 1236 1236 1236 1232 1232 0
    3269 0 0 1255 1255 1255 1255 1250 1250 1250 1250 1250 1250 1250 1250
    1245 1245 1245 1245 1245 1245 1245 1245 1245 1245 1245 1241 1241
    1241 1241 1241 1236 1236 1241 1241 1241 1241 1241 1236 1236 1236
    1236 1236 1236 1236 1236 1236 1236 1236 1236 1236 1236 1236 1236
    1232 1232 1232 3269 0 0 0 1255 1255 1255 1250 1250 1250 1250 1250
    1250 1245 1245 1245 1245 1245 1245 1245 1241 1241 1245 1245 1245
    1241 1241 1241 1241 1241 1241 1236 1236 1241 1236 1236 1236 1236
    1236 1236 1236 1236 1236 1236 1236 1236 1236 1236 1236 1236 1236
    1236 1236 1236 1232 1232 1232 1232 0 0 0 1255 1255 1255 1250 1250
    1245 1245 1250 1250 1245 1245 1245 1245 1245 1245 1245 1241 1241
    1241 1245 1245 1241 1241 1241 1241 1241 1241 1236 1236 1241 1236
    1236 1236 1236 1236 1236 1236 1236 1236 1236 1236 1236 1236 1232
    1232 1236 1236 1236 1236 1236 1232 1232 1232 0 0 0 0 1255 1255 1255
    1250 1250 1245 1245 1245 1245 1245 1245 1245 1245 1245 1245 1245
    1236 1236 1241 1245 1241 1241 1241 1241 1241 1241 1241 1236 1236
    1236 1236 1241 1241 1241 1236 1236 1236 1236 1236 1236 1232 1232
    1232 1232 1232 1232 1232 1232 1232 1232 1232 1232 1232 0 0 0 0 1250
    1250 1250 1250 1250 1250 1245 1245 1245 1245 1245 1241 1241 1241
    1241 1236 1236 1236 1236 1241 1241 1241 1236 1236 1236 1236 1236
    1236 1236 1236 1236 1236 1236 1236 1236 1236 1236 1236 1236 1236
    1232 1232 1232 1232 1232 1232 1232 1232 1232 1232 1232 1232 1232 0 0
    0 0 1250 1250 1250 1245 1245 1245 1241 1241 1245 1245 1245 1241 1241
    1241 1241 1236 1236 1236 1236 1236 1236 1236 1236 1236 1236 1236
    1236 1236 1236 1236 1236 1236 1236 1236 1236 1236 1236 1232 1232
    1232 1232 1232 1232 1232 1232 1232 1232 1232 1232 1232 1232 1232
    1232 0 0 0 0 1245 1245 1250 1245 1241 1241 1241 1241 1241 1241 1241
    1241 1241 1241 1236 1236 1236 1236 1236 1236 1236 1236 1236 1236
    1236 1236 1236 1236 1232 1232 1232 1236 1236 1236 1236 1232 1232
    1232 1232 1232 1232 1232 1232 1232 1232 1232 1232 1227 1227 1232
    1232 1232 1232 0 0 0 0 1245 1245 1250 1241 1241 1241 1241 1241 1241
    1241 1236 1236 1236 1241 1236 1236 1236 1236 1236 1236 1236 1236
    1236 1236 1236 1236 1236 1236 1232 1232 1232 1236 1236 1236 1236
    1232 1232 1232 1232 1232 1232 1232 1232 1232 1232 1232 1232 1227
    1227 1232 1232 1232 1232 0 0 0 0 1245 1245 1241 1241 1241 1241 1241
    1241 1241 1241 1236 1236 1236 1236 1236 1236 1236 1236 1236 1236
    1236 1236 1236 1236 1236 1236 1236 1236 1236 1232 1232 1232 1236
    1236 1232 1232 1232 1232 1232 1232 1232 1232 1232 1232 1232 1227
    1227 1227 1227 1227 1232 1232 1232 1232 0 0 0 1245 1245 1241 1241
    1241 1241 1241 1241 1241 1236 1236 1236 1236 1236 1236 1236 1232
    1232 1236 1236 1232 1232 1232 1232 1232 1236 1236 1236 1236 1232
    1232 1232 1232 1232 1232 1232 1232 1232 1232 1232 1232 1232 1232
    1232 1232 1227 1227 1227 1227 1227 1232 1232 1232 1232 0 0 0 1245
    1241 1241 1241 1241 1241 1241 1236 1236 1236 1236 1236 1236 1236
    1236 1236 1232 1232 1236 1236 1232 1232 1232 1232 1232 1236 1236
    1236 1232 1232 1232 1232 1232 1232 1232 1232 1232 1232 1232 1232
    1232 1232 1232 1232 1232 1227 1227 1227 1227 1227 1232 1232 1232
    1232 0 0 1250 1241 1241 1241 1241 1241 1241 1236 1236 1236 1236 1236
    1236 1236 1236 1236 1236 1232 1232 1232 1232 1232 1232 1232 1232
    1232 1232 1232 1232 1232 1232 1232 1227 1227 1232 1232 1232 1232
    1232 1232 1232 1232 1232 1232 1232 1227 1227 1227 1227 1227 1227
    1227 1227 1227 1227 0 0 1250 1241 1241 1236 1236 1236 1236 1236 1236
    1236 1236 1236 1236 1236 1236 1236 1236 1232 1232 1232 1232 1232
    1232 1232 1232 1232 1232 1232 1232 1232 1227 1227 1227 1227 1232
    1232 1232 1232 1232 1232 1232 1232 1227 1227 1227 1227 1227 1227
    1227 1227 1227 1219 1219 1227 1227 0 1241 0 1241 1241 1236 1236 1236
    1236 1236 1236 1236 1232 1232 1232 1232 1236 1236 1232 1232 1232
    1232 1232 1232 1232 1232 1232 1232 1232 1232 1232 1227 1227 1227
    1227 1227 1232 1232 1227 1227 1227 1232 1232 1232 1227 1227 1227
    1227 1227 1227 1227 1223 1223 1219 1219 1219 1219 0 1241 0 1236 1236
    1236 1236 1236 1236 1236 1236 1232 1232 1232 1232 1232 1232 1236
    1232 1232 1232 1232 1232 1232 1232 1232 1232 1232 1232 1227 1227
    1227 1227 1232 1232 1232 1232 1232 1227 1227 1227 1232 1232 1232
    1227 1227 1227 1227 1223 1223 1223 1223 1223 1214 1214 1214 0 0 1241
    1241 1236 1236 1236 1236 1236 1236 1236 1232 1232 1232 1232 1232
    1232 1232 1232 1232 1232 1232 1232 1232 1232 1232 1232 1232 1232
    1232 1227 1227 1227 1227 1227 1227 1232 1232 1232 1232 1232 1227
    1227 1227 1227 1227 1227 1223 1223 1223 1219 1219 1227 1223 1214
    1214 1214 0 1236 1236 1236 1236 1236 1236 1236 1236 1236 1232 1232
    1232 1232 1232 1232 1232 1232 1232 1232 1232 1232 1232 1232 1232
    1232 1232 1232 1227 1227 1227 1227 1227 1227 1227 1227 1227 1232
    1227 1227 1227 1227 1227 1223 1223 1232 1227 1223 1223 1223 1219
    1219 1227 1223 1219 1219 1219 0 0 1236 1236 1236 1232 1232 1232 1236
    1236 1232 1232 1232 1232 1232 1232 1232 1232 1232 1232 1232 1232
    1232 1232 1232 1227 1227 1227 1227 1227 1227 1227 1227 1223 1223
    1223 1227 1227 1227 1227 1227 1227 1223 1223 1223 1223 1227 1223
    1223 1223 1219 1219 1227 1227 1227 1227 0 0 0 1236 1236 1232 1232
    1232 1232 1232 1232 1232 1232 1232 1232 1232 1232 1232 1232 1232
    1232 1227 1227 1232 1232 1227 1223 1223 1223 1223 1227 1227 1227
    1223 1223 1223 1223 1227 1223 1219 1219 1223 1223 1223 1223 1223
    1223 1223 1223 1223 1223 1219 1219 1223 1223 1223 1223 0 0 1236 1236
    1236 1232 1232 1232 1232 1232 1232 1232 1232 1232 1232 1232 1227
    1227 1227 1227 1227 1227 1227 1227 1232 1227 1223 1223 1223 1223
    1223 1223 1223 1223 1223 1223 1223 1223 1223 1219 1219 1219 1219
    1219 1219 1219 1219 1219 1219 1219 1219 1219 1219 1219 1223 1223
    1223 0 0 0 1232 1232 1232 1232 1232 1232 1232 1232 1232 1232 1232
    1232 1232 1227 1227 1227 1227 1227 1227 1227 1227 1232 1227 1223
    1223 1219 1219 1223 1223 1223 1223 1223 1223 1223 1223 1223 1219
    1219 1219 1219 1219 1219 1219 1219 1219 1219 1219 1219 1219 1219
    1219 1219 1219 1219 0 0 0 1232 1232 1232 1232 1232 1232 1232 1232
    1232 1232 1232 1232 1232 1227 1227 1227 1227 1227 1227 1227 1227
    1227 1227 1223 1223 1219 1219 1223 1223 1223 1223 1219 1219 1223
    1223 1223 1219 1219 1219 1219 1219 1219 1219 1219 1219 1219 1214
    1214 1219 1219 1219 1219 1214 1214 0 0 0 1232 1232 1232 1232 1232
    1232 1232 1232 1232 1232 1232 1227 1227 1227 1227 1227 1227 1227
    1227 1227 1227 1227 1227 1223 1223 1219 1219 1223 1223 1223 1223
    1219 1219 1223 1223 1219 1219 1219 1219 1219 1219 1219 1219 1219
    1219 1219 1214 1214 1219 1219 1219 1219 1214 1214 0 0 0 1232 1232
    1232 1232 1232 1227 1227 1232 1232 1232 1232 1227 1227 1227 1227
    1227 1227 1227 1227 1227 1223 1223 1227 1223 1223 1223 1223 1223
    1223 1223 1219 1219 1223 1219 1219 1219 1219 1219 1219 1219 1219
    1219 1219 1219 1219 1219 1219 1219 1219 1219 1219 1219 1219 1219 0 0
    1236 1232 1232 1232 1232 1227 1227 1227 1227 1232 1232 1232 1227
    1223 1223 1223 1223 1227 1227 1227 1223 1223 1223 1227 1223 1223
    1223 1223 1223 1223 1223 1219 1219 1219 1219 1219 1219 1219 1219
    1219 1219 1219 1219 1219 1219 1219 1214 1214 1214 1214 1219 1219
    1214 1214 1219 0 0 0 1236 1232 1232 1232 1227 1227 1227 1227 1227
    1232 1232 1227 1223 1223 1223 1223 1227 1223 1223 1219 1219 1219
    1219 1219 1223 1223 1223 1223 1219 1219 1219 1219 1219 1219 1219
    1219 1219 1219 1219 1219 1219 1219 1219 1219 1219 1214 1214 1214
    1214 1214 1214 1214 1214 1214 0 0 0 1236 1232 1232 1232 1227 1227
    1227 1227 1227 1227 1227 1227 1223 1223 1223 1223 1223 1223 1223
    1219 1219 1219 1219 1219 1223 1223 1219 1219 1219 1219 1219 1219
    1219 1219 1219 1219 1219 1219 1219 1219 1219 1219 1219 1219 1219
    1214 1214 1214 1214 1214 1214 1214 1214 1214 0 0 0 1236 1232 1232
    1232 1232 1232 1227 1227 1227 1227 1227 1223 1223 1223 1223 1223
    1219 1219 1219 1219 1219 1219 1219 1219 1223 1219 1219 1219 1219
    1219 1219 1219 1219 1219 1219 1219 1219 1219 1219 1214 1214 1214
    1219 1214 1214 1214 1214 1214 1214 1214 1214 1214 1214 1214 0 0 0
    1232 1223 1223 1227 1227 1227 1227 1227 1227 1223 1223 1223 1223
    1219 1219 1219 1219 1219 1219 1219 1219 1219 1219 1219 1219 1219
    1219 1219 1219 1219 1219 1214 1214 1214 1219 1219 1219 1219 1214
    1214 1214 1214 1219 1214 1214 1214 1214 1214 1210 1210 1214 1210
    1210 1214 0 0 0 1232 1223 1223 1223 1223 1223 1223 1223 1223 1223
    1223 1223 1219 1219 1219 1219 1219 1219 1219 1219 1219 1219 1219
    1219 1219 1219 1219 1219 1219 1219 1219 1214 1214 1214 1214 1214
    1219 1219 1214 1214 1214 1214 1214 1214 1214 1214 1214 1214 1210
    1210 1214 1210 1210 1214 0 0 1232 1232 1232 1227 1223 1223 1223 1223
    1223 1223 1219 1219 1219 1219 1219 1219 1219 1219 1219 1219 1219
    1219 1219 1219 1219 1219 1219 1219 1219 1219 1219 1214 1214 1214
    1214 1214 1214 1214 1214 1214 1214 1214 1214 1214 1214 1214 1214
    1214 1214 1214 1214 1214 1214 1210 1210 0 0 0 1223 0 1223 1223 1219
    1219 1223 1219 1219 1219 1219 1219 1219 1219 1219 1219 1219 1219
    1219 1219 1219 1219 1219 1219 1219 1219 1214 1214 1214 1214 1214
    1214 1214 1214 1214 1214 1214 1214 1214 1214 1214 1214 1214 1214
    1214 1214 1214 1214 1214 1210 1210 1210 1210 1210 1210 0 0 0 0 1223
    1223 1219 1219 1223 1219 1219 1219 1219 1219 1219 1219 1219 1219
    1219 1214 1214 1219 1219 1219 1219 1219 1219 1219 1214 1214 1214
    1214 1214 1214 1214 1214 1214 1214 1214 1214 1214 1214 1214 1214
    1214 1210 1210 1210 1210 1210 1210 1210 1210 1206 1206 1206 1206 0 0
    0 0 1223 1223 1219 1219 1219 1219 1219 1219 1219 1219 1219 1219 1219
    1219 1219 1214 1214 1214 1214 1214 1214 1219 1214 1214 1214 1214
    1214 1214 1214 1214 1214 1214 1214 1214 1214 1214 1214 1214 1214
    1214 1214 1210 1210 1210 1210 1210 1210 1210 1210 1206 1206 1206
    1206 0 0 0 0 1219 1219 1219 1219 1219 1219 1219 1219 1219 1219 1219
    1219 1214 1214 1214 1214 1214 1214 1214 1214 1214 1214 1214 1214
    1214 1214 1214 1214 1214 1210 1210 1214 1214 1214 1214 1214 1214
    1214 1214 1214 1210 1210 1210 1210 1210 1210 1210 1210 1210 1202
    1202 1202 1202 1197 0 0 0 1214 1214 1219 1219 1219 1219 1219 1219
    1219 1219 1219 1214 1214 1214 1214 1214 1214 1214 1210 1210 1214
    1214 1214 1214 1214 1214 1214 1214 1210 1210 1210 1214 1214 1214
    1210 1210 1210 1210 1210 1214 1210 1210 1210 1206 1206 1206 1206
    1206 1206 1202 1202 1197 1197 1197 0 0 0 1214 1214 1219 1219 1219
    1219 1219 1219 1214 1214 1219 1214 1214 1214 1214 1214 1214 1214
    1210 1210 1214 1214 1214 1214 1214 1214 1214 1210 1206 1206 1206
    1210 1214 1210 1210 1210 1210 1210 1206 1202 1202 1210 1210 1206
    1206 1206 1206 1206 1206 1202 1202 1197 1197 1197 0 0 0 0 1219 1219
    1219 1219 1219 1214 1214 1214 1214 1214 1214 1214 1214 1214 1214
    1214 1210 1210 1210 1210 1210 1214 1214 1214 1214 1214 1210 1206
    1206 1206 1210 1210 1210 1206 1206 1206 1206 1206 1202 1202 1206
    1206 1206 1206 1202 1202 1202 1202 1202 1202 1202 1202 1202 0 0 0 0
    1219 1214 1214 1214 1219 1214 1214 1214 1214 1214 1214 1214 1214
    1214 1214 1214 1210 1210 1210 1210 1210 1214 1214 1214 1214 1210
    1210 1206 1206 1206 1210 1206 1206 1202 1202 1202 1202 1202 1202
    1202 1206 1206 1206 1206 1202 1202 1202 1202 1202 1202 1202 1202
    1202 0 0 0 0 1214 1214 1214 1214 1219 1214 1214 1214 1214 1210 1210
    1210 1210 1214 1214 1214 1214 1210 1210 1210 1210 1214 1210 1210
    1206 1206 1210 1206 1206 1206 1206 1206 1202 1202 1202 1202 1202
    1202 1206 1206 1206 1206 1206 1206 1206 1202 1202 1202 1202 1202
    1202 1202 1202 1232 1232 0 1214 1214 1214 1214 1214 1214 1219 1214
    1214 1214 1210 1210 1210 1210 1214 1214 1214 1214 1210 1210 1210
    1210 1214 1210 1210 1206 1206 1206 1210 1206 1206 1206 1206 1202
    1202 1202 1202 1202 1202 1202 1206 1206 1206 1202 1202 1202 1202
    1202 1202 1202 1202 1202 1202 1202 1232 1232 0 1214 1214 1214 1214
    1214 1214 1214 1214 1214 1214 1214 1214 1214 1210 1210 1210 1214
    1214 1210 1210 1210 1210 1210 1210 1210 1206 1206 1206 1210 1210
    1206 1206 1206 1202 1202 1202 1202 1202 1202 1202 1206 1206 1206
    1202 1202 1202 1202 1202 1202 1202 1197 1197 1197 1197 1232 1232
    1223 1214 1214 1214 1214 1214 1214 1214 1214 1214 1214 1214 1214
    1210 1210 1210 1210 1210 1210 1210 1210 1210 1210 1210 1206 1206
    1206 1202 1202 1206 1206 1206 1206 1206 1202 1202 1202 1202 1202
    1202 1202 1202 1202 1202 1206 1202 1202 1202 1202 1202 1202 1197
    1197 1197 1197 1236 1232 1223 1214 1214 1214 1214 1214 1214 1214
    1214 1214 1214 1210 1210 1206 1206 1206 1206 1206 1210 1210 1206
    1206 1206 1206 1206 1206 1206 1202 1202 1202 1202 1202 1202 1202
    1202 1202 1202 1202 1202 1202 1202 1202 1202 1202 1206 1202 1202
    1202 1202 1202 1202 1202 1197 1197 1197 1219 1219 1219 1214 1214
    1214 1214 1214 1214 1214 1214 1214 1214 1210 1210 1206 1206 1206
    1206 1206 1206 1206 1206 1202 1202 1206 1206 1206 1206 1202 1202
    1202 1202 1202 1202 1202 1202 1202 1202 1202 1202 1202 1202 1202
    1202 1202 1202 1202 1197 1197 1202 1202 1202 1197 1197 1197 1197
    1219 1219 1219 1214 1214 1214 1214 1214 1210 1210 1210 1214 1214
    1210 1210 1206 1206 1206 1202 1202 1206 1206 1206 1202 1202 1202
    1206 1202 1202 1202 1202 1202 1202 1202 1202 1202 1202 1202 1202
    1202 1202 1202 1202 1202 1202 1202 1202 1202 1197 1197 1202 1202
    1202 1197 1197 1197 1197 3433 1214 0 1214 1214 1210 1210 1210 1210
    1206 1206 1210 1210 1210 1210 1206 1206 1206 1202 1202 1202 1202
    1202 1202 1202 1202 1202 1202 1202 1202 1202 1202 1202 1202 1202
    1202 1202 1202 1202 1202 1202 1202 1202 1202 1202 1202 1197 1197
    1197 1197 1197 1197 1197 1197 1197 1197 1197 0 0 0 0 1214 1206 1206
    1206 1206 1206 1206 1206 1206 1206 1206 1206 1206 1206 1202 1202
    1202 1202 1202 1202 1202 1202 1202 1202 1202 1202 1202 1202 1202
    1202 1202 1202 1202 1202 1202 1202 1202 1202 1202 1202 1202 1202
    1197 1197 1197 1197 1197 1197 1197 1197 1197 1197 1197 0 0 0 0 1214
    1202 1202 1202 1206 1206 1206 1206 1206 1202 1202 1202 1202 1202
    1206 1202 1202 1202 1202 1202 1202 1202 1202 1202 1202 1202 1202
    1202 1202 1202 1202 1202 1197 1197 1197 1197 1197 1197 1202 1202
    1202 1202 1197 1197 1197 1197 1197 1197 1197 1197 1197 1193 1193 0 0
    0 0 1206 1202 1202 1202 1202 1206 1206 1206 1202 1202 1202 1202 1197
    1197 1197 1197 1197 1197 1202 1202 1202 1202 1202 1202 1202 1202
    1197 1197 1202 1202 1202 1197 1197 1197 1197 1197 1197 1197 1202
    1202 1202 1197 1197 1197 1197 1197 1197 1197 1197 1197 1193 1193
    1193 0 0 0 0 1202 1202 1202 1202 1202 1206 1206 1202 1202 1202 1202
    1197 1197 1197 1197 1197 1197 1197 1202 1202 1202 1202 1202 1202
    1202 1202 1197 1197 1202 1202 1202 1197 1197 1197 1197 1197 1197
    1197 1197 1197 1197 1197 1197 1197 1197 1197 1197 1197 1197 1193
    1193 1193 1193 0 0 0 1206 1202 1202 1202 1202 1202 1206 1206 1202
    1202 1202 1202 1197 1193 1193 1197 1197 1197 1197 1202 1202 1202
    1202 1202 1202 1197 1197 1197 1197 1202 1197 1197 1197 1197 1197
    1197 1197 1197 1197 1197 1197 1197 1197 1197 1197 1193 1193 1193
    1193 1193 1193 1193 1193 1193 0 0 0 1206 1202 1202 1202 1202 1202
    1202 1202 1202 1202 1202 1202 1193 1193 1193 1197 1197 1197 1202
    1202 1202 1202 1202 1202 1197 1197 1197 1197 1197 1197 1197 1197
    1197 1197 1197 1197 1197 1193 1193 1197 1197 1197 1197 1197 1197
    1193 1193 1193 1193 1193 1193 1193 1193 1193 3333 3333 0 1210 1206
    1202 1202 1202 1202 1197 1197 1197 1197 1197 1197 1197 1197 1197
    1197 1197 1202 1202 1202 1202 1202 1197 1197 1193 1193 1193 1193
    1197 1197 1197 1197 1197 1197 1197 1197 1197 1193 1193 1193 1193
    1193 1197 1197 1193 1193 1193 1193 1193 1193 1189 1189 1189 1189
    3333 3333 3300 3300 1206 1202 1197 1197 1197 1197 1197 1197 1197
    1197 3333 1197 1197 1197 1197 1197 1202 1202 1202 1202 1202 1197
    1189 1189 1193 1193 1193 1197 1197 1197 1197 1197 1197 1197 1197
    1197 1193 1193 1193 1193 1193 1197 1193 1193 1193 1193 1193 1193
    1193 1189 1189 1189 1189 3333 3333 3300 3300 3300 3333 1197 1197
    1197 1197 1197 3365 3365 3333 3333 3333 3333 3365 3365 1202 1197
    1197 1202 1202 1202 1202 1189 1189 1189 1189 0 3300 3300 1197 1197
    1202 1202 1202 1202 1202 1202 3238 3238 1197 1197 1197 1193 1193
    1193 1193 1193 1193 1193 1193 1189 1189 3178 3333 3333 3333 3333
    3333 3365 3365 3365 3365 3365 3365 3365 3365 3333 3333 3333 3333
    3365 3365 3333 1197 1197 1206 1214 1214 0 0 0 1214 0 0 0 3300 3269
    1202 1202 1206 1206 1210 1210 1210 3238 3238 3238 3238 3238 3238
    3238 3238 3208 1197 1193 1193 3208 3208 3208 3178 3365 3365 3333
    3333 3333 3365 3365 3365 3365 3365 3365 3365 3365 3333 3333 3333
    3333 3333 3333 3333 3333 3333 1214 1214 1214 0 0 0 0 0 0 0 3300 3269
    1214 1210 1206 1202 1202 1202 0 3238 3238 3238 3238 3238 3238 3238
    3238 3208 3208 3208 3208 3208 3208 3208 3178 3365 3365 3333 3333
    3333 3365 3365 3365 3365 3365 3365 3365 3365 3365 3333 3333 3333
    3333 3333 3333 3333 3333 1210 1210 1214 0 0 0 0 0 0 0 3300 3269 1210
    1206 1206 1202 1202 1202 0 3238 3238 3238 3238 3238 3238 3238 3238
    3208 3208 3208 3208 3178 3178 3178 3178 3365 3365 3365 3333 3333
    3365 3365 3365 3365 3365 3365 3365 3365 3365 3333 3333 3333 3333
    3333 3300 3300 3333 1210 1206 1206 3365 0 0 0 0 0 3333 3269 3269
    1210 1206 1206 1202 1202 1202 3238 3238 3238 3238 3238 3238 3238
    3238 3238 3238 3208 3208 3208 3178 3178 3178 3178 3365 3365 3365
    3333 3333 3365 3365 3365 3365 3365 3365 3365 3365 3365 3333 3333
    3333 3333 3333 3300 3300 1206 1206 1202 1202 3333 0 0 0 0 0 3333
    3269 3269 3269 1202 1202 1202 1202 3238 3238 3238 3238 3238 3238
    3238 3238 3238 3238 3238 3208 3208 3208 3178 3178 3208 3208 3365
    3365 3365 3333 3333 3365 3365 3365 3365 3365 3365 3365 3365 3365
    3333 3333 3333 3333 3333 3333 3333 1206 1206 1202 1202 3300 0 0 0 0
    0 3333 3300 3269 3269 1202 1202 1202 1202 3238 3238 3269 3269 3238
    3238 3238 3238 3238 3238 3238 3208 3208 3178 3178 3178 3178 3178
    3365 3365 3365 3333 3333 3365 3365 3365 3365 3365 3365 3365 3365
    3333 3300 3300 3333 3333 3333 3333 3333 1210 1210 1206 1206 3300
    3300 0 0 0 0 3300 3300 3269 3269 1202 1202 1206 1206 3178 3178 3269
    3269 3238 3238 3238 3238 3238 3238 3238 3238 3208 3178 3178 3178
    3178 3178 3333 3333 3333 3333 3333 3365 3365 3365 3365 3365 3365
    3365 3365 3333 3269 3269 3333 3333 3365 3333 3333 3333 1210 1210
    1210 3269 3269 0 0 0 0 3300 3300 3269 3269 3269 1206 1206 1206 3178
    3178 3269 3269 3238 3238 3238 3238 3238 3208 3208 3208 3178 3178
    3178 3178 3178 3178 3333 3333 3333 3333 3333 3365 3365 3365 3365
    3365 3365 3365 3365 3333 3269 3269 3333 3365 3365 3333 3333 3300
    1206 1206 1210 3269 3269 0 0 0 0 0 3269 3269 3269 3269 1206 1206
    1206 3238 3238 3269 3269 3238 3238 3238 3238 3238 3208 3208 3208
    3178 3178 3178 3178 3178 3178 3333 3333 3333 3333 3333 3365 3365
    3365 3365 3365 3365 3365 3365 3333 3300 3300 3333 3365 3365 3333
    3300 1202 1202 1202 1210 3269 3269 0 0 0 0 0 3269 3269 3269 3269
    1206 1206 1210 3238 3238 3269 3269 3238 3238 3238 3208 3208 3208
    3208 3208 3178 3178 3178 3178 3178 3149</data></Depth6349>
</opencv_storage>
