<?xml version="1.0"?>
<opencv_storage>
<Depth4330 type_id="opencv-matrix">
  <rows>57</rows>
  <cols>59</cols>
  <dt>w</dt>
  <data>
    5734 5734 5734 5734 5640 5640 5640 5640 5640 5640 5640 5640 5640
    5640 5640 1853 1853 1843 1843 1843 1843 1843 1853 1863 1863 5374
    5374 5291 5291 5291 5374 5291 5291 5291 5291 5291 5291 5291 5291
    5291 5210 5210 5210 5210 5210 5210 5132 5132 5132 5210 5132 5132
    5056 5056 5056 5056 5056 5056 5056 5734 5734 5734 5734 5734 5734
    5640 5640 5640 5640 5640 5640 5640 5640 5640 1853 1853 1843 1833
    1833 1833 1833 1843 1863 1863 1863 5374 5291 5291 5291 5291 5291
    5291 5291 5291 5291 5291 5291 5291 5291 5210 5210 5210 5210 5210
    5210 5132 5132 5132 5132 5132 5132 5056 5056 5056 5056 5056 5056
    5056 5734 5734 5734 5734 5734 5734 5640 5640 5640 5640 5640 5640
    5548 5548 5548 1853 1853 1843 1833 1823 1823 1823 1823 1833 1843
    1853 1853 5291 5291 5291 5291 5291 5291 5291 5291 5291 5291 5291
    5291 5210 5210 5210 5210 5210 5210 5132 5132 5132 5132 5132 5132
    5056 5056 5056 5056 5056 5056 5056 5056 5734 5734 5734 5734 5734
    5734 5734 5734 5640 5640 5640 5640 5548 5460 1863 1853 1853 1843
    1833 1823 1813 1813 1823 1823 1823 1823 1843 1843 5291 5291 5291
    5291 5291 5291 5291 5291 5291 5291 5291 5210 5210 5210 5210 5132
    5132 5132 5132 5056 5056 5056 5056 5056 5056 5056 5056 5056 5056
    5056 5056 5734 5734 5734 5734 5734 5734 5734 5640 5640 5640 5640
    5640 5548 1853 1853 1853 1853 1843 1833 1823 1813 1813 1813 1823
    1823 1823 1833 1833 1833 5291 5291 5291 5291 5291 5291 5291 5291
    5291 5291 5210 5210 5210 5210 5132 5132 5056 5056 5056 5056 5056
    5056 5056 5056 5056 5056 5132 5056 5056 5056 5734 5734 5734 5734
    5734 5734 5734 5640 5640 5640 5640 5640 5640 1853 1853 1853 1843
    1843 1833 1823 1823 1813 1813 1813 1813 1813 1823 1833 1833 1843
    1843 5291 5291 5291 5291 5210 5210 5210 5210 5291 5210 5210 5210
    5132 5132 5056 5056 5056 5056 5056 5056 5056 5056 5056 5056 5132
    5056 5056 5056 5734 5734 5734 5734 5734 5734 5640 5640 5640 5640
    5640 5640 1853 1853 1843 1843 1843 1843 1833 1823 1823 1823 1813
    1813 1813 1813 1813 1823 1823 1843 1843 1853 1853 5374 5291 4911
    4911 4983 5210 5291 5210 5210 5210 5132 5132 5056 5056 5056 5056
    5056 5056 5056 5056 5056 5056 5056 4983 4983 4983 5734 5734 5734
    5734 5734 5734 5640 5640 5640 5640 5640 1853 1853 1853 1843 1843
    1843 1843 1833 1833 1823 1823 1813 1813 1813 1813 1813 1813 1813
    1823 1823 1833 1843 1853 1863 1863 4911 4983 5291 5291 5291 5291
    5291 5210 5132 5056 5056 5056 5132 5056 5056 5056 5056 5056 5056
    5056 4983 4983 4983 5734 5734 5734 5734 5734 5734 5640 5640 5640
    5640 5640 1873 1863 1863 1853 1853 1853 1853 1853 1833 1823 1823
    1813 1813 1813 1813 1813 1813 1813 1813 1804 1804 1823 1843 1853
    1843 1843 5291 5291 5291 5210 5210 5210 5132 5132 5132 5056 5056
    5132 5132 5056 5056 5056 5056 5056 5056 4983 4983 4983 5734 5734
    5734 5734 5640 5640 5640 5640 5640 5640 1873 1873 1863 1863 1863
    1853 1853 1853 1853 1843 1823 1823 1823 1823 1813 1813 1813 1813
    1813 1804 1794 1794 1804 1813 1833 1833 1833 1833 5291 5291 5210
    5210 5210 5132 5132 5132 5056 5056 5132 5132 5132 5056 5056 5056
    5056 5056 4983 4983 4983 5734 5640 5640 5640 5640 5640 5640 5640
    5640 5640 1863 1863 1863 1863 1863 1853 1853 1853 1853 1833 1823
    1823 1823 1823 1813 1813 1813 1804 1804 1804 1794 1794 1804 1804
    1813 1813 1813 1813 5291 5210 5132 5132 5132 5056 5056 5056 5056
    5056 5056 5132 5056 5056 5056 5056 5056 5056 4983 4983 4983 5734
    5640 5640 5640 5640 5640 5640 5640 5640 1873 1863 1863 1863 1863
    1863 1853 1853 1853 1853 1833 1833 1833 1823 1823 1813 1813 1813
    1804 1804 1804 1794 1794 1794 1804 1804 1813 1804 1804 1813 1823
    1853 5056 5056 5056 5056 5056 5056 5056 5056 5132 5056 5056 5056
    5056 5056 4983 4983 4983 4983 5640 5640 5640 5640 5640 5640 5640
    1883 1883 1873 1873 1873 1863 1853 1853 1853 1853 1853 1843 1833
    1833 1833 1823 1823 1823 1813 1813 1813 1813 1804 1794 1794 1794
    1794 1794 1794 1785 1785 1813 1823 1823 1823 1823 5056 5056 5056
    5056 5056 5132 5132 5056 5056 5056 4983 4983 4983 4983 4983 4983
    5640 5640 5640 5640 5640 5640 1894 1883 1883 1873 1873 1873 1863
    1853 1853 1853 1853 1853 1843 1843 1833 1833 1833 1823 1823 1813
    1813 1813 1813 1804 1794 1785 1785 1794 1785 1785 1785 1785 1794
    1794 1813 1813 1813 1813 1813 5056 5056 5132 5132 5132 5056 5056
    5056 4983 4983 4983 4983 4983 4983 5734 5640 5640 5640 5640 1936
    1894 1883 1883 1883 1873 1873 1863 1853 1853 1863 1863 1853 1843
    1843 1833 1833 1833 1823 1823 1813 1813 1813 1813 1804 1794 1785
    1785 1794 1785 1785 1785 1785 1785 1785 1804 1804 1794 1794 1823
    1823 1823 5210 5210 5132 5132 5056 5056 5056 4983 4983 4983 4983
    4983 5734 5734 5734 5734 5734 1926 1904 1894 1894 1883 1883 1873
    1873 1863 1863 1863 1863 1853 1843 1843 1833 1833 1833 1823 1823
    1813 1813 1813 1813 1804 1804 1804 1794 1794 1785 1785 1785 1785
    1785 1785 1785 1794 1794 1794 1804 1813 1813 1813 5210 5210 5132
    5132 5056 5056 5056 4983 4983 4983 4983 5734 5734 5832 5832 1926
    1926 1904 1894 1894 1894 1894 1873 1873 1863 1863 1863 1863 1853
    1853 1843 1833 1833 1823 1823 1823 1813 1813 1813 1813 1804 1804
    1804 1794 1794 1785 1785 1785 1776 1776 1776 1776 1785 1785 1794
    1794 1804 1804 1804 1804 5210 5132 5132 5056 5056 5056 4983 4983
    4983 4983 5734 5734 5832 5832 1915 1915 1904 1894 1894 1894 1894
    1883 1873 1863 1863 1863 1863 1853 1853 1843 1833 1833 1823 1823
    1823 1813 1813 1813 1813 1804 1804 1804 1794 1785 1785 1785 1785
    1776 1776 1776 1776 1776 1776 1776 1785 1794 1794 1794 1794 1794
    5132 5056 5056 5056 5056 4983 4983 4983 4983 5734 5734 1915 1915
    1904 1904 1894 1894 1894 1894 1894 1873 1863 1863 1863 1863 1863
    1863 1853 1853 1843 1833 1833 1823 1823 1823 1813 1813 1813 1804
    1804 1804 1794 1785 1785 1785 1785 1776 1776 1776 1776 1776 1776
    1776 1776 1785 1785 1785 1785 1785 1804 5056 5056 4983 4983 4983
    4983 4983 4983 5734 5734 1915 1915 1904 1904 1894 1894 1894 1883
    1883 1873 1863 1863 1863 1863 1863 1863 1853 1853 1843 1833 1833
    1823 1823 1823 1823 1813 1813 1813 1813 1804 1794 1794 1785 1785
    1785 1776 1776 1776 1776 1776 1766 1766 1766 1766 1776 1776 1776
    1776 1785 1804 1804 4983 4911 4911 4983 4983 5056 5640 1915 1915
    1915 1904 1904 1904 1894 1894 1883 1883 1873 1863 1863 1863 1863
    1863 1863 1853 1853 1833 1833 1833 1833 1833 1823 1823 1813 1813
    1813 1813 1804 1804 1794 1794 1794 1785 1776 1776 1776 1776 1766
    1766 1766 1757 1757 1757 1766 1766 1766 1785 1794 1804 1804 1823
    4911 4983 5056 5056 1915 1904 1904 1904 1904 1904 1904 1894 1894
    1883 1883 1883 1883 1873 1873 1873 1863 1863 1853 1843 1833 1833
    1833 1833 1833 1823 1823 1823 1813 1813 1813 1813 1804 1804 1804
    1794 1785 1776 1776 1776 1776 1766 1766 1766 1757 1757 1757 1757
    1757 1757 1776 1785 1794 1794 1794 1804 5056 5056 5056 1915 1915
    1904 1904 1904 1904 1904 1904 1894 1894 1894 1883 1883 1883 1883
    1873 1863 1863 1853 1843 1833 1833 1833 1833 1833 1823 1823 1823
    1813 1813 1813 1813 1813 1804 1804 1804 1785 1785 1776 1776 1776
    1776 1776 1766 1757 1757 1757 1757 1757 1757 1757 1757 1776 1776
    1776 1776 1776 1776 1785 1915 1915 1904 1904 1904 1904 1904 1904
    1894 1894 1894 1883 1883 1883 1883 1873 1873 1853 1853 1843 1843
    1843 1843 1833 1833 1833 1823 1823 1823 1823 1813 1813 1804 1804
    1804 1804 1785 1785 1776 1776 1776 1776 1776 1766 1766 1757 1757
    1757 1748 1748 1748 1748 1748 1757 1766 1766 1776 1785 1785 1915
    1915 1915 1915 1915 1904 1904 1904 1894 1894 1894 1883 1883 1883
    1883 1873 1873 1853 1853 1853 1843 1843 1843 1833 1833 1833 1823
    1823 1823 1823 1813 1813 1804 1804 1804 1804 1785 1785 1776 1776
    1776 1776 1776 1776 1766 1766 1757 1748 1748 1748 1748 1748 1748
    1748 1748 1757 1757 1766 1785 1936 1926 1926 1915 1915 1904 1904
    1904 1904 1894 1894 1883 1883 1883 1883 1873 1873 1853 1843 1843
    1843 1843 1843 1843 1833 1833 1823 1823 1823 1823 1813 1813 1813
    1804 1804 1804 1785 1785 1776 1776 1776 1776 1776 1776 1766 1766
    1757 1748 1748 1748 1748 1748 1739 1739 1748 1748 1757 1766 1776
    1936 1936 1926 1915 1915 1915 1904 1904 1904 1894 1894 1883 1883
    1883 1883 1863 1863 1853 1843 1843 1843 1843 1843 1843 1833 1833
    1833 1823 1823 1823 1813 1813 1813 1804 1804 1794 1785 1785 1776
    1776 1785 1785 1785 1776 1766 1766 1757 1757 1757 1748 1748 1748
    1739 1739 1739 1739 1748 1757 1757 1936 1926 1926 1926 1926 1915
    1915 1904 1904 1894 1894 1894 1894 1883 1883 1863 1863 1853 1853
    1843 1843 1843 1843 1843 1843 1833 1833 1823 1823 1823 1813 1813
    1813 1813 1804 1794 1785 1785 1785 1785 1785 1785 1776 1776 1766
    1766 1757 1757 1757 1748 1748 1748 1739 1739 1739 1739 1748 1748
    1748 1936 1926 1926 1926 1926 1926 1915 1904 1904 1894 1894 1894
    1894 1883 1883 1873 1873 1863 1853 1843 1843 1843 1843 1843 1833
    1833 1823 1823 1823 1823 1813 1813 1813 1813 1804 1785 1785 1785
    1785 1785 1785 1776 1776 1776 1766 1766 1757 1757 1757 1748 1748
    1748 1739 1739 1739 1739 1739 1739 1739 5734 1936 1936 1936 1936
    1926 1915 1904 1904 1894 1894 1894 1894 1883 1883 1873 1873 1863
    1853 1853 1853 1853 1853 1843 1833 1833 1823 1823 1823 1823 1813
    1813 1813 1813 1813 1785 1785 1785 1785 1785 1785 1776 1776 1776
    1766 1766 1757 1757 1757 1757 1748 1748 1739 1739 1739 1739 1739
    1739 1731 5640 5640 1936 1936 1936 1926 1904 1904 1904 1894 1894
    1894 1894 1883 1883 1873 1863 1863 1863 1853 1853 1853 1853 1843
    1843 1833 1833 1823 1823 1823 1823 1823 1823 1813 1813 1794 1785
    1785 1785 1785 1785 1776 1776 1776 1776 1766 1766 1757 1757 1757
    1748 1748 1748 1739 1739 1739 1739 1739 1731 5640 5548 1947 1947
    1936 1926 1904 1904 1904 1894 1894 1894 1894 1883 1883 1873 1863
    1863 1863 1863 1853 1853 1853 1853 1843 1833 1833 1833 1833 1823
    1823 1823 1823 1813 1813 1804 1794 1794 1785 1785 1785 1785 1776
    1776 1776 1776 1766 1766 1766 1757 1748 1748 1748 1739 1739 1739
    1748 1739 1739 5640 5548 5548 5548 1936 1936 1915 1915 1915 1904
    1894 1894 1894 1883 1883 1873 1873 1863 1863 1863 1853 1853 1853
    1853 1853 1843 1843 1833 1833 1833 1823 1823 1823 1823 1813 1804
    1794 1794 1785 1785 1785 1785 1776 1776 1776 1776 1776 1776 1766
    1766 1748 1748 1748 1739 1739 1739 1748 1739 1739 5640 5640 5548
    5548 5460 5374 5374 5374 1915 1904 1894 1894 1894 1883 1883 1873
    1873 1863 1863 1863 1853 1853 1853 1853 1853 1853 1843 1833 1833
    1833 1823 1823 1823 1813 1813 1804 1794 1794 1785 1785 1785 1785
    1785 1776 1776 1776 1776 1776 1766 1766 1748 1748 1748 1748 1748
    1748 1748 1739 1739 5640 5640 5548 5548 5460 5374 5374 5460 1926
    1904 1894 1894 1894 1883 1883 1883 1883 1873 1873 1863 1853 1853
    1853 1853 1853 1853 1843 1833 1833 1823 1823 1823 1823 1813 1813
    1804 1804 1794 1794 1794 1785 1785 1785 1785 1776 1776 1776 1766
    1766 1757 1748 1748 1748 1739 1739 1739 1739 1739 1739 5640 5640
    5548 5548 5548 5460 5460 5460 5548 5640 1904 1894 1894 1894 1894
    1894 1883 1883 1873 1863 1853 1853 1853 1853 1853 1853 1843 1833
    1823 1823 1823 1823 1823 1813 1813 1804 1804 1794 1794 1794 1785
    1785 1785 1785 1776 1776 1776 1766 1766 1757 1748 1748 1748 1739
    1739 1739 1739 1739 1739 5640 5640 5548 5548 5548 5548 5548 5460
    5374 5374 1926 1926 1904 1894 1894 1894 1894 1883 1873 1863 1863
    1863 1853 1853 1853 1843 1843 1833 1823 1823 1823 1823 1823 1813
    1813 1804 1804 1804 1794 1794 1785 1785 1785 1785 1776 1776 1776
    1766 1766 1757 1748 1748 1748 1748 1739 1739 1748 1748 1748 5640
    5640 5548 5548 5548 5548 5548 5460 5374 5374 5374 5374 1915 1904
    1894 1883 1883 1883 1873 1863 1863 1863 1853 1853 1853 1843 1843
    1833 1823 1823 1823 1823 1823 1813 1813 1813 1813 1804 1804 1794
    1794 1785 1785 1785 1776 1776 1776 1766 1766 1757 1757 1748 1748
    1748 1739 1739 1748 1748 1748 5548 5548 5548 5548 5548 5548 5548
    5460 5374 5374 5291 5291 5291 5291 1883 1883 1883 1873 1873 1863
    1863 1863 1863 1853 1853 1843 1833 1833 1833 1823 1823 1823 1823
    1823 1813 1813 1813 1804 1804 1794 1794 1794 1794 1785 1785 1776
    1776 1776 1766 1766 1757 1757 1757 1748 1748 1748 1748 1748 1757
    5548 5548 5548 5548 5548 5548 5460 5460 5374 5374 5291 5291 5291
    5291 5291 1883 1883 1873 1863 1863 1863 1863 1853 1853 1853 1843
    1833 1833 1843 1833 1833 1833 1823 1823 1813 1813 1813 1813 1804
    1804 1804 1794 1794 1785 1785 1776 1776 1776 1776 1766 1766 1766
    1766 1757 1748 1748 1757 1757 1757 5548 5548 5548 5548 5548 5460
    5460 5460 5374 5374 5374 5291 5291 5291 5374 5374 1883 1883 1863
    1863 1863 1863 1853 1853 1853 1843 1843 1843 1843 1843 1843 1833
    1823 1813 1813 1813 1813 1813 1813 1804 1794 1794 1785 1785 1785
    1776 1776 1776 1776 1766 1766 1766 1766 1757 1748 1748 1757 1757
    1757 5548 5548 5548 5548 5548 5460 5460 5460 5460 5374 5374 5291
    5291 5291 5374 5374 5291 1863 1863 1863 1863 1863 1853 1853 1853
    1853 1843 1843 1843 1843 1843 1833 1823 1813 1813 1813 1813 1813
    1813 1804 1794 1794 1785 1785 1785 1785 1785 1776 1776 1776 1776
    1766 1766 1757 1748 1748 1748 1748 1757 5548 5548 5548 5548 5548
    5460 5460 5460 5460 5374 5374 5291 5291 5291 5374 5291 5291 5291
    5291 1863 1853 1853 1853 1853 1853 1853 1853 1843 1843 1843 1833
    1833 1823 1813 1813 1813 1813 1813 1813 1804 1794 1794 1785 1785
    1785 1785 1785 1785 1776 1776 1776 1766 1766 1748 1739 1739 1748
    1748 1748 5548 5548 5548 5548 5548 5460 5460 5460 5460 5374 5374
    5374 5374 5374 5374 5291 5291 5291 5291 1853 1853 1853 1853 1853
    1863 1863 1853 1853 1853 1843 1833 1833 1823 1823 1823 1823 1813
    1813 1813 1804 1794 1794 1785 1785 1785 1785 1785 1785 1785 1776
    1776 1766 1766 1748 1739 1739 1748 1748 1748 5548 5548 5460 5460
    5460 5548 5460 5460 5374 5374 5374 5374 5374 5374 5374 5291 5291
    5291 5374 5374 5374 1863 1863 1863 1863 1853 1853 1853 1853 1843
    1833 1833 1823 1823 1823 1813 1813 1813 1813 1804 1794 1794 1785
    1785 1785 1785 1785 1785 1785 1785 1776 1776 1757 1748 1748 1748
    1748 0 0 5548 5548 5460 5460 5460 5460 5460 5460 5374 5374 5374 5374
    5374 5374 5374 5374 5374 5374 5374 5291 5210 5210 5210 1863 1863
    1853 1853 1853 1853 1843 1843 1833 1823 1823 1823 1813 1813 1813
    1813 1813 1804 1804 1794 1785 1785 1785 1785 1785 1785 1776 1776
    1776 1757 1748 1748 0 0 0 0 5548 5548 5460 5460 5460 5460 5374 5374
    5374 5374 5374 5374 5374 5374 5374 5374 5374 5374 5291 5291 5210
    5210 5210 5374 5374 1853 1853 1843 1843 1853 1833 1833 1833 1823
    1823 1813 1813 1813 1813 1813 1804 1804 1794 1785 1785 1785 1785
    1785 1785 1776 1776 1776 1776 1776 0 0 0 0 0 5548 5460 5460 5460
    5460 5374 5374 5374 5374 5374 5374 5374 5374 5374 5374 5291 5291
    5291 5291 5291 5291 5291 5291 5374 5374 5374 1853 1843 1843 1843
    1833 1833 1833 1823 1823 1813 1813 1813 1813 1813 1813 1804 1804
    1794 1785 1785 1785 1785 1785 1776 1776 1776 1776 1785 0 0 0 0 0
    5548 5460 5460 5460 5374 5374 5374 5374 5374 5374 5374 5374 5374
    5374 5374 5291 5291 5291 5291 5291 5291 5291 5291 5291 5291 5291
    5210 1843 1843 1833 1833 1833 1833 1833 1823 1823 1813 1813 1813
    1813 1813 1804 1804 1794 1785 1785 1785 1785 1776 1776 1776 1776
    1776 1794 0 0 0 0 0 5460 5460 5460 5460 5374 5374 5374 5374 5374
    5374 5374 5374 5374 5374 5374 5291 5291 5291 5291 5291 5291 5291
    5291 5291 5291 5210 5210 5210 1823 1823 1823 1823 1833 1833 1823
    1823 1813 1813 1813 1813 1813 1804 1804 1794 1785 1785 1785 1785
    1776 1776 1776 1776 1785 1804 0 0 0 0 0 5460 5460 5374 5374 5374
    5374 5374 5374 5374 5374 5374 5291 5291 5291 5291 5291 5291 5291
    5291 5291 5291 5291 5291 5291 5210 5210 5210 5210 1823 1823 1823
    1823 1833 1833 1833 1823 1813 1813 1813 1813 1813 1813 1804 1804
    1794 1785 1785 1785 1785 1785 1794 1804 1804 1813 0 0 0 0 0 5460
    5460 5374 5374 5374 5374 5374 5374 5374 5374 5374 5291 5291 5291
    5291 5291 5210 5210 5291 5291 5291 5291 5210 5210 5210 5210 5210
    5210 5132 1823 1823 1813 1813 1823 1833 1823 1823 1813 1813 1813
    1813 1813 1804 1804 1794 1794 1794 1785 1785 1785 0 0 0 0 0 0 0 0 0
    5374 5374 5374 5374 5374 5374 5374 5374 5374 5374 5374 5291 5291
    5291 5291 5291 5210 5210 5210 5291 5291 5210 5210 5210 5210 5210
    5132 5132 5056 5056 5056 1813 1785 1785 1833 1823 1823 1813 1813
    1813 1813 1813 1804 1804 1794 1794 1794 1794 1794 1794 0 0 0 0 0 0 0
    0 0 5374 5374 5374 5374 5374 5374 5374 5374 5374 5374 5374 5291 5291
    5291 5291 5291 5210 5210 5210 5210 5132 5132 5210 5210 5210 5132
    5132 5132 5056 4983 4983 5056 1785 1785 1833 1823 1823 1823 1823
    1813 1813 1813 1813 1804 1804 1794 1794 1794 1794 0 0 0 0 0 0 0 0 0
    0 5374 5374 5374 5374 5374 5374 5374 5374 5374 5291 5291 5291 5291
    5291 5291 5291 5291 5291 5210 5210 5132 5132 5210 5210 5210 5132
    5056 5056 5056 4983 4983 5056 5056 5056 1843 1833 1833 1823 1823
    1823 1813 1813 1813 1813 1804 1804 1804 1804 0 0 0 0 0 0 0 0 0 0 0
    5374 5374 5374 5374 5374 5374 5374 5374 5374 5291 5291 5374 5374
    5291 5291 5291 5291 5291 5210 5210 5132 5132 5210 5132 5132 5132
    5056 5056 5056 5056 5056 5056 5056 4983 4983 4983 1843 1823 1823
    1823 1823 1823 1813 1813 1804 1804 1804 0 0 0 0 0 0 0 0 0 0 0 0 5374
    5460 5374 5374 5374 5374 5374 5374 5374 5291 5291 5374 5291 5291
    5291 5291 5291 5291 5291 5210 5210 5210 5291 5132 5132 5132 5132
    5056 5056 5056 5056 5056 5056 4983 4983 4983 4295 4241 4241 1833
    1823 1823 1823 1813 1804 1804 0 0 0 0 0 0 0 0 0 0 0 0 0</data></Depth4330>
</opencv_storage>
