<?xml version="1.0"?>
<opencv_storage>
<Depth18613 type_id="opencv-matrix">
  <rows>94</rows>
  <cols>104</cols>
  <dt>w</dt>
  <data>
    3333 3333 3333 3333 3333 3365 3365 3399 3399 3399 3399 3399 3399
    3399 3433 3433 3399 3399 3433 3433 3433 3433 3399 3399 3399 3399
    3399 3399 3399 3399 3399 3365 3365 3365 3365 3365 3365 3365 3365
    3333 3333 3333 3333 3333 3300 3300 3300 3300 3269 3269 3269 3238
    3238 3238 3238 3208 3178 3178 3178 3178 3149 3149 3149 3149 3149
    3149 1044 1034 1031 1031 1031 1034 1041 1041 3064 3064 3064 3064
    3064 3064 3037 3010 3010 3010 2984 2984 2984 2984 2984 2984 2984
    2984 2984 2958 2958 2958 2958 2958 2958 2933 2933 2933 2908 2908
    3333 3333 3333 3333 3333 3365 3365 3399 3399 3399 3399 3399 3399
    3399 3433 3433 3433 3433 3433 3433 3433 3433 3433 3399 3399 3399
    3399 3399 3399 3399 3399 3399 3365 3365 3365 3365 3365 3365 3365
    3365 3365 3333 3333 3333 3300 3300 3300 3300 3300 3269 3269 3238
    3238 3238 3208 3208 3208 3178 3178 3178 3149 3149 3149 3149 3149
    3120 1044 1031 1028 1028 1028 1034 1041 1041 1041 1041 951 3010 0
    3010 3010 2984 2984 2984 2984 2984 2984 2984 2984 2984 2984 2984
    2984 2958 2958 2958 2958 2958 2958 2958 2933 2908 2883 2883 3365
    3365 3333 3333 3365 3365 3399 3399 3399 3399 3399 3399 3433 3433
    3433 3433 3433 3433 3433 3468 3468 3468 3433 3399 3399 3399 3399
    3399 3399 3399 3399 3399 3365 3365 3365 3365 3399 3365 3365 3365
    3365 3365 3333 3333 3300 3300 3300 3300 3269 3269 3269 3269 3238
    3238 3208 3178 3178 3178 3178 1057 3178 3178 3178 3178 1054 1044
    1034 1028 1028 1028 1028 1034 1041 1041 0 0 0 0 0 3010 3010 2984
    2984 2984 2984 2984 3010 2984 2984 2984 2984 2984 2958 2958 2958
    2958 2958 2958 2958 2933 2933 2908 2883 2883 3365 3365 3365 3365
    3399 3399 3399 3399 3399 3399 3399 3433 3433 3468 3468 3468 3468
    3468 3468 3468 3468 3468 3468 3433 3399 3399 3399 3399 3399 3433
    3399 3365 3365 3365 3365 3365 3399 3365 3365 3365 3365 3365 3333
    3333 3300 3300 3300 3269 3269 3269 3269 3269 3238 3238 3208 3178
    3178 3178 0 1057 1057 1057 1054 1054 1050 1041 1028 1022 1019 1019
    1019 992 975 973 962 951 951 951 0 0 3010 2984 2984 2984 2984 2984
    3010 2984 2984 2984 2984 2984 2958 2958 2958 2933 2933 2933 2958
    2933 2908 2883 2883 2883 3365 3399 3399 3399 3399 3399 3399 3433
    3468 3468 3468 3468 3468 3468 3468 3468 3468 3468 3468 3468 3468
    3468 3468 3433 3399 3399 3399 3433 3433 3433 3399 3365 3365 3365
    3365 3365 3399 3365 3365 3365 3333 3333 3333 3333 3300 3300 3300
    3269 3269 3269 3269 3238 3238 3238 3238 0 3238 1063 1063 1057 1057
    1057 1054 1050 1044 1025 1022 1016 1004 995 992 992 975 973 962 951
    951 951 951 3010 3010 2984 2984 3010 2984 2984 3010 2984 2984 2984
    2984 2984 2958 2958 2958 2933 2933 2933 2933 2933 2908 2883 2883
    2883 3399 3399 3399 3399 3433 3433 3433 3468 3468 3503 3503 3503
    3503 3503 3503 3503 3468 3468 3468 3468 3468 3468 3468 3468 3433
    3433 3433 3399 3399 3399 3399 3365 3365 3365 3365 3365 3399 3365
    3365 3333 3333 3333 3333 3333 3300 3300 3300 3269 3269 3269 3238
    3238 3238 3238 3238 0 0 1063 1063 1063 1057 1054 1047 1044 1028 1022
    1016 1007 998 995 989 984 975 970 962 951 951 951 0 0 948 3010 3010
    3010 3010 3010 3010 2984 2984 2984 2984 2958 2958 2958 2958 2933
    2933 2933 2933 2908 2908 2908 2883 2883 3399 3399 3399 3433 3433
    3433 3468 3503 3503 3503 3503 3503 3503 3503 3503 3503 3468 3468
    3468 3433 3433 3468 3468 3468 3433 3433 3433 3399 3399 3399 3399
    3399 3365 3365 3365 3365 3399 3365 3365 3333 3300 3300 3333 3333
    3300 3300 3300 3269 3269 3269 3238 3238 3238 3238 0 1070 0 1070 1063
    1063 1057 1047 1038 1025 1019 1013 1007 1004 998 995 989 975 970 970
    959 951 951 948 948 948 0 0 3037 3037 3037 3010 3010 2984 2984 2984
    2984 2958 2958 2958 2958 2958 2933 2933 2908 2908 2883 2883 2883
    2883 3399 3433 3433 3433 3468 3468 3503 3503 3503 3503 3503 3503
    3503 3503 3503 3503 3503 3468 3468 3433 3433 3468 3468 3468 3433
    3433 3433 3399 3399 3399 3399 3399 3365 3365 3365 3365 3399 3365
    3333 3333 3300 3300 3300 3300 3300 3300 3300 3269 3269 3269 3269
    3269 3269 0 1067 0 1070 1067 1063 1057 1047 1041 1028 1019 1016 1010
    1004 1001 992 987 981 973 970 962 954 946 943 943 943 943 910 910
    910 0 3037 3010 3010 2984 2984 2984 2958 2958 2958 2958 2958 2958
    2933 2933 2883 2883 2883 2883 2883 2883 3433 3433 3433 3468 3503
    3503 3503 3503 3503 3503 3503 3503 3503 3503 3503 3503 3503 3468
    3468 3468 3468 3468 3468 3468 3433 3433 3399 3399 3399 3399 3399
    3399 3365 3365 3365 3365 3399 3365 3333 3333 3300 3300 3300 3300
    3300 3300 3269 3269 3269 3269 3269 0 0 0 0 1067 1067 1063 1060 1047
    1041 1028 1022 1016 1010 1007 1001 989 984 978 975 970 967 959 951
    940 938 938 938 913 910 910 910 906 3037 3037 3010 2984 2984 2984
    2958 2958 2958 2958 2958 2958 2933 2908 2883 2883 2883 2883 2883
    2859 3468 3468 3468 3468 3503 3503 3503 3539 3539 3503 3503 3503
    3503 3503 3503 3503 3503 3468 3468 3468 3468 3468 3468 3468 3433
    3433 3399 3399 3399 3399 3399 3399 3365 3365 3365 3365 3399 3365
    3333 3333 3333 3333 3300 3300 3300 3269 3269 3269 3269 3269 0 0 0 0
    1070 1067 1063 1057 1047 1041 1034 1025 1019 1010 1004 1001 998 984
    975 970 970 962 956 943 940 935 930 928 918 913 910 908 906 906 906
    3010 3010 2984 2984 2984 2958 2958 2958 2958 2958 2958 2933 2908
    2883 2883 2883 2883 2883 2859 3468 3468 3503 3503 3503 3503 3503
    3539 3539 3539 3503 3503 3503 3503 3468 3468 3468 3468 3468 3468
    3468 3468 3468 3468 3433 3433 3433 3399 3399 3399 3399 3399 3365
    3365 3365 3365 3399 3365 3365 3365 3365 3333 3333 3300 3269 3269
    3269 3269 0 0 0 0 0 1063 1060 1060 1057 1050 1041 1034 1031 1016
    1010 1004 1001 998 989 981 973 970 962 959 956 938 935 933 930 925
    918 913 903 898 891 891 891 891 3010 3010 3010 2984 2958 2958 2958
    2958 2958 2933 2908 2908 2883 2883 2883 2883 2883 2883 3503 3503
    3503 3539 3539 3503 3503 3539 3539 3539 3503 3503 3503 3503 3468
    3468 3468 3468 3468 3468 3468 3468 3468 3468 3433 3433 3433 3399
    3399 3399 3399 3399 3399 3399 3365 3365 3399 3365 3365 3365 3333
    3333 3300 3269 3269 3269 0 0 0 0 0 0 1067 1060 1054 1047 1044 1038
    1031 1028 1022 1007 1004 1001 998 989 981 973 970 962 959 954 954
    933 930 925 923 918 913 910 901 896 891 891 891 889 0 2984 2984 2984
    2958 2958 2958 2958 2958 2933 2908 2908 2883 2883 2883 2883 2883
    2883 3503 3503 3539 3539 3539 3539 3539 3539 3503 3503 3503 3503
    3503 3503 3503 3468 3468 3468 3468 3468 3468 3468 3468 3468 3468
    3468 3433 3433 3399 3399 3399 3399 3399 3399 3365 3365 3399 3365
    3365 3333 3300 3300 3269 3269 3269 0 0 0 0 0 0 1077 1060 1054 1047
    1041 1038 1031 1025 1022 1004 1001 995 989 984 975 975 970 964 959
    954 954 935 930 928 923 920 915 910 903 898 896 894 889 889 889 864
    864 2984 2984 2984 2984 2958 2958 2958 2933 2908 2908 2883 2883 2883
    2883 2883 2883 3503 3503 3539 3539 3539 3503 3503 3503 3503 3503
    3503 3503 3503 3503 3503 3503 3503 3503 3503 3468 3468 3468 3468
    3468 3468 3468 3433 3433 3399 3399 3399 3399 3399 3365 3365 3365
    3365 3365 3365 3333 3300 3269 3269 3269 0 0 0 0 0 0 1077 1060 1054
    1047 1038 1034 1031 1022 1019 1010 998 992 987 984 975 973 967 962
    959 948 940 933 930 925 923 920 915 908 901 898 894 894 875 873 869
    867 864 864 864 0 2984 2984 2958 2958 2933 2908 2908 2908 2883 2883
    2883 2883 2883 2883 3503 3539 3539 3539 3539 3503 3503 3503 3503
    3503 3503 3503 3503 3503 3503 3503 3503 3503 3503 3468 3468 3503
    3503 3468 3468 3468 3433 3433 3399 3399 3399 3399 3399 3365 3365
    3365 3365 3365 3365 3333 3300 3269 3269 0 0 0 0 0 0 1070 1060 1054
    1050 1041 1031 1031 1025 1019 1013 1007 992 989 984 978 970 967 964
    959 956 935 930 928 925 918 915 906 901 898 896 891 887 875 873 871
    867 864 862 858 856 856 856 858 2933 2933 2933 2908 2908 2908 2883
    2883 2883 2859 2859 2883 3539 3539 3539 3539 3539 3503 3503 3503
    3503 3503 3503 3503 3503 3503 3539 3539 3503 3503 3503 3503 3503
    3503 3468 3468 3468 3433 3433 3399 3399 3399 3399 3399 3399 3365
    3365 3365 3365 3365 3365 3333 3300 3300 0 0 0 0 0 1077 1063 1060
    1054 1050 1041 1038 1031 1028 1019 1013 1007 1001 989 984 978 970
    967 962 959 956 938 933 928 925 920 915 910 901 898 891 887 880 875
    873 871 869 867 864 862 858 856 856 858 858 858 2933 2933 2933 2883
    2883 2883 2883 2883 2859 2859 2883 3539 3539 3539 3539 3539 3503
    3503 3503 3503 3503 3503 3503 3503 3503 3539 3539 3503 3503 3503
    3503 3503 3503 3468 3468 3468 3433 3433 3399 3399 3399 3399 3399
    3399 3365 3365 3365 3365 3365 3365 3365 0 0 0 0 0 0 1073 1073 1060
    1057 1050 1044 1038 1031 1025 1022 1016 1007 1001 992 984 975 970
    964 962 959 951 946 930 928 923 918 915 910 903 898 896 887 882 875
    871 869 869 867 864 862 860 858 858 858 858 858 858 864 0 2883 2883
    2859 2859 2883 2883 2883 2883 2883 3576 3539 3539 3539 3539 3503
    3503 3503 3503 3503 3503 3503 3539 3539 3539 3539 3503 3503 3503
    3503 3468 3468 3468 3468 3468 3433 3433 3399 3399 3399 3399 3399
    3399 3365 3365 3365 3365 3365 3365 0 0 0 0 0 0 1080 1077 1070 1057
    1050 1047 1041 1034 1025 1019 1016 1007 1004 992 987 978 970 964 962
    956 954 946 930 925 923 920 913 910 906 901 894 889 882 880 873 871
    867 867 864 864 862 860 858 858 858 858 858 864 0 0 2859 2859 2859
    2859 2883 2883 2883 2883 2883 3576 3539 3539 3539 3539 3539 3539
    3503 3503 3503 3503 3503 3539 3539 3539 3503 3503 3503 3503 3503
    3468 3468 3468 3433 3433 3433 3399 3399 3399 3399 3399 3399 3365
    3365 3365 3365 3365 3365 3365 0 0 0 1087 1084 1080 1077 1063 1057
    1050 1044 1041 1034 1025 1019 1016 1007 998 992 987 978 973 967 962
    959 954 948 933 928 923 918 915 910 906 901 896 889 882 878 875 871
    869 867 864 864 864 864 864 862 862 860 860 860 864 0 0 0 0 2883
    2859 2859 2859 2883 2859 2859 3539 3539 3539 3539 3539 3539 3539
    3503 3503 3539 3539 3539 3539 3539 3539 3503 3503 3503 3503 3503
    3468 3433 3433 3399 3399 3433 3399 3399 3399 3399 3365 3365 3365
    3365 3365 3365 3365 0 0 0 0 0 1084 1084 1077 1067 1057 1050 1044
    1038 1034 1028 1022 1016 1013 1001 992 987 978 973 970 967 962 956
    943 933 930 925 920 915 910 906 901 898 891 885 880 875 875 871 869
    867 864 864 864 864 864 864 864 864 864 864 864 867 0 0 0 0 2859
    2859 2859 2883 2859 2859 3539 3539 3539 3539 3539 3539 3539 3539
    3539 3539 3539 3539 3539 3539 3503 3503 3503 3503 3503 3503 3468
    3433 3399 3399 3399 3399 3399 3399 3399 3399 3365 3365 3365 3333
    3333 3333 0 0 0 0 0 1087 1084 1080 1073 1063 1054 1047 1041 1034
    1028 1025 1019 1013 1007 992 987 981 973 967 964 964 962 940 933 930
    925 920 918 910 906 901 896 891 878 875 873 871 871 869 869 867 864
    864 864 864 867 867 867 864 864 864 864 867 0 0 0 0 0 2859 2859 2859
    2859 2859 3539 3539 3539 3539 3539 3539 3539 3539 3539 3539 3539
    3539 3539 3539 3503 3503 3503 3503 3503 3503 3468 3433 3399 3399
    3399 3399 3399 3399 3399 3399 3365 3365 3365 3333 3333 3333 0 0 1090
    1090 0 1087 1080 1070 1063 1060 1050 1044 1034 1028 1022 1019 1016
    1013 992 989 984 978 970 962 956 951 940 933 930 928 920 915 910 906
    901 896 891 887 875 873 871 869 869 869 869 867 867 867 867 867 867
    867 867 867 867 867 867 867 869 0 0 0 0 2883 2883 2859 2859 2859
    3539 3539 3539 3539 3576 3576 3576 3539 3539 3539 3539 3539 3539
    3539 3539 3503 3503 3503 3503 3503 3468 3433 3399 3399 3399 3399
    3399 3399 3399 3399 3365 3365 3365 3365 3365 3365 3365 1090 1090
    1090 1087 1080 1070 1063 1060 1057 1044 1038 1031 1025 1016 1016
    1016 995 987 984 981 975 967 954 948 946 940 930 928 923 915 910 903
    901 896 891 887 878 873 871 871 869 869 869 869 869 867 867 867 867
    867 867 867 867 867 867 867 867 869 869 869 875 0 2883 2883 2883
    2883 2859 3539 3539 3539 3614 3614 3576 3576 3539 3539 3576 3576
    3576 3539 3539 3539 3503 3503 3503 3503 3468 3433 3433 3399 3399
    3399 3399 3399 3399 3399 3399 3365 3333 3333 3333 3333 1097 1094 0
    1090 1087 1080 1070 1067 1060 1057 1044 1034 1028 1022 1016 1007 998
    992 989 978 978 973 967 954 951 943 943 938 928 923 918 910 906 903
    898 896 889 878 875 873 871 871 869 869 869 869 869 869 869 869 869
    869 867 867 867 867 869 867 867 869 869 875 875 0 0 2883 2883 2883
    2883 3576 3576 3576 3614 3576 3576 3576 3576 3576 3576 3539 3539
    3539 3539 3539 3503 3503 3503 3503 3468 3433 3433 3433 3399 3399
    3399 3399 3365 3365 3399 3365 3333 3333 3333 1101 1097 1094 1094
    1087 1084 1073 1063 1060 1057 1050 1034 1028 1022 1016 1010 1004 995
    992 981 975 973 967 954 948 946 940 940 930 923 918 910 908 903 898
    896 894 887 875 873 873 871 871 869 869 871 869 869 871 871 871 871
    869 869 869 869 869 869 869 869 869 871 873 873 0 0 2883 0 2883 2883
    3614 3614 3614 3614 3576 3576 3576 3576 3576 3576 3539 3539 3539
    3539 3539 3503 3503 3503 3503 3468 3433 3433 3433 3399 3399 3399
    3399 3365 3365 3365 3365 0 1105 1105 1101 1097 1090 1084 1077 1067
    1067 1057 1057 1050 1044 1031 1022 1016 1010 1004 998 992 989 981
    973 964 954 951 943 940 935 933 923 918 913 908 903 901 896 891 887
    878 873 873 873 871 871 871 871 871 871 871 871 871 871 871 871 871
    871 871 871 871 871 871 871 871 873 875 875 887 894 2908 2908 2883
    3614 3614 3614 3614 3576 3576 3539 3539 3539 3539 3539 3539 3539
    3539 3503 3503 3503 3503 3503 3468 3433 3433 3433 3433 3399 3399
    3399 3399 3399 0 0 0 1105 1101 1097 1090 1084 1077 1070 1060 1054
    1050 1047 1041 1028 1028 1019 1013 1007 1001 995 989 987 975 962 954
    951 948 940 938 933 928 918 915 908 903 901 898 891 885 878 875 873
    873 873 871 871 871 871 873 873 873 873 873 873 873 873 873 873 873
    873 871 871 871 873 873 873 875 875 887 894 896 896 2883 3614 3614
    3614 3614 3576 3576 3539 3539 3539 3539 3539 3539 3539 3503 3503
    3503 3503 3503 3503 3468 3433 3433 3433 3399 3399 3399 3399 0 3399 0
    1105 1101 1101 1097 1094 1087 1080 1070 1067 1060 1050 1047 1041
    1022 1016 1007 1004 998 995 989 987 984 984 975 956 951 948 943 938
    935 930 918 913 910 903 901 896 894 885 882 878 875 873 873 873 873
    873 873 873 875 875 875 875 873 873 875 875 875 873 873 873 873 873
    873 873 873 875 875 875 885 894 894 0 0 3614 3614 3614 3614 3576
    3576 3539 3539 3539 3539 3539 3539 3503 3503 3503 3503 3503 3468
    3468 3468 3468 3433 3433 3399 3399 3399 0 3399 0 0 1105 1105 1097
    1090 1087 1077 1070 1067 1060 1054 1047 1044 1028 1016 1010 1004 998
    995 992 987 984 978 962 956 951 946 946 940 935 930 925 913 908 903
    901 898 891 885 882 880 878 875 873 873 873 875 875 875 875 875 875
    875 875 875 875 875 875 875 875 875 875 875 875 875 875 875 875 878
    878 882 891 891 891 0 3614 3614 3614 3614 3576 3576 3539 3539 3539
    3539 3539 3539 3503 3503 3503 3503 3468 3468 3468 3468 3468 3468
    3468 3433 3433 0 0 0 0 0 0 1097 1090 1084 1080 1070 1067 1060 1054
    1050 1041 1019 1016 1010 1004 998 995 992 987 981 973 962 959 951
    943 940 938 930 920 915 913 906 906 901 896 891 885 882 880 880 878
    875 875 873 873 875 878 878 878 880 880 880 880 878 878 878 878 878
    875 875 878 878 878 878 878 878 878 878 878 882 885 889 889 0 3614
    3614 3614 3576 3576 3576 3539 3539 3539 3539 3539 3539 3503 3503
    3503 3503 3468 3468 3468 3468 3468 3468 3468 3468 0 0 0 0 0 1101
    1101 1094 1087 1080 1070 1067 1060 1054 1050 1041 1019 1016 1010
    1007 998 995 992 987 981 978 962 956 954 948 943 938 933 925 918 913
    910 903 896 889 887 885 882 882 880 880 878 875 875 875 875 878 880
    880 880 882 882 882 882 880 880 880 880 880 878 878 878 878 880 880
    880 880 880 878 878 878 878 885 887 0 3614 3614 3614 3576 3576 3576
    3539 3539 3539 3539 3539 3539 3539 3539 3503 3503 3468 3468 3468
    3468 3468 3468 3468 0 0 0 0 1108 1105 1101 1097 1084 1080 1073 1067
    1060 1057 1050 1050 1019 1016 1013 1007 998 995 992 987 981 970 959
    956 951 946 943 940 935 928 920 913 908 903 894 891 887 885 882 882
    882 882 880 880 880 880 878 878 880 880 880 880 882 882 882 882 882
    882 882 882 882 882 880 880 880 880 882 882 882 880 878 878 878 878
    882 885 0 3614 3614 3614 3576 3576 3576 3539 3539 3539 3539 3539
    3539 3539 3539 3503 3503 3468 3468 3433 3433 3468 3468 0 0 0 0 1108
    1108 1105 1097 1090 1080 1077 1067 1057 1054 1050 1044 1028 1016
    1013 1010 1001 995 992 989 981 962 959 956 951 946 940 938 935 925
    920 913 908 901 896 891 889 887 885 882 882 882 882 882 882 882 880
    880 880 880 880 880 880 882 882 882 882 882 882 885 882 882 882 882
    882 882 882 882 882 882 880 878 878 880 880 882 885 889 3614 3576
    3576 3576 3576 3576 3539 3539 3539 3539 3539 3539 3539 3539 3503
    3503 3503 3468 3433 3433 0 0 0 0 0 1108 1105 1105 1101 1094 1080
    1073 1070 1060 1054 1050 1047 1044 1022 1013 1010 1004 998 992 992
    989 970 959 956 951 946 940 938 930 925 920 915 903 901 894 891 889
    887 887 885 885 882 882 882 882 882 885 882 882 882 882 882 882 882
    885 882 882 882 882 885 885 885 885 885 885 885 882 882 885 885 885
    882 882 882 882 882 885 887 889 3614 3576 3576 3576 3576 3576 3539
    3539 3539 3539 3539 3539 3539 3503 3503 3503 3503 3468 3468 0 0 0 0
    0 0 1105 1101 1097 1090 1084 1073 1067 1063 1057 1050 1041 1034 1022
    1019 1010 1007 1001 995 989 984 970 964 956 954 948 943 938 930 925
    920 918 903 901 896 891 889 889 887 887 885 885 882 882 885 885 885
    885 885 882 882 882 882 885 885 885 885 885 885 885 885 885 885 885
    885 885 887 885 885 885 885 885 885 882 882 885 885 887 889 889 3576
    3576 3539 3539 3539 3539 3539 3539 3539 3539 3539 3539 3539 3503
    3503 3503 3503 3503 0 0 0 0 0 0 1105 1101 1097 1090 1087 1080 1063
    1057 1054 1047 1041 1031 1025 1019 1010 1004 1001 995 989 981 975
    964 962 951 946 940 935 930 928 920 918 903 898 896 891 889 889 889
    887 887 887 887 887 887 887 887 887 887 887 887 887 887 887 887 887
    887 887 887 887 887 889 887 887 887 887 887 887 887 887 887 887 887
    887 887 887 887 887 889 889 889 3576 3576 3539 3539 3539 3539 3539
    3539 3539 3539 3539 3539 3539 3503 3503 3503 3503 0 0 0 0 0 1105
    1105 1101 1094 1090 1084 1080 1070 1060 1050 1044 1034 1031 1028
    1019 1013 1007 1001 995 989 978 973 967 962 954 943 938 935 930 928
    923 920 913 898 896 894 891 889 889 889 889 889 889 889 889 889 889
    889 889 889 889 889 889 889 889 887 887 889 889 889 889 889 889 891
    891 891 889 889 889 889 889 889 887 887 887 887 889 889 889 891 891
    891 3576 3576 3539 3539 3539 3539 3539 3539 3539 3539 3539 3539 3539
    3539 3539 3539 0 3539 0 1123 1123 1115 1112 1105 1097 1090 1084 1077
    1070 1063 1054 1047 1034 1031 1028 1022 1016 1010 1001 995 995 975
    973 967 964 959 946 938 935 930 928 923 918 913 906 898 896 894 891
    889 889 889 889 889 891 889 889 889 889 889 889 889 889 889 889 889
    889 889 889 891 891 891 891 891 891 891 891 891 891 891 891 891 891
    891 891 891 894 891 891 891 891 891 891 891 3576 3576 3576 3539 3539
    3539 3539 3539 3539 3539 3503 3503 3539 3539 3539 3539 0 1126 1123
    1123 1123 1115 1105 1097 1090 1084 1077 1070 1060 1057 1047 1038
    1031 1028 1025 1016 1010 1007 995 984 975 973 967 964 959 954 940
    935 933 928 923 918 913 906 901 896 894 894 891 889 889 891 891 891
    891 891 891 891 891 891 891 891 891 891 891 891 889 889 889 891 891
    891 891 891 891 891 894 891 891 891 891 891 894 891 891 894 896 894
    894 894 894 894 894 894 3614 3576 3576 3576 3539 3539 3539 3539 3539
    3503 3503 3503 3539 3539 0 0 1126 1126 1123 1115 1108 1101 1101 1094
    1087 1080 1063 1060 1054 1050 1041 1031 1028 1025 1019 1013 1007
    1004 992 981 973 970 962 959 956 951 938 933 928 923 920 915 908 901
    898 896 894 894 891 891 891 894 894 894 894 894 891 891 891 891 891
    891 891 891 891 891 891 891 891 894 894 894 894 894 894 894 894 894
    894 891 891 891 894 894 894 896 896 894 891 891 894 894 894 2789
    3614 3614 3576 3576 3539 3539 3539 3539 3539 3503 3503 0 3503 0 1134
    0 1123 1123 1119 1108 1101 1094 1090 1080 1073 1060 1054 1054 1044
    1041 1034 1025 1022 1016 1010 1007 1001 987 981 973 970 962 959 954
    948 946 933 928 923 920 915 910 906 901 898 896 894 894 894 894 896
    896 896 896 896 894 894 894 894 894 894 894 894 894 894 894 894 894
    894 896 896 896 896 896 896 896 896 896 896 894 894 894 894 894 896
    898 896 891 889 889 889 889 2812 2812 3614 3614 3576 3539 3539 3539
    3539 3539 3539 3539 0 3539 0 1138 0 1134 1119 1115 1112 1101 1094
    1087 1084 1077 1060 1054 1044 1041 1031 1031 1025 1019 1013 1013
    1007 1004 987 978 973 967 962 956 951 948 943 930 928 923 920 915
    910 906 901 898 898 896 896 896 898 898 898 898 898 898 896 896 896
    896 896 896 894 894 896 896 896 896 896 894 894 896 898 898 898 898
    898 898 898 896 896 896 896 896 896 898 898 898 894 891 889 889 889
    2835 2812 2812 3614 3576 3539 3539 3539 3539 3539 3539 3539 3539
    3539 0 1138 1138 1138 1130 1115 1112 1105 1097 1090 1084 1080 1073
    1050 1044 1038 1034 1025 1025 1019 1016 1007 992 989 981 975 970 970
    964 959 954 948 943 930 928 925 920 913 908 903 903 901 898 898 898
    896 896 898 901 901 898 898 898 896 896 896 896 896 898 896 896 896
    896 896 896 896 896 896 901 901 901 901 901 901 901 901 898 898 898
    898 898 898 901 901 898 894 894 894 2835 2835 2835 2835 2812 3576
    3576 3539 3539 3503 3503 3503 3503 3576 0 0 0 1130 1130 1126 1123
    1112 1105 1097 1090 1080 1077 1070 1063 1041 1038 1034 1025 1022
    1019 1016 1010 992 987 981 975 970 964 962 956 948 943 933 930 928
    925 920 913 908 906 901 901 901 898 898 898 898 898 901 901 901 901
    901 898 898 896 896 898 898 898 898 898 898 898 898 898 898 898 898
    901 901 903 901 901 901 901 901 901 901 901 901 901 901 901 901 901
    901 901 0 2835 2835 2835 2835 2812 3576 3539 3539 3503 3468 3468
    3468 3503 0 0 0 0 1130 1130 1123 1115 1105 1097 1090 1084 1080 1073
    1067 1054 1038 1034 1028 1022 1016 1016 1010 1010 987 984 978 970
    964 959 956 948 943 933 930 925 920 915 910 908 906 906 901 901 901
    901 898 898 901 901 901 901 901 901 901 901 898 898 898 898 898 901
    901 901 898 898 898 898 898 898 898 901 901 903 901 901 901 901 901
    901 901 901 901 901 903 903 903 903 2835 2835 2835 2835 2835 2835
    2835 2835 3576 3539 3539 3503 3468 3468 3468 0 0 0 0 1134 1130 1126
    1119 1105 1097 1090 1084 1080 1073 1067 1060 1047 1034 1028 1025
    1019 1016 1013 1010 995 987 978 973 964 962 956 951 943 933 930 925
    920 915 913 910 908 903 903 903 901 901 901 901 901 901 901 901 901
    901 901 903 901 901 901 901 901 901 901 901 901 901 901 901 901 901
    901 901 901 901 903 903 903 901 901 903 903 903 903 903 903 903 903
    903 2859 2835 2835 2835 2835 2835 2859 2859 2835 3539 3539 3539 3503
    3503 0 0 0 0 0 1130 1130 1126 1119 1105 1097 1090 1084 1080 1077
    1067 1060 1054 1034 1031 1028 1022 1016 1016 1013 989 984 981 975
    967 962 956 951 946 940 930 928 923 915 913 910 908 908 903 903 903
    903 903 906 906 906 903 903 901 901 903 903 903 903 903 903 903 901
    901 901 901 901 901 901 901 901 901 903 903 903 903 903 903 903 903
    903 903 903 906 903 903 906 906 906 2859 2859 2859 2835 2835 2859
    2859 2859 2859 2859 3539 3539 3539 3576 0 3576 0 1141 0 1138 1130
    1126 1119 1101 1097 1090 1084 1080 1077 1073 1067 1047 1041 1031
    1025 1025 1019 1016 1016 995 987 978 973 967 962 956 954 948 943 935
    923 920 915 910 910 908 908 908 906 906 906 908 908 908 908 908 908
    908 903 903 903 903 906 906 906 906 906 903 903 906 906 906 903 903
    903 906 906 906 906 906 906 906 906 906 906 908 908 908 906 903 903
    903 2883 2883 2859 2859 2859 2859 2859 2859 2859 2859 2859 2859 3539
    3539 3539 0 0 0 0 0 1141 1138 1130 1119 1105 1094 1090 1084 1080
    1077 1067 1054 1050 1041 1038 1028 1022 1022 1019 992 989 987 984
    973 964 962 959 951 948 946 938 928 918 915 913 910 910 908 908 908
    906 906 908 910 908 908 908 908 908 910 910 908 908 908 908 908 908
    908 908 908 908 906 906 906 908 906 906 908 906 906 908 908 908 908
    908 908 908 910 908 906 906 906 906 906 2883 2883 2883 2859 2859
    2859 2859 2859 2859 2859 2883 2859 3539 0 0 0 0 0 0 1138 1138 1130
    1119 1105 1097 1090 1087 1080 1077 1070 1054 1044 1041 1038 1028
    1025 1022 1022 995 992 987 984 981 967 959 956 951 946 943 935 928
    920 918 915 913 910 910 910 910 908 908 908 910 910 910 908 908 910
    910 910 910 910 910 910 910 910 910 910 910 910 908 908 908 908 908
    908 908 908 908 908 908 910 910 910 910 910 910 910 908 906 906 906
    2908 2883 2883 2883 2883 2883 2883 2883 2859 2859 2883 2859 2859
    2859 0 0 0 0 0 0 1138 1138 1126 1115 1105 1097 1094 1087 1080 1077
    1067 1057 1047 1044 1038 1028 1025 1025 1025 1025 989 989 981 981
    975 962 954 951 948 940 935 925 920 918 915 915 913 913 910 910 910
    910 910 910 913 910 910 910 910 910 910 910 910 910 910 910 910 910
    910 910 910 913 913 913 910 910 908 908 908 908 908 908 908 910 913
    913 913 910 910 910 910 910 910 2908 2908 2883 2883 2883 2883 2883
    2883 2883 2883 2883 2883 2859 2859 2859 0 0 0 1153 1149 1145 1141
    1134 1119 1112 1101 1094 1087 1080 1073 1067 1060 1050 1041 1038
    1028 1025 1025 1001 995 989 987 984 978 975 970 954 948 946 940 935
    933 925 920 918 915 915 913 913 913 913 913 913 913 915 915 913 913
    913 913 913 913 913 913 913 913 913 910 910 910 910 913 913 913 913
    913 910 910 910 910 910 910 910 910 913 915 913 913 910 910 910 910
    2933 2933 2908 2883 2883 2883 2883 2883 2883 2883 2883 2883 2883
    2859 2859 2859 2859 0 0 1145 1145 1141 1138 1134 1119 1112 1105 1094
    1090 1080 1070 1063 1057 1050 1044 1034 1028 1025 1025 1001 995 989
    987 984 978 973 970 959 951 946 943 935 933 928 923 920 918 915 915
    915 915 915 915 915 915 915 915 915 915 915 915 915 915 915 915 915
    915 915 915 915 913 913 913 913 915 915 918 915 915 913 913 913 910
    910 910 913 915 913 913 915 915 915 2908 2908 2908 2908 2908 2883
    2883 2883 2883 2883 2883 2883 2883 2883 2883 2859 2859 2859 2859 0
    1149 1145 1138 1130 1130 1126 1115 1108 1101 1087 1080 1073 1063
    1057 1050 1044 1038 1025 1025 1025 1001 995 992 987 981 978 975 970
    959 951 946 940 938 930 928 923 920 920 918 918 918 918 918 918 918
    918 918 918 918 918 918 918 918 918 918 918 915 915 918 918 918 918
    918 915 915 915 918 918 918 918 918 915 915 915 913 913 915 915 913
    913 913 913 2958 2958 2908 2908 2908 2908 2908 2908 2908 2908 2908
    2908 2908 2883 2883 2883 2859 2859 2859 2859 2859 0 1141 1134 1130
    1123 1119 1112 1101 1094 1080 1080 1073 1067 1060 1050 1047 1041
    1025 1022 1013 1001 998 992 987 978 975 973 970 959 954 948 940 933
    930 928 925 923 920 920 918 918 918 918 918 918 918 918 918 918 918
    918 918 918 918 918 918 918 918 918 918 920 920 918 918 918 918 918
    918 918 918 918 918 918 918 915 915 918 915 915 913 913 913 2933
    2958 2958 2958 2908 2908 2908 2908 2933 2933 2933 2908 2908 2908
    2883 2883 2859 2859 2859 2859 2859 2859 0 1134 1130 1123 1115 1112
    1101 1094 1090 1070 1063 1060 1054 1050 1041 1034 1028 1016 1010
    1004 1001 992 987 981 975 970 967 959 954 948 943 938 930 928 925
    923 920 920 920 918 918 918 918 920 920 920 920 920 920 920 920 918
    918 920 920 920 920 920 920 920 920 920 920 920 918 918 920 920 920
    920 920 918 918 918 918 918 918 918 918 918 918 2958 2933 2933 2933
    2958 2933 2933 2933 2933 2933 2933 2933 2908 2908 2883 2883 2883
    2859 2859 2859 2859 2859 2859 1130 1130 1126 1119 1108 1105 1094
    1090 1080 1063 1060 1054 1047 1041 1031 1025 1025 1004 1001 995 989
    984 981 975 970 967 959 951 948 943 938 933 930 928 925 923 920 920
    920 920 920 920 920 920 920 920 920 920 920 920 920 920 920 920 923
    923 920 920 920 920 920 923 920 920 920 920 920 920 920 920 920 920
    918 918 920 920 920 920 920 2958 2958 2958 2958 2933 2933 2933 2933
    2933 2933 2933 2958 2958 2933 2908 2908 2883 2883 2883 2859 2859
    2859 2859 2859 2859 1123 1123 1123 1112 1101 1094 1090 1084 1063
    1054 1050 1044 1041 1031 1025 1016 1013 1001 995 989 984 978 973 970
    962 951 946 946 943 938 933 930 928 928 925 923 923 920 920 920 923
    923 923 923 923 923 923 925 925 925 925 925 925 925 925 925 923 923
    923 923 923 925 923 923 920 920 920 920 920 920 920 920 920 920 920
    920 920 920 2933 2958 2958 2958 2933 2933 2933 2933 2933 2933 2933
    2933 2958 2958 2933 2908 2908 2883 2883 2883 2859 2859 2859 2859
    2859 2859 1119 1115 1112 1101 1094 1090 1084 1063 1057 1050 1044
    1041 1031 1022 1016 1013 1004 995 989 987 981 975 970 962 956 948
    943 935 930 930 928 928 928 928 925 925 923 923 923 923 925 925 923
    923 923 923 925 925 928 928 928 928 928 928 925 925 925 925 925 925
    925 928 925 925 923 923 923 923 923 923 923 920 920 920 920 920 920
    2958 2933 2933 2933 2958 2933 2933 2933 2958 2958 2958 2933 2933
    2958 2958 2933 2908 2908 2883 2883 2883 2859 2859 2859 2859 2859
    2859 1119 1097 1097 1094 1090 1084 1063 1057 1054 1047 1041 1034
    1025 1016 1013 1007 992 989 987 981 978 970 962 956 951 943 935 930
    930 930 928 928 928 928 928 925 925 925 925 925 928 928 925 925 925
    925 928 928 928 928 928 928 928 928 928 928 925 925 925 925 925 928
    925 925 923 923 923 923 923 925 923 923 920 920 920 0 2958 2958 2958
    2933 2933 2958 2958 2958 2958 2958 2958 2958 2958 2958 2958 2958
    2933 2908 2908 2883 2883 2883 2859 2859 2859 2859 2859 2859 0 1094
    1094 1090 1087 1073 1057 1054 1050 1041 1034 1019 1016 1013 1010
    1004 989 981 981 978 973 956 954 951 940 935 933 930 930 930 928 928
    928 928 928 928 928 928 928 928 928 928 928 928 928 928 928 928 928
    928 928 928 928 928 928 928 928 928 928 928 928 928 928 928 925 925
    928 928 928 928 925 923 920 920 920 2933 2958 2958 2958 2958 2958
    2958 2958 2958 2958 2958 2958 2958 2958 2958 2933 2933 2933 2908
    2908 2883 2883 2883 2859 2859 2859 2859 2859 2859 0 1090 1090 1080
    1077 1060 1054 1054 1050 1041 1034 1016 1013 1007 992 989 984 978
    975 975 973 954 948 946 935 933 930 930 930 930 930 928 928 928 928
    930 930 930 930 930 930 930 930 930 928 928 928 928 930 930 930 930
    930 930 930 930 930 930 930 930 930 928 928 928 928 928 930 930 930
    930 928 925 925 925 2933 2933 2933 2958 2958 2958 2958 2958 2958
    2958 2958 2958 2958 2958 2958 2958 2933 2933 2933 2908 2908 2883
    2883 2883 2859 2859 2859 2859 2859 2859 0 1090 1080 1077 1060 1050
    1044 1041 1034 1022 1016 1013 1010 1004 989 987 981 975 970 970 956
    948 946 940 935 933 930 930 930 930 933 930 930 930 930 930 933 933
    930 930 930 933 933 935 930 930 930 930 930 930 930 930 933 933 933
    933 933 930 930 930 930 930 928 928 930 930 930 930 930 930 930 930
    930 2984 2933 2933 2933 2958 2958 2958 2958 2958 2958 2958 2958 2958
    2958 2958 2958 2958 2933 2933 2933 2883 2883 2883 2883 2883 2859
    2859 2859 2859 2859 2859 0 0 1073 1060 1054 1044 1041 1038 1028 1019
    1016 1013 1007 992 987 981 978 970 964 956 951 946 940 938 935 933
    930 930 930 933 933 935 935 935 935 935 935 933 933 933 933 933 935
    935 938 938 938 935 935 935 935 933 933 933 933 933 935 935 933 933
    933 933 930 930 935 935 933 933 930 930 930 930 3037 2984 2984 2933
    2933 2958 2958 2958 2958 2958 2958 2958 2958 2958 2958 2958 2958
    2933 2933 2933 2933 2883 2883 2883 2883 2883 2859 2859 2859 2859
    2859 2859 0 0 1063 1054 1050 1044 1038 1034 1025 1016 1010 1007 992
    987 981 973 970 967 962 948 943 940 938 938 935 933 933 930 930 935
    935 938 938 938 938 938 938 938 938 938 938 938 938 938 938 938 938
    938 938 938 938 938 938 938 938 938 938 938 935 935 935 935 938 938
    938 935 935 935 933 933 933 3037 3037 3037 2984 2958 2958 2984 2984
    2984 2984 2958 2958 2958 2958 2984 2984 2958 2958 2933 2933 2908
    2908 2908 2908 2883 2883 2883 2883 2883 2859 2859 2859 2859 0 0 1057
    1050 1047 1038 1025 1019 1016 1010 1004 992 984 981 973 967 964 959
    954 946 940 938 938 935 935 935 935 935 935 938 938 938 938 938 938
    938 938 938 938 938 938 938 938 938 938 938 938 938 938 938 938 940
    940 940 940 940 938 938 938 938 940 938 938 938 938 935 935 938 940
    940 3010 3010 3037 3037 3010 3010 3010 2984 2984 3010 2984 2958 2958
    2958 2958 2958 2958 2958 2958 2958 2933 2908 2908 2908 2908 2883
    2883 2883 2859 2859 2859 2859 2859 2859 0 0 1057 1047 1041 1028 1019
    1013 1010 1004 998 987 981 978 970 964 962 954 946 943 940 938 938
    935 935 935 935 935 935 940 938 938 938 938 938 938 938 940 940 940
    940 940 940 940 940 940 940 940 940 940 940 940 940 940 940 940 940
    940 940 940 940 940 940 938 938 938 938 3037 3037 3037 3010 3010
    3037 3037 3037 3037 3037 3010 3010 3010 2984 2984 2958 2933 2933
    2958 2958 2958 2933 2933 2933 2908 2908 2908 2908 2883 2883 2883
    2859 2859 2859 2859 2859 2859 0 0 1038 1038 1041 1019 1013 1010 1007
    998 992 984 978 973 967 962 954 948 946 943 940 938 938 935 935 935
    935 938 938 940 940 940 940 940 940 940 940 940 940 940 940 940 940
    940 940 940 940 940 940 940 940 943 943 943 943 943 943 943 943 943
    943 943 943 943 943 3037 3037 3037 3037 3037 3037 3037 3037 3037
    3037 3037 3037 3010 3010 3010 2984 2984 2958 2933 2933 2958 2958
    2958 2933 2933 2933 2908 2908 2908 2908 2883 2883 2883 2859 2859
    2859 2859 2859 2859 0 0 1038 1038 1038 1016 1010 1004 1001 995 984
    978 973 967 959 954 948 946 943 943 940 938 938 938 938 938 938 938
    938 940 940 940 940 940 940 943 943 943 943 943 943 943 943 943 943
    943 943 943 943 943 943 946 943 943 943 943 946 946 946 943 943 946
    946 946 3037 3037 3037 3037 3037 3037 3037 3037 3064 3037 3037 3037
    3037 3010 3010 3010 2984 2984 2958 2933 2933 2958 2958 2933 2933
    2933 2908 2908 2908 2908 2908 2883 2883 2883 2859 2859 2859 2859
    2859 2835 1004 1004 1016 1016 1013 1013 1007 998 995 989 978 975 967
    962 954 948 946 946 943 943 940 940 940 940 940 940 940 940 940 943
    940 940 940 943 943 946 946 946 946 946 946 946 946 946 946 946 946
    946 946 946 946 946 943 943 943 943 946 948 948 943 943 943 3064
    3037 3037 3037 3037 3037 3037 3037 3037 3037 3064 3037 3037 3037
    3037 3010 3010 2984 2984 2984 2958 2958 2958 2958 2958 2933 2933
    2933 2908 2908 2908 2908 2883 2883 2883 2883 2859 2859 2859 2835
    2835 2835 1004 1004 1013 1013 1010 1004 1001 992 989 987 970 967 959
    951 948 948 946 946 943 943 943 943 943 943 943 943 943 943 943 946
    946 943 943 946 946 948 948 948 946 946 946 946 948 948 948 948 948
    948 948 948 948 948 946 946 948 948 948 948 948 951 951 3064 3064
    3064 3037 3037 3037 3037 3064 3064 3064 3064 3037 3037 3037 3037
    3037 3010 2984 2984 2958 2958 2958 2958 2958 2958 2958 2958 2958
    2933 2933 2933 2908 2883 2883 2883 2883 2883 2859 2859 2859 2835
    2835 2835 1004 1004 1013 1013 1010 995 989 984 981 973 956 956 951
    948 948 948 946 946 946 946 946 946 946 946 946 946 946 946 946 948
    946 946 946 948 948 948 948 948 948 948 948 948 948 948 948 948 948
    948 948 948 948 948 948 948 948 948 948 951 951 951 3064 3064 3064
    3037 3037 3064 3064 3064 3064 3064 3064 3064 3037 3037 3037 3037
    3010 2984 2984 2984 2958 2958 2958 2958 2958 2958 2958 2958 2958
    2958 2933 2933 2908 2883 2883 2883 2883 2859 2859 2859 2835 2835
    2835 2835 0 0 0 0 0 992 987 978 973 959 956 954 951 948 948 948 946
    946 946 946 946 946 946 946 946 946 946 946 946 948 948 948 948 948
    948 951 948 948 951 948 948 948 948 951 948 948 948 948 948 948 948
    951 951 951 948 948 951 951 951 3064 3064 3064 3064 3037 3037 3064
    3092 3064 3064 3064 3037 3037 3037 3037 3037 3037 3010 2984 2984
    2984 2958 2958 2958 2958 2958 2958 2958 2958 2958 2933 2908 2908
    2883 2883 2883 2883 2859 2859 2859 2859 2835 2835 2835 2835 0 0 0 0
    0 987 981 973 967 959 956 954 951 948 948 948 948 946 946 948 948
    948 948 948 948 948 948 948 948 951 951 951 951 951 951 951 951 951
    951 951 951 951 951 951 951 951 951 951 951 951 951 951 951 951 951
    951 951 951 3064 3064 3064 3064 3064 3064 3064 3064 3092 3064 3064
    3064 3037 3037 3037 3037 3037 3037 3010 2984 2984 2958 2958 2958
    2958 2958 2958 2958 2958 2958 2958 2933 2908 2908 2883 2883 2883
    2883 2859 2859 2859 2859 2859 2859 2859 2835 0 0 0 0 0 981 975 967
    962 956 956 954 951 951 951 951 951 948 948 948 948 948 948 948 948
    948 948 948 948 951 951 951 951 954 954 954 954 954 954 954 954 954
    954 951 951 951 951 951 954 954 954 954 954 954 954 954 3092 3092
    3092 3064 3064 3064 3064 3092 3092 3092 3092 3064 3064 3064 3037
    3037 3037 3037 3037 3037 3010 2984 2984 2958 2958 2958 2958 2958
    2958 2958 2958 2958 2933 2933 2908 2908 2883 2883 2883 2883 2883
    2859 2859 2859 2859 2859 2859 2835 0 0 0 0 0 970 962 959 959 956 956
    956 954 954 954 954 954 951 951 951 951 954 954 951 951 951 951 951
    951 954 954 954 954 954 954 954 956 956 956 956 956 956 956 956 956
    954 954 956 956 956 956 956 956 956 3064 3092 3092 3092 3092 3064
    3064 3092 3092 3092 3092 3092 3064 3064 3064 3064 3037 3037 3037
    3037 3037 3037 3010 3010 2984 2958 2958 2958 2958 2958 2958 2958
    2933 2933 2933 2908 2908 2883 2883 2883 2883 2883 2883 2859 2859
    2859 2859 2859 2859 2835 0 0 0 0 962 962 959 959 959 956 956 956 956
    956 956 956 956 956 954 954 954 956 956 956 956 956 956 956 956 956
    956 956 956 956 956 956 959 959 959 956 956 956 959 959 959 959 959
    959 959 959 956 956 956 3092 3064 3064 3064 3092 3120 3120 3120 3092
    3092 3120 3092 3064 3064 3064 3064 3064 3037 3037 3037 3037 3037
    3037 2984 2984 2984 2984 2984 2958 2958 2958 2958 2958 2933 2933
    2933 2908 2908 2883 2883 2883 2883 2883 2859 2859 2859 2859 2859
    2859 2859 2859 0 0 0 0 959 959 959 959 959 956 956 956 956 956 956
    956 956 956 956 956 956 956 956 956 956 956 956 956 956 959 959 959
    959 962 959 959 959 959 959 959 959 959 959 959 962 959 959 959 959
    962 962 962 3149 3092 3092 3064 3064 3092 3120 3120 3120 3092 3092
    3120 3092 3064 3064 3064 3064 3064 3064 3037 3037 3037 3037 3037
    2984 2984 2984 2984 2984 2958 2958 2958 2958 2958 2933 2933 2933
    2933 2908 2908 2883 2883 2883 2883 2859 2859 2859 2859 2859 2859
    2859 2859 0 0 0 0 959 959 959 959 959 959 959 959 959 959 959 959
    959 959 959 959 959 959 959 959 959 959 959 959 959 962 962 962 962
    962 962 962 962 962 962 959 959 959 959 962 962 962 962 962 962 962
    962 3149 3149 3120 3092 3092 3092 3092 3120 3120 3120 3092 3092 3092
    3092 3064 3064 3064 3064 3064 3064 3037 3037 3037 3037 3010 3010
    3010 3010 2984 2984 2958 2958 2958 2958 2958 2933 2933 2933 2933
    2908 2908 2883 2883 2883 2859 2859 2859 2859 2859 2859 2835 2835
    2835 0 0 0 0 959 959 959 959 959 959 959 959 959 959 959 959 959 962
    962 962 962 959 959 959 959 959 959 962 962 962 964 962 962 962 962
    964 964 964 964 962 962 962 962 962 962 962 962 962 962 3149 3149
    3149 3149 3120 3092 3092 3120 3120 3120 3120 3120 3092 3092 3092
    3092 3064 3064 3064 3064 3064 3064 3037 3037 3037 3037 3010 3010
    3010 2984 2984 2984 2958 2958 2933 2933 2958 2958 2933 2933 2933
    2908 2908 2908 2883 2883 2859 2859 2859 2859 2859 2859 2835 2835
    2835 1134 1138 0 0 959 959 959 959 962 962 962 962 959 959 959 962
    962 964 962 962 962 962 962 962 962 962 962 964 964 964 964 964 964
    964 964 964 964 964 964 964 967 967 967 964 962 962 962 3178 3178
    3149 3149 3149 3149 3149 3149 3149 3120 3120 3120 3120 3120 3092
    3092 3092 3092 3092 3064 3064 3064 3064 3064 3064 3037 3037 3037
    3010 3010 2984 2984 2958 2958 2958 2958 2933 2933 2958 2958 2933
    2933 2933 2933 2908 2908 2883 2883 2883 2883 2883 2859 2859 2859
    2835 2835 2835 1134 1138 1141 0 0 962 962 962 962 964 964 964 962
    962 962 964 964 964 964 964 964 967 967 964 964 964 964 964 967 967
    970 970 970 967 967 967 967 967 967 967 967 967 970 970 970 970 3208
    3178 3178 3149 3149 3149 3149 3149 3149 3149 3149 3149 3149 3120
    3092 3092 3092 3092 3092 3092 3064 3064 3064 3064 3064 3037 3037
    3037 3037 3010 3010 2984 2984 2958 2958 2958 2933 2933 2933 2958
    2958 2933 2933 2933 2908 2908 2908 2883 2883 2883 2883 2883 2859
    2859 2859 2835 2835 2835 1126 1134 1141 0 0 0 964 964 964 964 967
    964 964 964 964 964 967 967 967 967 967 967 967 967 967 967 967 967
    967 970 970 970 970 970 967 967 967 970 970 970 970 970 970 970 3238
    3238 3208 3178 3178 3149 3149 3149 3149 3178 3178 3149 3149 3149
    3149 3120 3092 3092 3092 3092 3092 3092 3064 3064 3064 3064 3037
    3037 3010 3010 2984 2984 2984 2984 2984 2958 2958 2958 2933 2933
    2933 2958 2958 2958 2933 2908 2908 2883 2883 2883 2883 2883 2883
    2883 2859 2859 2859 2835 2835 2835 1119 1126 1141 1153 1153 1153 970
    0 970 967 967 967 967 967 967 967 967 967 967 970 970 970 967 967
    967 967 967 967 970 973 973 973 970 970 970 970 970 970 973 970 970
    970 970 3178 3208 3208 3208 3178 3178 3178 3178 3178 3178 3178 3178
    3149 3149 3149 3149 3120 3092 3092 3092 3092 3092 3092 3064 3064
    3064 3037 3037 3037 3010 3010 2984 2984 2984 2958 2958 2958 2958
    2958 2933 2933 2933 2958 2958 2933 2908 2908 2883 2883 2883 2883
    2883 2883 2883 2883 2859 2859 2859 2859 2835 2835 1119 1119 1153
    1153 1153 0 0 0 973 967 967 967 967 970 970 970 970 970 970 970 970
    970 970 970 970 970 970 970 970 973 973 973 973 973 973 973 975 973
    970 970 970 970 3178 3178 3178 3178 3208 3178 3178 3178 3178 3178
    3178 3178 3178 3149 3149 3149 3149 3149 3120 3120 3120 3092 3092
    3092 3064 3064 3064 3037 3037 3037 3010 3010 2984 2984 2984 2958
    2958 2958 2958 2958 2933 2933 2933 2958 2933 2933 2908 2908 2883
    2883 2883 2883 2883 2883 2883 2883 2859 2859 2859 2859 2835 2835
    1119 1119 1119 1149 1149 0 0 0 0 0 970 970 970 970 970 970 970 970
    973 973 973 973 970 970 970 970 970 973 973 975 975 973 973 973 973
    973 973 973 970 970 970 3178 3178 3178 3178 3178 3208 3208 3208 3208
    3208 3178 3178 3178 3178 3149 3149 3149 3149 3149 3149 3120 3120
    3092 3092 3064 3064 3064 3064 3037 3037 3037 3010 3010 3010 2984
    2984 2958 2958 2958 2958 2958 2958 2933 2933 2933 2933 2933 2908
    2908 2883 2883 2883 2883 2883 2883 2883 2859 2859 2859 2859 2859
    2812 2812 1070 1090 1090 1149 1149 1149 0 0 0 0 0 970 970 970 970
    973 973 973 973 973 973 975 975 975 973 973 973 975 975 978 978 975
    975 975 975 973 973 973 973 3238 0 3238 3178 3178 3178 3208 3238
    3238 3208 3208 3208 3178 3178 3178 3178 3149 3149 3149 3149 3149
    3149 3120 3120 3092 3092 3064 3064 3064 3037 3037 3037 3037 3037
    3010 3010 3010 2984 2958 2958 2958 2958 2958 2958 2933 2933 2933
    2933 2933 2908 2908 2883 2883 2883 2883 2883 2859 2859 2859 2859
    2859 2835 2835 2812 2812 1070 1090 1090 1123 1123 1141 1145 0 0 0 0
    0 973 973 973 975 978 975 975 975 975 975 975 975 975 975 978 978
    978 981 981 981 981 981 978 975 975 975 3208 3238 3238 3238 3238
    3238 3238 3238 3238 3208 3208 3208 3208 3178 3178 3178 3178 3149
    3149 3149 3120 3120 3120 3120 3092 3064 3064 3064 3064 3064 3037
    3037 3037 3037 3037 3010 3010 3010 2984 2958 2958 2958 2958 2958
    2958 2933 2933 2933 2933 2933 2908 2883 2883 2883 2883 2883 2883
    2859 2859 2859 2859 2859 2835 2835 2812 2812 1063 1073 1084 1090
    1105 1141 1145 0 0 0 0 0 0 0 978 978 978 978 978 978 978 978 978 978
    978 978 978 978 978 981 981 981 981 981 978 978 978 3208 3208 3208
    3208 3238 3269 3269 3238 3238 3208 3208 3208 3208 3208 3178 3178
    3178 3178 3149 3149 3120 3120 3120 3092 3092 3092 3064 3064 3064
    3064 3064 3064 3037 3037 3010 3010 3010 3010 3010 2984 2984 2984
    2958 2958 2958 2958 2933 2933 2933 2908 2908 2908 2883 2883 2883
    2883 2883 2883 2859 2859 2859 2859 2859 2835 2812 2812 2812 1063
    1073 1080 1084 1094 1094 0 0 0 0 0 0 0 0 981 981 981 981 981 981 981
    981 978 978 978 978 978 978 981 984 984 981 981 981 981 981 3269
    3208 3208 3208 3208 3238 3269 3269 3269 3238 3208 3208 3208 3208
    3178 3178 3178 3178 3149 3149 3120 3120 3120 3120 3092 3092 3092
    3064 3064 3064 3064 3064 3064 3037 3037 3010 3010 3010 2984 2984
    2984 2984 2984 2958 2958 2958 2933 2933 2933 2933 2908 2908 2908
    2883 2883 2883 2883 2883 2883 2859 2859 2859 2859 2859 2835 2812
    2812 2812 1063 1073 1073 1080 1090 0 0 0 0 0 0 0 0 0 0 981 981 981
    981 981 981 981 981 981 978 978 981 981 981 984 984 981 981 981 981
    3269 3269 3269 3208 3208 3238 3269 3269 3269 3238 3238 3208 3178
    3178 3178 3178 3178 3178 3178 3149 3149 3120 3120 3120 3120 3092
    3092 3064 3064 3064 3064 3064 3064 3037 3037 3037 3010 3010 3010
    2984 2984 2984 2984 2958 2958 2958 2958 2933 2933 2933 2933 2908
    2908 2908 2883 2883 2883 2883 2883 2883 2883 2883 2859 2859 2859
    2835 2812 2812 2812 1057 1067 1067 1073 1080 1080 0 0 0 0 0 0 0 0 0
    3238 3238 3238 984 984 981 981 984 984 984 984 984 984 984 984 984
    981 981 981 3269 3269 3269 3269 3269 3269 3269 3269 3238 3238 3238
    3238 3208 3178 3178 3178 3178 3178 3178 3178 3149 3149 3149 3120
    3120 3120 3092 3092 3064 3064 3064 3064 3064 3037 3037 3037 3037
    3010 3010 3010 2984 2984 2984 2958 2958 2958 2958 2933 2933 2933
    2933 2933 2933 2933 2908 2908 2908 2908 2883 2883 2883 2883 2883
    2859 2859 2859 2835 2835 2812 2812 1057 1060 1067 1067 1080 1105
    1105 1105 1108 0 0 0 0 0 0 3238 3208 3208 3333 3333 989 989 989 989
    989 987 987 984 984 984 984 984 3300 3300 3300 3269 3269 3269 3269
    3269 3269 3269 3238 3238 3208 3208 3208 3178 3178 3178 3178 3178
    3178 3178 3149 3149 3149 3120 3120 3120 3092 3092 3064 3064 3064
    3064 3037 3037 3037 3037 3037 3037 3010 3010 3010 2984 2958 2958
    2958 2958 2933 2933 2933 2933 2958 2958 2933 2933 2933 2908 2908
    2908 2883 2883 2883 2883 2883 2859 2859 2859 2835 2835 2835 2812
    1057 1057 1063 1067 1077 1097 1101 1105 1105 0 0 0 0 0 3300 3238
    3208 3208 3300 3300 3300 992 989 989 989 989 989 989 989 3300 3269
    3300 3300 3269 3269 3300 3269 3269 3269 3269 3269 3238 3238 3208
    3208 3178 3178 3178 3178 3178 3178 3178 3178 3178 3149 3149 3149
    3120 3120 3092 3092 3092 3092 3064 3064 3064 3037 3037 3037 3037
    3037 3037 3010 3010 3010 2984 2958 2958 2958 2958 2933 2933 2933
    2933 2958 2958 2933 2933 2933 2933 2908 2908 2883 2883 2883 2883
    2883 2883 2859 2859 2835 2835 2835 2835</data></Depth18613>
</opencv_storage>
