<?xml version="1.0"?>
<opencv_storage>
<Depth11669 type_id="opencv-matrix">
  <rows>99</rows>
  <cols>33</cols>
  <dt>w</dt>
  <data>
    4645 4645 0 4708 4708 4708 4708 0 1427 1427 0 0 1445 1328 1328 1328
    1328 1333 1343 1343 5210 5210 5210 5210 5210 5132 5132 5132 5132
    5132 5210 5210 5210 4645 4708 0 0 0 1349 0 0 0 1427 1427 1427 1445
    1445 1445 1328 1328 1328 1333 1333 5210 5210 5210 5210 0 5132 5132
    5132 5132 5210 5210 5210 5210 0 4582 0 0 0 0 0 0 0 1427 1427 1427
    1427 1439 1439 1328 1328 1328 1333 1333 1333 1328 1328 1322 0 5132
    5132 5132 5132 5210 5210 5210 5210 0 0 0 0 0 1349 0 0 0 1387 1387
    1376 1354 1349 1349 1427 1328 1328 1328 1328 1328 1328 1322 0 0 5132
    5132 5132 5132 5210 5210 5210 5210 0 0 0 0 0 1349 1349 1354 1354
    1354 1359 1354 1349 1343 1338 1333 1328 1322 1322 1322 1322 1322
    1322 0 4708 5210 5210 5210 5210 5210 5210 5210 5210 1322 1322 1322
    1322 1328 1333 1338 1338 1338 1343 1343 1338 1333 1333 1328 1328
    1322 1322 1322 1322 1322 1322 1322 1328 4708 4708 4708 4774 5210
    5210 5210 5210 5210 1322 1322 1322 1322 1322 1328 1328 1328 1328
    1333 1328 1328 1328 1328 1322 1322 1322 1322 1322 1322 1322 1317
    1317 1328 0 4708 4708 4774 5210 5210 5210 5210 5210 1322 1322 1322
    1322 1322 1328 1322 1322 1322 1328 1328 1328 1322 1322 1322 1322
    1322 1322 1322 1322 1322 1317 1317 1328 1328 1328 5210 5210 5210
    5210 5210 5210 5210 1328 1328 1328 1322 1322 1322 1322 1322 1322
    1322 1322 1322 1322 1317 1317 1322 1322 1322 1322 1322 1322 1317
    1317 1322 1322 0 5210 5210 5210 5210 5210 5210 5210 1343 1328 1328
    1322 1322 1322 1322 1322 1322 1322 1322 1322 1322 1317 1317 1322
    1322 1322 1317 1317 1317 1317 1317 1322 1322 1322 5210 5210 5210
    5210 5210 5210 5210 1343 1328 1328 1322 1322 1322 1322 1322 1322
    1322 1322 1322 1322 1322 1322 1322 1322 1322 1317 1317 1317 1317
    1317 1322 1322 1322 5210 5210 5210 5210 5210 5210 5210 1328 1328
    1322 1322 1322 1322 1322 1322 1322 1322 1322 1322 1322 1322 1322
    1322 1322 1322 1317 1317 1317 1317 1317 1322 1322 1322 1322 5210
    5210 5210 5210 5210 5210 1328 1328 1322 1322 1322 1322 1322 1322
    1322 1322 1322 1322 1322 1322 1322 1322 1322 1322 1322 1322 1322
    1317 1317 1322 1322 1322 0 5210 5210 5210 5210 5210 5210 1328 1328
    1322 1322 1322 1322 1322 1322 1322 1322 1322 1322 1322 1322 1322
    1322 1322 1322 1322 1322 1322 1317 1317 1322 1322 1322 0 5210 5210
    5210 5210 5210 5210 1328 1328 1328 1328 1328 1328 1328 1322 1322
    1322 1322 1322 1322 1322 1322 1322 1322 1322 1322 1322 1322 1317
    1317 1322 1322 1322 0 5210 5210 5210 5210 5210 5210 0 1328 1328 1328
    1328 1328 1328 1328 1322 1322 1322 1322 1322 1322 1322 1322 1322
    1322 1322 1322 1322 1317 1317 1322 1322 0 0 0 5210 5210 5210 5210
    5210 0 1328 1328 1328 1328 1328 1328 1328 1322 1322 1322 1322 1322
    1322 1322 1322 1322 1322 1322 1322 1322 1317 1317 1322 1328 1328 0
    5210 5210 5210 5210 5210 5210 0 1333 1328 1328 1328 1328 1328 1328
    1328 1322 1322 1322 1322 1322 1322 1322 1322 1322 1322 1322 1322
    1317 1317 1328 1328 1328 0 5291 5291 5210 5210 5210 5210 0 0 1328
    1328 1328 1328 1328 1328 1328 1322 1322 1322 1322 1322 1322 1322
    1322 1322 1322 1322 1322 1322 1322 1328 1328 0 0 5291 5291 5210 5210
    5210 5210 0 0 1322 1322 1328 1328 1328 1333 1328 1328 1322 1322 1322
    1322 1322 1322 1322 1322 1322 1322 1322 1322 1322 1328 1328 1328
    1328 5210 5210 5132 5132 5132 5132 0 0 1322 1322 1328 1328 1328 1328
    1328 1328 1328 1328 1322 1322 1322 1322 1322 1322 1322 1322 1322
    1322 1322 1328 1328 1328 1328 5210 5210 5132 5132 5132 5132 0 0 1328
    1328 1328 1328 1328 1328 1328 1328 1328 1328 1328 1328 1322 1322
    1322 1322 1322 1322 1322 1322 1322 1328 1328 1328 1328 1328 5132
    5132 5056 5056 5132 0 0 1328 1328 1328 1328 1328 1328 1328 1328 1328
    1328 1328 1328 1328 1322 1322 1328 1328 1322 1322 1322 1322 1328
    1328 1328 1328 0 5210 5056 5056 5056 5132 0 0 1328 1328 1328 1328
    1328 1328 1328 1328 1328 1328 1328 1328 1328 1328 1328 1328 1328
    1328 1322 1322 1322 1333 1328 1328 1328 0 5210 5210 5132 5132 5132 0
    0 1328 1328 1328 1328 1328 1328 1328 1328 1328 1328 1328 1328 1328
    1328 1328 1328 1328 1322 1322 1322 1328 1333 1333 1333 1333 0 5210
    5210 5210 5210 5210 0 0 1328 1328 1333 1328 1328 1328 1328 1328 1328
    1328 1328 1328 1328 1328 1328 1328 1328 1322 1322 1322 1328 1333
    1333 1333 1333 0 5291 5291 5291 5291 5210 0 0 0 1333 1333 1333 1333
    1333 1328 1328 1328 1328 1328 1328 1328 1328 1328 1328 1328 1328
    1328 1328 1328 1333 1328 1328 1328 0 5291 5291 5291 5291 5291 0 0 0
    1338 1338 1338 1333 1333 1328 1328 1328 1328 1328 1328 1328 1328
    1328 1328 1328 1328 1328 1328 1328 1328 1328 1328 1328 0 5291 5291
    5291 5291 5291 0 0 1343 1338 1338 1338 1333 1333 1333 1328 1328 1328
    1328 1328 1328 1328 1328 1328 1328 1328 1328 1328 1328 1328 1328
    1328 1328 1343 0 5374 5210 5210 5210 0 0 1343 1338 1338 1338 1333
    1333 1333 1328 1328 1328 1328 1328 1328 1328 1328 1328 1328 1328
    1328 1328 1328 1333 1333 1333 1343 1343 0 5374 5210 5210 5210 0 0
    1349 1343 1338 1338 1333 1333 1333 1328 1328 1328 1328 1328 1328
    1328 1328 1328 1328 1328 1328 1328 1328 1333 1333 1333 1343 1343
    5210 5210 5210 5210 5210 0 0 1349 1338 1333 1333 1333 1333 1328 1328
    1328 1328 1328 1328 1328 1328 1328 1328 1328 1328 1328 1328 1328
    1333 1333 1333 1343 1343 5210 5210 5132 5132 5210 0 0 0 1338 1333
    1333 1333 1333 1328 1328 1333 1333 1333 1328 1328 1328 1328 1328
    1328 1328 1328 1328 1328 1333 1333 1333 1333 1333 5132 5132 5132
    5132 5210 0 0 0 1343 1338 1338 1333 1333 1328 1328 1333 1333 1333
    1328 1328 1328 1328 1328 1328 1328 1328 1328 1333 1338 1333 1333
    1333 1333 4983 4983 4983 4983 5132 0 0 0 1343 1338 1333 1333 1328
    1328 1333 1333 1333 1333 1328 1328 1328 1328 1328 1328 1328 1328
    1328 1333 1338 1333 1333 1333 0 4983 4983 4983 4983 5056 0 0 0 1343
    1333 1333 1328 1328 1328 1333 1338 1333 1333 1328 1328 1328 1328
    1328 1328 1328 1328 1328 1333 1333 1333 1333 1333 1333 1333 4983
    4983 4983 5056 0 0 0 1343 1333 1328 1328 1328 1328 1333 1338 1333
    1333 1328 1328 1333 1333 1328 1328 1328 1328 1328 1333 1333 1333
    1333 1333 1333 0 4983 4983 4983 4983 0 0 0 0 1333 1328 1328 1328
    1328 1333 1333 1333 1333 1333 1333 1333 1333 1328 1328 1328 1328
    1328 1328 1333 1333 1338 1338 1338 0 4983 4983 4983 4983 0 0 0 0 0
    1338 1333 1333 1333 1338 1333 1333 1333 1333 1333 1333 1333 1328
    1328 1328 1328 1328 1328 1333 1333 1338 1338 1338 4708 4708 4911
    4911 4911 0 0 0 0 1333 1333 1338 1338 1338 1338 1333 1333 1333 1333
    1333 1333 1333 1328 1328 1328 1328 1328 1328 1333 1333 1338 1338
    1338 4708 4708 4708 4774 4842 0 0 0 0 1328 1328 1338 1338 1338 1338
    1333 1333 1333 1333 1333 1333 1333 1328 1328 1328 1328 1328 1328
    1333 1333 1333 1338 1338 4708 4708 4708 3653 3614 4708 0 0 0 1328
    1328 1338 1338 1338 1338 1333 1333 1333 1333 1333 1333 1333 1333
    1333 1333 1333 1333 1333 1333 1333 1333 1338 1338 1328 4774 4774
    3614 3576 4708 4911 0 0 1328 1328 1333 1333 1338 1338 1333 1333 1333
    1333 1333 1333 1333 1333 1333 1333 1333 1333 1333 1333 1333 1333
    1328 1328 1328 1328 3614 3614 3539 4911 4911 4911 0 1328 1328 1333
    1333 1338 1338 1338 1338 1338 1338 1338 1333 1333 1333 1333 1333
    1333 1333 1333 1333 1333 1333 1328 1328 1328 0 3614 3614 3539 4842
    4842 0 0 1328 1328 1328 1333 1338 1338 1338 1338 1338 1338 1338 1338
    1338 1338 1338 1338 1333 1333 1333 1338 1333 1333 1338 1338 1338 0
    3576 3576 3539 4842 4842 4842 0 1328 1328 1328 1333 1338 1338 1338
    1338 1338 1338 1338 1338 1338 1338 1338 1338 1333 1333 1333 1338
    1338 1338 1338 1349 1349 0 3539 3539 3539 4774 4774 1333 0 1333 1333
    1333 1338 1338 1338 1338 1338 1338 1338 1338 1338 1338 1338 1338
    1338 1333 1333 1333 1338 1338 1338 1338 1349 1349 3539 3539 3539
    3503 3948 0 0 0 1343 1338 1338 1338 1338 1338 1338 1338 1338 1338
    1338 1338 1338 1338 1338 1338 1338 1333 1333 1343 1343 1343 1343
    1349 1349 3539 3539 3539 3503 3948 3948 0 1349 1349 1343 1343 1338
    1338 1338 1338 1338 1338 1338 1338 1338 1333 1333 1338 1338 1338
    1333 1333 1343 1343 1343 1343 1343 1343 3539 3539 3539 3503 3948
    3948 0 0 1343 1343 1343 1338 1338 1338 1338 1338 1338 1338 1338 1338
    1333 1333 1338 1338 1338 1333 1333 1343 1343 1343 1343 1343 0 3503
    3503 3503 3539 3948 0 0 0 0 1343 1343 1338 1338 1338 1338 1338 1338
    1338 1338 1338 1338 1338 1338 1338 1338 1338 1338 1343 1343 1343
    1343 1343 0 3503 3503 3503 3539 3994 0 0 0 1343 1343 1343 1343 1343
    1338 1338 1338 1338 1338 1338 1338 1338 1338 1338 1338 1343 1343
    1343 1343 1343 1343 1343 1343 0 3503 3503 3503 3539 3859 0 0 0 1343
    1343 1343 1338 1338 1343 1343 1343 1343 1343 1343 1338 1338 1338
    1338 1338 1343 1343 1343 1343 1343 1343 1343 1343 1343 3433 3433
    3433 3468 3859 0 0 0 1343 1343 1343 1338 1338 1343 1343 1343 1343
    1343 1343 1343 1338 1338 1338 1338 1343 1343 1343 1343 1343 1343
    1343 1343 1343 3433 3433 3433 3468 3120 0 0 0 1343 1343 1343 1338
    1338 1343 1343 1343 1343 1343 1343 1343 1338 1338 1338 1338 1343
    1343 1343 1343 1343 1343 1343 1343 1343 1343 3365 3399 3399 3120
    3120 0 1343 1343 1343 1343 1338 1338 1343 1343 1343 1343 1343 1343
    1343 1343 1343 1343 1343 1343 1343 1343 1343 1343 1343 1343 1343
    1343 0 3365 3365 3365 3120 3120 0 1343 1343 1343 1343 1343 1343 1343
    1343 1343 1343 1343 1343 1343 1343 1343 1343 1343 1343 1343 1343
    1349 1349 1349 1343 1343 1343 0 3365 3365 3365 3120 3120 0 1343 1343
    1343 1343 1343 1343 1343 1343 1343 1343 1343 1343 1343 1343 1343
    1343 1343 1343 1343 1343 1349 1349 1349 1343 1343 1343 0 3399 3399
    3399 3120 3120 3120 1343 1343 1343 1343 1343 1343 1343 1343 1343
    1343 1343 1343 1343 1343 1343 1343 1343 1343 1343 1343 1349 1349
    1349 1349 1349 0 0 0 3399 3399 3092 3120 3120 1349 1343 1343 1343
    1343 1343 1343 1343 1343 1343 1343 1343 1343 1343 1343 1343 1343
    1343 1343 1343 1349 1349 1349 1349 1349 1354 0 0 0 0 3092 3120 3120
    1349 1349 1343 1343 1343 1343 1343 1343 1343 1343 1343 1343 1343
    1343 1343 1343 1343 1343 1343 1343 1349 1349 1349 1349 1349 1349 0 0
    0 0 3092 3120 3120 1349 1349 1349 1349 1343 1343 1343 1343 1343 1343
    1343 1343 1343 1343 1343 1343 1343 1343 1343 1343 1349 1349 1349
    1349 1349 1349 0 0 0 0 3092 3120 0 1354 1354 1349 1349 1343 1343
    1343 1343 1343 1343 1343 1343 1343 1343 1343 1343 1343 1343 1343
    1349 1349 1349 1349 1349 1349 1349 0 0 0 0 3092 3120 0 0 1354 1349
    1349 1349 1349 1349 1343 1343 1343 1343 1343 1343 1343 1343 1343
    1343 1343 1349 1349 1349 1349 1349 1349 1349 1349 0 0 0 0 3092 3092
    3092 0 1349 1349 1349 1349 1349 1349 1349 1349 1343 1343 1343 1349
    1349 1349 1343 1343 1343 1343 1349 1349 1349 1349 1349 1349 1349 0 0
    0 0 3092 3092 0 0 0 1354 1349 1349 1349 1349 1349 1349 1343 1343
    1349 1349 1349 1349 1343 1343 1343 1343 1349 1349 1349 1354 1349
    1349 1349 0 0 0 0 3092 3120 0 0 0 1354 1349 1349 1349 1349 1349 1349
    1349 1349 1349 1349 1349 1349 1349 1343 1343 1343 1354 1354 1354
    1354 1349 1349 1354 0 0 0 0 3092 0 0 0 0 0 1349 1349 1349 1349 1349
    1349 1349 1349 1349 1349 1349 1349 1349 1343 1343 1349 1354 1354
    1354 1354 1349 1349 1354 0 0 0 0 3092 0 0 0 0 0 1349 1349 1349 1349
    1349 1349 1349 1349 1349 1349 1349 1349 1349 1349 1349 1349 1354
    1354 1354 1354 1349 1349 1354 0 0 0 0 0 0 0 0 0 0 1354 1354 1349
    1349 1349 1349 1349 1349 1349 1349 1349 1349 1349 1349 1349 1349
    1354 1354 1354 1354 1349 1349 1354 0 0 0 0 0 0 0 0 0 0 1354 1349
    1349 1349 1349 1349 1349 1349 1349 1349 1349 1349 1349 1349 1349
    1349 1354 1354 1354 1354 1349 1349 1354 0 0 0 0 0 0 0 0 0 0 1354
    1349 1349 1349 1349 1349 1349 1349 1349 1349 1349 1349 1349 1349
    1349 1349 1354 1354 1354 1354 1354 1354 1354 1359 0 0 0 0 0 0 0 0 0
    1349 1349 1349 1349 1349 1349 1349 1349 1349 1349 1349 1349 1349
    1349 1349 1354 1359 1354 1354 1354 1354 1354 1354 1359 0 0 0 0 0 0 0
    0 0 1349 1349 1349 1349 1349 1349 1349 1349 1349 1349 1349 1349 1349
    1349 1349 1354 1354 1354 1354 1354 1354 1354 1354 1359 0 0 0 0 0 0 0
    0 0 1359 1349 1349 1354 1349 1349 1349 1349 1349 1349 1354 1349 1349
    1349 1349 1354 1354 1354 1354 1354 1354 1354 1354 1496 1496 0 0 0 0
    0 0 0 0 1365 1365 1365 1359 1354 1349 1349 1349 1349 1349 1354 1354
    1349 1349 1349 1489 1354 1349 1349 1349 1354 1354 1489 1489 1496 0 0
    0 0 0 0 0 0 0 0 1376 1376 1483 1489 1483 1483 1477 1477 1470 1470
    1470 1470 1483 1483 1464 1349 1349 1349 1458 1464 1470 1477 0 0 0 0
    0 0 0 0 0 0 1483 1477 1477 1477 1483 1477 1477 1470 1464 1464 1464
    1458 1458 1458 1458 1458 1458 1458 1452 1452 1452 1452 1458 0 0 0 0
    0 0 0 0 0 0 1464 1464 1458 1458 1458 1458 1464 1458 1458 1458 1452
    1445 1445 1445 1445 1445 1445 1445 1445 1445 1433 1433 1433 0 0 0 0
    0 0 0 0 0 1458 1458 1452 1452 1445 1445 1445 1452 1452 1445 1439
    1439 1433 1433 1433 1433 1433 1433 1433 1433 1433 1421 1421 1421 0 0
    0 0 0 0 0 0 0 1452 1452 1445 1439 1433 1433 1433 1433 1433 1427 1427
    1427 1421 1421 1427 1421 1421 1421 1421 1421 1421 1415 1415 1410
    1410 0 0 0 0 0 0 0 1489 1452 1452 1421 1421 1421 1427 1427 1427 1421
    1421 1421 1421 1415 1415 1415 1415 1415 1421 1415 1415 1415 1415
    1415 1404 1404 0 0 0 0 0 0 0 1489 1445 1439 1415 1415 1415 1421 1421
    1415 1415 1415 1415 1415 1415 1415 1415 1415 1415 1415 1415 1415
    1415 1415 1415 1404 1404 0 0 0 0 0 0 0 0 1415 1415 1415 1415 1415
    1421 1421 1415 1415 1415 1415 1415 1415 1415 1415 1415 1415 1415
    1415 1415 1415 1415 1415 1404 1404 1410 0 0 0 0 0 0 1415 1415 1415
    1415 1415 1415 1415 1415 1415 1415 1415 1415 1415 1415 1415 1415
    1415 1415 1415 1415 1415 1415 1415 1415 1415 1410 1410 1452 0 0 0 0
    0 1415 1410 1410 1415 1415 1415 1415 1415 1415 1415 1415 1415 1415
    1415 1415 1415 1415 1415 1421 1415 1415 1421 1421 1421 1421 1415
    1415 1452 0 0 0 0 0 1415 1410 1410 1415 1415 1415 1415 1415 1415
    1415 1415 1415 1415 1415 1415 1415 1415 1415 1421 1415 1415 1421
    1421 1421 1421 1421 1421 1421 0 0 0 0 0 1415 1415 1415 1415 1415
    1415 1415 1415 1415 1415 1415 1415 1415 1415 1415 1415 1415 1415
    1421 1421 1421 1421 1421 1421 1421 1421 1421 1421 0 0 0 0 0 0 1415
    1415 1415 1415 1415 1415 1415 1415 1415 1415 1415 1415 1415 1415
    1415 1415 1421 1421 1421 1421 1421 1427 1427 1421 1421 1813 1813 0 0
    0 0 0 0 1415 1415 1415 1415 1415 1415 1415 1415 1415 1415 1415 1415
    1415 1415 1415 1415 1421 1421 1421 1421 1421 1433 1427 1427 1813
    1813 1813 0 0 0 0 0 0 1415 1410 1410 1415 1415 1415 1415 1415 1421
    1421 1421 1421 1421 1421 1415 1415 1421 1421 1427 1427 1439 1452
    1833 1823 1813 1813 1813 0 1823 1823 1833 1833 1833 1410 1410 1410
    1415 1415 1433 1427 1427 1427 1427 1427 1427 1427 1421 1415 1415
    1427 1427 1433 1439 1445 1470 1823 1813 1813 1813 1804 1804 1804
    1813 1813 1813 1804 1804 1813 1813 1804 1804 1804 1804 1439 1439
    1433 1433 1433 1427 1427 1427 1427 1427 1433 1439 1439 1464 1470
    1813 1813 1813 1804 1804 1794 1804 1813 1813 1804 1804 1804 1813
    1813 1804 1804 1804 1804 1439 1439 1439 1439 1433 1433 1433 1433
    1433 1433 1439 1439 1445 1458 1470 1804 1804 1804 1804 1804 1794
    1794 1804 1804 1804 1794 1794 1804 1804 1804 1804 1804 1804 1439
    1439 1439 1439 1439 1433 1433 1433 1433 1433 1439 1439 1445 1452
    1464 1804 1804 1804 1794 1794 1785 1785 1785 1785 1785 1785 1785
    1785 1794 1804 1804 1804 1804 1445 1445 1445 1439 1439 1439 1433
    1433 1433 1439 1439 1439 1445 1452 1464 1464 1804 1804 1794 1794
    1776 1776 1785 1776 1776 1776 1776 1776 1785 1794 1804 1813 1813
    1458 1458 1452 1445 1439 1439 1439 1433 1433 1439 1439 1439 1445
    1458 1464 1464 1804 1804 1794 1794 1766 1766 1766 1776 1776 1776
    1776 1776 1776 1766 1766 1813 1813 1458 1458 1452 1445 1439 1439
    1439 1439 1439 1439 1439 1445 1445 1458 1464 0 0 0 0 2317 1766 1766
    1766 1776 1766 1766 1766 1766 1757 1739 1739 0 0 1464 1464 1452 1445
    1445 1445 1439 1439 1439 1439 1445 1445 1445 1445 1464 0 0 0 0 2317</data></Depth11669>
</opencv_storage>
