<?xml version="1.0"?>
<opencv_storage>
<Depth16850 type_id="opencv-matrix">
  <rows>128</rows>
  <cols>86</cols>
  <dt>w</dt>
  <data>
    3653 3653 3653 3653 3653 3653 3653 3653 3653 3692 3732 3774 3774
    3774 3774 3774 878 878 880 880 882 3816 3816 3859 3859 833 3994 3994
    3948 3903 3903 3903 3948 3948 3948 3994 800 796 796 790 787 781 781
    780 780 776 773 771 769 767 766 761 759 755 754 750 746 744 742 741
    739 736 734 734 734 734 738 4349 4349 4349 4349 4349 4349 4349 4405
    4405 798 798 800 800 4522 4463 4405 4349 4349 4405 3653 3653 3653
    3653 3653 3653 3614 3614 3653 3692 3732 3774 3774 3774 3774 3774 878
    878 878 878 880 3816 3816 837 837 833 833 827 825 821 819 815 811
    807 805 803 800 794 794 790 787 785 781 780 780 776 773 771 769 766
    764 761 757 755 754 750 746 744 742 741 739 736 734 734 734 734 738
    746 747 747 747 750 750 803 803 802 798 798 800 800 800 4463 4405
    4349 4349 4349 3653 3653 3653 3653 3653 3653 3614 3614 3614 3774
    3774 3774 885 885 3774 3774 875 875 878 878 880 3816 843 837 837 833
    829 827 825 821 817 815 811 807 805 802 800 794 794 790 789 785 783
    781 780 776 773 771 767 766 764 762 757 755 754 752 746 746 742 741
    739 738 736 734 734 734 739 742 746 747 749 750 750 803 803 802 800
    800 800 798 798 4463 4463 4463 4463 798 3614 3614 3614 3653 3653
    3653 3653 3653 3653 882 882 882 873 869 867 864 862 862 858 851 849
    845 843 839 837 833 829 827 825 821 817 815 811 807 803 802 798 796
    794 790 789 787 783 781 780 776 773 769 767 766 764 761 757 754 754
    752 746 744 742 741 739 736 734 734 734 734 738 741 746 747 749 750
    757 761 764 766 802 800 800 798 798 794 794 794 796 798 3614 3614
    3614 3653 3653 3653 0 0 0 878 878 878 871 869 867 864 860 860 856
    851 849 845 843 841 837 831 827 827 823 819 817 815 811 807 803 802
    798 796 792 790 789 787 785 783 780 774 773 769 767 766 764 761 757
    754 752 750 746 744 742 741 738 734 734 733 733 734 738 739 746 747
    750 754 757 761 764 766 769 774 783 783 785 790 794 794 796 798 3576
    3576 0 0 0 0 0 0 0 880 878 875 869 867 864 862 860 858 854 851 849
    845 843 839 833 831 827 825 823 819 817 813 811 805 803 800 798 796
    792 790 787 785 783 781 780 774 773 769 767 766 764 759 757 754 752
    746 744 742 741 739 736 734 733 733 733 733 736 739 744 749 752 754
    759 762 764 766 769 774 778 781 785 790 794 794 796 798 3576 3576 0
    0 0 0 0 0 0 880 878 875 869 867 864 860 858 858 854 851 849 845 841
    839 833 829 827 825 821 817 815 813 807 805 802 800 796 796 792 789
    787 785 783 781 780 774 771 767 767 766 762 759 757 754 752 746 744
    742 741 739 736 734 733 733 733 733 736 738 744 749 752 754 757 761
    764 766 771 774 778 781 785 790 794 796 798 800 3614 0 0 0 0 0 0 0 0
    878 878 873 869 869 864 860 858 858 854 851 849 845 841 839 831 827
    825 823 819 817 815 811 807 803 802 798 796 794 792 789 787 785 781
    780 778 774 771 767 767 764 761 759 757 754 750 749 744 742 741 739
    736 734 733 733 733 733 736 738 744 747 752 752 757 761 764 767 771
    774 776 781 785 790 794 796 800 802 3614 0 0 0 0 0 0 0 0 878 878 873
    869 867 862 858 856 856 851 849 847 845 841 837 831 827 825 823 819
    817 813 811 805 803 802 798 796 794 790 789 787 785 781 780 778 773
    771 767 766 762 761 759 757 754 750 749 746 742 741 738 734 733 733
    733 733 733 736 738 744 747 752 752 755 759 762 767 773 774 776 781
    785 790 794 796 800 802 3614 0 0 0 0 0 0 0 0 875 875 873 869 867 862
    858 856 854 851 849 845 843 839 835 829 827 825 821 819 815 813 811
    805 803 802 798 796 794 790 789 787 783 781 780 778 773 771 767 766
    762 761 759 757 754 752 749 746 742 741 738 734 733 731 731 731 733
    736 738 746 747 750 752 755 759 762 767 771 774 778 781 783 789 794
    796 800 803 3614 0 0 0 0 0 0 0 875 875 875 873 867 864 860 858 854
    851 849 847 843 841 839 833 829 827 825 821 817 815 811 811 805 803
    802 798 796 794 790 789 785 783 781 780 774 773 771 767 764 762 761
    759 755 754 750 749 746 742 739 738 734 733 731 731 731 733 736 739
    744 747 750 754 757 761 762 767 771 774 778 780 783 789 792 796 802
    803 3653 0 0 0 0 0 0 0 875 875 875 871 867 862 860 858 854 851 849
    845 843 839 837 833 829 827 825 821 817 815 811 807 805 802 802 798
    796 794 789 787 785 781 781 780 774 773 769 766 764 761 759 757 755
    752 750 746 744 741 739 736 734 733 731 730 730 733 736 741 744 747
    750 754 759 761 762 767 771 774 778 780 783 787 792 796 802 803 3653
    0 0 0 0 0 0 0 875 875 873 869 867 862 860 860 854 849 847 845 843
    839 837 831 829 825 823 819 817 815 811 807 803 802 800 796 794 790
    787 785 783 781 780 778 774 773 769 766 764 761 759 757 754 752 750
    744 742 741 739 736 733 731 730 730 730 733 736 741 744 747 750 754
    759 761 764 767 771 774 778 781 787 787 792 796 800 803 0 0 0 0 0 0
    0 0 875 875 871 869 864 862 860 858 851 849 847 845 841 839 837 831
    829 825 823 819 817 815 811 807 803 802 800 796 792 790 787 785 783
    781 780 778 773 771 767 766 762 761 759 757 754 750 749 744 741 741
    739 736 733 731 730 730 730 733 738 741 744 747 750 754 759 761 762
    766 771 774 778 781 787 787 792 796 800 803 0 0 0 0 0 0 0 0 0 873
    869 867 864 862 860 858 851 849 847 845 841 837 835 831 829 827 823
    819 817 815 811 807 803 802 800 796 792 789 787 785 781 781 778 774
    773 769 767 764 762 761 757 755 752 750 746 744 741 739 738 734 733
    731 730 730 730 733 738 741 744 746 749 752 757 761 762 766 771 774
    778 781 789 789 790 796 800 0 0 0 0 0 0 0 0 0 0 871 867 864 864 862
    858 856 851 849 847 843 841 837 835 831 829 827 823 819 817 815 811
    805 803 802 798 794 792 789 787 783 781 780 778 774 771 767 766 764
    761 759 757 755 752 750 746 744 741 739 738 734 733 731 730 730 730
    733 738 741 744 746 749 752 757 761 762 771 771 774 778 781 787 787
    790 796 800 0 0 0 0 0 0 0 0 0 0 871 867 864 862 860 858 856 851 849
    847 843 841 837 833 831 829 827 823 819 817 813 811 805 803 802 798
    794 792 789 787 783 781 780 778 773 771 767 766 764 761 759 757 754
    752 749 746 744 741 739 736 734 733 731 730 730 730 733 738 741 744
    746 749 752 757 761 762 767 771 774 778 780 787 787 789 794 802 0 0
    0 0 0 0 0 0 0 0 871 867 864 862 860 858 854 851 849 847 841 839 837
    833 829 827 825 823 819 815 813 811 805 803 802 798 794 792 789 787
    783 781 780 778 773 771 767 766 764 761 759 757 754 750 746 746 744
    741 739 736 734 731 730 730 730 730 733 739 741 744 746 749 752 757
    761 764 767 771 774 778 780 787 787 789 794 802 0 0 0 0 0 0 0 0 0 0
    871 869 864 862 860 858 854 851 849 845 841 839 837 831 829 827 825
    821 817 815 813 807 805 803 800 798 794 792 789 787 783 781 780 776
    773 769 767 766 762 761 759 755 754 750 746 746 744 741 739 736 734
    731 728 728 728 728 731 739 742 744 747 749 752 757 761 764 767 771
    774 778 783 785 787 789 794 802 0 0 0 0 0 0 0 0 0 0 871 867 864 862
    860 858 854 851 847 843 841 839 837 831 827 827 825 821 817 815 811
    807 805 803 800 798 794 790 789 785 783 781 780 776 771 769 767 764
    761 761 759 755 754 750 746 746 742 741 739 736 733 730 728 728 728
    728 731 738 742 744 747 749 752 757 761 764 767 771 774 780 783 785
    787 789 794 803 0 0 0 0 0 0 0 0 0 0 871 867 864 862 860 858 854 849
    845 843 841 839 835 831 827 825 823 819 817 813 811 807 803 802 800
    798 794 790 787 785 781 780 778 773 771 769 767 764 761 759 757 754
    752 749 746 744 741 739 738 734 733 730 728 728 728 728 730 738 741
    746 747 749 752 757 761 767 767 771 774 778 785 787 787 790 796 802
    0 0 0 0 0 0 0 0 0 0 869 867 862 862 858 856 851 849 845 841 841 837
    833 829 827 825 823 819 817 813 811 807 803 802 798 796 792 789 787
    785 781 780 778 773 771 769 767 762 761 759 757 754 752 749 746 744
    741 739 738 734 731 730 728 728 728 728 730 738 741 746 747 749 752
    755 759 766 767 769 773 778 787 787 789 792 802 802 0 0 0 0 0 0 0 0
    0 871 867 867 862 862 858 856 851 847 843 841 839 837 833 829 827
    825 823 819 815 813 807 805 803 800 796 796 792 789 787 785 781 780
    776 773 771 769 766 762 761 759 757 754 750 749 746 744 741 739 738
    734 731 728 728 728 728 730 731 738 741 746 747 749 752 755 759 766
    769 769 773 778 787 787 789 790 800 802 0 0 0 0 0 0 0 0 0 869 867
    867 862 860 858 856 849 847 843 841 839 835 833 829 827 823 821 819
    815 811 807 805 802 800 796 794 792 789 787 785 781 780 776 773 771
    767 766 762 761 759 757 754 749 747 744 742 741 739 736 734 731 728
    728 728 728 730 731 736 741 746 747 749 752 755 759 766 767 769 773
    781 787 787 789 790 800 802 0 0 0 0 0 0 0 0 869 869 869 864 862 860
    858 854 849 845 843 841 839 835 833 829 827 823 821 819 815 811 807
    803 802 798 796 794 792 789 787 785 781 778 776 773 769 767 766 762
    761 757 755 752 749 746 744 742 741 739 736 733 730 728 728 728 728
    730 731 736 741 746 747 749 752 755 759 767 767 769 773 781 785 787
    789 790 800 802 0 0 0 0 0 0 0 0 869 869 867 864 862 860 856 851 847
    845 843 841 839 835 831 829 825 823 819 817 813 811 805 803 802 798
    796 794 790 789 787 785 781 778 776 773 769 767 766 762 761 757 754
    752 750 746 742 741 739 738 734 733 730 728 728 728 728 730 731 736
    741 746 747 749 752 754 759 767 767 769 774 780 785 789 789 790 800
    802 0 0 0 0 0 0 0 0 875 869 867 862 860 860 856 851 847 845 843 841
    837 833 829 827 825 823 819 815 813 811 805 803 802 798 796 794 790
    789 787 783 780 778 774 773 769 767 764 762 759 755 754 752 750 746
    742 741 739 738 734 733 730 728 728 728 728 730 731 736 739 744 747
    749 752 754 764 767 767 771 774 780 783 789 789 790 800 802 802 0 0
    0 0 0 0 0 873 869 867 862 860 858 854 851 847 845 841 839 837 833
    829 827 825 823 817 813 811 807 803 802 800 798 796 794 790 789 785
    781 780 778 774 773 769 766 764 762 759 755 754 752 750 746 742 741
    739 738 734 731 728 728 728 728 728 730 731 736 739 744 747 749 750
    754 762 767 767 771 774 780 783 789 789 796 800 802 802 0 0 0 0 0 0
    0 871 867 864 860 858 858 854 849 847 843 841 839 835 831 829 825
    823 821 817 813 811 807 803 802 798 796 794 792 789 787 785 781 780
    778 774 771 767 766 762 761 759 755 754 752 749 744 741 739 739 736
    733 731 728 728 728 728 728 730 733 738 739 744 747 749 750 754 762
    767 767 769 774 780 783 787 787 796 798 802 0 0 0 0 0 0 0 0 869 867
    864 860 858 856 851 849 847 843 841 837 835 831 829 825 821 819 817
    813 811 807 803 800 798 796 794 792 789 787 783 781 780 778 773 769
    767 766 762 761 759 757 754 752 749 744 741 739 739 736 733 731 728
    728 727 727 727 730 733 738 739 747 747 749 750 754 764 767 767 769
    776 780 783 785 787 796 798 802 0 0 0 0 0 0 0 0 869 867 864 860 856
    854 851 849 847 843 841 835 835 831 827 825 821 819 815 813 811 805
    803 800 798 796 794 792 789 785 783 781 780 778 773 769 767 766 762
    761 759 755 752 750 746 744 742 739 738 736 733 731 728 727 727 727
    727 730 733 738 741 746 747 749 752 755 766 767 767 769 776 781 783
    785 794 796 798 0 0 0 0 0 0 0 0 0 869 867 862 858 856 854 851 849
    845 843 839 835 833 829 827 823 821 817 815 811 811 805 803 800 796
    796 794 790 787 785 781 781 780 774 773 769 767 764 762 759 757 754
    752 749 746 744 741 739 738 734 733 730 728 727 727 727 728 733 733
    738 741 746 750 750 752 755 764 767 767 769 778 781 783 785 787 796
    798 800 0 0 0 0 0 0 0 0 867 867 860 858 856 851 851 849 845 841 837
    835 833 827 825 823 821 817 815 811 811 805 802 798 796 794 794 790
    787 783 781 780 778 774 773 769 767 764 762 759 757 754 752 749 746
    744 741 739 734 733 731 730 727 725 725 725 728 733 733 738 741 746
    750 750 754 759 762 766 767 769 780 781 783 787 787 796 798 798 0 0
    0 0 0 0 0 0 867 862 860 856 856 851 849 847 845 841 837 835 831 827
    825 823 819 817 815 811 811 803 802 798 796 794 792 789 787 783 781
    780 778 773 771 767 766 764 761 759 755 754 752 749 746 744 741 738
    734 733 731 730 727 725 725 725 728 733 733 738 739 746 750 750 754
    759 762 764 769 769 780 781 783 787 790 796 796 798 0 0 0 0 0 0 0 0
    864 860 858 856 856 851 849 847 843 841 837 835 831 825 825 823 819
    817 815 811 807 803 802 798 796 792 790 789 787 783 781 780 776 773
    769 767 766 764 761 757 755 754 750 749 746 742 739 738 734 733 731
    730 727 725 725 725 728 733 733 738 739 746 749 749 752 759 762 764
    767 769 780 781 785 787 790 794 796 798 0 0 0 0 0 0 0 862 862 860
    858 856 856 851 849 847 843 841 837 835 829 825 823 821 819 817 815
    811 805 803 802 798 796 792 790 789 787 785 781 778 776 773 769 767
    766 762 759 757 755 754 750 749 744 742 739 736 734 733 731 730 727
    723 723 723 728 733 733 738 742 746 749 749 752 761 762 764 767 773
    776 780 783 787 790 794 796 0 0 0 0 0 0 0 0 860 860 858 858 856 854
    851 849 845 843 839 837 833 827 825 823 821 817 817 813 811 805 803
    802 798 794 792 790 789 787 783 780 778 776 771 769 767 766 762 759
    757 754 754 750 746 744 741 738 736 734 733 731 730 727 723 723 723
    728 731 731 736 742 744 749 749 752 761 764 766 767 773 776 780 783
    787 790 794 796 0 0 0 0 0 0 0 0 860 860 858 856 854 851 849 847 845
    843 839 835 831 827 825 821 819 817 817 813 811 803 803 800 798 794
    792 789 787 787 783 780 778 774 771 769 766 764 762 759 755 754 752
    750 746 742 741 738 736 734 733 730 728 727 723 723 723 728 731 731
    736 742 744 749 749 757 761 764 767 767 773 776 780 781 787 790 794
    796 0 0 0 0 0 0 0 0 860 860 858 856 851 851 849 847 845 841 839 835
    829 827 823 821 819 819 815 813 807 803 802 800 798 794 792 789 787
    785 781 780 776 773 771 767 766 764 761 759 755 754 752 750 744 742
    739 738 734 734 733 730 728 725 723 723 725 728 733 733 736 741 744
    749 749 755 761 764 767 767 773 776 780 781 787 790 796 796 0 0 0 0
    0 0 0 0 862 862 858 856 851 851 849 845 843 841 839 835 829 825 823
    821 819 819 815 811 805 803 802 800 796 796 792 789 787 785 781 780
    776 773 769 767 766 764 761 757 755 754 752 749 744 742 739 738 734
    734 731 728 727 725 723 723 725 728 733 733 736 741 744 749 749 755
    761 762 766 767 773 776 778 783 787 790 796 796 0 0 0 0 0 0 0 0 864
    862 858 856 851 849 847 845 843 841 837 829 827 825 823 821 819 817
    815 811 805 803 802 800 796 794 792 789 787 783 781 780 776 771 767
    767 766 764 761 757 754 752 750 746 744 741 739 736 734 733 731 728
    725 723 722 722 725 728 731 731 739 741 746 749 749 755 761 762 766
    769 774 776 778 783 789 790 796 796 0 0 0 0 0 0 0 867 864 864 858
    856 851 849 847 843 841 839 837 829 827 825 823 821 817 815 811 811
    805 803 802 798 796 794 792 789 787 783 781 780 776 771 767 767 766
    764 761 757 754 752 750 746 744 741 739 736 734 733 730 727 725 723
    722 722 725 728 731 731 739 742 746 749 749 754 759 762 766 771 774
    776 780 783 789 792 794 794 0 0 0 0 0 0 0 867 867 864 858 854 851
    849 845 843 841 839 835 829 827 825 823 819 817 815 811 809 805 802
    802 798 796 794 792 789 785 781 780 780 773 769 767 767 766 762 761
    757 754 752 750 746 744 741 739 736 734 733 730 727 725 723 722 722
    727 728 731 731 741 742 746 749 749 754 759 762 766 769 774 776 780
    783 787 792 794 794 0 0 0 0 0 0 0 867 867 862 856 854 851 849 845
    843 841 837 835 829 827 825 821 819 815 815 811 807 803 802 800 796
    794 792 790 789 785 781 780 778 773 769 767 766 766 762 759 757 754
    752 749 744 742 739 738 736 734 731 730 728 725 722 722 723 727 728
    731 731 739 742 746 749 750 754 759 762 766 769 773 776 780 783 787
    792 794 794 0 0 0 0 0 0 0 864 864 860 854 851 851 849 847 843 841
    837 835 827 825 823 821 819 815 815 811 805 802 800 796 794 794 790
    789 787 785 781 780 778 773 769 767 766 764 761 759 757 754 752 749
    744 741 739 738 734 734 731 730 728 725 722 722 723 727 728 731 731
    739 742 746 747 750 754 759 762 766 769 773 776 780 783 787 790 794
    796 0 0 0 0 0 0 0 864 860 858 854 851 851 849 845 843 839 837 833
    827 825 823 821 819 815 811 809 803 802 800 796 794 794 790 789 787
    783 781 780 776 771 769 767 766 764 761 759 755 754 752 749 742 741
    739 738 734 733 731 728 727 725 722 722 722 725 728 731 731 739 742
    746 747 750 754 759 762 766 769 773 776 780 783 787 790 792 796 0 0
    0 0 0 0 0 862 860 858 854 851 849 849 845 843 839 835 829 827 825
    823 821 819 815 811 809 803 802 798 796 794 794 790 789 785 783 781
    778 776 769 767 767 766 762 761 757 755 754 752 749 742 741 739 738
    734 733 731 728 727 725 722 722 722 725 728 733 736 738 741 746 749
    750 755 761 762 766 767 773 776 780 783 787 790 792 796 0 0 0 0 0 0
    0 862 860 856 851 851 849 847 843 841 839 835 829 827 825 823 819
    817 815 811 809 802 800 798 796 794 792 789 787 785 781 780 774 771
    769 767 766 766 762 759 757 754 752 749 746 742 741 738 736 734 733
    730 728 727 722 722 722 722 723 728 733 736 738 741 746 749 752 755
    759 762 766 767 773 776 780 781 785 789 790 794 0 0 0 0 0 0 0 0 858
    856 851 849 849 845 843 841 837 835 829 827 825 823 819 817 813 811
    805 802 800 798 796 794 792 789 787 783 781 780 774 771 769 767 766
    764 761 759 757 754 752 749 746 742 741 738 734 734 731 728 728 727
    722 722 722 722 723 728 731 736 738 741 746 749 752 755 759 762 766
    769 773 776 778 780 785 789 790 790 0 0 0 0 0 0 0 862 858 856 851
    849 847 845 841 841 837 835 829 825 825 821 819 817 813 811 805 802
    800 796 794 792 790 787 787 783 781 778 774 771 769 767 766 762 761
    759 757 754 750 746 746 742 739 738 734 733 731 728 727 725 722 720
    720 722 725 728 730 736 738 741 746 749 752 755 757 762 766 769 773
    776 778 780 787 790 790 790 0 0 0 0 0 0 0 862 858 858 851 849 847
    843 841 839 837 835 827 825 823 821 819 817 813 811 805 802 800 796
    794 792 790 787 785 783 780 778 774 771 769 767 764 762 761 759 757
    752 750 746 744 742 739 736 734 733 731 728 727 725 722 720 720 722
    723 728 730 736 738 742 746 749 750 755 757 762 766 769 771 774 780
    780 785 790 792 792 0 0 0 0 0 0 0 862 860 856 854 849 847 843 841
    839 837 829 827 825 823 821 817 817 813 811 805 803 800 796 794 792
    790 787 785 781 780 778 774 771 769 766 764 761 761 759 755 752 749
    746 744 741 739 736 734 733 731 728 727 723 722 720 720 720 722 727
    731 736 739 742 746 749 750 754 755 761 766 769 771 774 780 781 785
    790 792 796 0 0 0 0 0 0 858 858 858 854 851 849 845 843 841 837 835
    829 827 825 823 819 817 815 813 809 805 802 800 796 794 790 789 787
    785 781 780 776 774 771 767 766 764 761 759 757 754 752 749 746 744
    741 739 736 734 733 730 728 727 722 720 720 720 720 722 727 731 736
    739 741 744 747 750 754 755 761 766 769 771 774 780 781 785 789 792
    796 0 0 0 0 0 0 858 858 858 854 851 849 845 843 839 837 835 829 827
    825 823 819 817 813 811 809 803 802 798 796 794 790 789 787 785 781
    780 776 773 769 767 766 762 761 759 755 754 752 749 746 742 741 739
    736 734 731 730 728 727 722 720 720 719 719 722 727 733 738 739 741
    744 747 750 754 757 761 766 769 771 776 780 781 785 789 792 796 0 0
    0 0 0 0 860 860 856 851 851 849 845 841 839 837 835 829 827 825 821
    819 817 813 811 805 803 800 796 796 794 790 789 787 783 781 780 776
    771 769 767 766 762 761 757 755 754 752 749 746 742 741 739 736 734
    731 730 728 725 720 720 719 719 719 722 727 731 736 739 741 744 747
    750 752 757 761 764 769 773 776 780 781 785 790 792 796 0 0 0 0 0 0
    858 858 856 851 849 847 845 841 837 835 835 829 825 823 821 819 817
    813 809 805 803 800 796 794 794 790 789 785 783 781 780 776 771 767
    766 766 762 761 757 755 754 752 749 744 742 739 738 734 733 731 730
    727 725 720 720 719 719 720 722 727 731 736 739 741 744 747 750 752
    757 761 764 767 773 776 778 783 787 790 794 0 0 0 0 0 0 0 858 858
    856 851 849 847 845 841 837 835 835 827 825 821 819 819 817 813 809
    805 802 800 796 794 792 789 787 785 781 780 778 776 769 767 766 764
    761 761 757 755 754 752 749 744 741 739 736 734 733 731 728 727 725
    720 719 719 719 720 723 728 731 736 739 742 744 747 750 754 757 761
    764 767 773 776 778 783 787 790 792 0 0 0 0 0 0 858 858 854 851 849
    849 845 843 841 837 835 833 827 825 821 819 817 815 811 809 803 802
    798 794 794 792 789 787 783 781 780 778 774 769 767 766 764 761 759
    757 755 754 752 746 744 741 739 736 734 733 733 728 727 725 720 719
    719 719 720 723 727 730 736 739 742 744 747 750 754 757 761 764 767
    771 774 776 783 787 790 792 0 0 0 0 0 0 858 858 854 851 849 847 845
    843 841 835 833 829 827 823 821 819 817 813 811 807 803 802 798 794
    792 792 789 787 783 781 780 776 771 769 767 766 762 761 759 757 755
    752 750 746 744 739 738 734 734 733 733 730 727 722 720 719 719 719
    720 723 727 730 736 739 742 744 747 750 754 757 761 764 767 771 774
    776 783 789 790 792 0 0 0 0 0 0 858 858 856 854 849 847 845 843 841
    835 833 829 825 821 819 817 815 813 811 805 803 800 798 794 792 790
    789 785 783 780 778 774 771 769 767 766 762 761 759 757 755 752 749
    746 744 739 738 734 734 733 733 730 727 722 719 717 717 717 720 723
    728 731 734 738 741 744 747 750 755 759 761 764 767 771 774 776 783
    789 790 790 0 0 0 0 0 0 858 858 858 856 849 847 845 841 839 835 833
    827 825 821 819 817 815 811 809 803 802 800 796 794 792 790 789 785
    781 780 778 774 771 769 767 764 762 759 759 755 754 750 749 746 742
    739 736 734 734 733 731 730 727 722 719 717 717 717 720 723 727 731
    734 738 741 744 747 749 754 759 761 764 764 771 774 778 783 789 789
    790 0 0 0 0 0 0 858 858 858 854 849 847 843 841 839 835 833 827 825
    819 817 817 813 811 809 803 802 800 796 794 792 789 787 785 781 778
    776 774 771 769 766 762 761 759 757 755 754 750 746 744 742 739 736
    734 733 733 730 728 727 720 719 717 717 717 720 723 727 731 734 736
    741 744 747 749 750 759 761 764 764 771 774 778 783 787 789 789 0 0
    0 0 0 0 858 858 858 854 849 845 843 839 837 833 831 827 823 819 817
    817 813 811 809 802 800 800 796 794 790 789 787 783 781 778 776 773
    769 767 766 762 761 759 757 754 754 750 746 744 741 739 736 734 733
    731 728 728 725 720 717 717 717 717 719 722 727 731 734 736 739 744
    747 749 750 757 761 762 764 771 776 780 783 787 789 789 0 0 0 0 0 0
    858 856 854 851 847 843 841 837 835 833 831 827 823 819 819 817 813
    811 809 802 800 798 796 794 790 789 785 783 781 778 774 771 769 767
    766 762 761 759 755 754 752 749 746 744 741 739 736 734 733 730 728
    727 725 720 717 717 717 717 719 722 727 731 734 736 738 744 747 750
    752 757 761 762 764 769 776 778 783 787 789 789 0 0 0 0 0 0 858 854
    851 847 845 843 841 837 835 833 829 827 823 819 817 815 811 809 805
    802 798 796 794 792 789 785 783 781 780 778 774 769 767 767 766 762
    761 759 755 754 750 747 746 742 741 739 736 734 733 730 728 727 720
    719 717 717 717 717 720 722 727 731 734 736 738 742 747 750 752 757
    761 762 766 769 776 778 783 787 789 789 0 0 0 0 0 0 858 849 847 845
    843 843 841 837 835 829 827 825 821 819 817 813 811 809 803 800 796
    796 794 792 787 785 783 781 780 778 774 769 767 767 764 762 761 759
    755 752 749 747 746 742 741 738 734 734 733 730 728 727 720 719 717
    716 716 717 720 722 727 731 734 736 738 742 747 750 754 757 761 764
    767 769 774 776 783 787 789 790 0 0 0 0 0 0 851 849 847 843 843 843
    839 835 833 829 827 825 821 819 815 813 811 809 803 800 796 796 794
    792 787 783 781 781 780 774 773 769 767 766 762 761 761 759 755 752
    749 746 744 741 739 736 734 733 731 730 728 725 720 719 717 716 716
    717 720 722 727 731 734 736 738 742 747 750 754 757 761 764 767 771
    773 776 785 789 789 790 0 0 0 0 0 0 851 849 845 843 843 841 839 835
    829 827 827 823 819 817 813 811 809 809 803 798 796 794 792 790 787
    783 781 780 778 774 771 767 767 766 762 761 759 757 754 750 749 746
    744 741 739 736 734 733 731 728 727 725 719 717 716 716 716 717 719
    722 725 731 734 736 738 742 746 750 754 757 761 764 767 771 773 774
    785 789 789 790 0 0 0 0 0 854 851 849 845 843 843 841 841 835 829
    827 825 823 819 815 813 811 809 807 802 798 796 794 792 790 787 783
    781 780 776 773 769 767 766 764 761 761 757 755 754 750 747 746 744
    741 739 736 734 733 730 728 727 725 719 717 716 716 716 717 719 722
    725 730 734 738 739 742 746 750 754 757 761 764 767 771 773 774 783
    789 787 787 0 0 0 0 0 854 851 851 847 843 843 841 839 835 829 827
    825 823 817 815 813 811 809 803 802 798 796 794 792 789 787 783 781
    780 776 773 769 767 766 764 761 759 757 754 752 750 747 746 742 741
    738 736 733 731 730 728 727 720 717 716 716 716 716 716 717 722 725
    730 734 738 739 742 747 749 754 755 759 764 767 769 773 776 783 787
    787 787 0 0 0 0 0 854 854 851 849 843 843 841 839 835 829 827 825
    821 817 815 813 811 809 803 802 798 796 794 790 789 787 783 781 780
    776 773 769 767 766 762 761 759 755 754 752 750 749 744 741 739 738
    736 733 731 730 728 725 719 717 716 716 716 716 716 717 722 723 730
    734 738 739 742 746 749 754 755 759 764 767 769 773 774 783 783 787
    0 0 0 0 0 0 854 851 849 847 843 841 839 837 833 829 827 825 821 817
    815 811 809 809 803 800 798 794 792 790 789 787 783 781 780 776 773
    769 766 766 762 759 757 755 754 752 750 746 744 741 739 736 734 733
    730 728 728 725 719 717 716 716 714 714 716 719 722 723 730 734 738
    741 742 746 749 754 755 757 764 767 769 773 774 781 783 787 0 0 0 0
    0 0 851 851 849 845 841 841 839 835 829 827 827 825 821 817 815 811
    809 807 802 800 798 794 792 789 787 785 781 780 778 774 773 767 766
    764 761 759 757 755 754 752 749 746 742 741 739 736 734 733 730 728
    727 725 720 717 716 714 714 714 716 717 722 723 728 733 736 741 744
    747 749 752 755 757 764 767 769 773 776 781 783 783 0 0 0 0 0 0 851
    849 847 845 841 841 837 835 829 827 825 823 819 817 813 811 809 805
    802 800 796 794 790 789 787 785 781 780 778 774 773 767 766 764 761
    759 757 754 752 750 746 744 742 739 738 734 734 733 730 728 727 725
    720 716 714 714 714 714 716 717 722 723 728 733 736 741 744 747 749
    752 755 759 764 767 769 773 776 781 783 783 0 0 0 0 0 0 849 849 847
    845 841 841 837 835 829 827 825 823 819 817 813 811 809 805 802 800
    796 792 790 789 787 785 781 778 776 774 769 766 764 762 761 757 755
    754 752 750 744 742 741 739 738 734 734 733 730 728 727 722 719 716
    714 714 714 714 716 719 720 723 728 733 734 741 744 747 749 752 754
    759 764 767 769 773 778 781 783 783 0 0 0 0 0 0 849 849 847 843 841
    837 835 833 827 825 825 821 819 815 811 809 809 803 802 798 794 792
    790 789 787 783 781 778 776 774 769 766 764 762 761 757 755 754 750
    749 744 742 741 739 736 734 733 733 730 728 727 722 719 716 714 714
    714 714 716 719 720 722 727 733 734 741 744 747 749 752 754 759 764
    767 771 774 778 781 783 783 0 0 0 0 0 0 849 847 847 843 841 837 835
    829 827 825 823 819 817 813 811 809 807 803 802 798 794 792 789 787
    787 783 781 780 776 774 769 766 764 761 759 757 755 754 750 749 744
    742 741 739 736 734 733 733 730 728 727 720 717 716 714 714 714 714
    716 719 720 722 727 734 738 741 742 746 749 752 754 759 764 767 771
    774 778 781 783 783 0 0 0 0 0 0 849 847 847 843 841 837 835 829 827
    825 823 819 817 813 811 809 805 803 800 798 794 792 789 787 785 783
    781 778 776 774 769 766 764 761 759 757 754 754 750 749 744 741 741
    738 736 734 733 733 730 728 725 720 717 716 714 714 714 714 716 719
    720 722 727 734 736 739 742 746 749 752 755 759 764 769 771 774 778
    781 783 783 0 0 0 0 0 851 849 849 849 843 839 837 835 829 827 825
    823 819 817 813 811 807 805 802 800 796 792 790 789 787 785 781 781
    778 774 773 767 766 764 761 759 757 754 754 750 749 744 741 739 738
    734 734 733 733 730 727 725 720 717 716 714 714 714 714 717 720 720
    722 727 733 736 739 742 746 749 752 755 759 764 769 771 774 778 781
    783 783 0 0 0 0 0 851 849 849 849 843 839 837 835 829 827 825 823
    819 817 813 809 807 803 802 800 796 792 789 789 787 785 781 778 776
    773 767 767 766 762 761 759 757 754 752 750 749 744 741 739 738 734
    734 733 731 728 727 723 719 716 714 714 713 713 714 717 720 722 723
    727 733 734 738 742 746 749 752 755 759 762 767 771 774 776 781 781
    783 0 0 0 0 0 851 851 849 849 845 837 835 833 829 827 825 821 819
    817 813 809 807 803 802 798 796 792 789 789 787 785 781 778 776 773
    767 766 766 762 761 759 757 754 752 750 749 742 741 739 738 736 734
    733 730 728 727 720 719 716 714 713 713 713 714 717 720 722 723 728
    733 734 738 742 746 749 754 755 759 762 767 771 774 776 780 781 783
    0 0 0 0 0 851 851 849 847 843 837 835 833 827 825 823 819 817 815
    811 809 805 802 800 796 794 792 789 789 787 783 781 778 774 773 767
    766 764 762 761 759 757 754 752 749 744 741 741 739 738 734 733 731
    730 727 723 720 719 716 714 713 711 711 713 717 720 722 723 728 733
    736 738 742 747 749 754 755 759 762 767 771 773 776 780 781 783 0 0
    0 0 0 851 851 849 845 843 837 835 829 827 825 821 819 817 815 811
    809 805 802 798 796 794 792 789 787 787 783 780 778 774 773 767 766
    764 761 759 757 755 754 750 746 742 741 739 738 736 734 733 730 728
    725 723 720 717 716 714 711 711 711 713 716 720 722 723 728 733 736
    738 742 747 749 754 755 759 762 767 771 773 776 781 783 783 0 0 0 0
    0 851 849 847 843 841 837 835 829 827 823 819 819 817 813 811 809
    807 800 796 794 794 792 790 787 785 781 780 778 774 773 767 766 764
    761 759 757 754 752 749 746 742 741 739 738 734 734 733 730 727 725
    723 720 717 714 711 711 711 711 713 716 719 722 723 728 731 736 738
    742 747 749 754 755 759 762 767 771 774 778 781 783 783 0 0 0 0 0
    851 849 845 843 839 837 833 829 827 823 819 817 815 813 811 809 803
    800 796 794 794 792 789 785 783 781 780 778 774 769 767 766 764 761
    759 755 754 752 749 744 742 741 739 738 734 733 731 728 727 725 723
    719 717 714 711 711 710 710 713 716 719 722 723 728 731 736 739 742
    747 749 754 755 759 762 767 771 774 778 781 783 783 0 0 0 0 0 849
    847 845 841 839 837 833 829 827 823 819 817 815 811 811 809 802 800
    796 794 794 790 789 785 783 780 778 776 774 767 766 764 762 761 757
    755 754 752 749 744 742 741 739 738 734 733 731 728 727 725 722 719
    717 714 713 711 710 710 713 716 719 720 723 727 730 734 739 742 746
    749 752 755 759 762 767 769 774 778 781 781 783 0 0 0 0 0 849 847
    845 841 839 835 833 829 827 823 819 817 813 811 811 809 802 800 796
    796 792 790 789 785 781 780 778 774 773 767 766 764 762 761 757 755
    754 750 746 744 742 741 739 738 734 733 731 728 727 725 722 719 717
    714 713 713 711 711 713 716 719 720 723 727 730 734 739 742 746 749
    752 755 759 762 766 767 774 778 781 781 783 0 0 0 0 0 849 847 845
    843 839 835 833 829 825 821 819 817 813 811 809 807 802 802 798 796
    790 789 787 783 781 780 778 774 773 767 766 764 762 759 755 755 754
    750 746 744 741 741 739 736 734 733 730 728 727 723 720 719 717 714
    713 711 711 711 711 714 719 720 723 727 731 734 739 742 744 749 752
    754 757 762 766 767 773 776 781 781 783 0 0 0 0 0 849 847 845 843
    839 835 833 827 823 819 819 817 813 811 809 805 802 800 796 794 790
    789 787 783 781 780 776 774 773 767 766 764 761 759 755 755 752 750
    746 744 741 739 739 736 733 731 730 728 725 723 720 719 716 714 711
    711 710 710 711 714 717 720 723 727 731 734 738 741 744 749 752 754
    757 762 766 767 771 776 781 781 0 0 0 0 0 851 851 847 845 841 837
    833 829 827 823 819 819 817 813 811 809 803 802 800 796 794 789 789
    785 781 781 780 776 774 769 767 766 764 761 759 755 754 752 749 746
    742 741 739 738 734 733 731 728 727 725 722 719 717 716 711 710 710
    710 710 710 713 716 720 723 727 731 736 738 741 744 749 752 755 757
    762 766 767 771 776 781 783 783 0 0 0 0 851 847 843 843 839 835 833
    829 825 823 819 819 817 813 811 807 802 800 798 794 792 789 787 785
    781 781 780 776 774 769 767 766 762 761 757 754 752 750 749 746 741
    739 739 736 734 733 730 728 727 723 722 719 717 714 711 710 708 708
    708 710 711 716 720 725 727 731 734 738 742 746 747 752 755 757 762
    766 767 771 780 781 783 783 0 0 0 0 849 845 843 841 837 835 829 827
    825 823 819 819 817 811 809 807 802 800 796 794 790 789 787 785 781
    781 778 776 773 769 767 766 762 761 757 754 752 749 749 744 741 739
    739 736 734 733 730 727 725 723 720 717 716 714 711 710 708 708 708
    710 711 717 722 725 727 731 734 736 741 746 747 752 755 757 762 766
    769 771 780 781 783 785 0 0 0 0 843 841 841 841 837 833 829 827 825
    823 819 817 815 811 809 807 802 800 796 792 790 789 787 785 783 781
    778 776 773 769 767 766 762 761 757 754 752 749 747 744 741 741 739
    736 734 731 728 727 725 723 719 717 716 713 711 710 708 708 708 710
    713 719 722 725 727 731 734 736 741 746 747 750 755 759 762 767 769
    771 780 781 783 785 0 0 0 0 843 841 841 841 837 833 829 827 825 821
    819 817 815 811 809 805 802 798 796 792 790 789 787 783 781 780 778
    774 773 767 766 766 762 759 757 754 752 749 747 744 741 739 739 736
    734 731 728 727 725 723 719 717 716 713 711 710 708 708 710 710 714
    719 722 723 727 731 734 738 739 744 747 750 754 757 762 767 769 773
    778 781 783 783 0 0 0 0 843 841 841 839 837 833 827 825 823 821 819
    817 813 811 807 805 802 798 796 792 792 789 787 783 781 780 778 774
    773 767 766 764 761 759 757 754 752 749 746 744 741 739 739 736 733
    731 728 727 725 723 719 716 714 713 711 710 708 708 708 710 714 719
    720 723 727 731 734 738 739 744 747 750 754 757 762 767 769 773 778
    781 783 783 0 0 0 0 843 843 841 839 837 833 827 825 823 821 819 817
    813 811 807 802 800 796 794 792 792 789 787 783 781 780 778 774 769
    767 766 762 759 757 755 754 752 749 746 744 741 739 738 734 733 731
    728 727 723 722 719 716 714 713 711 710 708 708 708 710 714 719 720
    723 727 731 734 738 739 744 747 750 754 759 762 766 769 773 776 780
    781 783 0 0 0 0 843 841 841 839 835 833 827 825 823 821 817 815 811
    809 807 802 800 796 794 792 789 789 785 783 780 780 776 774 769 767
    766 762 759 757 755 754 750 749 746 742 741 739 736 734 733 730 728
    727 723 720 717 716 714 713 711 710 708 708 708 710 714 719 720 722
    727 731 734 738 741 742 747 752 754 757 762 766 769 774 776 780 781
    783 0 0 0 0 843 841 841 839 835 833 827 825 821 819 817 815 811 809
    807 802 798 796 794 792 789 787 785 781 780 778 776 773 767 767 766
    761 759 755 754 754 750 749 744 742 741 739 736 734 733 730 728 725
    722 720 717 716 714 713 711 710 708 708 708 711 716 719 720 722 727
    733 736 738 741 742 749 754 755 757 762 766 769 774 776 780 781 783
    0 0 0 0 843 841 841 839 835 829 827 825 821 819 817 813 811 809 807
    802 798 796 794 790 789 787 783 781 780 778 774 773 767 767 764 761
    759 755 754 752 750 746 744 742 741 738 736 734 733 728 727 725 722
    719 717 716 714 713 710 708 708 708 710 711 714 717 720 722 725 731
    736 738 741 742 749 754 755 757 762 766 769 774 778 780 781 781 0 0
    0 0 843 841 841 837 835 829 827 825 821 819 815 813 809 807 803 802
    798 796 794 790 787 785 783 780 780 776 774 769 767 766 764 761 759
    755 754 752 750 746 742 741 741 738 736 734 731 728 727 725 722 719
    716 716 714 711 710 708 707 707 708 711 714 717 720 722 723 731 736
    738 741 742 749 754 755 757 761 764 769 774 778 781 781 781 0 0 0 0
    843 841 841 837 835 829 825 823 821 817 815 811 809 805 802 800 798
    796 794 790 787 783 781 780 778 776 774 769 767 766 764 761 759 755
    752 750 746 744 742 741 739 736 734 733 731 728 727 725 722 719 716
    714 713 711 708 708 707 707 707 710 714 717 720 722 723 731 736 738
    739 742 744 754 755 757 761 764 769 774 778 780 780 0 0 0 0 0 843
    841 841 835 833 827 825 823 821 817 815 811 809 805 802 800 796 794
    792 789 787 783 781 780 778 776 774 769 767 766 762 761 759 754 752
    750 746 744 741 739 738 734 733 733 730 728 725 723 720 719 716 713
    711 710 708 707 707 707 707 710 714 717 720 722 723 730 734 738 739
    742 744 754 755 757 761 764 769 774 780 780 780 0 0 0 0 0 843 843
    841 835 829 827 825 823 821 819 815 811 809 805 802 798 796 794 792
    789 785 783 781 780 778 776 773 769 766 766 761 759 757 754 750 749
    746 742 741 739 736 734 733 733 730 727 725 723 719 719 716 713 710
    710 708 707 706 706 707 710 714 717 720 722 723 730 734 739 741 742
    746 752 755 757 761 764 769 774 780 780 780 0 0 0 0 0 843 843 841
    835 827 827 823 821 821 817 815 811 809 805 800 798 796 794 792 789
    785 781 781 780 778 774 773 767 766 764 761 759 755 754 750 749 746
    742 741 739 736 734 733 731 728 727 723 722 719 717 714 711 710 710
    707 706 706 706 707 710 714 717 720 722 723 728 734 739 741 742 746
    750 755 759 761 764 769 776 778 778 0 0 0 0 0 0 843 843 841 835 827
    827 823 821 819 817 815 811 807 802 800 796 794 792 789 787 785 781
    780 780 776 774 773 767 766 762 759 757 755 752 750 749 746 742 741
    739 736 734 733 730 728 725 723 722 719 717 714 711 710 708 707 706
    706 706 707 710 714 717 720 722 723 728 734 739 741 742 747 750 754
    759 761 764 771 776 778 778 0 0 0 0 0 0 843 843 841 837 827 825 821
    821 817 815 813 809 807 802 800 796 794 792 789 787 785 781 780 778
    776 774 769 767 764 761 759 757 754 752 750 747 744 742 741 739 736
    734 733 730 728 725 723 722 719 716 714 711 710 708 706 704 704 706
    707 710 714 717 720 722 723 730 736 739 739 742 747 750 754 759 761
    766 771 774 778 778 0 0 0 0 0 0 845 843 841 829 827 825 819 819 817
    815 811 809 805 802 800 796 794 792 789 787 785 781 780 778 774 774
    769 766 762 761 759 757 754 752 750 746 744 742 741 739 736 734 733
    730 728 727 722 722 717 716 714 711 710 708 706 704 704 706 707 710
    714 717 720 723 723 730 736 738 739 742 747 752 755 759 762 766 769
    774 776 776 0 0 0 0 0 0 843 841 837 829 827 823 819 819 815 813 811
    809 805 802 800 796 794 790 789 787 785 781 780 778 774 773 769 766
    762 761 759 757 754 752 750 744 742 741 739 738 736 734 733 730 728
    727 722 719 717 716 714 711 710 708 706 704 704 706 707 710 713 717
    720 723 725 731 734 736 739 742 749 754 755 759 762 764 767 773 776
    776 0 0 0 0 0 0 837 835 833 827 825 821 819 819 815 813 811 809 805
    800 798 796 794 790 789 785 785 781 780 776 774 773 767 764 762 761
    759 755 754 752 749 744 742 741 739 736 734 734 731 728 727 725 722
    719 717 714 714 711 708 708 706 704 704 704 707 710 713 717 720 722
    727 731 734 736 741 746 749 752 757 761 762 764 767 773 776 778 0 0
    0 0 0 0 837 833 829 827 825 821 819 817 817 813 809 809 803 800 796
    794 792 790 787 785 783 781 778 776 774 773 767 764 762 759 757 755
    752 750 746 744 742 741 739 736 734 733 730 727 727 725 722 717 716
    714 714 711 708 707 706 704 704 704 707 710 713 717 720 722 727 731
    734 738 741 746 749 750 757 761 762 764 767 773 776 778 0 0 0 0 0 0
    837 833 829 827 825 821 819 817 817 813 809 807 802 798 796 794 792
    789 787 785 783 780 778 774 773 771 767 764 762 759 757 754 752 750
    746 744 742 741 738 734 734 733 730 727 725 723 722 717 716 714 714
    711 708 706 704 704 704 704 706 710 713 717 720 722 725 730 734 738
    741 746 749 750 755 759 762 764 767 773 776 778 0 0 0 0 0 0 837 835
    833 827 825 821 819 817 817 811 809 807 802 798 796 794 792 789 787
    783 781 780 776 774 773 769 766 764 761 759 757 754 752 750 746 744
    742 741 738 734 734 733 728 727 725 723 722 716 716 714 713 711 708
    706 704 704 704 704 706 708 713 717 720 722 725 730 734 736 741 746
    749 752 755 759 762 764 767 773 776 778 0 0 0 0 0 0 837 835 829 827
    825 821 819 817 815 811 809 807 802 798 796 794 792 789 787 783 781
    780 776 774 773 769 766 762 761 759 757 754 752 749 746 744 742 739
    738 734 734 731 728 727 725 723 719 716 716 714 713 710 708 706 704
    704 704 704 706 708 713 716 719 722 725 730 733 736 741 744 749 752
    755 757 762 764 769 773 776 778 0 0 0 0 0 0 839 835 827 825 823 819
    817 813 813 811 809 805 802 798 796 794 792 789 785 783 781 778 774
    774 773 769 766 762 761 759 757 754 752 749 749 744 741 739 738 734
    733 731 728 727 725 723 719 716 714 713 711 710 707 704 704 704 704
    704 707 710 713 716 719 722 725 728 731 736 741 744 749 750 755 757
    761 764 769 773 776 776 0 0 0 0 0 0 1101 1105 827 825 821 819 817
    813 811 811 809 802 800 798 796 794 790 789 785 781 780 778 774 774
    773 767 764 762 761 757 755 754 752 749 749 742 741 739 738 734 733
    731 728 728 725 723 719 716 714 713 711 710 707 704 704 704 704 704
    707 710 713 716 717 722 725 728 731 736 739 744 747 750 754 757 761
    767 767 773 776 776 0 0 0 0 0 0 1101 1101 1105 825 821 819 817 813
    811 811 807 802 800 798 796 792 789 787 785 781 780 778 774 773 769
    767 764 762 761 757 754 752 750 749 746 742 741 739 738 734 733 731
    728 727 725 722 719 716 714 713 710 708 708 704 704 704 704 704 707
    710 713 716 717 720 725 730 731 736 739 742 747 750 754 757 761 767
    767 771 774 776 0 0 0 0 0 0 1101 1101 1105 1105 1105 819 817 813 811
    811 807 802 798 796 794 792 789 787 785 781 780 776 774 773 767 767
    766 762 759 755 754 752 750 747 744 741 739 739 736 734 733 730 728
    727 725 722 717 716 714 713 710 708 707 704 703 703 704 704 707 710
    713 716 717 720 725 730 733 736 739 742 747 750 754 757 759 766 767
    771 774 774 0 0 0 0 0 0 1097 1101 1105 1108 1108 1108 1108 811 811
    811 807 798 796 796 794 792 789 787 785 781 780 776 774 773 767 766
    764 761 757 754 752 750 749 746 744 741 739 738 736 734 733 730 728
    727 723 722 717 716 714 713 710 708 706 704 703 703 703 704 706 710
    714 716 717 720 725 730 733 736 739 742 747 750 754 757 759 766 767
    769 773 774 0 0 0 0 0 2812 1097 1101 1105 1112 1115 1115 2450 2450 0
    0 0 798 796 796 794 792 789 787 783 781 778 776 774 773 767 766 764
    761 757 754 752 750 749 746 742 741 739 738 736 734 733 730 728 725
    723 719 717 714 714 711 710 707 706 704 703 703 703 704 706 710 714
    716 717 720 725 730 733 736 739 742 747 752 754 755 759 767 767 769
    773 0 0 0 0 0 0 2812 1097 1101 1105 1112 1119 1119 2450 2450 0 0 0 0
    796 796 794 792 789 789 783 781 778 776 774 767 766 766 764 761 757
    755 752 750 749 746 742 741 739 738 734 733 731 730 727 725 722 719
    716 714 713 710 710 707 704 703 703 703 703 703 706 710 714 716 719
    720 725 730 731 736 739 742 747 752 754 755 759 767 767 771 773 0 0
    0 0 0 0 2812 1094 1105 1108 1119 1119 2450 2450 2450 0 0 0 0 0 0 0 0
    789 789 0 781 780 778 774 767 766 764 762 761 757 755 752 750 749
    746 744 741 738 734 734 731 730 728 725 723 722 719 716 714 711 710
    708 707 704 703 703 703 703 703 706 708 713 716 719 720 725 731 731
    736 741 742 747 752 754 757 762 767 767 771 773 0 0 0 0 0 0 2835
    1090 1090 2432 2432 2450 2450 2432 2432 0 0 0 0 0 0 0 0 0 0 0 0 0 0
    0 767 764 762 762 761 757 754 752 750 746 744 742 739 738 734 733
    730 728 727 725 722 720 719 716 714 711 710 708 706 704 703 703 703
    703 703 706 708 713 716 719 720 725 731 731 736 739 746 750 750 754
    755 764 767 767 769 773 0 0 0 0 0 0 2812 1090 1090 2432 2432 2415
    2415 2415 2432 0 0 0 0 0 0 0 0 0 0 0 0 0 0 0 0 764 761 761 759 757
    754 752 750 746 742 742 739 736 733 731 730 728 727 723 722 719 717
    716 713 711 710 707 704 704 703 703 703 703 703 706 708 714 714 719
    720 725 731 731 736 739 746 750 750 754 755 764 767 767 769 771 0 0
    0 0 0 0 2812 1080 2415 2415 2415 2415 2415 2415 0 0 0 0 0 0 0 0 0 0
    0 0 0 0 0 0 0 0 761 761 759 759 755 752 746 744 741 739 738 734 733
    731 730 728 727 723 722 719 716 714 713 711 710 707 704 703 701 701
    701 701 703 704 708 714 714 719 722 728 730 731 736 741 746 747 750
    754 755 766 767 767 769 771 0 0 0 0 0 2835 2812 2398 2398 2398 2398
    2415 2415 2415 0 0 0 0 0 0 0 0 0 0 0 0 0 0 0 0 0 0 0 0 0 0 0 0 746
    744 741 739 736 734 733 731 728 728 727 723 722 717 716 714 713 711
    710 707 704 703 701 701 700 700 703 704 708 714 714 719 722 728 730
    731 736 741 747 747 749 754 755 764 767 767 769 0 0 0 0 0 0 2812
    2789 2381 2398 2398 2398 2415 2415 2415 0 0 0 0 0 0 0 0 0 0 0 0 0 0
    0 0 0 0 0 0 0 0 0 0 0 0 741 739 736 733 733 731 728 728 727 723 722
    717 716 714 713 710 710 707 704 703 701 700 700 700 703 706 711 714
    714 717 722 728 731 731 736 741 747 747 749 754 755 762 767 767 769
    0 0 0 0 0 0 2812 2789 2381 2398 2398 2415 2432 2432 2432 2432 0 0 0
    0 0 0 0 0 0 0 0 0 0 0 0 0 0 0 0 0 0 0 0 0 0 0 0 0 733 733 731 730
    728 727 723 722 717 716 714 711 710 708 707 704 703 701 700 700 700
    703 706 710 713 713 716 722 728 731 731 736 741 744 747 749 754 759
    762 767 767 769 0 0 0 0 0 0 0 2767 2398 2398 2398 2432 2432 2432
    2432 2432 0 0 0 0 0 0 0 0 0 0 0 0 0 0 0 0 0 0 0 0 0 0 0 0 0 0 0 0 0
    734 733 730 727 725 723 722 716 714 713 710 708 707 706 704 703 701
    700 700 700 703 707 710 713 713 716 722 728 731 731 734 739 742 749
    749 754 759 762 0 0 0 0 0 0 0 0 0 0 2767</data></Depth16850>
</opencv_storage>
