<?xml version="1.0"?>
<opencv_storage>
<Depth14643 type_id="opencv-matrix">
  <rows>136</rows>
  <cols>86</cols>
  <dt>w</dt>
  <data>
    4522 4463 4463 4463 4463 4463 4463 4463 843 843 839 839 839 841 4295
    4295 4295 4241 4241 4241 4241 4241 4241 4190 4190 4190 4190 4139
    4089 4089 4041 4041 4089 4089 4089 4041 4041 4041 4089 4041 4041
    4041 4041 4041 3994 3994 3948 3948 3948 3948 3903 3903 3859 3859
    3859 3859 3859 3859 3816 3774 3774 3732 3732 3732 3774 3774 3816
    3859 843 843 845 847 847 849 3539 3614 3614 3614 3614 3614 3539 3539
    3503 3468 3468 3503 4522 4522 4522 4463 4463 4463 4463 4463 843 843
    841 841 841 841 841 4295 4295 4295 4241 4241 4241 4241 4241 4241
    4190 4190 4190 4139 4089 4089 4041 4041 4089 4089 4089 4089 4041
    4041 4089 4041 4041 4041 3994 3994 3948 3948 3948 3948 3948 3948
    3903 3903 3903 3903 835 3859 3859 839 839 839 837 837 3732 833 833
    833 833 833 835 839 839 841 841 839 835 835 837 839 839 839 839 3539
    3503 3468 3468 3503 4522 4522 4522 4463 4463 4463 4463 4463 843 843
    841 841 843 841 841 845 845 829 829 831 831 831 4241 4241 4190 4190
    4190 829 829 831 833 4089 4089 4089 4089 833 833 831 831 831 829 829
    833 833 833 833 833 835 837 835 835 835 835 835 835 835 835 835 835
    835 837 837 835 833 833 833 833 833 835 837 837 839 839 837 835 835
    837 837 839 839 839 841 0 0 841 3503 0 4522 4522 4522 4463 4463 4463
    4405 843 841 839 839 843 843 843 845 829 829 829 829 829 829 831 829
    829 829 829 829 829 831 831 833 833 833 833 833 833 831 831 831 829
    829 831 833 833 833 833 835 835 835 835 835 835 835 833 833 833 833
    833 835 835 835 835 835 835 835 833 833 835 835 835 837 839 837 835
    835 837 837 837 839 839 841 0 0 0 0 0 4522 4522 4522 4522 4522 4463
    4405 841 833 833 833 831 831 833 835 829 829 829 829 829 829 831 829
    829 829 829 829 829 831 831 833 833 833 833 833 833 831 831 831 831
    831 831 833 833 833 833 833 833 833 833 833 833 833 833 833 833 833
    833 833 833 833 835 835 835 835 835 835 835 835 835 835 839 839 837
    837 837 837 837 839 839 841 0 0 0 0 0 0 0 0 4522 4522 4522 833 833
    831 831 829 829 829 829 831 831 831 829 829 829 829 831 831 831 829
    829 831 831 831 831 833 833 833 833 833 833 831 831 831 831 831 833
    833 833 833 833 833 833 833 833 833 833 833 833 833 833 833 833 833
    833 833 835 835 835 835 835 835 835 835 835 835 839 839 837 837 837
    837 839 839 839 839 0 0 0 0 0 0 0 0 841 841 837 831 831 829 829 829
    829 829 829 831 829 829 831 831 831 831 831 831 831 831 831 831 831
    831 831 833 833 833 833 833 835 833 833 833 833 833 833 833 833 833
    833 833 833 833 833 833 833 833 833 833 833 833 833 833 833 835 835
    835 835 835 837 835 835 835 835 837 839 839 837 837 837 839 839 839
    839 839 0 0 0 0 0 0 0 0 841 841 837 831 829 829 829 829 829 829 829
    831 829 829 831 831 831 831 831 831 831 831 831 831 831 831 831 833
    833 833 833 835 835 833 833 833 833 833 833 833 833 833 833 833 835
    835 833 833 833 833 833 833 833 833 833 833 833 835 835 835 837 837
    837 835 835 837 837 837 839 837 837 837 837 839 839 839 837 837 0 0
    0 0 0 0 0 0 841 839 833 829 829 829 829 827 827 829 829 829 829 829
    831 831 831 831 831 831 831 831 831 831 831 831 831 833 833 833 833
    835 835 833 833 833 835 833 833 833 833 833 833 835 835 833 833 833
    833 833 833 833 833 833 833 835 835 835 835 835 835 835 835 835 835
    837 837 837 839 837 837 837 839 839 841 839 837 837 0 0 0 0 0 0 0 0
    839 839 829 829 829 829 829 827 827 829 829 829 829 829 829 829 831
    831 831 831 831 831 831 831 831 831 831 833 833 833 833 835 835 833
    833 833 835 833 833 833 833 833 833 833 835 833 833 833 833 833 833
    833 835 835 835 835 835 835 835 835 835 835 835 835 835 837 837 837
    839 839 839 839 839 839 839 839 835 835 0 0 0 0 918 918 918 918 918
    825 825 825 827 827 829 829 829 829 829 829 829 829 829 829 829 831
    831 831 831 831 831 831 831 831 831 833 833 833 833 835 835 833 833
    833 833 833 833 833 833 833 833 833 835 833 833 833 833 833 835 835
    835 835 835 835 835 835 835 835 835 835 835 833 833 837 837 837 839
    839 837 837 839 839 839 839 835 835 0 0 0 0 918 918 918 918 864 825
    825 825 825 827 827 829 829 829 829 829 829 829 829 829 829 831 831
    831 831 831 831 831 831 831 831 833 833 833 833 835 835 835 833 833
    833 833 833 833 833 833 833 833 835 833 833 833 833 833 835 835 835
    835 835 835 835 835 835 835 835 835 835 833 833 837 837 837 839 839
    837 837 839 839 839 841 839 839 0 0 0 0 918 918 918 918 864 864 825
    825 825 827 827 829 829 829 829 829 829 829 829 829 829 831 831 831
    831 831 831 831 831 831 831 833 833 833 833 835 835 835 833 833 833
    833 833 833 833 833 833 833 835 835 833 833 833 833 835 835 835 835
    835 835 835 835 835 835 835 835 835 835 835 837 837 837 839 839 837
    837 839 839 839 841 839 839 0 0 0 0 918 915 901 869 864 862 825 825
    827 829 829 831 831 831 831 831 831 829 829 831 831 831 831 831 831
    831 831 831 831 831 831 833 833 833 833 835 835 835 833 833 833 833
    833 835 833 833 833 835 835 835 835 833 833 835 833 833 835 835 835
    835 835 835 835 835 835 835 835 835 835 837 837 839 839 839 839 839
    839 837 837 839 839 839 0 0 0 0 918 903 901 869 862 862 862 829 829
    829 829 829 829 831 831 831 831 829 829 831 831 831 831 831 831 831
    831 831 831 831 833 833 833 833 833 835 835 835 833 833 835 835 835
    835 835 835 835 835 835 837 835 833 833 833 833 833 835 835 835 835
    835 835 835 835 835 835 835 835 835 837 839 839 839 839 839 839 837
    837 837 839 839 0 0 0 0 0 0 903 901 869 862 858 847 831 831 831 831
    829 829 831 831 831 831 831 831 831 831 831 831 831 831 831 831 831
    833 833 833 833 833 833 835 835 835 835 833 833 835 835 835 835 835
    835 835 835 835 837 835 833 833 833 833 833 835 835 835 835 835 835
    835 835 835 835 835 835 835 839 839 839 839 839 837 837 837 837 837
    839 839 839 0 0 0 0 0 903 901 871 864 856 847 831 831 829 829 829
    829 831 831 831 829 829 829 831 831 831 831 831 831 831 831 831 831
    831 833 835 835 835 835 835 835 835 835 835 835 835 835 835 835 835
    835 835 835 835 835 835 835 833 833 833 835 835 835 835 835 835 835
    837 835 835 835 835 835 839 839 839 839 839 837 837 837 837 837 839
    839 839 0 0 0 0 0 0 898 871 864 856 847 833 831 829 829 829 829 831
    831 831 829 829 829 829 831 831 831 831 831 831 831 831 831 831 833
    833 835 833 833 833 835 835 835 835 835 835 835 835 835 835 835 835
    835 835 835 835 835 835 833 833 837 837 837 835 835 835 835 837 835
    835 835 835 835 839 839 839 839 839 839 839 839 839 839 841 839 839
    0 0 0 0 0 908 898 873 871 856 845 833 831 829 829 829 829 829 831
    831 829 829 829 829 831 831 831 831 833 833 833 833 833 831 831 833
    835 833 833 833 835 835 835 835 835 835 835 835 835 835 835 835 835
    835 835 835 835 837 837 837 837 837 837 835 835 835 837 837 837 837
    837 835 835 839 839 839 839 839 839 839 839 839 841 841 841 841 0 0
    0 0 0 906 901 875 873 860 833 833 831 829 829 829 829 829 831 831
    831 831 831 831 831 831 831 831 833 833 833 833 831 831 831 833 833
    833 833 833 833 835 835 835 835 835 835 835 835 837 835 835 835 835
    833 833 835 837 837 837 837 837 837 837 837 837 837 837 837 837 837
    837 837 839 839 839 839 839 839 839 839 841 841 841 841 841 0 0 0 0
    0 906 901 896 878 860 833 831 831 829 829 829 829 829 831 831 831
    831 831 831 831 831 831 831 833 833 833 833 831 831 831 833 833 833
    833 833 833 835 835 835 833 833 835 837 837 837 835 835 835 835 833
    833 835 837 837 837 839 837 837 837 837 837 837 837 837 837 837 837
    837 839 839 841 841 841 841 839 839 839 841 841 841 841 0 0 0 0 0 0
    901 896 878 867 854 831 831 831 831 831 831 831 831 831 831 831 831
    831 831 831 831 831 833 833 833 833 833 833 833 835 835 835 833 833
    835 835 835 835 833 833 835 837 837 837 837 835 835 835 835 835 837
    837 837 839 839 839 837 837 837 837 837 837 837 837 837 837 837 839
    839 839 841 841 841 839 839 839 841 841 841 841 0 0 0 0 0 0 901 896
    891 856 854 833 831 831 831 831 831 831 831 831 831 831 831 833 833
    831 831 831 833 833 833 833 833 833 833 835 835 835 835 835 835 835
    835 835 835 835 837 837 839 837 837 835 835 835 835 837 837 837 837
    837 839 837 837 835 835 837 837 837 837 837 837 837 837 839 839 839
    841 841 841 839 839 839 841 841 841 841 841 0 0 0 0 0 901 896 891
    856 854 854 831 831 831 831 831 831 831 831 831 831 831 833 833 833
    833 833 833 833 833 833 833 833 833 835 835 835 835 835 835 835 835
    837 837 837 839 839 839 837 835 835 835 835 835 837 837 837 837 837
    839 837 837 835 835 837 837 837 837 837 837 837 837 839 839 839 841
    841 841 839 839 839 841 841 841 841 841 0 0 0 0 0 903 896 889 856
    854 854 833 831 831 831 831 831 831 831 831 831 831 833 833 833 833
    833 833 833 833 833 833 835 835 837 835 835 835 835 835 837 837 837
    839 839 839 839 839 837 835 835 837 837 837 837 835 835 837 837 837
    835 835 835 835 837 837 837 837 837 837 837 839 839 841 841 841 841
    841 839 839 839 841 841 841 841 841 0 0 0 0 0 896 894 889 860 854
    854 833 831 831 831 831 831 831 831 831 831 831 833 833 833 833 833
    833 833 833 833 833 835 835 837 835 835 835 835 835 837 837 839 839
    839 839 839 837 837 837 837 839 837 837 837 835 835 837 837 837 835
    835 835 835 837 837 837 837 837 839 839 839 841 841 841 841 841 841
    841 841 841 841 841 841 841 841 0 0 0 0 0 896 894 867 860 854 854
    833 831 831 831 831 831 831 831 831 831 831 833 833 833 833 833 833
    833 833 833 833 835 837 837 835 835 835 835 835 839 839 839 839 839
    839 839 837 837 837 837 839 837 837 837 837 837 837 837 837 835 835
    835 835 837 839 839 839 839 839 839 839 841 841 841 841 841 841 841
    841 841 841 841 841 843 843 0 0 0 0 0 0 894 867 867 867 833 833 831
    831 831 831 831 831 831 831 831 831 831 833 833 833 833 833 833 833
    833 835 835 837 839 837 837 837 835 835 839 839 839 839 839 839 837
    837 837 837 837 839 837 837 837 837 837 839 839 839 837 837 837 837
    837 839 839 839 839 839 839 839 841 841 841 841 841 843 841 841 841
    841 841 841 843 843 0 0 0 0 0 0 891 864 858 856 839 833 831 831 831
    831 831 831 831 831 831 831 831 833 833 833 833 833 833 833 833 835
    837 837 839 837 837 837 837 837 837 839 839 839 837 837 837 837 837
    837 837 837 837 837 837 837 837 839 839 839 839 839 839 839 839 839
    839 839 839 839 839 839 841 841 841 841 841 841 841 841 841 841 841
    841 841 843 0 0 0 0 0 0 891 864 856 856 839 833 831 831 831 831 831
    831 831 831 831 831 833 833 833 833 833 833 833 833 835 835 837 837
    839 839 837 837 837 837 837 839 839 839 837 837 837 837 837 837 837
    837 837 837 837 837 837 837 839 839 839 839 839 839 839 839 839 839
    839 839 839 839 841 841 841 841 841 841 841 841 841 841 841 841 841
    843 0 0 0 0 0 0 0 867 856 849 839 833 831 831 831 831 831 831 831
    831 831 831 833 833 835 835 835 835 835 835 835 835 837 837 837 839
    839 837 837 837 837 839 839 839 839 839 837 837 837 837 837 837 837
    837 837 837 837 837 839 839 839 839 839 839 839 839 839 839 839 839
    839 841 841 841 841 841 841 841 841 841 841 841 841 841 841 843 0 0
    0 0 0 910 903 885 856 849 841 835 833 831 831 831 831 831 831 831
    831 831 833 833 833 833 835 835 835 835 835 835 835 835 837 839 839
    837 837 837 837 839 839 839 839 839 839 839 837 837 837 837 837 837
    837 837 837 839 839 839 839 839 839 839 839 839 839 839 839 839 839
    841 841 841 841 841 841 841 841 843 841 841 843 843 843 843 0 0 0 0
    918 910 901 885 873 873 845 837 833 833 833 831 831 831 831 831 831
    831 833 833 833 833 835 835 835 835 835 835 835 835 837 837 837 837
    837 837 837 839 839 839 839 839 839 839 839 839 837 837 837 837 837
    837 837 839 839 839 839 839 839 839 839 839 839 839 839 839 839 841
    841 841 841 841 841 843 843 843 843 843 843 843 843 0 0 0 0 0 918
    913 901 901 873 873 873 837 833 831 831 831 833 833 833 833 833 833
    833 833 833 833 833 835 835 835 835 835 835 835 837 837 837 837 837
    837 837 839 839 839 839 839 839 839 839 839 837 837 837 837 837 837
    837 839 839 839 839 839 839 839 839 839 839 839 839 839 839 841 841
    841 841 841 843 843 843 843 843 843 843 843 843 843 0 0 0 0 918 913
    898 898 871 869 839 837 833 831 831 831 833 833 833 833 833 833 833
    833 833 833 833 835 835 835 835 835 837 837 837 837 837 837 837 837
    837 839 839 839 839 841 839 839 839 839 839 837 837 837 837 837 839
    839 841 841 839 839 839 839 839 839 839 839 839 839 839 841 841 841
    843 843 843 843 843 843 843 843 843 843 843 843 0 0 0 0 918 913 898
    885 871 869 839 837 835 833 833 833 833 833 833 835 835 835 833 833
    833 833 833 835 835 835 835 837 837 837 839 839 837 837 837 837 837
    839 839 839 839 839 839 839 839 839 839 839 839 839 839 839 839 839
    841 841 839 839 839 839 839 839 839 839 839 839 839 841 841 841 843
    843 843 843 843 843 843 843 843 843 843 843 0 0 0 0 0 908 896 882
    873 871 871 837 835 833 833 833 833 833 835 835 835 835 835 835 835
    833 833 835 835 835 835 837 837 837 839 839 837 837 837 837 837 839
    839 839 839 839 839 839 839 839 839 839 839 839 839 839 839 839 841
    841 839 839 839 839 839 839 839 839 839 839 839 841 841 843 843 843
    843 843 843 843 843 843 843 843 843 0 0 0 0 0 0 908 896 882 873 871
    871 837 835 833 833 833 833 833 835 835 835 835 835 835 835 835 835
    835 837 837 837 837 837 837 839 839 839 839 839 839 841 841 839 839
    839 839 839 839 839 839 839 839 839 839 839 839 839 839 839 839 839
    839 839 839 839 839 839 839 839 839 839 841 841 843 843 843 843 843
    843 843 843 843 843 843 843 0 0 0 0 0 0 0 906 906 906 906 839 839
    837 833 833 835 835 835 835 835 835 835 835 835 835 835 835 837 837
    837 837 837 837 839 839 839 839 839 839 841 841 841 839 839 839 839
    839 839 839 839 839 839 839 839 839 839 839 839 839 839 839 839 839
    839 839 839 839 839 839 839 839 841 841 841 843 843 843 843 843 843
    843 843 843 843 843 843 0 0 0 0 0 0 906 906 906 856 839 839 837 833
    833 835 835 835 835 835 835 835 835 835 837 837 837 837 837 837 837
    837 837 839 839 839 839 839 839 839 841 841 839 839 839 839 839 839
    839 839 839 839 839 839 839 839 839 841 841 839 839 839 839 839 839
    839 839 839 839 839 839 841 841 841 843 841 841 841 843 843 843 843
    843 843 843 843 0 0 0 0 0 0 906 891 891 856 849 839 837 835 835 835
    835 835 835 835 835 835 837 837 837 837 837 837 837 837 837 837 837
    839 839 839 839 839 839 839 841 841 839 839 839 839 839 839 839 839
    839 839 839 839 839 839 841 841 841 839 839 839 839 839 839 839 839
    839 839 839 839 841 841 843 843 841 841 841 843 843 843 843 843 843
    843 843 843 0 0 0 0 0 901 885 878 856 849 841 839 833 833 835 835
    835 835 835 835 835 837 837 837 837 837 837 837 837 837 837 837 839
    839 839 839 839 839 839 839 841 839 839 839 839 839 839 839 839 839
    839 839 839 839 839 839 839 841 839 839 841 841 841 839 839 839 839
    841 839 839 841 841 843 843 843 843 843 843 843 843 843 843 843 843
    843 843 0 0 0 0 0 901 885 873 821 821 841 839 833 833 835 835 835
    835 835 835 835 837 837 837 837 837 837 837 837 837 837 837 839 839
    839 839 839 839 839 839 841 839 839 839 839 839 839 839 839 839 839
    841 839 839 839 839 839 841 841 841 841 839 839 839 839 839 839 841
    841 841 841 841 843 843 843 843 843 843 843 843 843 843 843 843 843
    843 0 0 0 0 910 901 901 867 821 821 839 837 835 835 835 835 835 835
    835 835 835 837 837 837 837 837 837 837 837 837 837 837 839 839 839
    839 839 839 839 839 839 839 839 839 839 839 839 839 839 839 839 839
    839 839 839 839 841 841 841 841 839 839 839 839 839 839 839 841 841
    841 841 841 843 843 843 843 843 843 843 843 843 843 843 843 843 843
    0 0 0 0 910 903 901 867 821 821 839 835 835 835 837 835 835 835 835
    835 835 837 837 837 837 837 837 837 837 837 837 837 839 839 839 839
    839 839 839 839 839 839 839 839 839 839 839 839 839 841 841 839 839
    839 839 839 841 841 841 841 839 839 839 839 841 841 841 841 841 841
    843 843 843 843 845 845 843 843 843 843 843 843 843 843 841 841 0 0
    0 0 908 908 906 885 873 856 841 835 835 835 837 837 837 837 837 837
    837 837 837 837 837 837 837 837 837 837 837 837 839 839 839 839 839
    839 839 839 839 839 839 839 841 839 839 839 839 839 839 839 839 839
    839 839 841 841 841 839 839 839 839 839 841 841 841 841 841 841 843
    843 843 843 843 843 843 841 841 843 843 843 843 843 841 841 0 0 0 0
    908 908 906 882 878 858 841 835 835 835 837 837 837 837 837 837 837
    837 837 837 837 837 837 837 837 837 837 837 839 839 839 839 839 839
    839 839 839 839 839 839 839 839 839 839 839 839 839 839 839 839 839
    839 841 841 841 839 839 839 839 839 841 841 841 841 841 841 843 843
    843 843 843 843 843 841 841 843 843 843 845 843 843 843 0 0 0 0 913
    908 894 882 878 871 841 835 835 835 837 837 837 837 837 837 837 837
    837 837 837 837 837 837 837 837 837 837 839 839 839 841 839 839 839
    839 839 839 839 839 839 839 839 839 839 839 839 839 839 839 839 839
    841 841 841 839 839 839 839 839 841 841 841 841 841 841 843 843 843
    843 843 843 843 843 843 843 843 845 845 843 843 843 0 0 0 0 0 908
    894 880 878 867 843 837 837 837 837 837 837 835 835 835 837 837 837
    837 837 837 837 837 837 837 837 837 839 839 839 839 839 839 839 839
    839 839 839 839 839 839 839 839 839 839 839 839 839 839 839 839 839
    839 841 839 839 839 841 841 841 841 841 841 841 841 843 843 843 843
    843 843 843 843 843 843 845 845 845 843 843 843 0 0 0 0 0 908 903
    880 871 867 837 835 835 835 835 837 837 835 835 835 837 837 837 837
    837 837 837 837 837 837 837 839 839 839 839 839 839 839 839 839 839
    839 839 839 839 839 839 839 839 839 839 839 839 839 839 839 837 837
    839 839 839 839 841 841 841 841 841 841 841 841 843 843 843 843 843
    843 843 843 843 843 845 845 845 845 845 0 0 0 0 0 0 908 903 903 869
    867 837 835 835 835 835 837 837 837 835 835 837 837 837 837 837 837
    837 837 837 837 837 839 841 839 839 839 839 839 839 839 839 839 839
    839 839 839 839 839 839 841 841 841 841 839 839 839 837 837 839 841
    841 841 841 841 841 841 841 841 841 841 843 843 843 845 843 843 843
    843 843 843 845 845 845 845 845 845 0 0 0 0 910 910 901 901 869 867
    837 837 835 835 835 837 837 837 837 837 837 837 837 837 837 837 837
    837 837 837 837 839 841 841 841 839 839 839 839 839 839 839 839 839
    839 841 839 839 841 841 841 841 841 839 839 839 837 837 839 841 841
    841 841 841 841 841 841 841 841 841 843 843 843 843 843 843 843 843
    843 843 845 845 845 845 845 845 0 0 0 0 910 910 901 891 873 869 837
    837 837 837 837 837 837 837 837 837 837 837 837 837 837 837 837 837
    839 839 839 839 841 841 841 839 839 839 839 839 841 841 841 841 841
    841 839 839 841 841 841 841 841 841 839 839 839 839 839 841 841 841
    841 841 841 841 841 841 841 841 843 843 843 843 843 843 843 843 843
    845 845 845 845 845 845 845 0 0 0 0 910 910 903 891 875 869 839 839
    837 837 837 837 837 837 837 837 837 837 837 837 837 837 837 837 839
    839 839 839 841 841 841 839 839 839 839 839 841 841 841 841 841 841
    841 841 841 841 841 841 841 841 841 839 839 839 841 841 841 841 841
    841 841 841 841 841 841 843 843 843 843 843 843 843 845 845 845 845
    845 845 845 845 845 845 0 0 0 0 913 913 906 894 875 867 841 837 837
    837 837 837 837 837 837 837 837 837 837 837 837 839 839 839 839 839
    839 839 841 841 839 839 839 839 839 839 841 841 841 841 841 841 841
    841 841 841 841 841 841 841 841 841 841 841 841 841 841 841 841 841
    841 841 841 841 843 843 843 843 843 843 843 843 845 845 845 845 845
    847 845 845 845 845 0 0 0 0 0 913 906 894 887 862 841 837 837 837
    837 837 837 839 837 837 837 837 837 837 839 839 839 839 839 839 837
    837 839 839 839 839 839 839 839 839 839 841 841 841 841 841 841 841
    841 841 841 841 841 841 839 839 841 841 841 841 841 841 843 841 841
    841 841 841 841 841 843 843 843 843 843 843 845 845 845 845 845 845
    845 845 845 0 0 0 0 0 0 910 906 894 894 862 841 837 837 837 837 837
    837 839 837 837 837 837 837 837 837 839 839 839 839 839 837 837 839
    839 839 839 839 839 839 839 839 841 841 841 841 841 841 841 841 839
    839 839 839 839 839 839 841 841 841 841 841 841 843 841 841 841 841
    841 841 841 843 843 843 843 843 843 845 845 845 845 845 845 845 845
    845 0 0 0 0 0 0 910 906 906 906 839 839 837 837 837 837 837 837 839
    837 837 837 837 837 837 837 839 839 837 837 839 839 839 839 839 839
    839 839 839 839 839 839 841 841 841 841 841 841 841 841 839 839 839
    839 839 839 839 841 841 841 841 843 843 843 841 841 841 841 841 841
    841 843 843 843 843 843 845 845 845 845 845 845 845 845 843 843 843
    0 0 0 0 0 913 906 906 906 839 839 837 837 837 837 837 837 837 837
    837 837 837 837 837 837 839 837 837 837 837 839 839 841 841 839 839
    839 839 839 839 839 841 841 841 841 841 841 841 841 841 841 841 839
    839 839 839 841 841 841 841 843 843 841 841 841 841 841 841 841 841
    843 843 843 845 845 845 845 845 845 845 845 845 847 843 843 843 0 0
    0 0 0 913 906 906 906 841 841 839 837 837 837 837 837 837 837 837
    837 837 837 837 837 839 837 837 837 837 839 839 841 841 841 841 839
    839 839 839 839 841 841 841 841 841 841 841 841 841 841 841 841 841
    841 841 841 841 841 841 843 843 841 841 841 841 841 841 841 841 843
    845 845 845 845 845 845 845 845 845 845 845 847 843 843 843 0 0 0 0
    0 913 906 901 901 901 839 839 837 837 837 837 837 837 837 837 837
    837 837 837 837 839 837 837 837 837 839 839 841 841 841 841 839 839
    839 839 839 841 841 841 841 841 841 841 841 841 841 841 841 841 841
    841 841 841 841 841 843 843 843 841 841 841 841 841 841 841 845 845
    847 847 847 847 847 845 845 845 847 847 847 843 843 843 0 0 0 0 0
    913 903 901 898 898 898 839 837 837 837 837 837 837 837 837 837 837
    837 837 837 837 837 837 837 837 839 839 841 841 841 841 841 841 839
    839 839 841 841 841 841 841 841 841 841 841 841 841 841 841 841 841
    841 841 841 841 841 843 843 841 841 841 841 841 841 843 845 847 847
    847 847 847 847 845 845 847 847 847 847 847 847 847 0 0 0 0 0 0 903
    901 898 898 898 841 839 837 837 837 837 837 837 837 837 837 837 837
    837 837 837 837 837 839 839 839 841 841 841 841 841 841 841 841 841
    841 841 841 841 841 841 841 841 841 841 841 841 841 841 841 841 841
    841 841 841 843 843 843 841 841 841 841 843 845 845 847 847 847 847
    847 847 845 845 847 847 847 847 847 847 0 0 0 0 0 0 0 903 903 901
    901 847 841 839 837 837 837 837 837 837 837 837 837 837 837 837 837
    837 837 837 837 839 839 841 841 839 839 839 841 841 841 841 841 841
    841 841 841 841 841 841 841 841 841 841 841 841 841 841 841 841 841
    841 843 843 843 843 843 843 843 843 843 845 845 847 847 847 847 847
    847 847 847 847 847 847 847 847 0 0 0 0 0 928 925 908 906 906 901
    841 839 839 837 837 837 837 837 837 837 837 837 837 837 837 837 837
    837 837 837 839 839 841 841 839 839 839 841 841 841 841 841 841 841
    841 841 841 841 841 841 841 841 841 841 843 843 841 841 841 841 841
    843 843 843 843 843 843 843 843 843 845 845 847 847 847 847 847 847
    847 847 847 847 847 847 847 0 0 0 0 0 923 918 915 906 906 871 841
    839 839 837 837 837 837 837 837 837 837 837 837 837 837 837 837 837
    837 839 839 839 841 841 841 841 841 841 841 841 841 843 841 841 841
    841 841 841 841 841 841 841 841 841 843 843 843 841 841 841 841 843
    843 843 843 843 845 843 843 843 843 845 845 845 845 845 845 847 847
    847 847 847 847 847 847 0 0 0 0 0 923 918 915 908 891 871 841 839
    839 837 837 837 837 837 837 837 837 837 837 837 837 839 839 839 839
    839 839 839 841 841 841 841 841 841 841 841 841 843 841 841 841 841
    841 841 841 841 841 841 843 843 843 841 841 841 841 841 841 843 843
    843 845 845 845 843 843 843 843 845 845 845 845 845 845 847 847 847
    847 847 847 847 847 849 0 0 0 0 925 920 915 906 891 873 869 839 839
    837 837 837 837 837 837 837 837 837 837 837 837 839 839 839 839 839
    839 839 841 841 841 841 841 841 841 841 841 843 841 841 841 841 841
    841 841 841 841 841 841 841 841 841 841 841 841 841 841 843 843 843
    845 845 845 843 843 843 845 845 845 845 845 845 845 847 847 847 847
    847 847 849 849 849 0 0 0 0 925 920 915 903 891 882 869 839 839 837
    837 837 837 837 837 837 837 837 837 837 837 839 839 839 839 839 839
    839 841 841 841 841 841 841 841 841 841 841 841 843 841 841 841 841
    841 843 841 841 841 841 841 841 841 841 841 843 843 843 843 843 845
    845 845 845 845 845 845 845 845 845 845 845 845 847 847 847 847 847
    847 849 847 847 0 0 0 0 925 923 915 903 889 875 869 839 839 837 837
    837 839 839 839 837 837 837 837 837 837 839 839 839 839 839 839 839
    841 841 841 841 841 841 841 841 841 841 841 841 841 841 841 841 841
    841 841 841 841 841 841 841 841 841 843 843 843 843 843 843 843 843
    845 845 845 845 847 847 845 845 845 845 845 847 847 847 847 847 847
    849 847 847 0 0 0 0 925 920 913 901 885 875 869 841 839 837 837 839
    839 837 837 837 837 837 837 837 839 839 839 839 839 839 839 839 841
    841 841 841 841 841 841 841 841 841 841 841 841 841 841 841 841 841
    841 841 841 841 841 841 841 841 843 845 845 845 843 843 843 843 845
    843 843 845 847 847 845 845 847 847 847 847 847 847 847 847 847 849
    847 847 0 0 0 0 928 920 913 901 882 873 871 864 839 837 837 839 839
    837 837 837 837 837 837 837 839 839 839 839 839 839 839 839 841 841
    841 841 841 841 841 841 841 841 841 841 841 841 841 841 843 841 841
    841 841 841 841 841 843 843 845 845 845 843 843 843 843 843 843 843
    843 843 847 847 845 845 847 847 847 847 847 847 847 847 847 849 847
    847 0 0 0 933 930 920 913 910 882 873 871 854 839 839 839 839 839
    837 837 837 837 837 839 839 839 839 839 839 839 839 839 839 841 841
    841 841 841 841 841 841 841 841 841 841 841 841 841 841 843 841 841
    841 841 841 841 841 843 843 843 843 843 843 843 843 843 843 843 843
    843 843 847 847 847 847 847 849 847 847 847 847 847 847 847 849 849
    849 0 0 0 933 928 920 913 910 885 878 871 841 839 839 839 839 837
    837 837 837 837 839 839 839 839 839 839 839 839 839 839 839 841 841
    841 841 841 841 841 841 841 841 841 841 841 843 843 843 843 843 843
    841 841 841 841 841 843 843 843 843 843 843 843 843 843 843 843 843
    843 843 847 847 847 847 847 849 847 847 847 847 847 849 849 849 849
    849 0 0 0 0 923 920 915 910 910 910 839 839 839 839 839 839 837 837
    837 837 837 839 839 839 839 839 839 841 841 839 839 839 841 841 841
    841 841 841 841 841 841 841 841 841 841 843 843 843 845 843 843 841
    841 841 841 841 841 843 843 843 843 845 845 845 845 845 843 843 843
    843 847 847 847 847 847 849 847 847 847 847 849 849 849 849 849 849
    0 0 0 0 923 920 918 910 910 910 839 839 839 839 839 837 837 837 837
    839 839 839 839 839 839 839 839 841 839 839 839 839 841 841 841 841
    841 841 841 841 841 843 843 843 843 843 843 843 843 843 843 841 841
    841 841 841 841 843 843 843 843 843 845 845 845 845 845 845 845 845
    847 847 847 847 849 847 847 847 847 847 847 849 849 849 849 849 0 0
    0 0 923 920 918 910 910 910 839 839 839 839 839 837 837 839 839 839
    839 839 839 839 839 839 839 839 839 839 839 839 841 841 841 841 841
    841 839 839 841 841 843 843 843 843 843 843 843 843 843 841 841 841
    841 843 843 843 843 843 843 843 845 845 845 845 845 845 845 845 847
    847 847 847 847 847 847 847 847 847 847 849 849 849 849 845 845 0 0
    0 925 923 918 910 906 906 906 839 839 839 839 839 839 839 839 839
    839 839 839 839 839 839 839 839 839 839 839 839 841 841 841 841 841
    841 839 839 841 841 843 843 843 843 843 843 843 843 843 843 841 841
    843 843 843 843 843 843 843 845 845 845 845 845 845 845 845 845 847
    847 847 847 847 847 847 847 847 847 849 849 849 849 847 845 845 0 0
    0 928 923 918 910 906 906 871 841 841 839 839 839 839 839 839 839
    839 837 837 837 839 839 839 839 839 839 839 839 841 841 841 843 841
    841 841 841 841 841 843 843 841 841 843 843 843 843 843 845 843 843
    843 843 843 843 843 843 845 843 843 845 845 845 843 843 845 845 847
    847 847 847 847 847 847 847 849 849 849 849 849 849 847 845 845 0 0
    0 928 923 918 910 908 908 871 841 841 839 839 839 839 839 839 839
    837 837 837 837 839 839 839 839 839 839 839 839 841 841 841 843 843
    841 841 841 841 841 843 843 841 841 843 843 843 843 843 843 843 843
    843 843 843 843 845 845 845 843 843 845 845 845 843 843 843 845 847
    847 847 847 847 847 847 847 849 849 849 849 849 849 849 847 847 0 0
    0 930 923 915 910 910 910 869 854 841 839 839 839 839 839 839 839
    837 837 837 837 839 839 839 839 839 839 839 841 841 841 841 843 843
    841 841 841 841 841 843 843 841 841 843 843 843 843 843 843 843 843
    843 843 843 843 845 845 845 845 845 845 845 845 845 843 843 845 847
    847 847 847 847 849 849 849 849 849 847 847 849 849 849 849 0 0 0 0
    0 0 915 910 910 910 864 860 843 839 839 839 839 839 839 839 839 837
    837 837 839 839 839 839 839 839 841 841 841 841 843 843 843 841 841
    841 841 841 843 843 843 843 845 843 843 843 843 843 843 843 843 843
    843 843 845 845 845 845 845 845 845 845 845 843 843 845 847 847 849
    847 847 849 849 849 849 849 847 847 849 849 849 849 0 0 0 0 0 0 915
    910 910 910 864 864 841 839 839 839 839 839 839 839 839 839 839 839
    839 839 839 839 839 839 841 841 843 843 843 843 843 841 841 841 841
    841 843 843 845 845 845 843 843 843 841 841 843 843 843 843 845 845
    845 845 845 845 845 845 845 845 845 843 843 845 847 847 849 849 849
    849 849 849 849 849 847 847 849 849 847 847 0 0 0 0 0 0 915 908 908
    908 864 864 841 839 839 839 839 839 839 839 839 839 839 839 839 839
    839 839 839 839 841 841 843 843 843 843 843 841 841 841 841 841 843
    845 845 845 845 843 841 841 841 841 843 843 843 845 845 843 843 845
    845 845 845 845 845 845 845 845 845 847 849 849 849 849 849 849 849
    849 849 849 849 849 849 849 847 845 845 0 0 0 0 0 918 908 908 873
    864 864 843 841 839 839 839 839 839 839 839 839 839 839 839 839 839
    839 839 839 841 841 843 845 845 843 843 843 843 843 841 841 843 843
    845 845 845 843 841 841 841 841 843 843 845 845 843 843 843 845 845
    845 845 845 845 845 845 845 845 847 849 849 849 849 849 849 849 849
    849 849 851 851 849 849 847 845 845 0 0 0 0 0 0 908 908 873 871 864
    843 841 839 839 839 841 839 839 839 839 839 839 839 841 841 839 839
    839 841 841 843 843 843 843 843 843 843 843 843 843 843 843 843 845
    845 843 843 843 843 843 843 843 843 843 843 843 843 847 845 845 845
    845 845 845 845 847 847 847 849 849 849 849 849 849 849 849 849 849
    849 851 851 849 849 847 847 0 0 0 0 0 0 0 873 873 869 864 843 841
    839 839 839 839 839 839 839 839 839 839 839 841 841 841 841 841 841
    841 843 843 843 843 843 843 843 843 843 843 843 843 843 845 845 843
    843 843 843 843 843 843 843 843 845 845 845 847 847 845 845 845 845
    845 845 847 847 847 849 849 849 849 849 849 849 849 849 849 849 851
    851 851 851 851 0 0 0 0 0 0 0 0 910 869 869 864 847 841 839 839 839
    839 839 839 839 839 839 839 839 841 841 841 841 841 841 843 843 843
    843 843 843 845 845 843 843 843 843 843 843 845 845 845 845 845 845
    845 843 843 843 845 845 845 845 847 847 845 845 845 845 845 845 847
    847 847 851 849 849 851 849 849 849 849 849 849 851 851 851 851 851
    851 0 0 0 0 0 0 928 923 910 906 869 864 854 843 841 841 841 841 839
    839 839 839 839 839 839 841 841 841 841 841 841 843 843 843 843 843
    843 843 845 845 845 843 843 843 843 843 845 845 845 845 845 845 845
    843 843 843 845 845 845 847 847 847 847 847 845 845 845 847 847 847
    851 849 849 849 849 849 849 849 849 849 851 851 851 851 851 851 0 0
    0 0 0 0 928 920 910 906 869 860 854 845 843 841 841 841 841 839 839
    839 839 839 839 841 841 841 841 841 841 841 845 845 843 843 843 843
    845 845 845 843 843 843 843 843 845 845 845 845 845 845 845 843 843
    843 845 847 847 847 845 845 847 847 845 845 845 847 847 847 849 849
    849 849 849 849 849 849 849 849 851 851 851 851 851 851 0 0 0 0 0 0
    925 920 910 910 869 860 851 845 843 841 841 841 841 841 839 839 839
    839 841 841 841 841 841 841 841 841 845 845 845 845 843 843 843 843
    843 843 843 843 843 843 845 843 843 845 845 845 845 845 845 845 845
    847 847 847 845 845 847 847 847 847 847 847 847 847 849 849 849 849
    849 849 849 849 849 851 851 851 851 851 851 851 0 0 0 0 0 928 923
    920 910 903 869 862 851 845 843 841 841 841 839 839 839 839 839 839
    841 841 841 841 841 841 841 841 845 845 845 845 843 843 843 841 841
    843 843 843 843 843 845 843 843 845 845 845 845 845 845 845 845 845
    847 847 847 847 847 847 847 847 847 847 847 847 849 849 849 849 849
    849 849 849 849 851 851 851 851 851 851 851 0 0 0 0 0 928 923 920
    910 901 871 871 851 845 841 841 841 841 839 839 839 839 839 839 841
    841 841 843 843 843 841 841 845 845 845 845 845 843 843 841 841 843
    843 845 845 845 845 843 843 845 845 845 845 845 845 845 845 845 845
    845 847 847 847 847 847 847 847 847 847 847 849 849 849 849 849 849
    849 851 851 851 851 851 851 851 851 851 854 0 0 0 0 928 923 920 910
    901 871 871 856 845 841 841 841 841 839 839 839 839 839 841 841 841
    841 843 843 843 841 841 843 845 845 845 845 843 843 843 843 843 843
    845 845 845 845 843 843 843 845 845 845 845 845 845 845 845 845 845
    847 847 847 847 847 847 847 847 849 849 849 849 849 849 849 851 851
    851 851 851 851 851 851 851 854 851 851 0 0 0 0 928 918 918 910 903
    871 869 862 847 843 841 841 841 839 839 839 839 839 841 841 841 841
    843 843 843 843 843 843 843 845 845 845 843 843 843 845 845 845 847
    845 845 845 843 843 843 843 843 843 845 845 845 845 847 847 847 847
    847 847 847 847 847 847 847 849 849 851 851 851 849 849 851 851 851
    851 851 851 851 851 851 851 851 851 0 0 0 0 0 918 915 910 903 871
    869 862 847 843 839 839 841 839 839 839 839 839 841 841 841 841 841
    843 843 843 843 843 843 845 845 845 845 845 845 845 845 845 847 845
    845 845 845 845 843 843 843 843 845 847 847 847 847 847 847 847 847
    847 847 847 847 847 847 849 849 851 851 851 851 851 851 851 851 851
    851 851 851 851 851 851 851 851 0 0 0 0 0 918 915 910 901 871 869
    860 849 843 839 839 841 841 841 841 839 839 841 841 841 841 841 843
    843 843 845 845 845 845 845 845 845 845 845 845 845 845 847 847 847
    847 845 845 843 843 843 843 845 847 847 847 847 847 847 847 847 847
    847 847 847 847 847 849 849 851 851 851 851 851 849 849 851 851 851
    851 851 851 851 854 851 849 849 0 0 0 933 928 923 910 901 873 871
    858 847 843 841 841 843 843 843 841 841 841 841 841 841 843 843 843
    843 843 845 845 845 845 845 847 847 845 845 845 845 845 847 847 847
    847 847 845 845 845 845 845 845 847 847 847 847 847 847 847 847 847
    847 847 847 847 847 847 847 851 851 851 851 851 849 849 851 851 851
    851 851 851 851 854 851 849 849 0 0 0 933 928 925 908 898 878 871
    858 847 843 841 841 843 843 843 843 841 841 841 841 843 843 843 843
    843 843 845 845 845 845 845 845 847 845 845 845 847 847 847 847 847
    847 847 847 847 845 845 845 847 847 847 847 847 847 849 849 847 847
    847 847 847 847 847 847 847 851 851 851 849 849 849 849 851 851 851
    851 851 851 851 854 851 851 851 0 0 0 938 933 928 906 898 885 878
    864 845 845 843 843 843 843 843 841 841 841 841 841 843 843 843 843
    843 843 845 845 845 845 845 845 847 845 845 845 847 847 847 847 847
    847 847 847 847 847 847 847 847 847 847 847 847 847 849 849 847 847
    847 847 847 847 847 847 847 851 851 851 849 849 849 849 851 851 851
    851 854 854 854 854 851 851 0 0 0 0 938 938 0 906 894 885 875 875
    845 845 843 843 843 843 843 841 841 841 843 843 843 843 843 843 843
    843 843 845 845 845 845 845 847 847 845 845 847 847 847 847 847 847
    847 847 847 847 847 847 847 847 847 847 847 847 849 849 849 847 847
    849 849 849 849 849 849 851 851 851 851 851 849 849 851 851 854 854
    854 856 854 854 851 851 0 0 0 0 0 0 0 0 894 875 873 864 845 845 843
    843 843 843 843 841 841 841 843 843 843 843 843 843 843 843 843 845
    845 845 845 847 847 847 847 847 847 847 847 847 847 847 847 847 847
    847 847 847 847 847 847 847 847 847 849 849 849 849 849 849 849 849
    847 847 849 851 851 851 851 851 851 851 851 851 854 854 854 856 856
    854 854 854 0 0 0 0 0 0 0 0 894 871 869 862 845 845 843 843 843 843
    843 841 841 843 843 843 845 843 843 843 843 843 845 845 845 847 847
    847 847 847 847 847 847 847 847 847 847 847 847 847 847 847 847 847
    847 847 847 847 847 847 847 849 849 849 849 849 849 849 847 847 849
    851 851 851 851 851 851 851 851 851 854 854 854 854 854 854 854 854
    0 0 0 0 0 0 0 0 0 864 864 860 849 845 843 843 843 843 843 843 843
    843 843 845 845 843 843 843 845 845 845 847 847 847 847 847 847 847
    847 847 847 847 847 847 847 847 847 847 847 847 847 847 847 847 847
    847 847 847 847 849 849 849 849 849 849 849 847 847 849 851 851 851
    851 851 851 851 851 851 851 851 854 854 854 854 854 851 851 0 0 0 0
    0 0 0 0 856 856 854 849 845 841 841 841 845 843 843 843 845 845 845
    845 843 843 843 845 845 845 847 847 847 847 847 847 845 845 845 847
    847 847 847 847 847 847 847 847 847 847 847 847 847 847 847 847 847
    847 849 849 849 849 849 849 849 847 847 849 851 851 851 851 851 854
    854 854 851 851 851 854 854 854 856 854 851 851 0 0 0 0 0 0 0 0 856
    856 854 847 843 841 841 841 843 843 843 843 843 843 845 843 843 841
    841 843 843 845 847 847 847 847 845 845 845 845 845 847 847 847 847
    847 847 847 847 847 847 847 847 847 847 847 847 847 847 847 849 849
    849 849 849 849 849 849 849 849 851 851 851 851 851 854 854 854 854
    854 854 854 854 856 856 854 854 849 0 0 0 0 0 0 0 0 0 854 854 847
    843 841 841 841 841 843 841 841 841 843 843 843 843 841 841 841 843
    845 847 847 847 847 845 845 845 845 845 847 847 847 847 847 847 847
    847 847 847 847 847 849 849 849 847 847 847 849 849 849 849 849 849
    849 849 849 849 849 851 851 851 851 854 854 856 856 856 856 854 854
    856 856 856 854 851 849 0 0 0 0 0 0 0 0 0 854 854 847 845 841 841
    841 841 843 841 841 841 843 843 843 843 841 841 841 843 843 847 847
    847 847 847 845 845 845 845 847 847 847 847 847 847 847 847 847 847
    847 847 849 849 849 849 847 847 849 849 849 849 849 849 849 851 851
    849 849 851 854 854 854 854 856 856 856 856 854 854 854 856 856 858
    856 851 849 0 0 0 0 0 0 0 0 0 0 854 849 845 843 843 843 843 843 843
    843 843 843 843 845 843 843 843 843 843 843 845 847 847 847 847 845
    845 845 845 847 847 847 847 847 847 847 847 847 847 847 849 849 849
    849 849 847 847 849 849 849 849 849 849 851 851 851 851 851 854 854
    854 854 856 856 856 856 856 854 854 854 856 858 858 856 854 854 0 0
    0 0 0 0 0 0 0 862 858 849 845 843 843 843 843 843 843 843 843 843
    843 845 845 845 845 843 843 843 845 845 845 847 847 847 847 845 845
    845 847 847 847 847 847 847 847 847 847 849 849 849 849 849 849 847
    847 847 849 849 849 849 849 851 851 851 851 851 854 856 856 856 856
    856 856 854 851 851 854 854 854 856 856 858 858 880 0 0 0 0 0 0 0 0
    0 860 858 849 845 843 843 843 843 843 843 843 843 843 845 845 845
    845 845 845 845 845 847 845 845 847 847 847 847 845 845 845 847 847
    847 847 847 847 847 849 849 849 849 849 849 849 849 847 847 847 849
    849 849 849 851 851 851 851 851 851 854 854 854 856 856 856 856 854
    851 851 854 851 851 851 851 880 880 880 0 0 0 0 0 0 0 0 0 860 856
    849 845 843 843 843 843 843 843 843 843 843 843 843 845 845 845 845
    845 845 847 847 847 847 847 847 847 847 845 845 847 847 847 847 847
    847 847 849 849 849 849 849 849 849 849 847 847 847 849 847 847 854
    851 851 851 851 851 851 854 854 854 856 854 854 856 0 0 0 0 851 851
    851 851 851 0 0 0 0 0 0 0 0 0 0 0 0 856 847 845 843 843 843 843 843
    843 843 843 843 843 843 845 845 845 845 845 845 847 847 847 847 847
    847 847 847 845 845 847 847 845 841 841 847 847 849 849 849 847 847
    849 849 849 849 849 849 849 847 847 0 0 0 851 851 851 851 854 856
    858 856 854 854 856 0 0 0 0 0 0 882 882 0 903 903 0 0 0 0 0 0 0 0 0
    0 0 847 845 843 843 843 843 843 843 843 843 845 843 843 845 845 845
    845 845 845 847 847 847 847 847 847 851 849 849 849 847 847 839 839
    841 847 847 847 847 847 847 847 849 849 851 854 856 856 856 858 0 0
    0 0 0 0 851 851 854 0 0 0 0 0 0 0 0 0 0 0 0 0 0 0 903 903 0 0 0 0 0
    0 0 0 0 0 0 847 845 843 843 843 843 843 843 843 843 845 845 845 845
    845 845 845 847 847 849 849 849 849 849 862 862 864 856 851 847 847
    839 839 841 841 847 847 847 847 849 849 849 862 862 867 867 867 867
    869 0 0 0 0 0 0 0 0 0 0 0 0 0 0 0 0 0 0 0 0 0 0 0 0 0 0 0 0 0 0 0 0
    0 0 0 0 0 847 845 843 843 845 843 843 843 843 843 845 845 845 845
    845 845 845 847 928 928 930 930 930 867 867 867 864 864 858 858 858
    0 858 933 933 933 933 933 933 933 938 864 864 864 867 867 867 869
    869 0 0 0 0 0 0 0 0 0 0 0 0 0 0 0 0 0 0 0 0 0 0 0 0 0 0 0 0 0 0 0 0
    0 0 0 0 0 0 845 843 843 845 843 843 843 843 0 843 0 845 845 845 845
    845 847 928 928 930 930 933 933 867 867 867 867 864 864 864 0 0 0 0
    933 933 933 933 938 938 871 871 867 867 867 867 869 869 0 0 0 0 0 0
    0 0 0 0 0 0 0 0 0 0 0 0 0 0 0 0 0 0 0 0 0 0 0 0 0 0 0 0 0 0 0 0 0 0
    0 0 0 845 845 0 0 0 970 0 0 970 962 930 930 930 930 930 930 933 935
    867 867 867 867 864 864 864 973 973 970 959 943 935 935 935 938 943
    943 875 871 871 871 871 871 0 0 0 0 0 0 0 0 0 0 0 0 0 0 0 0 0 0 0 0
    0 0 0 0 0 0 0 0 0 0 0 0 0 0 0 0 0 0 0 0 0 0 0 0 0 0 0 0 0 970 970
    970 970 962 962 930 930 930 933 933 935 935 869 867 867 867 867 869
    869 973 973 970 959 943 935 935 935 935 943 943 875 873 873 873 873
    873 0 0 0 0 0 0 0 0 0 0 0 0 0 0 0 0 0 0 0 0 0 0 0 0 0 0 0 0 0 0 0 0
    0 0 0 0 0 0 0 0 0 0 0 0 0 0 0 0 956 962 962 962 962 962 962 951 951
    933 933 933 933 933 967 867 867 867 867 867 954 959 959 956 951 943
    935 935 935 935 935 935 873 873 873 873 873 873 0 0 0 0 0 0 0 0 0 0
    0 0 0 0 0 0 0 0 0 0 0 0 0 0 0 0 0 2241 2241 2256 2256 2271 0 0 0 0 0
    0 0 0 0 0 0 0 0 0 0 0 956 956 956 956 951 951 951 951 948 933 933
    933 933 938 943 867 867 867 867 867 954 954 951 951 948 943 938 933
    933 935 935 0 873 873 873 873 873 873 0 0 0 0 0 0 0 0 0 0 0 0 0 0 0
    0 0 0 0 0 0 0 0 0 0 0 0 2241 2241 2241 2241 2271 0 0 0 0 0 0 0 0 0 0
    0 0 0 0 0 948 948 951 951 951 948 946 946 948 943 943 935 935 935
    938 943 864 864 864 864 864 938 938 938 935 935 935 933 930 930 930
    930 0 873 873 873 873 873 873 0 0 0 0 0 0 0 0 0 0 0 0 0 0 0 0 0 0 0
    0 0 0 0 0 0 0 0 2226 2226 2212 2198 2198 2184 2184 0 0 0 0 0 0 0 0 0
    0 0 0 0 948 948 946 943 940 940 940 940 943 940 940 935 935 935 938
    940 864 864 864 864 938 938 935 933 933 933 930 928 928 930 930 930
    913 873 873 873 875 875 875 0 0 0 0 0 0 0 0 0 0 0 0 0 0 0 0 0 0 0 0
    0 0 0 0 0 0 0 2226 2226 2198 2184 2184 2170 2156 2156 0 0 0 0 0 0 0
    0 0 0 0 0 951 948 940 938 933 933 930 930 930 933 933 930 930 930
    933 935 867 867 867 867 933 928 928 928 928 923 923 923 923 923 923
    920 913 913 873 873 873 875 875 903 903 901 901 0 0 0 0 0 0 0 0 0 0
    0 0 0 0 0 0 0 0 0 0 0 0 0 2226 2212 2184 2170 2156 2156 2143 2129
    2129 0 0 0 0 0 0 0 0 0 0 951 946 946 940 938 930 930 928 925 923 923
    925 928 925 920 920 935 869 869 871 871 925 925 925 923 920 915 915
    915 913 913 915 915 906 906 906 873 873 875 875 901 901 898 898 0 0
    0 0 0 0 0 0 0 0 0 0 0 0 0 0 0 0 0 0 0 0 0 2241 2212 2184 2170 2156
    2156 2143 2129 2129 0 0 0 0 0 0 0 0 0 0 951 946 946 938 935 930 925
    923 920 918 918 920 920 920 918 913 913 869 869 871 871 920 920 918
    913 913 910 908 908 908 908 903 898 898 896 896 873 873 873 875 898
    898 896 896 882 880 880 882 882 0 0 0 0 0 0 0 0 0 0 0 0 0 0 0 0 0 0
    0 2143 0 2143 2143 2143 2143 2129 2129 2103 2103 0 0 0 0 0 0 0 0 948
    946 946 938 930 928 923 918 918 913 910 910 915 918 913 906 906 906
    878 875 875 920 915 913 910 906 901 898 898 901 901 901 896 896 896
    891 873 873 873 873 894 894 891 885 882 880 880 880 882 0 0 0 0 0 0
    0 0 0 0 0 0 0 0 0 0 0 0 0 0 0 2143 2143 2129 2116 2090 2090 2090
    2090 0 0 0 0 0 0 0 0 948 946 946 938 928 918 908 903 903 903 903 901
    901 901 901 901 898 898 878 873 873 873 896 896 896 896 894 894 894
    894 891 891 891 891 891 889 873 873 873 873 889 889 887 882 882 880
    880 880 882 894 0 0 0 0 0 0 0 0 0 0 0 0 0 0 0 0 0 0 0 0 2143 2143
    2129 2116 2090 2090 2078 2078 2078 0 0 0 0 0 0 0 0 946 946 940 928
    903 903 896 891 891 891 896 896 894 894 894 891 887 875 873 873 889
    889 891 889 889 889 889 887 887 887 887 889 887 885 885 889 889 875
    875 878 880 880 880 880 878 875 875 878 894 0 0 0 0 0 0 0 0 0 0 0 0
    0 0 0 0 0 0 0 0 0 0 0 0 2090 2090 2078 2078 2078 0 0 0 0 0 0 0 0 946
    943 938 925 903 903 894 889 887 887 889 885 885 885 889 887 882 873
    873 875 887 885 885 885 885 885 885 880 878 875 875 875 875 875 873
    871 869 869 869 871 873 875 875 875 873 873 873 873 0 0 0 0 0 0 0 0
    0 0 0 0 0 0 0 0 0 0 0 0 0 0 0 0 0 0 0 0 2090 2090 0 0 0 0 0 0 0 0 0
    940 935 925 915 896 887 885 882 882 880 878 875 873 873 875 875 873
    873 875 878 878 878 875 875 875 878 875 875 873 871 871 871 871 871
    867 867 867 867 867 867 869 869 869 867 864 864 864 0 0 0 0 0 0 0 0
    0 0 0 0 0 0 0 0 0 0 0 0 0 0 0 0 0 0 0 0 0 0 0 0 0 0 0 0 0 0 940 938
    933 930 920 896 887 880 878 875 873 871 869 867 867 869 869 869 869
    873 873 871 869 869 867 867 867 869 869 867 867 867 864 864 864 862
    862 864 867 864 864 862 862 862 860 860 858 854 854 0 0 0 0 0 0 0 0
    0 0 0 0 0 0 0 0 0 0 0 0 0 0 0 0 0 0 0 0 0 0 0 0 0 0 0 0 0 940 938
    930 928 915 910 887 873 871 871 867 864 864 862 862 862 858 858 860
    873 862 858 858 858 860 860 860 862 862 864 860 860 860 860 860 858
    858 858 858 858 858 854 854 851 851 851 849 849 849 849 0 0 0 0 0 0
    0 0 0 0 0 0 0 0 0 0 0 0 0 0 0 0 0 0 0 0 0 0 0 0 0 0 0 0 0 0 0 938
    928 925 915 903 891 873 869 869 864 860 860 858 856 854 851 851 860
    860 854 851 849 849 849 851 851 860 860 858 856 856 856 856 851 851
    849 849 851 849 849 847 847 847 847 847 849 849 849 849 849 0 0 0 0
    0 0 0 0 0 0 0 0 0 0 0 0 0 0 0 0 0 0 0 0 0 0 0 0 0 0 0 0 0 0 0 0 0
    928 913 913 903 898 873 869 864 860 856 849 847 845 845 845 845 845
    845 845 847 847 847 847 845 845 845 843 843 845 851 851 851 849 849
    849 847 847 847 847 847 847 847 847 847 847 847 849 849 849 849 0 0
    0 0 0 0 0 0 0 0 0 0 0 0 0 0 0 0 0 0 0 0 0 0 0 0 0 0 0 0 0 0 0 0 0 0
    0 913 913 908 898 873 869 864 860 856 849 847 845 845 845 845 845
    845 845 847 847 847 847 845 845 845 843 843 845 845 847 847 847 847
    847 845 845 847 847 847 847 847 847 847 847 847 849 849 849 849 0 0
    0 0 0 0 0 0 0 0 0 0 0 0</data></Depth14643>
</opencv_storage>
