<?xml version="1.0"?>
<opencv_storage>
<Depth1851 type_id="opencv-matrix">
  <rows>68</rows>
  <cols>44</cols>
  <dt>w</dt>
  <data>
    5460 5460 5460 5548 5548 5460 5460 5460 5460 5460 5374 5374 1483
    1483 1489 1496 5291 1458 1452 1445 1445 1445 1445 1427 1421 1421
    1421 1421 1421 1433 1439 1439 1439 1439 1452 1458 1464 1464 1464
    1464 1464 4522 4522 4522 5460 5460 5460 5460 5460 5374 5374 5548
    5548 1523 1523 1516 1483 1483 1489 1489 1477 1458 1452 1445 1445
    1445 1439 1427 1421 1421 1421 1421 1421 1427 1433 1433 1439 1445
    1445 1458 1458 1464 1464 1464 1470 1470 4582 4582 5460 5460 5460
    5374 5374 5374 5374 5374 1543 1543 1523 1516 1509 1503 1496 1489
    1477 1470 1464 1458 1452 1445 1433 1427 1421 1421 1421 1421 1427
    1427 1433 1433 1439 1445 1445 1452 1458 1458 1464 1470 1470 1470
    4522 4522 5291 1601 1601 1601 1572 1572 1572 1543 1543 1536 1516
    1516 1509 1503 1496 1489 1483 1477 1470 1464 1452 1445 1433 1427
    1421 1421 1421 1421 1427 1427 1433 1433 1439 1445 1445 1452 1458
    1458 1464 1470 1477 1477 4522 4522 1601 1594 1594 1579 1572 1572
    1572 1550 1543 1523 1516 1516 1516 1503 1503 1496 1489 1477 1470
    1464 1452 1445 1433 1427 1421 1421 1421 1421 1427 1433 1433 1433
    1439 1439 1452 1452 1458 1458 1464 1470 1477 1477 4522 4522 1601
    1601 1594 1579 1572 1572 1564 1550 1543 1523 1523 1516 1509 1503
    1496 1496 1489 1477 1470 1464 1452 1445 1433 1427 1421 1421 1421
    1421 1427 1439 1433 1433 1439 1439 1452 1458 1458 1458 1464 1464
    1464 1464 4522 4522 1601 1601 1594 1579 1572 1572 1564 1550 1543
    1529 1523 1516 1509 1503 1496 1489 1489 1477 1470 1464 1452 1445
    1439 1433 1421 1421 1421 1427 1433 1439 1433 1433 1439 1439 1445
    1458 1458 1458 1464 1464 1464 1464 4522 4522 0 1601 1594 1579 1579
    1572 1564 1550 1550 1536 1523 1516 1509 1503 1496 1489 1489 1477
    1470 1458 1452 1445 1439 1433 1427 1427 1427 1427 1433 1439 1433
    1433 1439 1439 1445 1452 1458 1458 1464 1464 1464 1464 4522 4522 0
    1601 1594 1579 1579 1579 1564 1557 1550 1536 1523 1516 1509 1503
    1496 1489 1483 1477 1470 1458 1452 1439 1439 1433 1427 1427 1427
    1433 1439 1439 1433 1433 1439 1439 1445 1452 1458 1458 1464 1458
    1458 1458 4522 4522 1601 1601 1601 1586 1579 1579 1564 1557 1550
    1536 1523 1516 1509 1503 1496 1489 1483 1477 1470 1464 1452 1439
    1433 1427 1421 1421 1427 1427 1439 1439 1439 1439 1439 1439 1445
    1445 1452 1458 1458 1458 1458 1458 4522 4522 1601 1601 1601 1586
    1579 1572 1564 1557 1543 1536 1523 1516 1516 1503 1496 1489 1483
    1477 1470 1464 1452 1439 1433 1427 1421 1421 1421 1427 1439 1439
    1439 1439 1439 1439 1445 1445 1452 1458 1458 1464 1464 1458 4522
    4522 1609 1609 1601 1586 1579 1572 1564 1557 1543 1536 1523 1516
    1516 1509 1496 1489 1483 1477 1470 1464 1458 1439 1433 1427 1421
    1421 1421 1427 1433 1439 1433 1433 1439 1445 1445 1445 1452 1458
    1458 1458 1458 1458 4582 4582 1609 1609 1601 1594 1579 1572 1564
    1557 1543 1536 1523 1523 1516 1509 1503 1489 1477 1477 1470 1464
    1458 1439 1439 1427 1421 1421 1421 1427 1433 1433 1433 1433 1439
    1439 1445 1452 1452 1458 1458 1458 1458 1458 4645 4645 1632 1609
    1601 1594 1579 1572 1564 1557 1543 1536 1523 1523 1516 1509 1509
    1489 1477 1477 1470 1464 1458 1439 1439 1433 1421 1421 1421 1427
    1433 1433 1433 1433 1439 1439 1445 1452 1452 1458 1458 1464 1464
    1464 4645 4645 1616 1609 1601 1601 1586 1579 1564 1557 1543 1536
    1523 1523 1516 1516 1509 1489 1477 1470 1470 1464 1445 1439 1439
    1433 1421 1421 1421 1427 1427 1433 1433 1433 1433 1439 1439 1452
    1452 1458 1458 1464 1464 1464 1464 4522 1609 1609 1601 1594 1586
    1579 1564 1557 1543 1536 1523 1523 1516 1516 1509 1489 1477 1470
    1470 1464 1445 1445 1439 1433 1427 1421 1421 1427 1427 1433 1433
    1433 1433 1439 1439 1445 1452 1458 1464 1464 1464 1464 0 4522 1609
    1601 1601 1594 1586 1572 1564 1550 1543 1536 1523 1523 1516 1516
    1509 1489 1477 1477 1470 1464 1452 1445 1439 1433 1421 1421 1421
    1427 1433 1433 1433 1433 1439 1439 1439 1445 1452 1458 1464 1464
    1464 1464 0 4582 1601 1601 1601 1586 1579 1572 1572 1550 1543 1536
    1523 1523 1516 1516 1509 1496 1483 1477 1470 1470 1452 1445 1439
    1433 1421 1421 1421 1427 1433 1433 1433 1433 1439 1439 1439 1452
    1452 1458 1458 1464 1464 1464 0 4582 1609 1609 1601 1586 1579 1579
    1572 1550 1543 1536 1529 1523 1516 1516 1509 1496 1483 1477 1470
    1464 1458 1445 1439 1433 1427 1421 1421 1427 1433 1433 1433 1433
    1439 1439 1445 1452 1458 1458 1458 1464 1464 1464 0 4582 5210 1601
    1601 1586 1579 1579 1572 1550 1543 1543 1529 1523 1516 1516 1503
    1496 1483 1477 1470 1464 1458 1452 1445 1433 1427 1421 1421 1421
    1421 1427 1433 1433 1439 1439 1445 1452 1458 1458 1458 1458 1458
    1458 0 4582 0 1601 1601 1594 1579 1579 1572 1557 1550 1543 1529 1523
    1516 1509 1503 1496 1483 1483 1470 1464 1452 1445 1445 1439 1427
    1421 1421 1421 1421 1427 1433 1433 1433 1439 1439 1445 1458 1458
    1458 1458 1458 1458 0 4522 1624 1601 1601 1594 1579 1579 1572 1557
    1550 1543 1529 1523 1516 1509 1503 1496 1489 1483 1470 1458 1452
    1445 1439 1439 1427 1421 1421 1421 1421 1427 1433 1433 1433 1439
    1439 1445 1452 1458 1458 1458 1464 1464 1464 4522 1624 1624 1601
    1594 1579 1579 1572 1557 1550 1543 1529 1523 1516 1509 1503 1496
    1489 1483 1477 1458 1452 1445 1439 1433 1427 1421 1421 1421 1421
    1427 1433 1433 1433 1439 1439 1439 1445 1458 1464 1464 1464 1464
    1464 4522 1639 1624 1609 1601 1586 1579 1572 1557 1550 1543 1536
    1523 1516 1509 1503 1496 1489 1477 1477 1464 1452 1445 1439 1433
    1421 1421 1421 1421 1421 1433 1433 1433 1433 1439 1439 1439 1445
    1458 1464 1464 1464 1464 1464 1464 1639 1616 1609 1594 1586 1579
    1572 1557 1550 1543 1536 1523 1516 1509 1503 1496 1489 1477 1470
    1464 1452 1445 1439 1433 1421 1421 1421 1421 1421 1427 1433 1433
    1433 1439 1439 1445 1445 1452 1458 1464 1464 1464 1464 0 1639 1609
    1601 1594 1586 1579 1564 1557 1550 1543 1536 1523 1523 1516 1509
    1496 1489 1477 1470 1464 1452 1445 1439 1427 1421 1421 1421 1421
    1427 1427 1433 1433 1433 1439 1439 1445 1445 1452 1458 1464 1464
    1470 1470 0 1609 1609 1601 1594 1586 1579 1564 1557 1550 1543 1536
    1523 1523 1516 1509 1503 1496 1483 1470 1464 1458 1445 1439 1427
    1421 1421 1421 1421 1427 1427 1433 1433 1433 1439 1439 1445 1445
    1452 1458 1464 1464 1470 1470 0 1609 1609 1601 1594 1586 1579 1564
    1557 1550 1543 1529 1523 1523 1516 1509 1496 1496 1489 1470 1464
    1458 1445 1439 1433 1421 1421 1421 1421 1421 1427 1433 1433 1433
    1439 1439 1445 1445 1452 1458 1458 1464 1464 0 0 5374 1601 1601 1601
    1594 1586 1564 1557 1550 1543 1529 1523 1523 1516 1509 1496 1496
    1489 1477 1464 1458 1445 1439 1433 1421 1421 1421 1421 1421 1427
    1433 1433 1433 1439 1439 1445 1445 1452 1458 1458 1458 1458 0 0 0
    1609 1609 1601 1594 1586 1564 1557 1550 1543 1529 1523 1523 1516
    1509 1503 1489 1483 1470 1464 1458 1445 1439 1433 1421 1421 1421
    1421 1421 1427 1433 1433 1433 1439 1439 1445 1445 1452 1458 1458
    1458 1458 0 0 0 1632 1632 1609 1601 1586 1564 1557 1550 1543 1529
    1523 1523 1516 1509 1503 1489 1477 1470 1464 1464 1452 1439 1433
    1427 1421 1421 1421 1421 1427 1433 1433 1433 1439 1439 1439 1445
    1458 1458 1458 1458 1458 0 0 0 1616 1616 1601 1594 1579 1579 1557
    1550 1543 1536 1523 1523 1516 1509 1496 1489 1477 1470 1470 1464
    1452 1445 1439 1433 1421 1421 1421 1421 1427 1433 1433 1433 1433
    1439 1439 1445 1458 1458 1458 1464 1464 0 0 0 0 1601 1601 1586 1579
    1564 1557 1550 1543 1536 1523 1523 1516 1509 1496 1489 1477 1470
    1464 1464 1452 1445 1439 1433 1421 1421 1421 1421 1427 1427 1433
    1433 1433 1439 1439 1452 1458 1458 1458 1464 1464 0 0 0 0 1601 1594
    1586 1579 1564 1550 1550 1543 1536 1529 1523 1516 1509 1496 1489
    1477 1470 1464 1458 1452 1445 1439 1433 1421 1421 1421 1421 1427
    1427 1433 1433 1433 1439 1439 1445 1452 1458 1458 1464 1464 0 0 0 0
    1601 1594 1586 1579 1564 1550 1550 1543 1536 1529 1523 1516 1509
    1503 1496 1470 1470 1464 1458 1445 1445 1439 1433 1421 1421 1421
    1421 1421 1433 1433 1433 1433 1439 1439 1445 1452 1458 1458 1464
    1464 0 0 0 0 1601 1601 1594 1586 1564 1557 1550 1550 1543 1536 1523
    1516 1516 1503 1483 1470 1470 1464 1458 1445 1445 1439 1433 1421
    1421 1421 1421 1421 1427 1427 1433 1433 1439 1439 1445 1452 1458
    1458 1464 1464 0 0 0 0 1601 1601 1594 1586 1579 1557 1550 1550 1543
    1536 1529 1523 1516 1509 1483 1477 1470 1464 1458 1452 1445 1439
    1433 1421 1421 1421 1421 1421 1427 1427 1433 1433 1439 1439 1445
    1452 1458 1458 1464 1464 0 0 0 0 1609 1601 1594 1586 1579 1564 1550
    1550 1543 1529 1523 1523 1509 1503 1489 1477 1470 1464 1464 1458
    1445 1439 1433 1421 1421 1421 1421 1421 1433 1433 1433 1439 1439
    1439 1445 1452 1458 1458 1464 1464 0 0 0 0 0 1601 1594 1586 1579
    1564 1550 1550 1543 1529 1523 1516 1509 1503 1489 1477 1470 1470
    1464 1458 1452 1445 1439 1427 1421 1421 1421 1421 1433 1433 1433
    1439 1439 1445 1445 1452 1458 1464 1464 1464 1464 0 0 0 0 1601 1594
    1586 1579 1564 1550 1550 1543 1529 1523 1516 1509 1503 1489 1477
    1470 1470 1464 1464 1452 1439 1439 1427 1421 1421 1421 1427 1433
    1433 1433 1433 1439 1452 1452 1458 1458 1464 1464 1464 1464 0 0 0 0
    1601 1594 1594 1579 1572 1557 1543 1536 1536 1523 1516 1509 1503
    1489 1489 1477 1470 1464 1458 1452 1439 1439 1433 1427 1427 1427
    1427 1427 1433 1433 1433 1439 1452 1458 1458 1458 1464 1464 1464
    1464 0 0 0 0 1601 1594 1586 1579 1572 1557 1543 1536 1536 1523 1516
    1509 1503 1489 1489 1477 1470 1464 1458 1452 1439 1439 1427 1421
    1421 1421 1427 1427 1433 1433 1433 1439 1452 1458 1458 1458 1464
    1464 1464 1464 4405 0 0 0 1601 1601 1586 1579 1572 1557 1543 1543
    1536 1529 1523 1509 1503 1489 1489 1477 1470 1464 1458 1445 1439
    1439 1427 1421 1421 1421 1427 1427 1433 1433 1433 1439 1445 1458
    1458 1458 1464 1464 1464 1464 4405 0 0 1601 1601 1601 1586 1579 1564
    1557 1550 1543 1536 1523 1523 1516 1503 1489 1489 1477 1470 1464
    1458 1445 1439 1439 1427 1421 1421 1421 1421 1427 1433 1433 1433
    1439 1445 1452 1458 1458 1464 1464 1464 1464 1464 0 0 1601 1594 1594
    1586 1579 1564 1557 1550 1543 1536 1523 1523 1516 1503 1489 1483
    1477 1470 1464 1458 1452 1445 1439 1427 1421 1421 1421 1421 1427
    1433 1433 1439 1439 1445 1452 1458 1458 1464 1464 1464 1464 1464 0 0
    1601 1594 1594 1579 1579 1564 1557 1550 1543 1536 1523 1523 1516
    1503 1489 1483 1477 1470 1464 1464 1445 1439 1439 1433 1427 1421
    1421 1421 1427 1433 1433 1439 1439 1445 1452 1458 1458 1464 1464
    1464 1464 1464 0 0 1601 1601 1594 1579 1572 1564 1557 1550 1543 1536
    1523 1523 1516 1503 1489 1483 1477 1470 1464 1458 1445 1439 1439
    1433 1427 1421 1421 1421 1427 1427 1433 1439 1439 1445 1452 1458
    1458 1458 1458 1464 1464 4522 0 0 0 1601 1594 1579 1572 1564 1557
    1550 1543 1536 1529 1523 1516 1503 1489 1483 1477 1470 1464 1458
    1445 1439 1433 1433 1427 1421 1421 1421 1427 1427 1433 1433 1439
    1445 1452 1452 1458 1458 1458 1464 1464 4463 0 0 0 1601 1594 1579
    1572 1572 1557 1550 1543 1536 1529 1523 1516 1503 1489 1483 1477
    1470 1470 1458 1445 1439 1433 1433 1427 1421 1421 1427 1427 1427
    1433 1433 1439 1439 1445 1452 1458 1458 1458 1464 1464 4463 0 0 0
    1601 1594 1586 1579 1572 1557 1550 1543 1536 1523 1523 1516 1503
    1489 1483 1483 1470 1470 1458 1445 1439 1433 1433 1427 1427 1427
    1427 1427 1427 1433 1439 1439 1439 1445 1452 1458 1458 1464 1470
    1470 4463 0 0 0 1601 1594 1586 1579 1572 1557 1550 1543 1536 1523
    1523 1516 1503 1489 1489 1483 1470 1470 1458 1452 1445 1439 1433
    1433 1427 1427 1427 1427 1427 1433 1439 1439 1439 1445 1452 1458
    1458 1464 1464 1464 4463 0 0 0 1601 1601 1579 1579 1572 1564 1550
    1543 1536 1523 1523 1516 1503 1489 1489 1483 1470 1470 1464 1452
    1445 1439 1439 1433 1433 1433 1433 1427 1427 1433 1439 1439 1445
    1445 1452 1458 1458 1464 1464 1464 1464 0 0 0 1609 1601 1579 1579
    1572 1564 1557 1543 1536 1523 1523 1516 1503 1489 1489 1483 1470
    1470 1464 1458 1445 1439 1433 1433 1433 1433 1433 1433 1433 1433
    1439 1439 1445 1452 1458 1458 1458 1458 1464 1464 1464 0 0 0 1601
    1594 1579 1579 1572 1564 1557 1543 1536 1529 1523 1516 1509 1489
    1489 1483 1470 1470 1464 1458 1445 1439 1433 1427 1421 1421 1427
    1433 1433 1433 1439 1439 1445 1452 1458 1458 1458 1458 1464 1464
    1464 0 0 0 1601 1594 1579 1572 1572 1557 1557 1550 1543 1529 1523
    1516 1509 1503 1489 1483 1477 1470 1464 1458 1445 1439 1433 1427
    1421 1421 1427 1427 1427 1433 1439 1439 1445 1452 1458 1458 1464
    1464 1464 1464 1470 0 0 0 1609 1601 1579 1572 1572 1557 1557 1550
    1543 1529 1523 1516 1516 1503 1489 1489 1483 1470 1464 1458 1445
    1439 1433 1427 1421 1421 1427 1421 1421 1433 1439 1439 1445 1452
    1458 1458 1464 1464 1464 1464 1470 0 0 0 0 1601 1579 1572 1572 1564
    1557 1550 1543 1529 1523 1516 1516 1503 1489 1489 1483 1470 1464
    1458 1452 1439 1439 1433 1427 1427 1427 1421 1421 1433 1433 1439
    1445 1452 1458 1458 1464 1464 1464 1464 1464 0 0 0 0 1586 1579 1572
    1572 1564 1557 1550 1543 1536 1523 1523 1516 1503 1489 1483 1470
    1464 1464 1458 1452 1445 1439 1433 1427 1427 1427 1421 1421 1433
    1433 1439 1439 1452 1458 1458 1458 1458 1464 1464 1464 0 0 0 0 1586
    1579 1572 1572 1564 1557 1550 1543 1536 1529 1523 1509 1503 1489
    1483 1470 1464 1464 1458 1452 1445 1433 1427 1421 1421 1421 1421
    1421 1433 1433 1439 1439 1452 1458 1458 1458 1458 1464 1464 1464
    4911 0 0 1586 1586 1579 1572 1572 1564 1557 1550 1550 1536 1536 1523
    1509 1503 1489 1483 1477 1470 1464 1458 1452 1445 1433 1427 1421
    1421 1421 1421 1421 1427 1433 1439 1445 1452 1452 1458 1464 1464
    1464 1464 1464 4983 0 0 0 1586 1579 1572 1572 1564 1557 1550 1550
    1543 1529 1523 1509 1503 1489 1483 1470 1470 1464 1458 1452 1445
    1433 1427 1421 1421 1421 1421 1421 1427 1433 1439 1445 1452 1452
    1458 1464 1464 1464 1464 1464 0 0 0 1594 1594 1579 1579 1572 1564
    1557 1550 1543 1536 1529 1523 1509 1496 1489 1489 1470 1470 1464
    1464 1458 1439 1439 1433 1421 1421 1421 1421 1421 1427 1433 1439
    1439 1452 1458 1458 1464 1464 1464 1464 1464 5056 5056 5056 0 1586
    1579 1579 1572 1564 1550 1543 1543 1536 1529 1523 1509 1496 1496
    1489 1477 1470 1464 1464 1452 1439 1439 1433 1427 1427 1421 1421
    1421 1421 1433 1439 1439 1452 1452 1458 1464 1464 1464 1464 1464
    5056 5056 5056 5056 1586 1579 1579 1572 1564 1550 1543 1543 1536
    1529 1523 1516 1496 1496 1489 1477 1470 1464 1464 1452 1439 1439
    1433 1427 1421 1421 1421 1421 1421 1433 1439 1439 1445 1452 1458
    1464 1464 1464 1464 4582 4983 4983 4983 5056 5210 5291 5374 5374
    5374 1543 1543 1543 1543 1536 1529 1516 1496 1496 1489 1483 1470
    1470 1458 1452 1439 1439 1433 1427 1421 1421 1421 1421 1421 1433
    1439 1439 1445 1452 1458 1464 1464 4708 4645 4582 4983 4983 4983
    5056 5132 5210 5291 5291 0 0 1550 1550 1550 1550 1543 1543 1496 1496
    0 1489 1477 1470 1458 1452 1445 1439 1439 1427 1421 1415 1415 1421
    1421 1433 1439 1439 1445 4645 4708 4708 4774 4708 4645 4582 4983
    4983 4983 5056 5056 5056 5132 5132 0 0 1564 0 0 1564 1557 1557 0 0 0
    0 1477 1477 1464 1464 1445 1439 1439 1439 1421 1415 1415 5056 4983
    1439 1439 4911 4645 4645 4708 4708 4708 4645 4645 4645 4911 4911
    4983 4983 4983 4983 5132 5210 5210 0 0 0 0 0 0 0 0 0 0 0 1496 1489
    1470 1470 1470 1470 5056 5056 5056 5056 5056 5056 4983 4842 4842
    4911 4842 4842 4774 4774 4708 4645 4645 4645</data></Depth1851>
</opencv_storage>
