<?xml version="1.0"?>
<opencv_storage>
<Depth9401 type_id="opencv-matrix">
  <rows>105</rows>
  <cols>35</cols>
  <dt>w</dt>
  <data>
    4463 4463 4463 4463 4463 4463 4463 4463 1073 1073 1077 1077 1077
    1084 1084 1087 1087 1067 1067 1067 1067 1087 0 1087 0 1057 0 0 0
    1057 1054 1054 0 1050 1050 4522 4522 0 4522 0 0 0 1077 1073 1073
    1077 1077 1073 1070 1070 1067 1067 1067 1067 1067 1067 1087 1087
    1087 1087 1057 1057 1057 1054 1054 1050 1050 1050 0 1044 4582 0 0 0
    0 0 0 1073 1073 1077 1073 1073 1070 1070 1070 1067 1063 1063 1060
    1060 1054 1054 1054 1054 1054 1057 1054 1054 1054 1054 1050 1047
    1044 1044 0 0 0 0 0 0 0 0 1073 1073 1077 1073 1073 1067 1067 1067
    1063 1063 1063 1060 1060 1054 1054 1054 1054 1054 1057 1054 1054
    1054 1050 1047 1044 1041 1041 1041 0 0 0 0 0 0 0 1077 1077 1077 1073
    1073 1067 1067 1067 1063 1063 1063 1060 1060 1057 1054 1054 1054
    1054 1054 1050 1050 1050 1050 1044 1044 1041 1041 1041 0 0 0 0 0 0
    1080 1077 1077 1077 1073 1073 1067 1067 1067 1067 1067 1063 1060
    1060 1057 1054 1054 1054 1050 1050 1050 1050 1050 1047 1044 1041
    1041 1041 1041 0 0 0 0 0 0 1080 1080 1080 1077 1077 1073 1070 1067
    1067 1067 1067 1063 1060 1060 1057 1054 1054 1054 1050 1050 1050
    1050 1050 1047 1044 1041 1041 1041 1041 0 0 0 0 0 0 1080 1077 1077
    1077 1077 1073 1070 1067 1067 1067 1063 1063 1063 1060 1057 1057
    1054 1054 1050 1050 1050 1050 1047 1047 1044 1041 1041 1041 1041 0 0
    0 0 0 0 1080 1077 1077 1077 1077 1077 1077 1070 1067 1067 1063 1063
    1063 1060 1057 1057 1054 1054 1054 1050 1050 1050 1047 1047 1044
    1041 1041 1041 1041 0 0 0 0 0 0 1080 1077 1077 1077 1077 1073 1070
    1070 1067 1067 1063 1063 1063 1060 1057 1057 1054 1054 1054 1050
    1050 1050 1047 1047 1047 1044 1041 1041 1041 0 0 0 0 0 0 1084 1080
    1077 1077 1077 1073 1070 1070 1067 1067 1067 1063 1063 1060 1057
    1057 1054 1054 1054 1050 1050 1050 1047 1047 1044 1044 1041 1041
    1041 0 0 0 0 0 0 1084 1080 1077 1077 1077 1073 1070 1067 1067 1067
    1067 1063 1063 1063 1060 1060 1057 1054 1054 1050 1050 1050 1047
    1047 1044 1044 1044 1044 1044 4405 4405 0 0 0 0 1084 1080 1077 1077
    1073 1073 1073 1067 1067 1067 1067 1063 1063 1063 1063 1060 1057
    1054 1054 1050 1050 1050 1047 1047 1044 1044 1044 1047 1047 4405
    4405 0 0 0 0 1084 1080 1080 1077 1073 1073 1073 1067 1067 1067 1067
    1063 1063 1063 1063 1060 1057 1054 1054 1050 1050 1050 1047 1047
    1044 1044 1044 1038 1038 4405 0 0 0 0 0 1080 1080 1080 1077 1077
    1077 1077 1070 1067 1067 1067 1063 1063 1063 1063 1063 1060 1057
    1054 1050 1050 1050 1047 1047 1044 1044 1044 1038 1038 0 0 0 0 0 0
    1080 1080 1080 1080 1077 1077 1077 1073 1070 1067 1067 1063 1063
    1063 1060 1060 1057 1057 1054 1050 1050 1050 1050 1047 1047 1047
    1047 1041 1041 0 0 0 0 0 1084 1080 1080 1080 1077 1077 1077 1077
    1073 1073 1070 1067 1063 1063 1063 1060 1060 1057 1054 1054 1054
    1050 1050 1050 1047 1047 1047 1047 1050 1050 0 0 0 0 0 1084 1080
    1080 1077 1077 1077 1077 1077 1077 1077 1073 1070 1063 1063 1063
    1060 1060 1057 1054 1054 1054 1050 1050 1050 1047 1047 1047 1047
    1050 1050 0 0 0 0 0 1080 1080 1080 1077 1077 1077 1077 1077 1073
    1073 1073 1070 1067 1063 1063 1060 1060 1057 1054 1054 1054 1050
    1050 1050 1047 1044 1044 1047 1050 1054 0 0 0 0 1090 1080 1080 1080
    1077 1077 1077 1077 1077 1073 1073 1073 1070 1067 1063 1063 1060
    1060 1057 1057 1054 1054 1054 1050 1050 1050 1044 1044 1047 1050
    1070 0 0 0 0 1087 1080 1080 1080 1080 1080 1077 1077 1077 1073 1073
    1073 1070 1070 1063 1063 1063 1060 1057 1057 1054 1054 1054 1050
    1050 1050 1047 1047 1047 1057 1070 0 0 0 0 1087 1080 1080 1080 1080
    1080 1080 1077 1077 1073 1073 1073 1070 1067 1067 1063 1063 1060
    1057 1057 1057 1054 1054 1054 1050 1050 1047 1047 1050 1057 1067 0 0
    0 0 0 1084 1080 1080 1084 1080 1080 1077 1077 1077 1073 1073 1070
    1067 1063 1063 1063 1063 1060 1060 1057 1054 1054 1050 1050 1050
    1047 1047 1050 1067 1067 0 0 0 0 0 0 1084 1084 1084 1084 1080 1080
    1077 1077 1077 1073 1070 1067 1063 1063 1063 1063 1060 1060 1057
    1054 1054 1050 1050 1050 1050 1050 1050 0 0 0 0 0 0 0 1090 1087 1084
    1084 1080 1080 1080 1077 1077 1073 1073 1070 1067 1063 1063 1063
    1063 1060 1060 1054 1054 1054 1050 1050 1050 1050 1050 1050 0 0 0 0
    0 0 0 1090 1087 1084 1084 1080 1080 1080 1077 1077 1073 1073 1070
    1067 1063 1063 1063 1063 1063 1060 1054 1054 1054 1050 1050 1050
    1050 1050 1050 0 0 0 0 0 0 0 1090 1087 1084 1080 1080 1080 1080 1080
    1077 1073 1070 1070 1067 1067 1067 1067 1063 1063 1060 1057 1057
    1054 1050 1050 1050 1050 1050 1050 0 0 0 0 0 0 0 1090 1087 1084 1080
    1080 1080 1080 1077 1077 1073 1070 1070 1067 1067 1067 1067 1063
    1063 1060 1060 1057 1054 1054 1054 1050 1050 1050 1050 0 0 0 0 0 0 0
    1087 1087 1084 1084 1084 1084 1080 1077 1077 1073 1070 1070 1070
    1070 1067 1067 1063 1063 1060 1060 1060 1057 1054 1054 1050 1050
    1050 1054 0 0 0 0 0 0 1090 1087 1087 1084 1084 1084 1084 1080 1080
    1077 1073 1073 1070 1070 1070 1067 1067 1063 1063 1060 1060 1057
    1057 1054 1054 1050 1050 1050 1054 0 0 0 0 0 0 1090 1090 1087 1087
    1084 1084 1084 1080 1080 1077 1077 1073 1073 1070 1067 1067 1067
    1063 1063 1060 1060 1057 1057 1054 1054 1054 1050 1050 0 0 0 0 0 0 0
    1090 1090 1087 1087 1087 1084 1084 1080 1080 1077 1077 1077 1073
    1070 1067 1067 1067 1063 1063 1063 1060 1057 1057 1054 1054 1054
    1050 1050 0 0 0 0 0 0 0 1094 1090 1090 1087 1087 1084 1084 1080 1080
    1080 1077 1077 1073 1070 1067 1067 1067 1067 1067 1063 1060 1057
    1057 1054 1054 1054 1050 1050 1090 1090 0 0 0 0 0 1094 1090 1090
    1087 1087 1084 1084 1080 1080 1080 1077 1077 1073 1070 1067 1067
    1067 1067 1067 1063 1060 1057 1054 1054 1054 1054 1050 1050 1090
    1090 1094 0 0 0 0 1090 1090 1090 1087 1087 1087 1084 1084 1080 1080
    1077 1077 1070 1070 1067 1067 1063 1063 1063 1060 1060 1057 1054
    1054 1054 1054 1054 1054 1090 1090 1094 0 0 0 1094 1090 1090 1090
    1087 1087 1087 1087 1084 1080 1080 1077 1077 1070 1070 1067 1063
    1063 1063 1063 1060 1057 1057 1057 1054 1054 1054 1054 1054 1101
    1101 1101 0 0 0 1094 1094 1090 1090 1090 1087 1084 1084 1084 1080
    1080 1077 1077 1073 1070 1067 1063 1063 1063 1063 1060 1057 1057
    1057 1057 1054 1054 1054 1054 1105 1105 1105 0 0 0 1094 1094 1090
    1090 1090 1087 1084 1084 1080 1080 1080 1080 1077 1073 1070 1067
    1067 1067 1067 1063 1063 1060 1057 1057 1054 1054 1054 1054 1057
    1101 1101 1101 0 0 1105 1094 1094 1090 1090 1090 1087 1084 1084 1080
    1080 1080 1080 1080 1077 1077 1070 1067 1067 1067 1067 1063 1060
    1057 1057 1054 1054 1054 1057 1057 1101 1101 1101 0 0 1105 1097 1094
    1090 1090 1090 1087 1084 1084 1080 1080 1080 1077 1077 1077 1077
    1073 1067 1067 1067 1067 1063 1063 1057 1057 1057 1054 1054 1057
    1057 1067 1094 1094 0 0 0 1097 1094 1090 1090 1090 1090 1087 1084
    1080 1080 1080 1077 1077 1077 1077 1073 1067 1067 1067 1067 1063
    1063 1060 1060 1057 1057 1057 1060 1067 1067 1090 1094 0 0 0 1094
    1094 1094 1090 1090 1090 1087 1084 1080 1080 1080 1077 1077 1077
    1073 1073 1070 1070 1067 1067 1067 1063 1063 1060 1060 1060 1060
    1063 1067 1067 1090 0 0 0 0 1094 1094 1094 1094 1090 1090 1087 1084
    1080 1080 1080 1077 1077 1077 1073 1073 1070 1070 1067 1067 1067
    1063 1063 1063 1060 1060 1060 1067 1067 1070 1094 0 0 0 0 1094 1094
    1094 1094 1094 1090 1087 1084 1080 1080 1080 1077 1077 1077 1073
    1073 1073 1070 1067 1067 1063 1063 1063 1060 1060 1057 1057 1063
    1067 1084 1094 0 0 0 0 1094 1094 1094 1094 1090 1090 1087 1087 1084
    1080 1080 1080 1077 1077 1073 1070 1070 1067 1067 1067 1063 1063
    1063 1060 1060 1057 1057 1063 1084 1080 1080 0 0 0 0 1094 1094 1094
    1094 1090 1090 1090 1087 1084 1084 1080 1080 1077 1077 1073 1070
    1070 1067 1067 1067 1063 1063 1060 1060 1060 1057 1057 1063 1084
    1080 1080 0 0 0 0 1094 1094 1094 1094 1090 1090 1090 1087 1084 1084
    1080 1080 1080 1077 1077 1073 1070 1067 1067 1063 1063 1063 1060
    1060 1060 1057 1057 1057 0 0 0 0 0 0 0 1097 1094 1094 1094 1090 1090
    1090 1087 1087 1084 1080 1080 1080 1077 1077 1073 1070 1067 1067
    1063 1063 1063 1063 1063 1060 1060 1057 1057 0 0 0 0 0 0 0 1097 1094
    1094 1094 1090 1090 1090 1087 1087 1084 1080 1080 1077 1077 1077
    1073 1070 1067 1067 1067 1067 1063 1063 1063 1060 1060 1060 1067
    1067 0 0 0 0 0 0 1094 1094 1094 1094 1090 1090 1090 1087 1087 1084
    1084 1080 1077 1077 1077 1073 1070 1070 1067 1067 1067 1063 1063
    1063 1063 1063 1063 1067 1067 0 0 0 0 0 0 1094 1094 1094 1094 1094
    1090 1090 1087 1084 1084 1080 1080 1077 1077 1077 1073 1070 1070
    1067 1067 1067 1063 1063 1063 1063 1063 1063 1067 1067 0 0 0 0 0
    1090 1090 1094 1094 1094 1094 1090 1087 1087 1084 1084 1080 1077
    1077 1077 1077 1077 1073 1070 1067 1067 1067 1063 1063 1063 1063
    1063 1063 1067 1067 0 0 0 0 0 1087 1087 1094 1094 1094 1094 1090
    1087 1087 1084 1084 1080 1077 1077 1077 1077 1077 1073 1070 1070
    1067 1063 1063 1063 1060 1060 1063 1063 1063 0 0 0 0 0 0 1087 1087
    1094 1094 1094 1094 1090 1090 1087 1084 1080 1080 1080 1077 1077
    1077 1077 1073 1073 1070 1070 1063 1063 1063 1060 1060 1057 1057
    1097 1097 0 0 0 0 0 1097 1097 1097 1094 1094 1094 1090 1090 1087
    1084 1080 1080 1080 1077 1077 1077 1077 1073 1070 1070 1070 1067
    1063 1063 1060 1060 1057 1057 1067 1090 1090 0 0 0 0 1101 1101 1101
    1097 1097 1094 1094 1090 1087 1084 1080 1080 1080 1080 1080 1077
    1077 1073 1070 1070 1070 1067 1063 1063 1060 1060 1063 1067 1067
    1090 1090 0 0 0 0 1105 1105 1101 1101 1097 1094 1094 1090 1090 1087
    1084 1080 1080 1080 1080 1077 1077 1073 1073 1070 1070 1067 1067
    1067 1063 1063 1063 1067 1067 1090 1094 1119 0 0 0 1105 1105 1101
    1101 1097 1094 1094 1090 1090 1087 1087 1080 1080 1080 1080 1077
    1077 1073 1073 1073 1070 1067 1067 1067 1063 1063 1067 1067 1070
    1090 1119 1119 0 0 1094 1094 1101 1105 1101 1101 1094 1094 1094 1090
    1090 1087 1084 1080 1080 1080 1080 1077 1073 1073 1073 1070 1067
    1067 1063 1063 1063 1067 1067 1073 1090 1119 1123 0 0 1094 1094 1101
    1105 1101 1101 1097 1094 1094 1090 1090 1087 1084 1084 1080 1080
    1080 1077 1077 1073 1073 1070 1067 1067 1063 1063 1063 1067 1067
    1073 1094 1123 1123 0 0 1101 1101 1101 1105 1101 1101 1097 1094 1094
    1094 1090 1087 1087 1084 1080 1080 1080 1080 1077 1077 1077 1073
    1070 1070 1067 1067 1067 1067 1070 1073 1123 1123 1126 0 0 0 1105
    1105 1105 1101 1101 1097 1094 1094 1090 1090 1090 1087 1084 1080
    1080 1080 1080 1077 1077 1077 1073 1070 1070 1067 1067 1067 1067
    1070 1077 1123 1123 1126 0 0 0 1105 1105 1105 1101 1101 1097 1094
    1094 1090 1090 1090 1087 1087 1084 1080 1080 1080 1077 1077 1077
    1070 1070 1067 1067 1067 1067 1067 1070 1073 1126 1126 1126 0 0 0
    1105 1105 1105 1101 1097 1097 1094 1094 1090 1090 1090 1090 1087
    1084 1080 1080 1077 1077 1077 1073 1070 1070 1067 1067 1067 1067
    1067 1070 1073 1126 1126 1145 1157 0 1108 1105 1105 1101 1101 1097
    1097 1094 1094 1090 1090 1090 1090 1087 1084 1080 1080 1077 1077
    1077 1073 1070 1070 1067 1067 1067 1067 1067 1070 1080 1115 1138
    1145 1157 0 1105 1105 1101 1101 1101 1097 1097 1094 1094 1090 1090
    1090 1087 1084 1084 1080 1080 1077 1077 1077 1077 1073 1070 1067
    1067 1067 1067 1067 1073 1084 1115 1161 1161 1165 0 1105 1105 1101
    1101 1101 1097 1097 1094 1094 1090 1090 1087 1087 1084 1084 1080
    1080 1080 1077 1077 1077 1073 1070 1067 1067 1067 1070 1070 1073
    1084 1119 1134 1161 1165 0 1105 1105 1105 1105 1101 1097 1094 1094
    1094 1094 1090 1087 1087 1084 1080 1080 1080 1080 1077 1077 1077
    1070 1070 1067 1067 1067 1070 1073 1077 1084 1119 1134 1165 1169 0
    1108 1108 1105 1105 1101 1097 1094 1094 1094 1094 1090 1090 1087
    1087 1080 1080 1080 1080 1077 1077 1073 1070 1070 1067 1067 1067
    1067 1073 1080 1101 1119 1157 1169 1173 0 1108 1108 1105 1105 1101
    1097 1094 1094 1094 1094 1090 1090 1087 1087 1084 1080 1080 1080
    1077 1077 1073 1070 1070 1067 1067 1067 1067 1073 1080 1138 1138
    1157 1169 1173 0 1108 1108 1108 1105 1101 1101 1094 1094 1094 1094
    1090 1090 1090 1087 1087 1084 1080 1080 1080 1077 1077 1070 1070
    1067 1067 1067 1067 1077 1087 1087 1165 1165 1177 1181 0 1108 1108
    1108 1105 1101 1101 1097 1094 1094 1094 1094 1090 1090 1090 1087
    1084 1080 1080 1080 1077 1077 1070 1070 1067 1067 1067 1067 1077
    1087 1112 1169 1169 1177 1181 1105 1105 1108 1108 1108 1105 1105
    1101 1097 1094 1094 1094 1090 1090 1090 1087 1087 1080 1080 1080
    1077 1077 1073 1070 1070 1067 1067 1067 1077 1087 1112 1169 1169
    1177 1181 1105 1105 1108 1108 1108 1105 1105 1105 1101 1094 1094
    1094 1090 1090 1090 1087 1087 1080 1080 1080 1077 1077 1073 1073
    1073 1070 1070 1073 1077 1094 1119 1126 1169 1177 1181 0 1108 1108
    1108 1108 1105 1105 1105 1101 1097 1094 1094 1090 1090 1090 1084
    1084 1080 1080 1080 1077 1077 1077 1073 1073 1073 1070 1070 1077
    1112 1115 1126 1173 1185 1189 0 1108 1108 1108 1108 1105 1105 1105
    1101 1101 1094 1094 1090 1090 1090 1084 1080 1080 1080 1080 1080
    1077 1077 1073 1073 1073 1070 1070 1077 1112 1115 0 0 0 0 0 1108
    1108 1108 1108 1108 1105 1105 1101 1097 1094 1094 1090 1090 1090
    1084 1080 1080 1080 1080 1080 1077 1077 1073 1070 1070 1070 1070
    1070 1115 1119 0 0 0 0 0 1108 1108 1108 1105 1105 1105 1105 1097
    1094 1094 1094 1090 1090 1087 1084 1080 1080 1080 1080 1080 1077
    1073 1070 1070 1070 1067 1067 1070 1119 1119 1153 0 0 0 0 1108 1108
    1108 1105 1105 1105 1101 1097 1094 1094 1094 1090 1090 1087 1084
    1080 1080 1084 1084 1080 1080 1073 1070 1070 1070 1067 1067 1070
    1123 1130 1153 0 0 0 0 1108 1108 1108 1108 1105 1105 1101 1097 1094
    1094 1090 1090 1090 1087 1087 1084 1084 1084 1084 1080 1077 1073
    1070 1070 1070 1070 1070 1077 1130 1130 0 0 0 0 0 1108 1108 1108
    1108 1105 1105 1101 1097 1094 1094 1090 1090 1090 1087 1087 1084
    1084 1084 1080 1080 1077 1077 1073 1073 1073 1073 1077 1080 0 0 0 0
    0 0 1112 1108 1108 1108 1108 1105 1105 1101 1101 1097 1094 1094 1090
    1090 1087 1087 1087 1084 1084 1080 1077 1077 1077 1077 1077 1077
    1077 1077 1080 0 0 0 0 0 0 1112 1108 1108 1108 1108 1105 1105 1105
    1101 1097 1094 1094 1090 1090 1087 1087 1087 1080 1080 1080 1077
    1077 1077 1077 1077 1077 1077 1077 0 0 0 0 0 0 0 1115 1112 1112 1108
    1108 1105 1105 1105 1101 1097 1097 1094 1090 1090 1087 1087 1087
    1080 1080 1080 1077 1077 1077 1077 1077 1077 1077 1077 0 0 0 0 0 0 0
    1119 1115 1112 1108 1108 1105 1105 1105 1101 1101 1101 1094 1094
    1090 1090 1090 1087 1084 1080 1080 1080 1077 1077 1073 1073 1077
    1077 1077 1084 0 0 0 0 0 0 1119 1115 1115 1108 1105 1105 1105 1105
    1101 1101 1101 1094 1094 1094 1090 1090 1087 1084 1080 1080 1080
    1077 1077 1073 1073 1077 1077 1077 1084 0 0 0 0 0 0 0 0 0 0 1105
    1105 1105 1105 1105 1105 1101 1097 1094 1094 1094 1090 1090 1087
    1080 1080 1080 1080 1077 1077 1077 1077 1077 1077 1087 0 0 0 0 0 0 0
    0 0 0 1236 1236 1108 1108 1108 1108 1101 1097 1094 1094 1094 1090
    1090 1090 1087 1080 1080 1077 1077 1077 1077 1077 1077 1080 1087 0 0
    0 0 0 0 0 0 0 0 1223 1223 1223 1223 1210 1197 1197 1185 1185 1097
    1094 1094 1090 1090 1084 1080 1080 1077 1077 1077 1077 1077 1077
    1077 1077 1241 1241 1241 1241 0 0 0 0 0 1210 1210 1210 1210 1210
    1202 1197 1197 1197 1210 1219 1219 1094 1094 1090 1084 1080 1077
    1077 1073 1073 1073 1073 1073 1077 1232 1232 1236 1232 1232 1227
    1227 0 0 0 1206 1202 1202 1202 1202 1197 1197 1193 1193 1202 1210
    1214 1214 1206 1206 1206 1080 1077 1077 1073 1073 1063 1063 1067
    1070 1232 1232 1232 1232 1227 1227 1223 0 0 1227 1202 1202 1202 1202
    1202 1197 1197 1193 1193 1197 1206 1206 1202 1202 1202 1202 1202
    1202 1202 1189 1077 1063 1063 1067 1070 1214 1206 1206 1206 1214
    1223 1219 0 0 1227 1185 1185 1189 1189 1193 1193 1197 1193 1193 1197
    1197 1197 1197 1197 1197 1197 1197 1197 1193 1185 1181 1173 1173
    1177 1189 1193 1197 1202 1202 1202 1210 1219 0 0 1177 1177 1177 1173
    1173 1173 1177 1181 1181 1181 1185 1185 1185 1185 1185 1189 1189
    1189 1185 1185 1181 1181 1177 1169 1169 1181 1185 1189 1193 1193
    1197 1202 1219 0 1185 1173 1173 1169 1169 1169 1169 1169 1169 1169
    1169 1169 1173 1169 1169 1173 1177 1181 1181 1181 1177 1173 1165
    1165 1161 1161 1177 1177 1181 1185 1189 1197 1202 1219 1185 1177
    1173 1169 1169 1169 1165 1165 1165 1165 1161 1161 1161 1165 1161
    1161 1165 1165 1165 1165 1165 1169 1169 1165 1161 1157 1157 1161
    1169 1169 1173 1173 1197 1206 1219 1185 1177 1173 1169 1169 1169
    1165 1165 1165 1165 1161 1161 1161 1157 1157 1157 1157 1157 1157
    1161 1161 1165 1161 1161 1157 1153 1153 1157 1165 1165 1165 1165
    1210 1210 1219 1181 1177 1169 1169 1165 1165 1165 1165 1165 1161
    1157 1157 1157 1153 1153 1149 1149 1153 1153 1153 1153 1153 1153
    1157 1157 1153 1153 1153 1149 1149 1149 1149 1210 1210 1214 1181
    1177 1169 1169 1165 1165 1165 1165 1165 1161 1157 1157 1157 1153
    1153 1149 1149 1149 1149 1149 1141 1141 1141 1141 1145 1149 1145
    1141 1141 1141 1149 1149 1149 1206 1206 1181 1177 1173 1169 1169
    1165 1165 1165 1165 1165 1157 1157 1157 1153 1153 1149 1149 1149
    1145 1141 1138 1138 1138 1138 1138 1138 1138 1134 1134 1138 1145
    1149 1149 1193 1206 1181 1177 1173 1169 1169 1165 1165 1165 1165
    1165 1157 1157 1157 1153 1153 1149 1149 1145 1145 1141 1138 1138
    1138 1138 1138 1138 1134 1134 1134 1134 1141 1153 1153 1193 0 1181
    1177 1173 1169 1169 1169 1169 1165 1165 1165 1161 1157 1157 1153
    1153 1153 1149 1145 1141 1141 1138 1138 1138 1138 1134 1134 1130
    1130 1130 1130 1141 1153 1153 0 0 1181 1173 1173 1169 1169 1169 1169
    1169 1165 1165 1161 1157 1157 1157 1157 1153 1149 1149 1141 1141
    1138 1138 1138 1134 1134 1134 1130 1130 1130 1130 1141 1149 1161
    1169 1169 1181 1173 1169 1169 1169 1169 1169 1169 1165 1165 1161
    1157 1157 1157 1153 1153 1149 1149 1145 1141 1138 1138 1138 1134
    1134 1134 1130 1130 1130 1130 1138 1149 1161 1169 1169 0 1177 1169
    1169 1169 1169 1169 1169 1165 1165 1161 1161 1157 1153 1153 1149
    1149 1149 1145 1145 1141 1138 1138 1138 1134 1134 1130 1130 1130
    1130 1138 1165 1165 1169 1169</data></Depth9401>
</opencv_storage>
