<?xml version="1.0"?>
<opencv_storage>
<Depth11943 type_id="opencv-matrix">
  <rows>187</rows>
  <cols>51</cols>
  <dt>w</dt>
  <data>
    6889 6753 6497 6497 6622 6622 6753 6753 6889 6889 635 635 635 635
    635 635 640 638 638 640 640 640 636 636 636 641 641 641 6753 6753
    6753 647 647 648 6889 650 650 6889 6753 6753 6622 6622 6622 6753 657
    654 654 654 6753 0 0 6889 6753 6497 6497 6622 6622 6753 6753 6889
    636 635 635 636 636 637 638 638 638 638 638 640 640 641 641 641 641
    641 643 644 644 644 647 647 648 648 648 649 649 6753 6753 652 652
    652 653 653 654 654 654 655 655 659 0 0 0 0 0 0 0 6889 6889 636 636
    636 636 636 636 637 637 638 638 638 640 641 641 642 643 643 643 643
    644 644 644 647 647 648 648 648 649 649 649 650 650 652 652 653 653
    653 653 654 655 655 658 0 0 0 0 0 0 649 646 636 636 636 636 636 636
    636 637 637 638 640 640 641 641 641 642 643 643 644 644 644 644 646
    647 648 648 648 648 649 649 649 650 650 652 652 653 653 653 653 654
    655 655 658 0 0 0 0 0 0 649 646 643 640 636 636 636 636 636 637 638
    640 640 641 641 641 641 643 643 643 644 644 644 646 646 648 648 648
    649 649 649 649 649 650 650 652 652 653 653 655 655 655 657 657 658
    0 0 0 0 0 0 648 646 642 638 636 636 637 637 637 638 638 640 640 641
    641 642 642 643 643 643 644 644 644 646 646 648 648 648 648 649 649
    649 650 650 652 653 653 654 654 657 657 657 657 657 658 0 0 0 0 0 0
    648 644 641 638 637 637 638 638 640 640 640 640 640 641 641 642 642
    644 643 643 643 644 644 646 646 647 648 648 648 649 649 649 650 652
    653 653 653 654 654 657 657 658 658 658 657 0 0 0 0 0 0 648 643 640
    638 638 638 638 640 640 640 640 640 641 641 642 643 644 644 643 643
    643 644 644 646 646 647 648 648 648 649 649 649 650 653 653 654 654
    654 655 657 658 658 658 658 655 0 0 0 0 0 0 0 643 638 638 638 638
    640 640 640 640 640 640 641 641 642 643 644 644 644 643 643 644 644
    646 648 648 648 649 649 649 649 649 650 652 653 655 655 655 655 657
    658 658 659 658 655 0 0 0 0 0 0 0 0 638 638 638 638 640 640 640 640
    640 641 641 642 642 643 644 644 644 644 644 644 646 646 648 649 649
    649 650 649 649 649 650 652 653 655 655 655 655 657 658 658 659 659
    659 0 0 0 0 0 0 0 0 640 640 640 640 640 640 640 640 641 641 642 642
    643 644 644 644 644 644 644 646 647 648 648 649 649 650 650 650 650
    650 652 652 653 655 655 655 657 657 658 658 659 659 659 0 0 0 0 0 0
    636 636 638 638 640 640 640 640 640 641 641 641 642 643 643 644 644
    644 646 646 646 646 647 648 648 649 649 650 650 652 652 652 653 653
    653 655 655 655 657 657 657 657 658 659 659 0 0 0 0 0 0 636 636 638
    638 640 638 638 638 640 641 642 642 642 643 643 644 644 646 646 646
    646 647 647 648 649 649 650 650 652 652 652 653 653 654 654 655 655
    655 655 657 657 657 658 659 659 0 0 0 0 0 0 635 635 636 638 640 638
    638 638 640 641 642 643 643 643 644 644 646 647 646 646 647 647 648
    649 649 649 650 650 652 652 652 652 653 654 654 655 655 655 655 657
    658 658 659 659 659 0 0 0 0 0 0 635 635 636 641 640 640 640 640 640
    642 643 644 644 644 644 644 646 647 647 647 647 648 648 649 649 649
    650 650 652 652 652 652 653 654 654 655 655 655 655 657 658 658 659
    661 661 0 0 0 0 0 0 0 636 636 641 640 640 640 640 640 642 643 644
    644 644 644 644 647 647 647 648 648 648 649 649 649 650 650 650 652
    653 653 653 654 654 654 657 657 657 657 657 658 659 661 661 658 0 0
    0 0 0 0 0 0 0 640 640 640 640 641 641 642 643 644 644 644 644 646
    647 647 647 648 648 648 649 649 649 650 650 650 653 653 654 654 654
    654 655 657 657 657 657 659 661 661 662 661 658 0 0 0 0 0 0 0 0 0
    640 640 640 640 641 641 643 643 644 644 644 644 646 647 647 647 648
    648 649 650 650 650 650 650 650 653 654 654 654 654 654 655 657 657
    658 658 659 662 662 662 661 661 0 0 0 0 0 0 0 0 641 640 640 641 641
    641 642 643 643 644 644 644 646 646 647 647 648 648 649 649 650 650
    650 650 652 652 653 654 654 654 654 655 655 657 658 658 659 661 662
    662 662 661 661 0 0 0 0 0 0 0 0 640 640 641 641 641 642 642 643 643
    644 644 644 646 646 647 647 648 648 649 649 650 650 650 650 652 653
    653 654 654 654 655 655 655 657 658 659 659 661 662 662 662 661 661
    0 0 0 0 0 0 0 0 640 640 641 641 642 642 642 643 643 644 644 644 646
    647 647 648 648 649 649 650 650 650 652 652 652 653 653 654 654 654
    655 655 655 657 658 659 659 661 662 662 662 661 661 0 0 0 0 0 0 0 0
    640 640 641 641 641 642 643 643 644 644 646 646 647 647 648 648 649
    649 649 650 650 652 652 652 652 653 653 654 654 655 655 657 657 658
    658 659 659 661 662 662 662 662 662 0 0 0 0 0 0 0 0 0 641 641 641
    641 642 643 644 644 646 646 646 647 647 648 648 649 649 650 650 650
    652 652 652 653 653 653 654 654 655 657 657 657 658 658 659 659 661
    662 662 662 662 662 0 0 0 0 0 0 0 0 0 642 642 642 642 643 644 644
    644 646 646 646 647 647 648 648 649 650 650 652 652 652 653 653 653
    653 654 654 655 655 657 657 657 659 659 659 659 661 662 663 663 662
    661 0 0 0 0 0 0 0 0 0 0 0 644 644 644 644 644 644 646 647 647 647
    648 648 649 649 650 650 652 652 653 653 653 653 653 654 655 655 657
    657 657 657 659 659 659 659 661 663 664 663 662 661 0 0 0 0 0 0 0 0
    0 0 0 644 644 644 644 646 647 647 647 647 647 648 649 649 650 652
    652 652 652 653 654 654 654 654 654 655 657 657 657 657 657 659 659
    659 659 661 663 663 663 662 661 0 0 0 0 0 0 0 0 0 0 643 643 643 644
    644 646 646 647 647 647 647 648 649 649 650 652 652 652 652 653 654
    654 654 654 655 655 657 657 657 658 658 661 659 659 662 662 663 663
    663 662 662 0 0 0 0 0 0 0 0 0 644 643 643 643 644 644 646 646 647
    647 647 648 649 649 650 650 652 652 652 652 653 654 654 655 655 655
    655 657 657 657 658 658 661 659 659 662 662 663 664 664 663 662 0 0
    0 0 0 0 0 0 0 644 643 643 644 646 646 646 647 647 647 648 648 649
    650 650 652 652 652 652 653 653 654 655 655 655 655 657 657 657 658
    659 659 661 661 662 662 663 663 664 664 666 664 0 0 0 0 0 0 0 0 0
    646 643 643 644 646 646 646 647 648 648 649 649 649 650 650 652 652
    652 652 652 653 653 655 655 655 657 657 657 657 658 659 659 662 662
    662 662 663 663 664 666 666 666 0 0 0 0 0 0 0 0 0 646 644 644 646
    646 646 646 647 648 648 649 649 650 650 652 652 652 652 652 652 653
    653 655 655 655 657 657 658 658 658 659 661 662 662 662 662 663 664
    664 666 666 666 0 0 0 0 0 0 0 0 0 646 646 646 646 646 646 646 647
    648 648 649 649 650 650 652 652 652 653 653 653 654 654 655 655 655
    657 657 658 658 659 661 661 662 662 662 662 663 664 666 666 666 666
    0 0 0 0 0 0 0 0 0 0 0 0 647 646 646 647 646 646 649 650 650 650 652
    652 652 652 653 653 653 654 654 655 655 657 657 657 659 659 659 661
    661 662 662 662 662 663 664 666 666 666 667 0 0 0 0 0 0 0 0 0 0 0 0
    647 647 647 647 646 646 649 650 650 650 652 652 652 653 653 653 653
    654 655 655 657 657 657 657 659 659 661 661 661 662 662 662 663 663
    666 666 667 667 667 0 0 0 0 0 0 0 0 0 0 0 0 649 649 648 647 647 647
    649 650 650 650 652 652 653 653 654 654 654 654 655 657 658 658 658
    658 659 659 661 661 661 662 662 662 663 663 666 666 667 667 668 0 0
    0 0 0 0 0 0 0 0 0 0 649 649 649 648 648 648 649 650 650 650 652 653
    654 654 654 654 654 654 655 658 659 659 659 659 659 661 661 661 661
    662 662 663 663 664 666 667 667 667 668 0 0 0 0 0 0 0 0 0 0 0 0 0
    648 648 649 648 648 649 650 650 652 652 653 654 654 654 654 654 654
    655 658 658 659 659 659 659 661 661 661 661 663 663 663 664 664 666
    666 667 667 668 0 0 0 0 0 0 0 0 0 0 0 0 0 648 648 649 649 649 649
    650 650 652 652 653 654 655 655 655 655 655 655 658 658 659 659 659
    659 661 661 661 661 663 663 663 664 664 666 666 667 667 668 0 0 0 0
    0 0 0 0 0 0 0 0 0 649 649 649 649 650 650 650 652 652 653 654 654
    654 655 655 655 657 657 658 658 659 659 659 659 661 661 661 661 663
    664 664 664 666 666 667 667 667 668 0 0 0 0 0 0 0 0 0 0 0 0 0 649
    649 649 649 650 650 650 652 652 653 654 654 654 654 655 655 657 658
    658 658 659 659 659 661 661 661 661 662 663 664 664 664 666 666 667
    668 668 668 0 0 0 0 0 0 0 0 0 0 0 0 0 650 650 649 649 650 650 652
    652 653 653 654 654 654 654 655 655 657 658 658 659 659 659 661 661
    661 661 661 662 663 664 664 666 666 666 667 668 668 670 0 0 0 0 0 0
    0 0 0 0 0 0 0 650 650 649 649 650 650 652 653 654 654 654 654 654
    655 655 655 657 658 658 659 659 659 661 661 662 662 662 662 663 664
    664 666 667 667 668 670 670 670 0 0 0 0 0 0 0 0 0 0 0 0 0 650 650
    650 650 650 650 653 653 654 654 654 655 655 655 655 657 658 658 658
    659 659 659 661 661 662 662 662 663 664 664 664 666 667 667 668 668
    668 668 0 0 0 0 0 0 0 0 0 0 0 0 650 650 650 650 650 650 652 653 654
    654 654 655 655 655 655 657 657 659 659 659 659 661 661 661 662 662
    663 663 663 664 666 666 666 667 667 668 668 668 668 0 0 0 0 0 0 0 0
    0 0 0 0 649 649 650 650 652 652 652 653 654 654 654 655 655 655 655
    657 657 659 659 659 659 661 661 661 661 662 663 664 664 666 666 666
    666 667 667 668 667 667 668 0 0 0 0 0 0 0 0 0 0 0 0 649 649 650 650
    652 652 653 653 654 654 654 655 655 655 657 658 659 661 661 661 661
    661 661 661 661 662 664 664 664 666 666 666 667 667 670 670 667 667
    670 0 0 0 0 0 0 0 0 0 0 0 0 649 649 650 650 652 652 653 653 654 654
    655 655 655 657 657 658 659 659 661 661 661 661 661 661 661 664 664
    664 664 666 666 666 667 667 670 670 670 670 671 0 0 0 0 0 0 0 0 0 0
    0 0 649 649 650 650 652 652 653 653 654 654 655 655 655 658 658 658
    659 659 661 661 661 661 661 661 661 664 664 664 664 666 666 666 667
    667 668 670 670 670 671 0 0 0 0 0 0 0 0 0 0 0 650 649 649 650 650
    652 653 654 654 655 655 655 655 655 658 658 659 659 661 661 661 661
    661 661 661 662 664 664 664 664 666 666 666 667 667 668 670 671 671
    671 0 0 0 0 0 0 0 0 0 0 0 650 650 650 650 650 653 653 654 654 654
    655 655 655 658 658 658 659 659 661 661 661 661 661 661 662 663 664
    664 666 666 667 667 667 667 668 668 670 671 671 671 0 0 0 0 0 0 0 0
    653 653 653 652 652 652 652 652 653 654 654 654 654 655 655 655 658
    658 658 659 661 661 661 661 661 661 661 663 663 664 664 666 666 667
    667 667 667 668 670 671 671 671 671 0 0 0 0 0 0 0 0 653 652 652 650
    650 652 652 652 654 654 654 654 654 655 655 657 658 659 659 659 661
    661 661 661 661 661 661 663 664 664 666 666 666 667 667 667 667 668
    670 671 671 671 671 0 0 0 0 0 0 0 0 653 652 652 650 650 652 652 653
    654 654 654 654 654 655 657 658 658 659 659 659 661 661 661 663 661
    661 663 664 664 664 666 666 666 666 667 667 667 668 670 671 672 671
    671 0 0 0 0 0 0 0 655 653 653 652 650 650 652 653 653 654 654 655
    655 655 657 657 658 658 659 659 661 661 661 663 663 663 663 663 664
    664 664 666 666 666 666 667 667 668 670 671 672 671 671 671 0 0 0 0
    0 0 0 653 653 653 653 652 652 653 653 653 654 655 655 655 655 657
    657 658 659 659 659 659 661 661 663 663 663 663 663 664 664 664 666
    666 667 667 668 668 668 670 671 672 671 671 671 0 0 0 0 0 0 0 653
    653 653 653 652 652 653 653 653 654 655 655 655 657 657 657 658 658
    659 659 659 661 661 664 663 663 664 664 664 664 664 664 666 667 668
    668 668 670 671 672 672 671 671 671 0 0 0 0 0 0 0 653 653 652 652
    652 652 653 654 654 654 654 655 657 657 657 657 658 658 659 661 661
    662 662 664 664 664 664 664 664 666 664 664 666 667 668 668 670 670
    671 672 672 672 672 672 0 0 0 0 0 0 0 650 650 652 652 652 652 653
    654 654 654 654 657 657 657 657 658 659 659 659 661 661 662 662 663
    663 664 664 666 666 666 666 667 667 667 668 670 670 670 671 672 672
    672 672 672 0 0 0 0 0 0 0 650 650 652 652 652 652 653 654 654 655
    655 655 655 658 658 659 659 659 659 661 661 662 662 663 663 664 664
    664 666 666 666 667 667 667 668 670 670 671 671 672 672 672 674 0 0
    0 0 0 0 0 0 652 652 652 652 653 654 654 655 655 655 655 655 655 659
    659 659 659 659 661 662 662 662 662 663 664 664 664 664 666 666 667
    667 667 667 668 670 670 671 672 674 674 674 675 0 0 0 0 0 0 0 654
    654 653 653 653 654 654 654 655 655 655 655 657 657 659 659 659 659
    659 661 663 663 663 663 663 664 664 664 666 666 666 667 668 668 668
    670 670 670 671 672 672 674 674 674 675 0 0 0 0 0 0 654 654 653 653
    654 654 654 655 655 655 655 655 657 658 659 659 659 659 659 662 663
    663 663 663 663 664 664 664 666 666 666 668 668 670 670 670 671 671
    672 672 672 674 674 668 668 0 0 0 0 0 0 657 655 654 654 654 654 654
    655 655 655 657 657 657 658 659 659 659 661 661 663 663 663 663 663
    663 664 666 666 666 666 667 668 668 670 670 670 670 671 671 672 674
    674 674 668 668 0 0 0 0 0 0 0 655 655 655 654 654 654 655 655 657
    658 658 658 659 659 659 661 661 661 663 663 663 663 663 663 664 666
    666 666 666 667 668 668 670 670 670 670 671 671 672 674 675 675 674
    674 0 0 0 0 0 0 0 655 655 655 655 655 655 655 657 657 658 658 658
    659 659 661 661 661 662 663 663 663 664 664 664 666 666 666 667 667
    668 668 668 670 670 671 671 671 671 672 674 675 675 675 0 0 0 0 0 0
    0 0 655 655 657 655 655 655 655 657 658 659 659 659 659 659 661 661
    662 662 663 663 663 664 664 666 666 666 666 667 667 668 668 668 670
    670 671 671 671 671 672 675 675 675 675 676 0 0 0 0 0 0 0 655 655
    655 655 655 655 657 658 659 659 659 659 659 661 661 661 662 663 663
    663 663 664 666 666 666 666 667 667 668 668 668 670 670 670 671 671
    671 672 674 675 675 675 675 676 0 0 0 0 0 0 0 655 655 655 655 655
    655 655 657 659 659 659 659 659 661 661 662 662 663 664 664 664 664
    666 667 667 667 667 667 668 668 670 670 671 671 672 672 672 672 674
    675 675 675 675 0 0 0 0 0 0 0 0 655 655 655 655 655 655 655 657 659
    659 659 659 659 661 661 662 663 664 664 664 664 664 666 667 667 667
    667 668 668 670 670 670 671 671 672 672 672 674 675 676 675 675 675
    675 0 0 0 0 0 0 0 655 655 655 655 655 655 657 658 659 659 659 659
    659 661 661 661 663 664 664 664 664 664 667 667 667 667 668 668 670
    670 670 670 671 671 672 672 672 674 675 676 676 675 675 675 0 0 0 0
    0 0 657 655 655 655 655 655 655 657 658 659 659 659 659 659 661 661
    661 663 664 664 664 664 667 667 668 668 668 668 670 670 670 670 670
    671 671 672 672 672 674 675 676 676 675 675 675 0 0 0 0 0 0 657 657
    657 657 657 657 657 659 659 659 659 659 659 661 661 661 662 663 664
    664 664 664 667 667 667 667 668 668 670 670 670 670 670 671 671 672
    672 672 674 676 678 676 676 675 675 0 0 0 0 0 0 0 659 659 658 658
    658 658 659 659 659 659 659 659 661 661 662 663 664 664 664 664 666
    667 667 667 667 668 668 670 670 670 670 671 671 671 672 672 672 674
    676 678 678 676 674 674 0 0 0 0 0 0 0 659 659 659 659 659 659 659
    659 659 659 659 659 661 662 663 663 664 664 666 666 666 666 667 667
    668 668 670 670 670 670 670 671 671 672 674 674 674 675 676 678 678
    676 674 674 0 0 0 0 0 0 0 661 659 659 659 659 659 659 659 659 661
    661 661 661 663 663 663 664 664 666 666 666 666 667 667 668 668 670
    670 670 670 670 671 671 672 674 674 674 675 676 678 678 678 678 0 0
    0 0 0 0 0 0 661 659 659 659 659 659 659 661 661 661 661 661 661 663
    663 663 664 666 666 666 666 666 667 667 668 668 670 670 670 670 670
    671 672 674 675 675 675 675 676 678 678 678 678 0 0 0 0 0 0 0 661
    661 659 659 659 659 659 659 661 661 661 661 661 662 663 663 664 664
    666 666 666 667 667 667 667 668 670 670 670 670 671 671 672 672 674
    675 675 675 675 676 678 679 679 679 0 0 0 0 0 0 0 661 661 659 659
    659 659 659 659 661 661 662 662 662 662 663 664 664 666 666 666 666
    667 667 667 668 670 670 670 671 671 671 672 672 674 674 675 675 675
    676 678 679 680 680 680 0 0 0 0 0 0 0 661 661 659 659 659 659 659
    659 661 661 661 662 662 662 663 664 664 666 667 667 667 667 667 668
    668 670 670 670 671 671 672 672 672 674 674 675 675 676 678 679 679
    680 680 680 0 0 0 0 0 0 0 658 658 658 659 659 659 661 661 661 661
    661 662 662 663 664 664 664 666 666 667 667 667 668 670 670 671 671
    671 671 671 672 674 674 674 674 675 675 676 679 679 680 680 680 682
    0 0 0 0 0 0 0 658 658 658 659 659 659 661 661 661 661 662 662 662
    664 664 664 666 666 666 667 667 667 668 670 670 671 671 671 671 671
    672 674 675 675 675 676 676 678 679 680 680 680 680 682 0 0 0 0 0 0
    0 658 658 658 661 661 661 661 661 662 662 662 662 663 664 666 666
    666 666 666 666 668 668 668 670 670 671 671 671 671 671 672 674 675
    675 675 676 676 678 680 680 680 680 682 682 682 0 0 0 0 0 0 658 658
    659 661 661 661 661 662 662 662 662 662 663 664 666 666 666 666 666
    666 668 670 670 670 671 671 671 672 672 672 674 674 675 675 676 676
    676 679 680 680 682 682 682 682 682 0 0 0 0 0 0 658 658 661 661 661
    661 661 662 662 662 662 663 664 664 666 666 666 666 667 667 668 670
    670 671 671 671 671 672 672 672 674 674 675 675 676 676 676 679 680
    680 682 682 682 682 682 0 0 0 0 0 0 662 661 661 661 661 661 662 662
    663 663 663 664 664 664 666 666 667 667 668 668 670 670 670 671 671
    671 672 672 672 674 674 675 675 675 676 678 678 680 680 682 682 682
    682 682 682 0 0 0 0 0 0 664 663 663 662 662 662 662 662 663 663 663
    664 666 666 666 667 667 668 668 670 670 670 671 671 671 671 672 672
    672 675 675 675 675 676 676 678 678 680 680 682 682 682 682 682 682
    0 0 0 0 0 0 666 664 663 662 662 662 662 662 663 664 664 666 666 666
    666 667 668 668 670 670 670 671 671 671 671 671 672 672 674 675 675
    675 676 676 676 678 678 680 680 682 682 682 680 680 682 0 0 0 0 0 0
    666 664 663 663 663 663 663 663 663 664 666 666 666 666 666 668 668
    670 670 670 671 671 671 671 672 672 672 672 675 675 675 675 676 676
    676 679 679 680 682 682 682 682 680 680 0 0 0 0 0 0 0 666 664 663
    663 663 663 663 663 664 664 666 666 666 666 667 668 668 670 670 670
    671 671 671 671 672 672 672 672 675 675 675 675 676 676 676 679 679
    680 682 683 682 682 680 680 682 0 0 0 0 0 0 666 666 663 663 664 663
    663 664 664 664 666 666 666 666 667 668 670 670 670 671 671 671 671
    672 672 674 674 674 675 675 676 676 676 678 678 679 680 680 682 683
    682 682 680 680 680 0 0 0 0 0 0 666 666 664 664 664 664 664 664 666
    666 666 666 666 666 667 670 670 670 671 671 671 671 672 674 674 674
    674 675 675 675 675 675 676 678 678 679 680 680 682 683 683 683 682
    680 680 0 0 0 0 0 0 664 664 664 664 664 664 664 664 666 666 666 667
    667 668 670 670 671 671 671 671 671 671 672 674 674 674 675 675 675
    675 675 675 676 678 678 680 680 680 682 682 683 683 682 678 678 0 0
    0 0 0 0 664 664 664 664 664 664 664 664 666 666 666 667 667 668 670
    670 671 671 671 671 672 672 674 674 674 675 675 675 675 675 676 676
    676 678 679 680 680 680 682 682 683 683 682 678 678 0 0 0 0 0 0 0
    667 667 666 664 664 664 664 666 666 667 667 668 668 670 670 671 671
    671 671 672 674 674 675 675 675 675 675 675 675 676 676 676 678 679
    680 680 680 682 682 683 683 682 682 0 0 0 0 0 0 0 0 667 666 666 664
    664 664 664 666 667 667 668 668 668 670 671 671 671 671 672 672 674
    674 675 675 675 675 675 676 676 676 678 678 678 679 680 680 682 682
    683 683 683 683 683 0 0 0 0 0 0 0 0 667 666 666 664 664 664 666 666
    667 668 668 668 670 670 671 671 671 672 672 672 674 674 675 675 675
    675 675 676 676 676 678 678 679 679 680 680 682 684 684 684 684 684
    686 0 0 0 0 0 0 0 0 666 666 666 664 664 664 666 666 668 668 670 670
    670 670 671 671 671 672 672 672 674 675 675 675 675 676 676 678 678
    678 679 679 679 680 682 682 683 683 684 686 687 687 687 0 0 0 0 0 0
    0 0 666 666 666 666 664 664 666 666 668 670 670 670 670 671 671 671
    672 672 672 672 674 675 675 675 675 676 676 678 679 679 679 680 680
    680 682 682 683 683 684 686 687 687 687 0 0 0 0 0 0 0 0 666 666 666
    666 666 666 666 667 668 670 670 670 670 671 671 671 672 672 672 674
    675 675 675 675 675 676 676 678 679 679 680 680 680 680 682 682 683
    683 686 686 687 687 687 0 0 0 0 0 0 0 0 666 666 666 666 666 666 667
    668 670 670 670 670 671 671 671 672 672 672 672 674 675 676 676 676
    676 676 676 679 679 679 680 680 680 682 683 683 683 683 686 686 686
    687 0 0 0 0 0 0 0 0 0 0 666 666 666 667 667 668 670 670 670 670 670
    671 671 671 672 672 672 674 675 675 676 676 676 676 676 676 679 679
    680 680 680 680 682 683 683 683 683 686 686 686 688 0 0 0 0 0 0 0 0
    0 0 667 667 667 667 668 668 670 670 670 670 670 671 671 671 672 674
    674 675 675 675 676 676 676 678 678 678 679 679 680 680 680 682 682
    683 683 684 684 687 687 687 688 0 0 0 0 0 0 0 0 0 0 668 667 667 667
    668 668 670 670 670 670 671 671 671 672 672 674 675 675 675 676 676
    676 676 678 678 678 679 680 680 680 680 682 682 683 683 684 687 687
    687 687 687 0 0 0 0 0 0 0 0 0 0 670 668 668 668 668 668 670 670 670
    670 671 671 671 672 674 675 675 675 675 676 676 678 678 678 678 679
    680 680 680 680 680 682 682 684 684 684 687 687 687 687 687 0 0 0 0
    0 0 0 0 0 670 670 668 668 668 668 668 670 670 671 671 671 671 671
    672 675 675 675 675 676 676 678 678 678 679 679 680 680 680 680 680
    682 682 683 684 686 686 687 687 687 687 687 0 0 0 0 0 0 0 0 0 668
    668 668 668 668 668 668 670 670 671 671 671 671 672 674 675 675 675
    675 676 678 678 679 679 679 679 680 680 682 682 682 682 682 683 686
    686 687 688 688 688 687 687 687 0 0 0 0 0 0 0 0 667 667 668 668 668
    670 670 670 670 671 671 671 671 672 674 675 675 675 676 676 678 679
    679 679 679 680 680 680 682 682 682 682 683 684 686 687 687 688 688
    688 688 687 687 0 0 0 0 0 0 0 0 667 667 668 668 668 670 670 670 671
    671 671 671 671 672 674 675 675 676 676 676 679 679 679 679 679 680
    680 682 682 682 682 682 683 684 686 686 687 688 688 688 688 687 687
    0 0 0 0 0 0 0 0 667 667 668 668 668 670 670 670 671 671 671 672 672
    674 676 676 676 676 676 678 679 679 679 679 679 680 680 682 682 682
    683 683 683 684 686 686 687 688 688 690 690 688 688 688 0 0 0 0 0 0
    678 671 670 670 668 668 670 670 670 671 671 671 672 672 675 676 676
    676 676 678 678 679 679 679 680 680 680 682 682 682 682 683 683 683
    684 686 686 687 688 688 690 690 690 688 688 0 0 0 0 0 0 678 671 670
    670 670 670 670 670 670 671 671 672 672 674 675 676 676 676 676 678
    678 679 679 679 680 680 682 682 683 683 684 684 684 684 686 686 687
    687 688 688 690 690 690 688 688 0 0 0 0 0 0 0 671 670 670 670 670
    670 670 670 671 671 672 674 674 675 676 676 676 678 678 679 679 679
    680 680 682 682 682 683 683 684 684 684 684 686 687 687 688 690 690
    690 690 690 690 690 0 0 0 0 0 0 0 671 671 670 670 670 670 670 671
    671 671 674 674 675 675 676 676 676 678 679 679 679 679 680 680 680
    682 683 684 684 684 684 684 684 686 687 687 688 690 690 690 690 690
    690 690 0 0 0 0 0 0 0 671 671 670 670 670 670 670 671 671 672 674
    674 675 675 676 676 678 679 679 680 680 680 680 680 680 682 683 684
    684 684 684 684 684 686 687 688 690 690 690 691 691 688 688 688 0 0
    0 0 0 0 0 0 671 670 670 670 670 671 672 672 674 674 674 676 676 676
    678 678 679 680 680 680 680 680 680 682 683 683 684 684 684 684 686
    686 686 687 688 690 690 691 691 691 687 687 687 0 0 0 0 0 0 0 671
    670 670 671 671 671 671 672 672 674 675 675 676 676 676 678 679 679
    680 680 680 680 680 682 682 683 684 686 686 684 684 686 686 687 688
    690 690 690 691 693 691 687 687 687 0 0 0 0 0 0 0 671 670 670 671
    671 671 672 674 674 675 675 675 676 676 678 679 679 679 680 680 680
    680 682 682 683 684 684 686 686 686 686 686 686 687 688 690 691 691
    693 693 691 688 687 687 0 0 0 0 0 0 0 671 671 671 671 671 672 672
    674 674 675 675 676 676 676 678 679 679 680 680 680 682 682 682 682
    684 686 686 686 686 686 686 686 687 687 688 691 691 693 693 693 693
    690 690 0 0 0 0 0 0 0 0 0 671 671 671 671 671 672 674 675 675 675
    676 676 678 679 679 680 680 680 680 682 682 682 683 684 686 686 686
    686 686 687 687 687 687 690 691 693 693 693 693 693 691 691 0 0 0 0
    0 0 0 0 0 671 671 671 671 671 672 674 675 675 676 676 678 679 679
    680 680 680 680 682 682 682 683 684 686 686 686 686 686 686 687 687
    687 687 690 691 693 693 694 693 693 693 693 0 0 0 0 0 0 0 0 0 672
    672 672 672 672 674 674 675 675 676 676 679 679 679 680 680 680 680
    682 682 682 683 684 686 686 686 686 686 687 687 687 688 688 691 691
    693 693 694 693 693 693 693 0 0 0 0 0 0 0 0 676 674 672 672 672 672
    674 674 675 675 676 676 679 679 679 680 680 680 680 682 682 682 683
    684 686 686 686 686 686 687 687 687 688 688 691 691 693 694 694 694
    693 693 693 0 0 0 0 0 0 680 679 676 674 672 672 672 674 675 675 676
    676 676 676 678 679 680 680 680 680 680 682 682 683 684 684 686 686
    686 686 687 687 687 688 688 688 691 693 693 694 694 694 694 693 693
    0 0 0 0 0 0 680 679 676 675 674 674 674 674 675 675 676 676 676 676
    678 679 680 680 680 680 680 682 682 683 684 684 686 686 686 686 687
    687 687 688 688 690 691 693 694 694 694 694 694 694 697 0 0 0 0 0 0
    680 679 676 675 674 674 674 674 675 675 676 676 676 678 679 680 680
    680 680 682 682 683 683 684 684 684 686 686 686 686 687 687 687 688
    688 690 691 693 694 694 694 694 696 696 697 0 0 0 0 0 0 680 679 676
    676 675 674 674 675 675 675 676 676 676 678 679 680 680 680 682 682
    682 683 683 684 684 684 686 686 686 687 687 687 688 688 690 691 691
    693 694 694 696 696 696 697 697 0 0 0 0 0 0 0 0 676 676 675 675 675
    675 675 676 676 676 678 679 680 680 680 680 682 682 683 683 684 684
    684 686 686 686 686 687 687 688 690 690 690 693 693 694 694 694 696
    697 697 696 696 0 0 0 0 0 0 0 0 676 676 675 675 675 675 675 675 676
    678 678 679 680 680 680 682 682 683 684 684 684 684 684 686 686 686
    686 687 687 688 690 690 690 693 694 694 694 694 696 697 697 696 696
    0 0 0 0 0 0 0 0 676 676 675 675 675 675 675 675 676 676 678 679 680
    680 680 682 682 683 684 684 684 684 684 686 686 687 687 687 688 688
    690 691 691 694 694 694 694 696 697 697 697 698 0 0 0 0 0 0 0 0 0 0
    676 675 675 675 675 675 676 676 676 678 680 680 680 682 682 683 683
    684 684 684 686 686 686 686 687 687 687 688 688 690 691 691 694 694
    696 696 696 697 697 697 698 0 0 0 0 0 0 0 0 0 0 676 676 675 675 676
    676 676 676 676 679 680 680 680 682 682 683 683 684 684 684 686 686
    687 687 687 687 687 688 690 691 691 693 694 694 696 696 697 698 698
    698 698 0 0 0 0 0 0 0 0 0 0 676 676 676 676 676 676 676 676 676 679
    680 680 680 682 682 682 683 683 684 686 686 686 687 687 687 687 688
    690 690 691 691 693 694 694 696 696 697 698 698 698 698 0 0 0 0 0 0
    0 0 0 0 676 676 676 676 676 676 676 676 678 680 680 680 680 682 682
    682 683 683 686 686 687 687 687 687 687 687 688 690 690 691 691 693
    694 694 694 696 697 698 698 698 698 0 0 0 0 0 0 0 0 0 678 676 676
    676 676 676 676 678 678 679 680 680 680 680 682 682 683 684 684 686
    686 687 687 687 687 687 688 690 690 691 691 691 693 694 694 694 696
    697 698 698 698 700 0 0 0 0 0 0 0 0 0 678 676 676 676 676 676 678
    678 679 680 680 680 680 680 682 682 684 684 686 686 687 687 688 687
    687 687 688 690 690 691 691 691 693 694 694 694 696 697 698 698 698
    700 0 0 0 0 0 0 0 0 0 678 676 676 676 676 676 678 679 679 680 680
    680 680 682 682 683 684 686 686 687 687 688 688 688 688 688 688 690
    691 691 691 691 693 694 696 696 696 697 698 698 698 700 0 0 0 0 0 0
    0 0 0 676 676 676 676 676 676 678 679 679 680 680 680 682 682 683
    683 684 686 686 687 687 688 688 688 688 688 688 690 691 691 691 693
    693 694 696 696 697 698 698 698 698 700 0 0 0 0 0 0 0 0 0 676 676
    676 676 676 678 678 679 679 680 680 682 682 682 683 683 686 686 686
    687 687 688 690 690 688 688 688 690 691 691 691 691 693 694 696 696
    697 698 698 698 698 0 0 0 0 0 0 0 0 0 0 675 675 676 676 678 678 678
    679 679 680 680 682 682 683 683 684 686 686 686 687 687 688 688 690
    687 687 688 688 688 688 688 690 693 694 696 696 697 698 698 698 698
    0 0 0 0 0 0 847 847 0 0 674 674 676 676 678 678 678 678 678 679 680
    683 683 683 683 684 686 686 686 687 687 688 688 690 687 687 686 686
    687 688 688 690 690 690 0 0 698 698 698 0 0 0 0 0 0 0 847 847 847
    847 674 674 674 675 676 678 679 679 678 678 679 683 683 683 856 686
    686 686 686 687 687 687 688 688 847 783 781 686 686 687 688 688 688
    688 0 0 0 0 0 0 0 0 0 0 0 0 0 845 845 849 849 674 674 674 675 676
    676 766 766 766 766 839 839 841 845 849 849 849 843 843 845 849 849
    849 847 847 785 781 780 780 778 778 778 835 835 835 0 0 0 0 0 0 0 0
    0 0 829 829 833 833 833 819 0 811 811 771 771 771 766 766 766 766
    835 835 837 837 841 849 839 835 835 837 837 837 837 839 841 787 781
    781 781 778 778 778 835 835 835 0 0 0 0 0 0 0 0 0 0 825 825 821 819
    819 819 813 811 811 811 767 767 767 766 766 766 831 831 825 825 823
    823 827 829 829 827 827 829 825 825 821 821 781 781 781 781 781 835
    835 835 835 0 0 0 0 0 0 0 0 0 0 825 821 819 817 815 815 813 811 811
    811 767 767 766 766 766 825 825 823 821 821 819 819 819 821 823 821
    821 821 819 819 817 817 781 781 781 781 781 835 827 825 825 0 0 0 0
    0 0 0 0 0 0 825 821 815 811 809 809 809 809 809 809 767 767 766 766
    766 819 817 817 815 815 815 813 813 815 817 817 817 817 817 817 815
    815 783 781 781 781 817 817 817 815 813 813 815 0 0 0 0 0 0 0 0 0 0
    803 803 803 803 803 805 805 805 767 767 767 767 767 811 813 813 811
    811 811 811 811 811 811 811 813 811 811 807 807 794 787 781 781 783
    783 817 817 811 809 809 809 809 0 0 0 0 0 0 0 0 0 802 800 800 798
    798 798 800 800 767 767 767 767 767 802 802 800 800 802 803 805 805
    803 803 803 802 802 803 803 796 794 787 783 783 783 787 802 802 805
    805 807 805 805 0 0 0 0 0 0 0 0 0 789 789 790 794 794 796 800 800
    771 771 769 767 767 802 790 790 790 790 790 794 796 796 794 794 794
    794 792 792 792 789 787 785 785 785 787 790 790 803 803 798 794 794
    0 0 0 0 0 0 0 0 785 785 781 781 781 781 781 781 780 780 774 773 773
    773 776 780 781 783 785 785 785 781 781 783 785 787 787 787 785 783
    783 785 785 787 787 787 787 787 803 794 794 790 789 789 0 0 0 0 0 0
    0 781 781 780 778 778 776 776 774 774 776 774 774 774 774 774 778
    780 780 781 780 780 780 780 780 780 780 781 781 781 781 781 781 781
    781 781 781 781 778 774 774 778 783 783 789 0 0 0 0 0 0 0 781 781
    776 767 767 774 774 774 774 774 774 773 773 773 773 776 776 778 776
    774 773 773 773 773 773 773 773 773 774 774 773 773 773 773 773 773
    773 773 769 769 769 771 773 773 774 0 0 0 0 0 0 0 762 762 764 764
    764 771 771 773 774 774 773 773 769 766 764 762 762 771 767 766 766
    767 767 767 767 767 767 762 762 767 767 767 771 771 769 769 769 767
    767 767 767 767 767 769 769 769 0 0 0 0 0 757 757 757 757 759 771
    771 773 773 752 752 752 752 754 759 759 759 759 757 757 759 759 759
    764 764 761 759 759 759 759 761 761 762 764 766 766 764 764 764 764
    764 766 766 766 767 767 0 0 0 0 750 750 752 752 752 752 752 746 746
    746 746 746 746 747 749 752 752 754 754 754 754 754 754 754 754 754
    755 755 755 757 757 757 757 757 759 761 761 761 761 761 762 762 762
    764 764 767 767 0 0 0 754 747 746 746 749 750 747 744 742 742 742
    742 742 744 747 747 747 749 750 750 750 752 752 752 752 752 754 754
    754 754 754 754 755 755 757 757 757 759 759 761 761 762 762 762 762
    762 766 0 0 0 0 754 741 741 741 741 741 741 742 741 741 741 742 742
    744 746 747 747 747 747 749 749 750 750 752 752 752 752 752 752 752
    754 754 755 755 755 757 757 759 759 761 761 762 762 762 762 762 766
    0 0 0 0 754 741 739 739 739 739 739 739 741 741 741 741 741 744 744
    746 747 747 747 747 749 749 749 750 750 750 752 752 752 752 754 754
    755 755 755 757 757 759 759 761 761 762 762 762 762 762 764 0 0 0 0
    0 733 733 738 739 739 739 739 741 741 741 741 741 744 744 746 746
    747 747 747 749 749 749 750 750 750 752 752 752 754 754 754 755 755
    755 757 757 759 759 761 761 762 762 762 762 762 764 766 0 0 0 0 733
    733 738 739 739 739 739 741 741 741 742 742 744 744 746 746 747 747
    747 747 749 749 749 750 750 752 752 752 754 754 754 755 755 755 757
    757 759 759 761 761 762 762 762 762 764 764 766 0 0 0 0 0 738 738
    739 739 739 741 741 741 742 742 742 744 746 746 746 747 747 747 747
    747 749 749 750 750 752 754 754 754 754 754 755 755 755 757 759 759
    759 761 761 762 762 762 762 766 766 767 0 0 0 0 0 739 739 739 739
    739 741 741 741 742 742 744 744 746 746 746 747 747 747 747 747 749
    750 754 755 757 757 755 755 754 754 755 755 755 759 759 759 759 761
    761 762 762 764 764 766 766 766 0 0 0 0 0 739 739 739 739 739 739
    741 741 742 742 746 746 746 746 747 747 747 747 747 747 750 752 755
    757 757 757 757 755 754 754 755 755 757 759 759 759 759 761 761 764
    764 764 766 766 766 766 0 0 0 0 0 741 741 741 741 739 739 741 741
    742 744 746 746 747 747 747 747 747 747 747 749 750 752 754 754 755
    757 757 757 757 755 755 755 757 759 759 759 761 761 762 766 766 766
    766 766 766 759 759 0 0 0 0 739 739 741 741 741 741 741 741 742 744
    746 746 747 747 747 747 747 749 749 750 750 752 752 752 754 755 757
    757 757 757 759 759 759 759 759 761 761 762 764 767 767 767 767 767
    766 757 757 0 0 0 739 739 739 741 741 741 741 742 742 744 744 746
    746 747 747 749 749 749 749 750 750 752 752 752 752 754 755 755 757
    757 759 759 759 759 761 761 761 761 762 764 767 767 767 767 767 766
    757 757 757 1843 0 739 739 741 741 741 741 741 742 742 744 744 746
    746 747 747 749 749 749 750 750 752 752 752 752 752 754 755 755 757
    757 757 759 761 761 761 761 761 762 764 764 767 767 767 769 773 773
    1843 1843 1843 1843 0 741 741 741 741 741 741 742 742 742 744 744
    744 746 747 747 750 750 750 752 752 752 752 754 754 754 755 757 757
    757 757 755 755 755 761 761 762 762 0 0 0 0 0 0 1813 1823 1823 1823
    1823 1833 1823 0 741 741 741 741 741 741 742 742 742 742 744 744 746
    749 749 752 752 752 752 754 754 754 754 754 754 757 757 759 759 757
    755 755 787 802 802 805 807 0 0 0 0 0 1813 1813 1804 1804 1813 1813
    1813 1804 0 0 741 741 741 742 742 742 742 742 742 780 776 774 755
    754 754 754 754 754 754 754 754 754 755 757 757 759 759 778 780 783
    785 787 790 802 803 805 0 0 0 0 0 1785 1785 1785 1785 1794 1794 1794
    1804 0 0 0 0 744 741 741 742 742 783 781 780 776 774 773 766 764 764
    762 761 759 759 759 761 762 762 767 774 778 778 780 783 785 787 790
    798 800 805 0 0 0 0 0 1766 1766 1766 1766 1776 1776 1776 1776 0 0 0
    0 741 741 741 790 789 781 780 778 776 776 774 773 773 771 771 769
    767 766 766 767 769 771 773 774 778 778 780 783 785 789 789 794 800
    0 0 0 0 0 0 1766 1766 1766 1766 1766 1766 1766 1766 0 0 0 0 0 792
    790 790 789 781 780 778 776 776 774 774 773 773 773 773 771 771 771
    771 771 773 774 774 778 778 781 785 787 789 789 794 798 0 0 0 1165 0
    0 1757 1169 1169 1748 1757 1757 1757 1766 1145 1145 1145 0 792 792
    792 792 790 783 781 778 778 776 776 774 774 773 773 773 773 773 773
    773 773 773 774 774 778 778 781 785 787 789 790 794 796 0 0 1165
    1165 1161 1161 1157 1157 1165 1169 1169 1757 1757 1757 1145 1145
    1149 0 0 796 794 794 789 783 781 780 780 778 776 774 774 773 773 773
    773 773 773 773 773 774 774 776 780 780 781 785 787 790 790 794 796
    796 1157 1157 1157 1157 1157 1149 1149 1153 1153 1157 1153 1149 1149
    1123 1119 1119 1119 0 796 794 794 789 785 781 780 780 778 776 774
    774 773 773 773 773 773 773 773 773 774 774 776 780 780 781 783 787
    790 792 796 796 0 1153 1153 1153 1149 1145 1145 1149 1149 1149 1149
    1149 1149 1145 1119 1119 1119 1123 0 0 796 794 789 785 783 781 780
    778 776 774 774 773 773 773 773 773 773 773 774 774 774 776 780 780
    781 783 787 790 792 794 798 798 1145 1145 1141 1134 1134 1134 1138
    1138 1138 1138 1141 1141 1145 1115 1115 1115 1115 0 1115 0 0 789 787
    785 781 780 778 776 776 774 773 773 773 773 773 773 773 774 774 776
    776 780 780 781 783 787 790 792 794 794 1145 1145 1138 1134 1134
    1134 1134 1138 1138 1138 1138 1138 1134 1134 1112 1115 1115 1115 0 0
    0 0 789 787 785 780 780 778 778 776 774 774 774 774 773 773 773 773
    774 774 776 778 780 780 781 783 789 790 794 800 803 803 1145 1138
    1130 1130 1130 1130 1134 1134 1138 1134 1134 1126 1126 1112 1112
    1115 0 0 0 0 0 792 787 783 780 780 778 778 776 774 774 774 774 774
    773 773 774 774 776 776 778 780 780 781 785 789 790 796 800 803 0
    1145 1138 1130 1130 1130 1130 1134 1134 1134 1126 1123 1123 1123
    1112 1112 1115 0 0 0 0 0 794 789 783 780 780 778 778 776 774 774 774
    776 774 774 774 774 774 776 778 780 780 781 783 785 789 792 796 798
    0 0 0 0 0 0 0 1138 1134 1134 1134 1126 1123 1123 1123 0 0 0 0 0 0 0
    794 794 789 783 780 780 778 778 776 774 774 774 776 776 774 774 774
    774 776 778 780 781 781 783 785 789 794 796 798 0 0 0 0 0 0 0 0 0 0
    0 0 0 0 0 0 0 0 0 0 0 0 794 794 789 783 780 780 780 780 776 776 774
    774 776 776 774 774 774 776 778 780 780 781 783 783 785 789 794 796
    798 0 0 0 0 0 0 0 0 0 0 0 0 0 0 0 0 0 0 0 0 0 0 796 794 789 783 781
    780 780 780 778 776 776 776 776 776 774 774 776 776 778 780 780 781
    783 785 787 790 794 796 798 0 0 0 0 0 0 0 0 0 0 0 0 0 0 0 0 0 0 0 0
    0 0 796 794 789 785 781 781 780 780 778 778 776 776 776 776 776 776
    776 776 778 780 780 781 783 787 789 790 794 796 807 0 0 0 0 0 0 0 0
    0 0 0 0 0 0 0 0 0 0 0 0 0 0 798 796 790 787 783 781 780 780 778 778
    776 776 776 776 776 776 778 778 780 780 780 781 785 787 789 790 794
    796 0 0 0 0 0 0 0 0 0 0 0 0 0 0 0 0 0 0 0 0 0 0 0 798 794 790 789
    785 781 781 780 778 778 776 776 776 776 776 778 778 778 780 780 781
    783 785 787 789 792 794 796 805 809 0 0 0 0 0 0 0 0 0 0 0 0 0 0</data></Depth11943>
</opencv_storage>
