<?xml version="1.0"?>
<opencv_storage>
<Depth6514 type_id="opencv-matrix">
  <rows>97</rows>
  <cols>70</cols>
  <dt>w</dt>
  <data>
    3774 3774 3816 3816 3816 3816 3816 3816 3859 3859 3903 3903 3859
    3859 3816 1022 1016 1013 1013 1016 1019 1019 1019 1019 1019 1019
    1022 1025 1025 3816 3816 3816 3859 3903 3948 3994 3994 3994 3994
    3994 3994 3994 3994 3948 3948 3948 3994 3994 3994 3994 3994 3994
    3994 3994 3994 3994 3994 3994 3994 3994 3994 3994 3994 3994 3994
    3994 3994 3994 3994 3994 3774 3774 3816 3816 3816 3816 3816 3816
    3816 3994 3994 3948 3948 1038 1028 1022 1016 1013 1013 1013 1016
    1016 1019 1019 1019 1019 1022 1025 1031 1034 1034 1038 3948 3948
    3948 3994 3994 3994 3994 3994 3994 3948 3948 3948 3948 3948 3994
    3994 3994 3994 3994 3994 3994 3994 3994 3994 3994 3994 3994 3994
    3994 3994 3994 3994 3994 3994 3994 3994 3994 3994 3774 3774 3774
    3816 3816 3774 3774 0 0 1041 1031 0 1031 1031 1025 1022 1016 1013
    1013 1013 1013 1013 1016 1019 1022 1022 1025 1025 1031 1034 1034
    1038 1041 1041 4041 3994 3994 3948 3948 3948 3948 3948 3948 3948
    3948 3948 3994 3994 3994 3994 3994 3994 4041 3994 3994 3994 3994
    3994 3994 3994 3994 3994 3994 3994 3994 3994 3994 3994 3994 3994
    3774 3774 3774 3774 3774 3774 3774 0 0 0 1041 1031 1031 1028 1025
    1019 1013 1010 1010 1010 1013 1013 1013 1016 1022 1022 1025 1025
    1031 1034 1034 1038 1038 1041 1044 1047 1044 1044 3948 3903 3903
    3948 3948 3948 3948 3948 3994 3994 3994 3994 3994 3994 3994 3994
    3994 3994 3994 3994 3994 3994 3994 3994 3994 3994 3994 3994 3994
    3994 3994 3994 3774 3774 3774 3774 3774 0 0 0 0 0 0 1041 1031 1028
    1025 1016 1013 1010 1010 1010 1010 1010 1013 1016 1022 1022 1025
    1025 1031 1034 1034 1038 1038 1041 1041 1044 1044 1044 1044 1047
    3903 3903 3948 3948 3994 3994 3994 3994 3994 3994 3994 3994 3994
    3994 3994 3994 3994 4041 4041 3994 3994 3994 3994 3994 3994 3994
    3994 3994 4041 3994 3774 3774 3774 3774 0 0 0 0 0 0 0 1041 1034 1028
    1025 1016 1010 1007 1007 1010 1010 1010 1013 1016 1019 1019 1022
    1025 1028 1031 1034 1038 1038 1038 1041 1041 1041 1044 1044 1047
    1050 1050 1050 4041 4041 4041 3994 3994 3994 3948 3948 3994 3994
    3994 3994 3994 3994 4041 4041 4041 3994 3994 3994 3994 3994 3994
    3994 4041 4041 4041 3774 3816 3816 0 0 0 0 0 0 0 1060 1041 1034 1028
    1025 1013 1010 1004 1004 1007 1010 1010 1013 1013 1019 1019 1022
    1022 1028 1028 1031 1034 1038 1038 1038 1041 1041 1044 1044 1047
    1050 1050 1054 1063 1063 1067 1067 1067 3994 3948 3948 3994 3994
    3994 3994 3994 3994 4041 4041 4041 4041 3994 3994 3994 3994 3994
    4041 4041 4041 4041 3774 3816 3816 0 0 0 0 0 0 0 1060 1057 1038 1031
    1019 1010 1007 1004 1004 1004 1007 1010 1013 1013 1016 1019 1022
    1022 1028 1028 1028 1034 1034 1034 1038 1038 1041 1044 1044 1047
    1050 1050 1054 1057 1060 1063 1063 1063 1063 1063 3994 3994 3994
    3994 3994 3994 3994 4041 4041 4041 4041 3994 3994 3994 3994 3994
    4041 4041 4041 4041 3816 3816 3816 0 0 0 0 0 0 1073 1057 1050 1041
    1031 1013 1010 1004 1004 1004 1004 1007 1013 1013 1013 1016 1019
    1022 1022 1025 1028 1028 1031 1034 1034 1038 1038 1038 1041 1041
    1044 1047 1050 1054 1057 1057 1060 1063 1063 1063 1063 1063 1067
    1067 4041 4041 4041 4041 4041 4041 4041 4041 3994 3994 4041 4041
    4041 4041 4041 4041 4041 3816 0 0 0 0 0 0 0 0 1073 1054 1047 1041
    1031 1013 1007 1004 1004 1004 1004 1007 1013 1013 1013 1016 1016
    1022 1022 1025 1025 1028 1028 1031 1034 1034 1034 1038 1041 1041
    1044 1044 1047 1050 1054 1054 1057 1060 1060 1060 1060 1063 1067
    1067 1067 1067 1073 1080 1080 4041 4041 4041 4041 4041 4041 4041
    4041 4041 4041 4041 4041 3816 0 0 0 0 0 0 0 1087 1073 1054 1047 1041
    1025 1010 1007 1007 1004 1004 1004 1007 1010 1010 1013 1013 1016
    1019 1022 1025 1025 1028 1028 1031 1034 1034 1034 1038 1041 1041
    1044 1044 1047 1050 1054 1054 1054 1057 1060 1060 1060 1063 1067
    1067 1067 1067 1073 1077 1080 1080 1077 1077 4041 4089 4041 4041
    4041 4041 4041 4041 4041 3859 0 0 0 0 0 0 0 1087 1063 1054 1047 1041
    1025 1010 1007 1007 1004 1004 1007 1010 1010 1010 1013 1013 1016
    1016 1019 1025 1025 1025 1028 1028 1031 1034 1034 1038 1038 1041
    1044 1044 1047 1050 1050 1054 1054 1057 1057 1060 1060 1063 1067
    1067 1067 1070 1077 1077 1080 1080 1077 1077 1080 1080 1084 1084
    4041 4041 4041 4041 4041 0 0 0 0 0 0 0 0 1084 1063 1054 1044 1038
    1025 1013 1007 1004 1004 1004 1007 1007 1007 1007 1010 1010 1013
    1016 1016 1022 1022 1025 1025 1028 1028 1031 1031 1034 1038 1041
    1044 1044 1044 1050 1050 1054 1054 1054 1054 1057 1060 1063 1067
    1067 1067 1070 1073 1077 1077 1080 1080 1080 1080 1080 1084 1090
    1090 1090 1090 4041 4041 0 0 0 0 0 0 0 0 1077 1063 1054 1041 1031
    1022 1007 1001 998 998 1001 1004 1007 1007 1007 1010 1010 1013 1013
    1016 1022 1022 1025 1025 1028 1028 1028 1031 1031 1038 1041 1041
    1041 1044 1050 1050 1054 1054 1054 1054 1054 1060 1063 1063 1067
    1070 1070 1073 1073 1077 1077 1080 1080 1080 1084 1084 1090 1090
    1090 1090 1090 1094 0 0 0 0 0 0 1087 1084 1073 1063 1057 1038 1028
    1016 1007 1001 998 998 998 998 1001 1004 1004 1007 1010 1010 1013
    1013 1019 1022 1022 1025 1025 1025 1028 1028 1031 1034 1038 1041
    1041 1041 1047 1050 1054 1054 1054 1054 1054 1060 1063 1063 1067
    1067 1067 1070 1070 1073 1077 1077 1080 1080 1084 1087 1090 1090
    1090 1090 1094 1094 0 0 0 0 0 0 1087 1084 1073 1060 1050 1038 1028
    1013 1004 1001 998 995 995 998 1001 1004 1004 1007 1010 1010 1010
    1013 1016 1019 1022 1022 1025 1025 1028 1028 1028 1034 1038 1038
    1041 1041 1047 1050 1050 1050 1050 1054 1054 1057 1063 1063 1067
    1067 1067 1067 1070 1070 1073 1077 1077 1080 1080 1084 1087 1090
    1090 1094 1094 1094 0 0 0 0 0 0 1090 1084 1077 1057 1047 1034 1022
    1010 1004 998 998 995 995 998 1001 1001 1001 1004 1007 1007 1010
    1010 1016 1016 1019 1022 1025 1025 1025 1028 1028 1034 1038 1038
    1038 1041 1044 1047 1050 1050 1050 1050 1054 1057 1060 1063 1067
    1067 1067 1067 1070 1070 1073 1073 1077 1077 1080 1080 1084 1090
    1090 1094 1094 1094 0 0 0 0 0 0 1090 1084 1063 1050 1044 1031 1019
    1010 1001 998 995 995 995 998 1001 1001 1001 1001 1004 1007 1010
    1010 1013 1016 1019 1019 1022 1025 1025 1028 1028 1031 1034 1038
    1038 1038 1041 1047 1047 1050 1050 1050 1054 1054 1057 1063 1063
    1063 1067 1067 1070 1070 1070 1073 1077 1077 1080 1080 1080 1084
    1090 1090 1090 1094 0 0 0 0 0 0 1090 1087 1060 1047 1041 1028 1019
    1007 1001 989 989 989 995 998 998 998 1001 1001 1004 1004 1007 1010
    1013 1016 1016 1019 1022 1022 1025 1025 1028 1031 1031 1034 1038
    1038 1038 1041 1044 1047 1047 1050 1050 1054 1057 1057 1060 1063
    1063 1067 1067 1070 1070 1070 1073 1073 1080 1080 1080 1080 1087
    1090 1090 1094 0 0 0 0 0 0 1087 1084 1060 1047 1041 1025 1019 1007
    992 989 989 989 992 998 998 998 998 1001 1001 1004 1007 1010 1013
    1016 1016 1016 1019 1022 1025 1025 1028 1028 1031 1031 1034 1038
    1038 1041 1041 1044 1044 1044 1047 1050 1054 1054 1054 1060 1063
    1067 1067 1067 1070 1070 1070 1070 1077 1080 1080 1080 1087 1090
    1090 1090 0 0 0 0 0 0 1087 1084 1054 1047 1041 1025 1019 1007 992
    989 989 989 992 995 998 998 998 1001 1001 1004 1007 1007 1013 1013
    1016 1016 1019 1019 1022 1022 1025 1028 1031 1031 1034 1038 1038
    1038 1041 1041 1044 1044 1047 1050 1054 1054 1054 1057 1060 1063
    1067 1067 1067 1067 1070 1070 1077 1080 1080 1080 1084 1087 1090
    1090 0 0 0 0 0 0 1084 1077 1054 1047 1034 1025 1019 1007 992 989 989
    989 989 992 995 998 998 998 1001 1001 1004 1007 1013 1013 1016 1016
    1016 1019 1022 1022 1025 1025 1031 1031 1034 1038 1038 1038 1041
    1041 1044 1044 1047 1050 1054 1054 1054 1057 1057 1063 1063 1067
    1067 1067 1067 1070 1077 1077 1080 1080 1084 1087 1090 1090 0 0 0 0
    0 1087 1084 1063 1054 1047 1028 1022 1016 1007 992 989 989 989 989
    992 995 995 998 998 1001 1001 1004 1007 1013 1013 1013 1016 1016
    1019 1019 1022 1025 1025 1028 1031 1031 1034 1038 1038 1041 1041
    1041 1041 1044 1050 1054 1054 1054 1057 1057 1060 1063 1067 1067
    1067 1067 1070 1077 1077 1077 1080 1084 1084 1084 1084 0 0 0 0 0
    1087 1077 1060 1057 1047 1022 1019 1010 992 989 989 987 987 989 989
    995 995 998 998 1001 1001 1001 1004 1010 1013 1013 1013 1016 1016
    1019 1019 1022 1025 1028 1028 1031 1034 1038 1038 1038 1041 1041
    1041 1044 1047 1050 1054 1054 1054 1057 1060 1060 1067 1067 1067
    1067 1070 1077 1077 1077 1077 1080 1084 1084 1084 0 0 0 0 0 1084
    1073 1060 1054 1044 1022 1016 1007 992 987 987 987 987 989 989 992
    992 995 998 998 1001 1001 1001 1007 1010 1013 1013 1013 1016 1016
    1019 1022 1025 1025 1028 1028 1031 1034 1034 1038 1038 1038 1041
    1041 1044 1050 1050 1054 1054 1057 1057 1060 1063 1067 1067 1067
    1067 1073 1077 1077 1077 1080 1080 1080 1080 0 0 0 0 0 1084 1073
    1060 1054 1044 1016 1013 1004 992 987 984 984 987 987 989 989 992
    995 995 998 1001 1001 1001 1004 1007 1013 1013 1013 1016 1016 1019
    1022 1025 1025 1028 1028 1028 1031 1034 1034 1038 1038 1038 1041
    1041 1044 1050 1054 1054 1054 1057 1060 1063 1063 1063 1067 1067
    1070 1073 1073 1077 1077 1080 1080 1080 0 0 0 0 0 1080 1077 1060
    1050 1041 1016 1010 1004 989 987 981 981 984 987 987 989 989 992 995
    998 998 998 1001 1004 1007 1010 1013 1013 1013 1016 1019 1019 1025
    1025 1028 1028 1028 1031 1031 1034 1038 1038 1038 1041 1041 1044
    1047 1050 1050 1054 1054 1057 1060 1060 1063 1063 1067 1067 1070
    1073 1073 1077 1077 1080 1080 0 0 0 0 0 1080 1077 1050 1044 1034
    1016 1010 1004 987 984 981 981 981 984 987 989 989 989 992 995 998
    998 1001 1004 1004 1007 1010 1013 1013 1016 1016 1019 1022 1022 1025
    1025 1028 1028 1031 1034 1038 1038 1038 1038 1041 1041 1047 1050
    1050 1050 1054 1054 1060 1060 1063 1063 1063 1067 1067 1070 1073
    1077 1077 1080 1080 0 0 0 0 0 0 0 1047 1038 1028 1019 1013 1007 987
    984 981 981 981 981 984 987 989 989 989 992 995 998 1001 1004 1004
    1007 1007 1010 1013 1016 1016 1016 1022 1022 1025 1025 1028 1028
    1028 1034 1034 1038 1038 1038 1041 1041 1044 1047 1050 1050 1054
    1054 1057 1057 1060 1063 1063 1067 1067 1070 1073 1073 1077 1080
    1080 0 0 0 0 0 0 1060 1044 1038 1028 1016 1010 992 984 981 978 978
    978 981 984 987 987 989 989 992 995 998 998 1004 1004 1004 1004 1007
    1013 1013 1016 1016 1019 1022 1025 1025 1025 1028 1028 1031 1034
    1034 1038 1038 1038 1041 1041 1044 1047 1050 1050 1054 1054 1057
    1060 1063 1063 1067 1067 1067 1070 1073 1077 1080 1080 0 0 0 0 0 0
    1060 1044 1038 1025 1013 1007 989 981 978 978 978 978 978 981 984
    987 987 989 989 992 995 998 1001 1001 1004 1004 1007 1010 1013 1013
    1016 1016 1019 1022 1025 1025 1028 1028 1028 1028 1031 1034 1038
    1038 1038 1041 1041 1047 1050 1050 1054 1054 1054 1057 1060 1063
    1063 1067 1067 1070 1073 1077 1077 1080 0 0 0 0 0 1060 1054 1044
    1038 1025 1013 1007 987 981 978 978 978 978 978 981 984 984 987 987
    989 989 992 998 1001 1001 1004 1004 1004 1007 1010 1013 1013 1016
    1016 1019 1022 1025 1025 1025 1028 1028 1028 1034 1038 1038 1038
    1041 1041 1044 1047 1050 1054 1054 1054 1057 1060 1063 1063 1067
    1067 1067 1073 1073 1077 1077 0 0 0 0 0 1060 1050 1041 1031 1022
    1013 1004 984 978 975 975 975 978 981 981 984 984 984 987 987 987
    989 992 998 1001 1004 1004 1004 1004 1010 1013 1013 1016 1016 1016
    1019 1022 1025 1025 1025 1028 1028 1031 1034 1038 1038 1041 1041
    1044 1047 1047 1054 1054 1054 1057 1057 1060 1063 1063 1067 1067
    1070 1073 1073 1077 0 0 0 0 0 1057 1041 1038 1028 1019 1010 1004 981
    975 975 975 975 978 981 981 984 984 984 987 987 987 989 989 995 998
    1001 1001 1001 1004 1007 1010 1013 1016 1016 1016 1019 1019 1025
    1025 1025 1028 1028 1028 1034 1034 1038 1038 1041 1041 1044 1047
    1050 1054 1054 1054 1057 1057 1060 1063 1063 1063 1067 1067 1070
    1077 0 0 0 0 0 1057 1041 1038 1025 1019 1007 989 978 975 975 975 975
    975 978 978 981 981 984 987 987 987 989 989 995 998 998 1001 1001
    1004 1007 1010 1010 1013 1016 1016 1016 1016 1022 1022 1025 1025
    1028 1028 1031 1034 1038 1038 1041 1041 1041 1047 1050 1054 1054
    1054 1054 1057 1060 1063 1063 1063 1067 1067 1067 0 0 0 0 0 0 1057
    1044 1034 1025 1016 1007 989 978 975 973 973 973 975 975 978 978 981
    981 984 987 987 987 989 995 995 995 998 1001 1004 1004 1007 1007
    1010 1013 1013 1016 1016 1019 1019 1022 1025 1025 1028 1028 1034
    1038 1038 1038 1041 1041 1044 1047 1050 1050 1054 1054 1057 1057
    1060 1060 1063 1063 1063 1067 1067 0 0 0 0 1060 1054 1044 1034 1025
    1016 1004 984 975 975 973 973 973 975 975 978 978 978 978 981 984
    987 987 987 992 995 995 998 1001 1001 1001 1004 1004 1007 1010 1013
    1013 1016 1016 1019 1019 1025 1025 1025 1028 1031 1034 1034 1038
    1038 1041 1044 1044 1047 1050 1050 1054 1054 1057 1057 1060 1060
    1060 1063 1063 1063 0 0 0 0 1057 1050 1041 1034 1025 1019 989 981
    975 973 973 973 973 975 975 975 978 978 978 978 981 987 987 987 992
    995 995 998 1001 1001 1001 1004 1004 1007 1010 1013 1013 1016 1016
    1016 1019 1022 1025 1025 1025 1028 1031 1031 1034 1038 1038 1041
    1041 1044 1044 1050 1050 1054 1054 1054 1057 1057 1060 1063 1063
    1063 0 0 0 1063 1057 1050 1038 1034 1025 1016 989 981 975 970 970
    970 970 973 975 975 975 975 978 978 981 984 987 987 992 995 995 998
    1001 1001 1001 1004 1004 1007 1010 1010 1013 1013 1016 1016 1019
    1022 1022 1022 1025 1028 1031 1031 1034 1038 1038 1041 1041 1041
    1044 1047 1047 1050 1054 1054 1054 1054 1057 1063 1063 1063 0 0 0
    1063 1057 1047 1038 1031 1022 1013 987 981 975 970 967 967 970 973
    973 975 975 975 978 978 978 984 984 987 992 992 995 995 998 1001
    1001 1004 1004 1004 1007 1007 1010 1013 1013 1016 1016 1019 1019
    1019 1022 1025 1031 1031 1031 1034 1038 1038 1038 1041 1041 1044
    1047 1050 1050 1054 1054 1054 1057 1060 1063 1063 0 0 0 1060 1054
    1047 1034 1028 1019 1013 987 978 973 967 967 967 967 970 973 973 975
    975 975 978 978 981 984 987 989 992 995 995 998 998 1001 1001 1004
    1004 1004 1007 1007 1013 1013 1016 1016 1016 1016 1016 1022 1025
    1028 1031 1031 1031 1038 1038 1038 1038 1041 1044 1047 1047 1050
    1054 1054 1054 1057 1060 1063 1063 0 0 1063 1060 1054 1044 1034 1028
    1019 1010 984 978 970 967 964 964 967 970 973 973 973 975 975 975
    978 981 981 984 989 992 992 995 995 995 998 1001 1001 1004 1004 1004
    1007 1010 1013 1013 1016 1016 1016 1016 1019 1025 1028 1028 1031
    1031 1034 1038 1038 1038 1041 1041 1044 1047 1050 1050 1050 1054
    1057 1057 1060 1063 0 0 1063 1057 1050 1041 1034 1025 1019 992 981
    975 970 967 964 964 967 967 970 970 973 975 975 975 978 978 981 984
    989 989 992 992 995 995 998 998 1001 1004 1004 1004 1007 1010 1013
    1013 1013 1016 1016 1016 1019 1028 1028 1028 1028 1028 1031 1034
    1034 1038 1041 1041 1044 1044 1047 1050 1050 1054 1057 1057 1057
    1060 0 0 0 1054 1047 1038 1034 1025 1019 989 981 975 967 964 964 964
    967 967 970 970 970 975 975 975 975 978 978 984 987 989 989 992 992
    992 995 995 998 1004 1004 1004 1007 1007 1010 1013 1013 1016 1016
    1016 1019 1025 1025 1025 1028 1028 1028 1031 1034 1038 1041 1041
    1044 1044 1047 1047 1047 1050 1054 1054 1054 1054 0 0 0 1050 1044
    1038 1031 1025 992 987 981 973 967 962 962 962 964 967 967 967 970
    973 975 975 975 975 978 984 984 987 989 989 992 992 992 995 998 1001
    1004 1004 1004 1007 1010 1010 1013 1013 1016 1016 1016 1022 1025
    1025 1028 1028 1028 1031 1034 1038 1038 1041 1041 1044 1044 1047
    1047 1050 1054 1054 1054 1054 0 0 1054 1050 1044 1034 1025 1016 992
    987 978 973 962 959 959 959 964 964 967 967 967 970 973 975 975 975
    975 981 984 987 989 989 989 989 992 992 995 1001 1004 1004 1004 1004
    1004 1007 1010 1013 1016 1016 1016 1022 1025 1025 1025 1028 1028
    1028 1031 1034 1038 1041 1041 1041 1044 1044 1044 1050 1054 1054
    1054 1057 0 0 1054 1050 1044 1034 1022 1013 992 987 973 964 959 959
    959 959 962 964 967 967 967 970 970 973 975 975 975 981 984 987 989
    989 989 989 992 992 995 1001 1001 1001 1004 1004 1004 1007 1010 1013
    1013 1016 1016 1019 1022 1025 1025 1025 1028 1028 1028 1034 1038
    1038 1041 1041 1044 1044 1044 1050 1054 1054 1054 1057 0 0 0 1050
    1044 1031 1019 1010 992 984 970 964 959 959 959 959 959 962 962 964
    967 967 967 970 975 975 978 981 984 984 989 989 989 989 992 992 995
    998 1001 1001 1001 1004 1004 1004 1007 1010 1010 1013 1016 1019 1019
    1022 1025 1025 1028 1028 1028 1034 1038 1038 1038 1041 1041 1044
    1044 1047 1050 1054 1054 1057 0 0 0 1047 1044 1031 1016 1010 989 984
    970 964 959 956 956 959 959 962 962 962 964 964 967 967 970 973 975
    981 981 984 987 987 987 989 989 992 992 995 1001 1001 1001 1001 1001
    1004 1007 1010 1010 1013 1016 1016 1019 1022 1025 1025 1025 1028
    1028 1028 1031 1034 1038 1038 1041 1041 1044 1044 1050 1050 1050
    1054 0 0 0 1047 1034 1022 1016 1010 987 981 970 962 956 954 954 956
    959 959 959 962 964 964 967 967 967 970 975 978 981 981 981 984 987
    987 989 992 992 995 998 998 1001 1001 1001 1004 1004 1010 1010 1010
    1013 1016 1019 1019 1022 1025 1025 1025 1028 1028 1031 1034 1038
    1038 1041 1041 1041 1041 1047 1047 1050 1054 0 0 0 1038 1028 1022
    1016 992 984 981 973 959 956 954 954 956 959 959 959 962 962 964 967
    967 967 967 973 978 978 981 981 981 984 984 987 989 989 992 995 998
    998 1001 1001 1004 1004 1010 1010 1010 1013 1016 1016 1019 1022 1022
    1025 1025 1028 1028 1031 1031 1034 1038 1038 1041 1041 1041 1044
    1044 1047 1054 0 0 0 1038 1028 1022 1016 992 984 978 973 959 954 954
    954 954 956 956 959 959 962 964 964 964 967 967 970 975 978 978 978
    981 981 984 984 987 989 992 992 992 995 998 1001 1001 1004 1007 1007
    1007 1010 1013 1016 1016 1019 1019 1025 1025 1025 1028 1028 1031
    1031 1034 1038 1041 1041 1041 1044 1044 1047 1050 0 0 1041 1038 1028
    1025 1019 989 981 978 973 956 954 954 954 954 956 956 956 956 959
    964 964 964 964 964 970 975 978 978 978 981 981 981 984 987 989 992
    992 992 992 995 998 1001 1001 1004 1004 1004 1010 1013 1016 1016
    1016 1019 1022 1025 1025 1028 1028 1028 1031 1034 1034 1038 1041
    1041 1044 1044 1047 1050 0 0 1041 1038 1028 1025 1013 989 981 975
    962 956 954 951 951 954 954 956 956 956 959 964 964 964 964 964 967
    973 975 978 978 978 981 981 984 984 989 989 989 992 992 992 998 1001
    1001 1004 1004 1004 1010 1010 1013 1016 1016 1016 1016 1022 1022
    1025 1028 1028 1031 1031 1031 1034 1038 1041 1041 1041 1044 0 0 0 0
    1038 1025 1019 1010 989 981 973 959 956 954 951 951 951 954 954 956
    956 956 962 964 964 964 964 967 973 975 975 978 978 981 981 981 984
    987 989 989 989 992 992 992 998 998 1001 1001 1004 1007 1010 1013
    1013 1016 1016 1016 1019 1022 1025 1025 1028 1028 1028 1031 1034
    1038 1038 1041 1041 1041 0 0 0 0 0 1025 1016 1010 989 978 973 959
    954 954 951 951 951 954 954 956 956 956 959 962 964 964 967 967 973
    975 975 975 978 978 981 981 984 987 989 989 989 989 992 992 995 998
    998 1001 1004 1007 1007 1010 1013 1013 1016 1016 1019 1019 1025 1025
    1025 1028 1028 1028 1031 1034 1034 1038 1038 1041 0 0 0 0 0 1025
    1013 1007 987 978 970 959 954 951 948 948 948 951 954 954 956 956
    959 962 964 964 964 967 970 970 973 973 978 978 978 981 984 987 987
    989 989 989 989 992 992 998 998 998 1001 1004 1004 1010 1013 1013
    1013 1016 1016 1019 1022 1022 1025 1025 1028 1028 1028 1031 1034
    1038 1038 1038 0 0 0 0 1028 1022 1013 1007 987 978 967 956 951 948
    946 946 948 951 951 954 954 956 956 959 964 964 964 964 967 970 970
    973 975 978 978 981 984 987 987 989 989 989 989 992 992 995 995 998
    1001 1004 1004 1007 1010 1010 1013 1013 1016 1016 1022 1022 1025
    1025 1025 1028 1028 1031 1031 1034 1038 1038 0 0 0 0 1028 1022 1010
    1007 981 975 967 956 948 946 946 946 946 948 951 954 954 954 954 956
    962 962 964 964 967 970 970 970 975 978 978 978 981 984 984 987 987
    989 989 989 992 995 995 998 1001 1004 1004 1007 1007 1010 1013 1013
    1016 1016 1019 1022 1022 1025 1025 1028 1028 1031 1031 1034 1038 0 0
    0 0 0 1025 1019 1010 1001 981 975 964 954 946 946 946 946 946 948
    948 951 954 954 954 956 959 962 964 964 967 967 970 970 975 975 978
    978 978 981 981 984 987 987 989 989 992 995 995 998 1001 1004 1004
    1004 1007 1010 1013 1013 1016 1016 1016 1019 1022 1025 1025 1028
    1028 1028 1031 1031 1034 0 0 0 0 0 1022 1019 1007 992 978 973 962
    951 946 946 943 943 946 946 948 951 951 954 954 956 959 959 962 964
    967 967 970 970 973 975 975 978 978 978 981 981 984 987 989 989 992
    992 995 998 1001 1004 1004 1004 1004 1007 1010 1013 1013 1016 1016
    1019 1019 1022 1025 1025 1028 1028 1031 1031 1031 0 0 0 0 0 1019
    1016 1007 987 975 970 962 951 946 943 943 943 943 946 948 948 951
    951 954 956 956 959 962 962 967 967 970 970 970 973 975 975 978 978
    981 981 984 987 989 989 992 992 995 998 1001 1001 1001 1004 1004
    1007 1010 1013 1013 1013 1016 1016 1016 1019 1022 1025 1025 1028
    1028 1031 1031 1038 0 0 0 0 1016 1010 1001 981 975 967 959 951 946
    943 943 943 943 946 946 946 948 951 954 954 956 956 959 962 967 967
    967 970 970 970 973 973 978 978 981 981 981 984 987 989 989 992 995
    998 998 1001 1001 1004 1004 1007 1010 1010 1013 1013 1013 1016 1016
    1019 1022 1025 1025 1025 1028 1031 1031 1031 0 0 1031 1025 1016 1010
    992 981 973 962 954 948 943 940 938 938 943 946 946 946 948 951 954
    954 954 954 956 959 964 967 967 967 970 970 973 973 975 978 981 981
    981 981 984 987 989 992 992 995 998 998 1001 1004 1004 1004 1007
    1010 1013 1013 1013 1016 1016 1019 1022 1022 1025 1025 1028 1028
    1028 1028 0 0 1031 1025 1016 1007 989 978 970 959 954 946 940 938
    938 938 940 943 946 946 948 951 954 954 954 954 956 959 964 967 967
    967 967 970 970 973 975 978 978 981 981 981 984 984 989 989 992 992
    995 998 1001 1001 1004 1004 1004 1007 1010 1013 1013 1013 1016 1016
    1019 1019 1022 1025 1028 1028 1028 1028 0 0 1031 1022 1016 1007 987
    978 970 956 948 943 940 938 935 935 938 940 943 946 946 948 951 954
    954 954 956 956 962 964 967 967 967 970 970 970 973 975 978 978 981
    981 981 984 989 989 992 992 995 998 1001 1001 1001 1004 1004 1004
    1007 1010 1013 1013 1016 1016 1016 1019 1022 1025 1028 1028 1028
    1028 0 0 1028 1022 1019 992 987 975 967 956 946 943 938 935 935 935
    938 940 943 943 946 948 951 951 954 954 954 956 962 962 964 964 967
    970 970 970 973 975 978 978 981 981 981 984 987 989 992 992 992 995
    998 1001 1001 1001 1004 1004 1004 1010 1013 1013 1016 1016 1016 1022
    1022 1025 1025 1028 1028 1028 0 0 1028 1022 1019 987 984 975 967 956
    946 943 938 935 935 935 935 938 940 943 946 946 948 951 951 954 954
    956 959 962 962 964 967 967 967 970 973 975 978 978 978 981 981 984
    987 987 989 992 992 995 998 1001 1001 1001 1001 1004 1004 1007 1010
    1013 1013 1013 1016 1019 1022 1025 1025 1028 1028 1028 0 0 0 1016
    1013 987 984 970 962 954 946 943 938 935 935 935 935 938 940 943 943
    943 946 951 951 954 954 956 959 959 962 962 964 967 967 970 973 975
    978 978 978 981 981 981 984 984 989 992 992 992 995 998 998 1001
    1001 1004 1004 1007 1010 1010 1013 1013 1016 1019 1022 1025 1025
    1028 1028 1028 0 0 1025 1016 1013 987 975 970 962 954 943 940 935
    933 933 935 935 938 940 940 940 943 946 948 951 951 954 954 956 959
    962 962 964 964 964 967 970 975 975 975 978 978 981 981 981 984 984
    987 989 992 995 995 998 998 1001 1004 1004 1004 1007 1010 1013 1013
    1016 1019 1019 1022 1025 1028 1028 1028 0 0 1019 1010 1007 987 975
    970 962 951 940 938 933 933 933 933 935 935 940 940 940 943 946 946
    948 948 954 954 956 956 959 959 962 962 962 967 970 973 973 975 978
    978 978 981 981 981 981 987 989 992 995 995 995 998 1001 1001 1001
    1004 1004 1007 1010 1013 1013 1016 1019 1022 1025 1028 1028 1028 0 0
    1016 1007 1004 992 970 967 959 948 940 935 933 933 933 933 935 935
    940 940 940 943 943 946 948 948 951 954 956 956 959 959 959 962 962
    967 970 970 970 973 978 978 978 981 981 981 981 984 987 989 992 995
    995 995 998 1001 1001 1001 1004 1004 1010 1010 1013 1016 1016 1019
    1022 1028 1028 1028 0 0 1013 1004 1001 989 967 967 956 946 938 933
    930 930 933 933 933 935 935 938 940 940 943 946 946 948 951 951 956
    956 959 959 959 962 962 967 967 970 970 973 975 978 978 978 981 981
    981 984 987 989 989 992 992 995 998 1001 1001 1001 1004 1004 1010
    1010 1013 1013 1013 1016 1019 1022 1025 1025 0 0 1013 1001 992 987
    967 964 954 946 938 933 930 930 930 933 933 935 935 938 940 940 943
    943 946 946 948 951 956 956 956 959 959 962 962 967 967 970 970 970
    973 978 978 978 981 981 981 981 984 989 989 992 992 992 995 998 1001
    1001 1004 1004 1010 1010 1013 1013 1013 1016 1016 1019 1019 1019 0 0
    1010 1001 992 984 970 964 954 946 935 933 928 928 930 933 933 935
    935 935 938 940 943 943 943 946 946 948 951 954 956 956 959 959 962
    964 967 967 970 970 973 975 975 978 978 978 981 981 984 989 989 992
    992 992 995 995 998 1001 1004 1004 1007 1010 1010 1013 1013 1013
    1013 1016 1019 1019 0 0 1010 1001 989 984 970 964 956 943 933 930
    925 925 930 933 933 935 935 935 938 938 940 940 943 946 946 946 951
    951 954 956 959 959 962 964 964 967 967 970 970 973 975 978 978 978
    981 981 984 987 987 989 992 992 995 995 998 1001 1001 1001 1004 1010
    1010 1013 1013 1013 1013 1016 1016 1019 0 0 0 992 987 978 967 962
    954 943 933 925 925 925 928 930 933 933 935 935 938 938 940 940 943
    943 946 946 948 951 954 956 956 959 962 964 964 964 967 967 970 970
    973 975 978 978 978 981 984 987 987 989 989 992 995 995 998 1001
    1001 1001 1004 1007 1007 1010 1010 1013 1013 1016 1016 0 0 0 1010
    992 987 975 967 962 951 938 933 925 923 923 925 928 930 933 933 935
    935 935 938 940 943 943 946 946 948 948 951 956 956 959 959 962 964
    964 967 967 967 970 970 975 975 978 978 978 981 987 987 989 989 992
    992 992 998 998 998 1001 1004 1007 1007 1010 1010 1013 1013 1016
    1016 0 0 0 1004 992 987 973 964 956 948 935 933 925 923 923 925 928
    930 933 933 933 935 935 935 940 943 943 943 943 948 948 951 956 956
    956 959 962 964 964 964 967 967 970 970 973 973 978 978 978 981 984
    987 989 989 992 992 992 995 995 998 1001 1001 1007 1007 1010 1010
    1013 1013 1016 1016 0 0 0 1001 989 984 973 962 954 943 933 928 925
    925 925 925 928 930 930 933 933 933 935 935 938 940 943 943 943 948
    948 951 954 956 956 956 962 964 964 964 967 967 967 970 973 973 975
    975 975 981 984 987 987 987 989 992 992 995 995 995 998 1001 1004
    1007 1007 1010 1013 1013 1013 1016 0 0 0 995 987 981 970 956 951 943
    933 925 923 923 925 925 925 925 928 930 933 933 933 935 938 940 940
    943 943 948 948 951 954 954 956 956 962 962 964 964 967 967 967 970
    973 973 973 973 973 981 984 984 987 987 989 989 989 995 995 995 995
    1001 1004 1004 1007 1007 1010 1013 1013 1013 0 0 0 992 987 978 967
    956 951 943 935 925 923 923 923 923 925 925 925 928 930 933 933 935
    935 938 940 940 943 948 948 948 951 954 956 959 959 959 964 964 964
    967 967 970 970 970 973 973 973 981 981 984 987 987 987 989 989 992
    995 995 995 1001 1004 1004 1004 1004 1010 1010 1013 1013 0 0 0 992
    987 970 967 956 951 940 933 923 920 920 920 923 923 923 925 925 928
    930 933 933 935 935 938 940 940 946 946 948 951 951 951 956 959 959
    959 962 964 967 967 970 970 970 970 970 970 978 981 981 984 984 987
    989 989 992 992 995 998 998 1001 1001 1004 1004 1004 1010 1010 1010
    0 0 0 992 987 970 964 956 951 940 933 920 918 918 918 923 923 923
    923 925 925 928 930 933 935 935 935 938 940 946 946 946 948 948 948
    954 956 959 959 959 962 967 967 967 970 970 970 970 970 978 978 981
    981 984 987 987 989 992 992 995 995 998 1001 1001 1004 1004 1004
    1007 1007 1007 0 0 0 992 984 970 962 956 948 940 928 918 918 918 918
    920 923 923 923 925 925 928 930 933 933 935 935 938 940 946 946 946
    948 948 948 954 954 956 956 959 959 962 964 967 970 970 970 970 970
    973 975 981 981 984 987 987 989 989 992 992 995 998 1001 1001 1001
    1004 1004 1007 1007 1007 0 0 0 989 981 973 962 954 943 935 925 915
    915 918 918 920 920 923 923 925 925 928 930 930 933 935 935 938 938
    943 946 946 948 948 948 954 954 956 956 959 959 962 962 964 964 967
    967 970 970 973 975 978 981 981 984 987 989 989 992 992 992 995 995
    1001 1001 1004 1004 1004 1004 1007 0 0 998 989 975 973 964 951 943
    935 918 915 915 915 918 920 920 920 923 923 925 928 928 928 933 933
    933 935 935 940 946 946 946 948 948 951 951 954 956 956 959 959 959
    962 964 964 967 970 970 973 973 978 978 978 981 987 989 989 992 992
    992 992 995 995 1001 1001 1004 1004 1004 1007 1007 0 995 995 975 973
    959 946 938 935 918 915 915 915 918 920 920 920 923 923 925 928 928
    928 930 930 933 935 935 940 943 946 946 946 948 948 948 951 956 956
    959 959 959 959 962 964 967 970 970 970 973 975 978 978 981 981 987
    989 989 989 992 992 995 995 998 998 1001 1004 1007 1007 0 0 995 995
    970 967 959 946 938 935 918 915 915 915 915 918 920 920 923 923 925
    925 925 928 928 930 933 935 935 940 940 943 946 946 946 948 948 948
    954 956 956 959 959 959 962 964 967 967 967 970 970 973 975 978 981
    981 987 989 989 989 992 992 992 995 998 998 1001 1004 1004 1004 0 0
    992 984 970 964 962 948 940 935 920 913 913 913 915 918 918 920 920
    923 925 925 925 928 928 930 933 935 935 940 940 943 943 946 946 946
    948 948 954 956 956 956 956 959 962 964 964 967 967 970 970 970 973
    975 978 981 984 987 989 989 989 992 992 995 998 998 1001 1001 1001
    1004 0 0 992 984 970 964 962 954 954 954 913 913 913 913 915 918 918
    920 920 920 925 925 925 928 928 930 933 935 935 940 940 943 943 946
    946 946 948 948 954 956 956 956 956 959 962 964 964 964 967 970 970
    970 973 973 978 978 981 987 987 989 989 989 992 995 995 998 998 1001
    1001 1001 1001 0 995 995 995 995 964 964 964 1007 1013 1013 1013
    1022 920 920 920 920 920 920 925 925 928 928 930 933 933 935 938 943
    943 946 946 946 948 948 948 948 954 956 956 956 956 959 962 964 964
    964 967 967 970 970 970 973 978 978 981 984 984 987 989 989 989 992
    995 995 998 998 1001 1001 1001 0 998 998 1001 1007 1010 1010 1007
    1007 1013 1013 1013 1022 1019 1013 1013 1010 998 998 1001 0 0 0 0 0
    0 946 946 946 946 951 951 951 948 948 948 951 954 956 956 956 959
    959 959 962 964 964 967 967 970 970 970 973 975 978 981 981 981 984
    987 987 989 992 995 995 995 995 998 998 1001 0 1001 1001 1001 1007
    1007 1007 1007 1007 1013 1013 1019 1022 1019 1013 1013 1010 1007
    1007 1007 1007 0 0 0 0 0 0 0 0 0 959 956 956 956 967 970 970 956 956
    956 956 959 959 959 962 967 967 967 970 970 970 970 973 975 978 981
    981 981 984 987 987 989 992 992 995 995 995 998 998 1001 1001 1004
    1004 1004 1007 1007 1007 1007 1010 1013 1013 1019 1022 1019 1013
    1013 1010 1007 1007 1007 0 0 0 0 0 0 0 0 0 0 962 959 959 964 967 970
    0 0 0 0 0 0 959 959 962 967 967 970 970 973 973 973 975 975 978 981
    981 981 981 987 987 989 992 992 995 995 998 998 998 1001 1001 3433
    3433 1007 1007 1007 1007 1010 1013 1013 1016 1019 1022 1022 1022
    1019 1013 1013 1010 1010 1010 0 0 0 0 0 0 0 0 0 962 959 959 967 967
    967 0 0 0 0 0 0 0 0 0 970 970 973 973 973 973 978 978 978 978 978
    978 981 981 987 987 989 992 992 992 995 998 998 1001 1001 1001 3433
    3433 3433 0 0 0 0 0 0 0 1025 1025 1022 1022 1019 1016 1016 1016 1016
    2450 2450 0 0 0 0 0 0 0 0 0 0 0 967 962 962 0 0 0 0 0 0 0 0 0 981
    981 984 984 984 0 984 978 978 978 978 978 978 992 992 992 992 992
    992 992 995 995 998 1001 1001 1001</data></Depth6514>
</opencv_storage>
