<?xml version="1.0"?>
<opencv_storage>
<Depth7337 type_id="opencv-matrix">
  <rows>73</rows>
  <cols>44</cols>
  <dt>w</dt>
  <data>
    4582 4582 4582 4582 4582 4582 1833 1823 1823 1823 1823 1823 1823
    1766 1766 1632 3365 3365 3365 3365 3333 3333 3333 3333 3333 3333
    3333 3333 3365 3365 3365 3365 3333 3333 3365 3365 3365 3365 3365
    3365 3333 3333 3333 3365 4582 1813 1813 1804 1804 1813 1813 1813
    1813 1804 1785 1766 1766 1766 1766 1632 1632 1632 1632 1632 3333
    3333 3333 3333 3365 3365 3365 3365 3365 3365 3365 3365 3365 3365
    3365 3365 3365 3365 3365 3365 3333 3333 3333 3365 4582 1804 1804
    1804 1804 1804 1804 1804 1794 1776 1748 1739 1739 1739 1739 1632
    1632 1632 1632 1639 1639 3365 3365 3365 3365 3365 3365 3365 3399
    3333 3333 3365 3365 3365 3365 3365 3365 3365 3365 3365 3365 3333
    3333 3365 1804 1804 1794 1794 1785 1785 1785 1776 1766 1748 1731
    1722 1713 1696 1647 1632 1632 1632 1632 1632 1632 1639 3365 3365
    3365 3365 3365 3365 3365 3333 3333 3365 3365 3365 3365 3365 3365
    3365 3365 3365 3365 3333 3333 3365 1804 1794 1776 1776 1766 1766
    1766 1757 1748 1731 1713 1696 1688 1680 1639 1632 1632 1624 1624
    1624 1632 1632 1632 3365 3365 3333 3333 3333 3333 3333 3365 3365
    3365 3365 3365 3365 3365 3365 3365 3365 3365 3333 3333 3365 1804
    1785 1757 1757 1748 1748 1748 1739 1713 1696 1696 1688 1671 1663
    1639 1632 1632 1624 1624 1624 1632 1632 1632 3365 3365 3333 3333
    3333 3333 3365 3365 2467 2467 3365 3365 3365 3365 3365 3365 3365
    3365 3333 3333 3365 1731 1722 1713 1688 1671 1671 1671 1688 1680
    1671 1671 1671 1663 1639 1632 1632 1632 1624 1624 1624 1632 1632
    1632 1632 3365 3365 3365 3365 3365 3365 2485 2467 2467 3365 3365
    3365 3365 3365 3365 3365 3365 3333 3333 3365 1722 1713 1688 1671
    1655 1647 1647 1639 1632 1632 1624 1624 1624 1632 1632 1632 1632
    1624 1624 1624 1632 1632 1632 1632 1632 3365 3333 3333 3365 3333
    2467 2467 2467 2450 2432 2415 2415 3365 3365 3365 3365 3365 3365
    3365 1713 1713 1688 1663 1639 1632 1632 1632 1624 1624 1624 1624
    1624 1624 1624 1624 1624 1624 1624 1632 1632 1632 1632 1624 1624
    3365 3333 3333 3365 3333 2467 2450 2450 2432 2432 2415 2415 2415
    3399 3365 3365 3365 3365 3399 1713 1713 1663 1647 1616 1616 1624
    1624 1624 1624 1624 1624 1624 1624 1624 1624 1624 1624 1624 1632
    1632 1632 1624 1624 1624 1632 3365 3333 3333 3333 3300 2432 2432
    2432 2432 2415 2415 2415 2415 3365 3365 3365 3365 3399 1663 1663
    1663 1609 1601 1601 1609 1609 1616 1616 1624 1624 1624 1624 1624
    1624 1624 1624 1624 1632 1632 1632 1624 1624 1624 1632 1632 3333
    3333 3333 3300 2432 2432 2432 2432 2415 2415 2415 2415 3399 3365
    3365 3365 3399 0 1609 1609 1609 1601 1601 1609 1609 1609 1616 1616
    1624 1624 1624 1624 1624 1624 1624 1624 1632 1624 1624 1632 1632
    1632 1632 1632 3365 3365 3333 3333 3333 2415 2415 2432 2415 2415
    2415 2415 3399 3399 3365 3365 3433 4708 0 1609 1609 1601 1601 1609
    1609 1609 1616 1616 1624 1616 1616 1624 1624 1624 1624 1624 1632
    1624 1624 1632 1632 1632 1632 3399 3365 3365 3365 3365 3365 2415
    2415 2432 2415 2415 2415 2415 3365 3365 3365 3365 3433 4708 0 1609
    1609 1601 1601 1609 1609 1609 1616 1616 1616 1616 1616 1624 1624
    1624 1624 1624 1624 1624 1632 1632 1632 1632 1632 3399 3365 3365
    3365 3365 3365 3365 3365 3365 3365 2415 2415 3333 3333 3333 3365
    3365 3433 0 0 0 1616 1609 1609 1609 1616 1616 1616 1616 1616 1616
    1616 1624 1624 1624 1624 1624 1624 1624 1624 1632 1632 1632 1632
    3433 3365 3365 3365 3365 3365 3365 3365 3365 3365 3365 3333 3333
    3269 3269 3333 3365 3433 0 0 0 1616 1616 1616 1616 1616 1616 1616
    1609 1609 1616 1616 1624 1624 1624 1624 1624 1624 1624 1624 1632
    1632 1632 1632 1632 3365 3365 3365 3365 3365 3365 3365 3365 3365
    3365 3365 3399 3269 3269 3333 3365 3433 4708 0 0 0 0 1616 1616 1609
    1609 1609 1609 1609 1616 1616 1624 1624 1624 1624 1624 1624 1624
    1624 1632 1632 1632 1632 1632 1632 3365 3365 3365 3365 3365 3365
    3365 3365 3365 3365 3399 3399 3333 3333 3365 3433 4708 0 0 0 0 1632
    1616 1609 1609 1609 1616 1616 1616 1616 1624 1624 1624 1624 1624
    1624 1624 1624 1632 1632 1632 1632 1632 1632 3365 3365 3365 3365
    3365 3365 3365 3365 3365 3365 3399 3399 3468 3468 3433 3433 4645
    4645 0 0 0 1632 1616 1609 1609 1609 1616 1616 1624 1624 1624 1624
    1624 1624 1624 1624 1624 1624 1632 1632 1632 1624 1624 1624 1624
    3399 3399 3399 3399 3365 3365 3365 3365 3365 3433 3433 3468 3468
    3468 3399 4582 4582 0 0 1616 1616 1616 1601 1601 1601 1609 1616 1624
    1624 1624 1624 1624 1624 1624 1624 1624 1624 1624 1624 1632 1624
    1624 1624 1624 3399 3399 3399 3399 3365 3365 3365 3365 3399 3433
    3433 3468 3468 3468 3468 4582 4582 0 4582 0 0 0 1601 1601 1601 1609
    1616 1624 1624 1624 1624 1624 1624 1624 1624 1624 1624 1624 1624
    1632 1632 1624 1624 1632 1632 3399 3399 3399 3365 3365 3365 3365
    3399 3433 3468 3468 3468 3468 0 4582 4582 4582 4582 0 0 1609 1609
    1609 1609 1609 1616 1624 1624 1624 1624 1624 1624 1624 1624 1624
    1624 1624 1624 1632 1632 1624 1624 1632 1632 3399 3399 3399 3399
    3399 3399 3399 3433 3433 3433 3433 3468 3468 4463 4582 4582 4582
    4582 4582 4582 1609 1609 1609 1609 1609 1616 1624 1624 1624 1624
    1624 1624 1624 1624 1624 1624 1624 1624 1632 1632 1632 1632 1632
    1632 3433 3433 3433 3433 3433 3399 3399 3433 3433 3433 3433 4463
    4463 4463 4582 4582 4582 4582 4582 4582 1616 1616 1616 1616 1616
    1616 1624 1624 1624 1624 1624 1624 1624 1624 1624 1624 1624 1624
    1632 1632 1632 1632 1632 1632 3433 3433 3433 3433 3433 3433 3433
    3433 3433 3433 3433 4405 4405 4405 4645 4582 4582 4582 4582 4582
    1616 1616 1616 1616 1616 1616 1616 1616 1616 1616 1624 1624 1624
    1624 1624 1624 1624 1624 1632 1632 1632 1624 1624 1624 1624 3468
    3468 3468 3433 3433 3433 3433 3433 3433 4405 4405 4405 4405 4645
    4645 4582 4582 4582 4582 1609 1609 1609 1616 1609 1609 1609 1609
    1616 1616 1624 1624 1624 1624 1624 1624 1624 1632 1632 1632 1632
    1624 1624 1624 1624 3468 3468 3468 3468 3433 3433 3433 3433 3433
    3433 4405 4349 4349 4708 4645 4645 4582 4582 4582 1624 1609 1609
    1609 1609 1609 1609 1609 1609 1616 1616 1624 1624 1624 1624 1624
    1624 1624 1624 1632 1632 1624 1624 1624 1624 3468 3468 3468 3468
    3433 3433 3433 3433 3433 3433 4405 4349 4349 4708 4645 4645 4582
    4582 4582 1624 1616 1616 1609 1609 1609 1609 1609 1609 1616 1616
    1624 1624 1624 1624 1624 1624 1624 1624 1632 1632 1632 1624 1624
    1624 3468 3468 3468 3433 3433 3433 3433 3433 3468 3468 4405 4349
    4349 4708 4645 4645 4645 4645 0 1616 1616 1616 1609 1609 1609 1609
    1609 1616 1616 1616 1624 1624 1624 1624 1624 1624 1624 1624 1624
    1624 1624 1624 1624 1632 1632 3503 3468 3433 3433 3433 3433 3433
    3468 3468 4349 4349 4349 4708 4645 4645 4708 4708 4708 1616 1616
    1616 1616 1609 1609 1609 1609 1616 1616 1616 1624 1624 1624 1624
    1624 1624 1624 1624 1624 1624 1624 1632 1632 1632 1632 3468 3468
    3433 3433 3433 3433 3468 3468 3468 4349 4349 4349 4645 4645 4645
    4645 4708 4708 0 1624 1624 1624 1616 1616 1616 1616 1616 1624 1624
    1624 1624 1624 1624 1624 1624 1624 1624 1624 1624 1624 1632 1632
    1639 1647 1647 3468 3433 3433 3433 3433 3468 3468 3468 3468 3468
    3503 4645 4582 4582 4582 4645 4645 0 1624 1624 1624 1624 1616 1616
    1616 1616 1624 1624 1624 1624 1624 1624 1624 1624 1624 1624 1624
    1624 1624 1632 1632 1632 1639 1639 3468 3468 3468 3433 3433 3468
    3468 3468 3468 3468 3503 4645 4582 4582 4582 4645 4645 4774 4774
    1624 0 1624 1624 1624 1624 1624 1624 1624 1624 1624 1624 1624 1624
    1624 1624 1624 1624 1632 1632 1632 1632 1632 1639 1639 3468 3468
    3433 3433 3433 3468 3468 3503 3503 3503 3503 4645 4645 4645 4645
    4708 4708 4774 4774 0 0 1624 1624 1624 1624 1624 1624 1624 1624 1624
    1624 1624 1624 1624 1624 1624 1632 1632 1632 1632 1632 1632 1639
    1639 1639 3468 3433 3433 3468 3468 3503 3503 3503 3503 3503 4708
    4645 4645 4645 4708 4708 4774 0 4708 0 0 1624 1624 1624 1624 1624
    1616 1616 1616 1616 1624 1624 1624 1624 1624 1632 1632 1632 1632
    1632 1639 1639 1639 1639 3399 3399 3433 3468 3468 3503 3503 3503
    3503 3503 4708 4645 4645 4645 4708 4708 4708 4708 4708 0 0 1632 1632
    1624 1616 1616 1616 1616 1616 1616 1616 1624 1624 1624 1632 1632
    1632 1632 1632 1632 1632 1632 1639 1632 1632 3399 3433 3468 3468
    3503 3503 3468 3468 3503 4708 4708 4708 4774 4774 4774 4708 4645
    4645 0 0 0 1632 1624 1616 1616 1616 1616 1616 1616 1616 1624 1624
    1624 1632 1632 1632 1632 1632 1632 1632 1632 1639 1632 1632 1632
    3468 3468 3468 3468 3503 3468 3468 3503 4774 4774 4774 4774 4774
    4774 4708 4645 4645 4645 0 1632 1632 1624 1616 1616 1616 1616 1616
    1616 1616 1624 1624 1624 1624 1632 1632 1632 1632 1632 1632 1632
    1632 1632 1632 1632 3468 3468 3468 3468 3468 3468 3468 3503 4774
    4774 4774 4774 4774 4774 4708 4708 4708 4708 0 1624 1624 1624 1616
    1616 1616 1616 1616 1616 1616 1624 1624 1624 1624 1632 1632 1632
    1632 1632 1632 1632 1632 1632 1632 1632 3503 3468 3468 3468 3468
    3468 3468 3503 4842 4774 4774 4774 4774 4708 4582 4522 4522 4522 0 0
    0 1632 1624 1624 1616 1616 1616 1616 1616 1624 1624 1632 1632 1632
    1632 1632 1632 1632 1632 1632 1639 1632 1632 1632 1632 3468 3433
    3433 3433 3433 3433 3468 4842 4774 4774 4708 4582 4349 4349 4405
    4522 4522 4645 4645 1639 1639 1632 1624 1624 1624 1616 1616 1624
    1624 1624 1632 1632 1632 1632 1632 1632 1632 1632 1632 1639 1632
    1632 1632 1632 3433 3433 3399 3365 3365 3399 3399 4708 4582 4522
    4405 4349 4295 4295 4349 4463 4645 4645 4645 4645 1632 1632 1624
    1624 1624 1624 1624 1624 1624 1624 1624 1632 1632 1632 1632 1632
    1632 1632 1632 1639 1639 1632 1632 1639 3433 3399 3365 3365 3365
    3365 3399 4405 4405 4349 4295 4295 4295 4295 4349 4463 4582 4582
    4645 4645 1639 1639 1632 1624 1624 1624 1624 1624 1624 1624 1624
    1624 1632 1632 1632 1632 1632 1632 1632 1639 1639 1639 1639 1639
    1639 3365 3365 3365 3365 3365 3399 4349 4349 4295 4295 4295 4295
    4295 4349 4522 4582 4582 4645 4645 4645 1632 1632 1624 1624 1624
    1624 1624 1624 1624 1624 1624 1632 1632 1632 1632 1632 1632 1632
    1639 1639 1639 1639 1647 1647 3365 3365 3365 3365 3365 3399 4295
    4295 4295 4295 4241 4241 4241 4349 4645 4582 4582 4582 3614 0 1624
    1624 1624 1624 1624 1624 1624 1624 1624 1624 1624 1632 1632 1632
    1632 1632 1632 1632 1639 1647 1647 1647 1639 1639 3365 3365 3399
    3365 3365 3399 4295 4295 4295 4295 4241 4241 4241 4241 3539 3539
    3576 3614 3614 1671 1624 1624 1616 1616 1624 1624 1624 1624 1624
    1624 1624 1632 1632 1632 1632 1632 1632 1639 1639 1647 1647 1647
    1639 1639 1639 3399 3399 3365 3365 3399 4349 4349 4295 3539 3539
    3539 3539 3539 3539 3539 3576 3614 3614 1671 1671 1632 1616 1616
    1624 1624 1624 1624 1624 1624 1624 1624 1624 1632 1632 1632 1632
    1639 1639 1639 1639 1647 1647 1647 1647 3399 3365 3365 3365 3399
    3614 3614 3539 3539 3539 3539 3539 3539 3576 3576 3576 3576 3468
    3433 1671 1647 1632 1632 1624 1624 1624 1624 1624 1624 1624 1624
    1624 1632 1632 1632 1632 1639 1639 1639 1639 1639 1647 1647 1655
    3399 3365 3365 3365 3399 3614 3614 3539 3539 3539 3539 3539 3539
    3576 3576 3576 3576 3468 3433 3433 1647 1639 1632 1624 1624 1624
    1624 1624 1624 1624 1624 1624 1632 1632 1632 1632 1639 1639 1639
    1639 1639 1647 1647 1655 1655 3365 3365 3365 3399 3576 3576 3576
    3539 3539 3539 3503 3503 3576 3614 3614 3539 3539 3539 3539 3539
    1639 1639 1632 1624 1624 1624 1624 1624 1624 1624 1632 1632 1632
    1632 1632 1639 1639 1639 1639 1639 1639 1632 1632 1632 3365 3300
    3300 3365 3539 3539 3576 3539 3539 3539 3468 3468 3539 3539 3576
    3539 3539 3539 3539 3539 1647 1647 1632 1624 1624 1624 1624 1624
    1624 1632 1632 1624 1624 1632 1632 1639 1639 1639 1639 1639 1639
    1632 1632 1632 3365 3300 3300 3365 3539 3539 3576 3576 3539 3539
    3468 3468 3539 3539 3576 3539 3539 3539 3539 3539 3503 1632 1632
    1624 1624 1624 1624 1624 1632 1632 1632 1624 1624 1632 1639 1647
    1655 1647 1647 1647 1647 1647 1647 1647 1647 1655 0 0 3576 3576 3576
    3539 3539 3539 3503 3503 3576 3576 3576 3576 3539 3539 3503 3503
    3503 3503 1632 1632 1624 1624 1624 1624 1632 1632 1632 1632 1632
    1632 1647 1655 1655 1647 1647 1647 1647 1647 1647 1647 1647 1655 0 0
    3576 3576 3576 3539 3539 3539 3503 3503 3539 3539 3576 3576 3539
    3539 3468 3468 3468 1632 1632 1632 1632 1624 1624 1624 1632 1632
    1632 1632 1632 1632 1639 1647 1655 1655 1647 1647 1647 1655 1647
    1647 1655 1655 0 0 3576 3576 3576 3539 3539 3539 3503 3503 3539 3539
    3576 3539 3503 3503 3468 3468 0 0 1632 1632 1632 1624 1624 1624 1632
    1632 1632 1632 1632 1632 1639 1647 1647 1647 1647 1647 1647 1655
    1655 1655 1655 1655 0 0 3539 3539 3539 3539 3539 3539 3503 3503 3539
    3539 3539 3539 3503 3503 3468 3468 0 0 1632 1632 1632 1632 1632 1632
    1632 1632 1632 1632 1632 1639 1639 1647 1647 1647 1647 1655 1655
    1647 1647 1647 1655 1655 0 0 3539 3503 3503 3503 3539 3539 3503 3503
    3539 3539 3503 3503 3503 3503 0 0 0 0 0 1632 1632 1632 1624 1624
    1624 1632 1632 1632 1632 1639 1639 1639 1639 1647 1647 1655 1647
    1632 1632 1647 1663 1663 0 0 3539 3468 3468 3503 3576 3576 3576 3576
    3539 3539 3503 3503 3503 3503 0 0 0 0 0 1639 1632 1632 1624 1624
    1624 1632 1632 1632 1632 1632 1632 1639 1639 1647 1647 1647 1647
    1632 1632 1632 1776 0 0 0 3539 3468 3468 3503 3614 3653 3653 0 0 0 0
    3539 3539 0 0 0 0 0 0 1639 1632 1632 1624 1624 1624 1624 1624 1624
    1632 1632 1632 1632 1632 1632 1632 1647 1647 1776 1776 1776 1776
    1776 0 0 3539 0 0 0 0 0 0 0 0 0 0 0 0 0 0 0 0 0 0 0 1632 1632 1624
    1624 1624 1624 1624 1624 1632 1624 1624 1616 1616 1632 1632 1766
    1766 1766 1766 1766 1766 1776 1776 0 0 0 0 0 0 0 0 0 0 0 0 0 0 0 0 0
    0 0 0 0 1632 1632 1632 1624 1624 1624 1624 1624 1624 1616 1616 1616
    1616 1776 1766 1757 1757 1757 1757 1757 1757 1766 1766 0 0 0 0 0 0 0
    0 0 0 0 0 0 0 0 0 0 0 0 0 0 1639 1632 1632 1624 1624 1624 1624 1624
    1624 1616 1616 1616 1766 1766 1757 1748 1748 1739 1739 1748 1739
    1731 1731 0 0 0 0 0 0 0 0 0 0 0 0 0 0 0 0 0 0 0 0 0 1639 1639 1632
    1624 1624 1624 1624 1609 1609 1624 1766 1766 1757 1757 1739 1731
    1731 1722 1722 1722 1731 1722 1713 1713 0 0 0 0 0 0 0 0 0 0 0 0 0 0
    0 0 0 0 0 0 1647 1647 1632 1624 1624 1624 1616 1609 1609 1766 1757
    1757 1748 1748 1731 1731 1722 1722 1722 1713 1713 1722 1713 1713 0 0
    0 0 0 0 0 0 0 0 0 0 0 0 0 0 0 0 0 0 0 1794 1785 1624 1624 1624 1616
    1616 1739 1748 1748 1739 1731 1731 1713 1713 1713 1705 1705 1705
    1713 1722 1722 1705 0 0 0 0 0 0 0 0 0 0 0 0 0 0 0 0 0 0 0 0 1785
    1766 1766 1766 1757 1748 1739 1731 1731 1731 1731 1731 1722 1722
    1705 1705 1705 1705 1705 1705 1705 1722 1722 1705 0 0 0 0 0 0 0 0 0
    0 0 0 0 0 0 0 0 0 0 0 1785 1757 1748 1748 1739 1731 1731 1722 1722
    1722 1722 1713 1705 1705 1705 1705 1696 1696 1696 1696 1705 1722
    1722 1705 0 0 0 0 0 0 0 0 0 0 0 0 0 0 0 0 0 0 0 0 1748 1748 1739
    1739 1731 1722 1713 1705 1705 1705 1696 1696 1696 1696 1696 1696
    1696 1696 1696 1696 1705 1722 1722 1722 0 0 0 0 0 0 0 0 0 0 0 0 0 0
    0 0 0 0 0 0 1731 1731 1731 1722 1722 1713 1705 1696 1696 1696 1696
    1696 1696 1696 1696 1696 1696 1696 1696 1696 1713 1722 1713 1713 0 0
    0 0 0 0 0 0 0 0 0 0 0 0 0 0 0 0 0 0 1731 1731 1722 1713 1705 1696
    1696 1696 1696 1696 1696 1696 1696 1696 1696 1696 1696 1696 1696
    1696 1713 1722 1713 1713 0 0 0 0 0 0 0 0 0 0 0 0 0 0 0 0 0 0 0 0 0 0
    1722 1713 1705 1696 1688 1688 1696 1696 1696 1696 1696 1696 1696
    1696 1696 1696 1696 1696 1713 1722 1722 1722 0 0 0 0 0 0 0 0 0 0 0 0
    0 0 0 0 0 0 0 0 0 0 1722 1705 1696 1688 1688 1688 1688 1696 1696
    1696 1696 1696 1696 1696 1696 1696 1696 1696 1696 1722 2116 2116 0 0
    0 0 0 0 0 0 0 0 0 0 0 0 0 0 0 0 0 0 0 0 0 1705 1696 1688 1688 1688
    1688 1688 1688 1696 1696 1696 1696 1696 1705 1705 1705 1705 1722 0 0
    2116</data></Depth7337>
</opencv_storage>
