<?xml version="1.0"?>
<opencv_storage>
<Depth3963 type_id="opencv-matrix">
  <rows>164</rows>
  <cols>76</cols>
  <dt>w</dt>
  <data>
    6753 6753 6753 6753 6889 6889 6889 6753 6753 6753 6889 6753 6753
    6753 6753 6753 6889 6889 0 0 0 0 0 572 572 572 7030 7030 7030 569
    569 7030 7030 569 569 6889 569 569 568 567 566 565 565 565 0 0 0 0 0
    0 0 0 0 0 0 0 0 0 0 0 0 0 7030 7030 7030 7030 7030 7030 7030 6889
    6889 6889 6889 7030 6889 6889 6753 6622 6622 6753 6889 6889 6889
    6889 6889 6889 574 572 572 572 6889 6889 6889 0 572 572 572 0 572
    572 572 572 570 569 569 569 569 569 569 569 568 568 568 568 568 567
    566 565 565 565 0 0 0 0 0 0 0 0 0 0 0 0 0 0 0 0 0 0 7030 7030 7030
    7030 7030 7030 7030 7030 7030 7030 7030 7030 6889 6889 6753 6622
    6622 6753 6753 576 576 574 574 574 574 572 572 572 573 573 573 572
    572 572 572 572 572 572 572 569 569 569 569 569 569 569 568 568 568
    568 568 568 567 567 567 566 565 565 0 0 0 0 0 0 0 0 0 0 0 0 0 0 0 0
    0 0 7178 7030 7030 7030 7030 7030 7030 7030 7030 7030 7030 7030 7030
    7030 579 579 579 576 576 576 576 574 574 574 574 573 572 572 573 573
    573 572 572 572 572 572 572 572 572 569 569 569 569 569 569 569 568
    568 568 568 568 568 567 567 567 566 565 565 0 0 0 0 0 0 0 0 0 0 0 0
    0 0 0 0 0 0 0 7030 7030 7030 7030 7030 7030 7030 7030 7030 7030 7030
    7030 7030 578 577 576 576 575 574 574 574 574 575 574 573 573 573
    573 573 573 572 572 572 572 572 572 572 571 570 570 569 569 569 569
    569 568 568 568 568 568 568 567 567 567 566 565 565 0 0 0 0 0 0 0 0
    0 0 0 0 0 0 0 0 0 0 0 7030 7030 7030 7030 7030 7030 7030 7030 7030
    7030 7030 7030 7030 578 577 576 575 575 574 574 574 574 574 574 573
    573 573 573 573 573 572 572 573 573 572 572 572 571 570 570 569 569
    570 570 569 568 568 568 568 568 568 568 567 566 566 566 566 0 0 0 0
    0 0 0 0 0 0 0 0 0 0 0 0 0 0 0 7030 7030 7030 7030 7030 7030 7030
    7030 7030 7030 7030 7030 6889 578 577 576 575 575 574 574 574 574
    574 574 573 573 573 573 573 573 573 573 573 573 573 572 572 571 571
    571 571 571 571 570 569 569 568 568 568 568 568 568 567 566 566 566
    566 0 0 0 0 0 0 0 0 0 0 0 0 0 0 0 0 0 0 0 6889 6889 6889 6889 7030
    7030 7030 7030 7030 7030 7030 7030 6889 578 577 577 576 575 575 575
    574 574 574 574 574 574 574 573 573 573 573 573 573 573 573 573 572
    572 571 571 571 571 571 570 569 569 569 569 569 569 569 568 567 566
    566 566 566 0 0 0 0 0 0 0 0 0 0 0 0 0 0 0 0 0 0 0 6889 6889 6889
    6889 7030 7030 7030 7030 7030 7030 7030 7030 6889 578 578 577 576
    576 575 575 575 574 574 574 574 574 574 574 573 573 573 573 573 573
    573 573 572 572 572 571 571 571 571 571 569 569 569 569 569 569 569
    568 568 568 568 568 568 0 0 0 0 0 0 0 0 0 0 0 0 0 0 0 0 0 0 0 6889
    6889 6889 7030 7030 7030 7030 7030 7030 7030 7030 7030 7030 578 578
    577 576 576 576 576 575 574 574 574 574 574 574 574 574 574 574 573
    573 573 573 573 572 572 572 571 571 571 571 571 569 569 569 569 569
    569 569 568 568 568 568 568 568 0 0 0 0 0 0 0 0 0 0 0 0 0 0 0 0 0 0
    0 0 6889 6889 7030 7030 7030 7030 7030 7030 7030 7030 7030 7030 578
    578 577 577 577 577 576 576 574 574 575 575 574 574 575 575 575 574
    574 573 573 573 573 573 572 572 572 572 572 571 571 570 570 569 569
    569 569 569 568 568 568 568 568 568 0 0 0 0 0 0 0 0 0 0 0 0 0 0 0 0
    0 0 0 0 7030 7030 7030 7030 7030 7178 7030 7030 7030 7030 6889 6889
    579 578 578 577 577 577 577 576 576 575 575 575 575 575 575 575 575
    574 574 573 573 573 573 573 572 572 572 572 572 572 571 570 570 569
    569 569 570 569 568 568 568 568 568 568 0 0 0 0 0 0 0 0 0 0 0 0 0 0
    0 0 0 0 0 0 6889 6889 7030 7030 7178 7178 7030 7030 7030 7030 6889
    6889 0 579 579 578 578 578 577 577 577 576 576 575 575 575 576 576
    575 575 575 573 573 573 573 573 572 572 572 572 572 572 571 570 570
    570 570 570 570 569 568 568 568 568 568 568 568 0 0 0 0 0 0 0 0 0 0
    0 0 0 0 0 0 0 0 0 6889 6889 7030 7030 7030 7030 7030 7030 7030 7030
    7030 7030 581 580 579 579 579 578 577 577 577 576 576 575 575 575
    576 576 576 576 575 574 573 573 573 573 572 572 572 572 572 571 571
    571 571 571 571 570 570 570 569 568 568 568 568 568 568 0 0 0 0 0 0
    0 0 0 0 0 0 0 0 0 0 0 0 0 7030 7030 7030 7030 7030 7030 7030 7030
    7030 7030 7030 7030 580 580 580 579 579 578 578 577 577 577 577 575
    575 576 576 576 576 576 575 574 574 573 573 572 572 572 572 572 572
    571 571 571 571 571 571 571 570 570 569 568 568 568 568 568 569 0 0
    0 0 0 0 0 0 0 0 0 0 0 0 0 0 0 0 0 7030 7030 7030 7030 7030 7030 7030
    7030 7030 7030 7030 7030 580 580 579 579 579 578 578 577 577 576 576
    576 576 576 577 576 576 576 575 575 574 574 573 572 572 572 572 572
    572 571 571 571 571 571 572 572 571 569 569 568 568 568 568 568 569
    0 0 0 0 0 0 0 0 0 0 0 0 0 0 0 0 0 0 0 7030 7030 7030 7030 7030 7030
    7030 7030 7030 7030 7030 7030 580 580 579 579 579 579 578 578 577
    576 576 576 576 576 577 576 576 576 576 575 574 574 573 572 572 572
    572 572 572 571 571 571 571 571 572 572 569 569 568 568 568 568 568
    568 569 0 0 0 0 0 0 0 0 0 0 0 0 0 0 0 0 0 0 0 7030 7030 7030 7030
    7030 7030 7030 7030 7030 7030 7030 7030 581 580 580 579 579 579 578
    578 578 577 576 576 576 576 577 576 576 576 576 575 574 574 573 572
    572 572 572 572 572 572 572 572 572 570 570 571 569 569 568 568 568
    568 568 568 569 0 0 0 0 0 0 0 0 0 0 0 0 0 0 0 0 0 0 0 7030 7030 7030
    7030 7030 7030 7030 7030 7030 7030 7030 7030 0 580 580 580 579 579
    579 578 578 577 577 576 576 576 577 576 576 576 576 576 574 574 573
    573 572 572 572 572 572 572 572 572 572 570 570 571 570 570 570 569
    568 568 569 569 569 0 0 0 0 0 0 0 0 0 0 0 0 0 0 0 0 0 0 0 0 6889
    6889 6889 6889 7030 7030 7030 7030 7030 7030 7030 0 580 580 580 580
    579 579 578 578 578 577 576 576 576 577 576 576 576 576 576 575 575
    573 573 572 572 572 572 572 572 572 572 572 571 571 571 570 570 570
    570 568 568 569 569 569 0 0 0 0 0 0 0 0 0 0 0 0 0 0 0 0 0 0 0 0 6889
    6889 6889 6889 7030 7030 7030 7030 7030 7030 7030 0 0 580 580 580
    579 579 578 578 578 578 577 576 576 577 577 577 576 576 576 575 575
    573 573 573 572 572 573 573 573 572 572 572 571 571 571 570 570 570
    570 570 569 569 569 570 0 0 0 0 0 0 0 0 0 0 0 0 0 0 0 0 0 0 0 0 0
    7030 7030 7030 7030 7030 7030 7030 7030 7030 7030 0 0 580 580 580
    579 579 578 578 578 578 577 576 576 577 577 577 576 576 576 576 576
    574 573 573 573 573 573 573 573 573 573 572 571 571 570 570 571 571
    571 572 569 569 569 569 569 0 0 0 0 0 0 0 0 0 0 0 0 0 0 0 0 0 0 0 0
    7030 7030 7030 7030 7030 7030 7030 7030 7030 7030 0 0 580 580 580
    579 579 578 578 578 578 577 577 577 577 577 577 577 577 577 576 576
    576 576 576 573 573 573 573 573 573 573 572 572 572 570 570 571 570
    570 572 570 569 569 569 569 0 0 0 0 0 0 0 0 0 0 0 0 0 0 0 0 0 0 0 0
    7178 7030 7030 7030 7178 7030 7030 7030 7030 7030 0 0 580 580 580
    579 579 579 578 578 578 577 577 577 577 577 577 577 577 577 577 576
    576 575 575 576 575 574 573 573 573 573 572 572 572 571 571 571 570
    570 572 572 570 570 570 570 0 0 0 0 0 0 0 0 0 0 0 0 0 0 0 0 0 0 0 0
    7030 7030 7030 7030 7030 7030 7030 7030 7030 7030 0 0 0 580 580 580
    579 579 578 578 578 578 578 578 578 577 577 577 577 577 577 576 576
    575 575 575 576 574 574 574 573 573 573 573 572 572 572 572 572 572
    572 572 570 570 570 570 570 0 0 0 0 0 0 0 0 0 0 0 0 0 0 0 0 0 0 0
    7030 7030 7030 7030 7030 7030 7030 7030 7030 7030 0 0 0 580 580 580
    580 579 579 579 579 578 578 578 578 578 577 577 577 577 577 576 576
    576 575 575 576 576 575 575 574 574 573 573 573 573 574 574 574 572
    573 571 570 570 570 569 569 0 0 0 0 0 0 0 0 0 0 0 0 0 0 0 0 0 0 0
    6889 6889 6889 7030 7030 7030 7030 7030 7030 7030 0 0 0 583 581 581
    580 580 579 579 579 579 578 578 578 577 577 578 577 577 576 576 576
    576 575 575 576 576 575 575 573 573 573 573 572 572 573 573 571 572
    573 571 571 570 570 569 569 0 0 0 0 0 0 0 0 0 0 0 0 0 0 0 0 0 0 0
    6889 6889 6889 7030 7030 7030 7030 7030 7030 7030 0 0 0 582 581 580
    580 580 579 579 579 579 578 578 578 577 577 577 577 577 576 576 576
    576 575 575 576 576 575 575 573 573 573 573 572 572 571 571 571 572
    573 572 571 570 570 570 570 0 0 0 0 0 0 0 0 0 0 0 0 0 0 0 0 0 0 0
    7030 7030 7178 7030 7030 7030 7030 7030 7030 7030 0 0 0 582 581 580
    580 580 579 579 579 579 578 578 578 577 577 577 577 577 577 577 576
    576 576 576 576 576 575 575 573 573 573 573 572 572 571 571 571 572
    573 572 572 571 571 571 571 0 0 0 0 0 0 0 0 0 0 0 0 0 0 0 0 0 0 0 0
    7030 7030 7030 7030 7030 7030 7030 7030 7030 0 0 0 583 582 580 580
    580 580 579 579 579 578 578 578 577 577 577 577 577 578 577 577 577
    576 576 576 576 575 575 573 573 573 573 572 571 571 570 570 572 573
    572 572 571 571 571 571 0 0 0 0 0 0 0 0 0 0 0 0 0 0 0 0 0 0 0 0 7030
    7030 7030 7030 7030 7030 7030 7030 7030 0 0 0 583 582 580 580 580
    580 580 579 579 579 579 578 578 579 577 577 579 578 577 577 577 576
    576 576 576 575 574 573 573 573 573 573 571 571 570 570 572 572 572
    572 572 571 571 571 0 0 0 0 0 0 0 0 0 0 0 0 0 0 0 0 0 0 0 0 7030
    7030 7030 7030 7030 7030 7030 7030 7030 0 0 0 584 582 581 581 580
    580 580 579 579 579 579 580 579 579 579 579 578 578 578 577 577 577
    577 576 576 575 574 574 574 573 573 573 573 573 572 572 572 572 572
    571 571 571 571 571 572 0 0 0 0 0 0 0 0 0 0 0 0 0 0 0 0 0 0 0 7030
    7030 7030 7030 7030 7030 7030 7030 7030 0 0 0 584 582 582 582 581
    581 580 579 579 579 579 580 580 580 579 579 578 578 578 577 577 577
    577 576 576 575 575 574 574 573 573 573 573 573 572 572 572 572 571
    571 571 571 571 571 572 0 0 0 0 0 0 0 0 0 0 0 0 0 0 0 0 0 0 7030
    7030 7030 7030 7030 7030 7030 7030 7030 7030 0 0 0 584 582 582 582
    582 581 580 580 579 579 580 581 581 580 579 579 578 578 578 577 577
    577 577 576 576 576 575 575 575 574 574 573 573 573 573 573 573 573
    572 571 571 571 571 571 572 572 0 0 0 0 0 0 0 0 0 0 0 0 0 0 0 0 0
    7030 7030 7030 7030 7030 7030 7030 7030 7030 7030 0 0 0 0 582 582
    582 582 580 580 580 579 579 580 581 581 580 579 579 578 578 577 577
    577 578 578 577 576 576 576 576 575 575 575 574 574 574 573 573 573
    573 572 571 569 569 571 571 572 572 0 0 0 0 0 0 0 0 0 0 0 0 0 0 0 0
    0 7178 7178 7178 7030 7030 7030 7030 7030 7030 7030 0 0 0 0 0 583
    583 582 580 580 580 579 579 580 581 580 580 579 579 579 578 577 577
    577 577 577 577 577 576 576 576 576 575 575 574 574 574 573 573 574
    573 573 572 569 569 572 572 572 572 0 0 0 0 0 0 0 0 0 0 0 0 0 0 0 0
    0 7178 7178 7178 7030 7030 7030 7030 7030 7030 7030 0 0 0 0 0 583
    583 582 581 580 580 580 580 580 581 580 580 579 579 579 578 577 577
    577 577 576 576 577 577 576 576 576 575 575 575 574 574 573 573 573
    573 573 573 572 572 572 572 572 572 0 0 0 0 0 0 0 0 0 0 0 0 0 0 0 0
    0 0 7030 7030 7030 7178 7030 7030 7030 7030 7030 0 0 0 0 0 583 583
    582 582 581 581 581 580 580 581 580 580 580 580 579 578 578 577 577
    577 576 576 576 576 576 577 576 575 575 575 574 574 574 574 573 573
    573 573 572 572 572 572 572 572 0 0 0 0 0 0 0 0 0 0 0 0 0 0 0 0 0 0
    7030 7030 7030 7030 7030 7030 7030 7030 7030 0 0 0 0 0 583 583 582
    582 581 581 581 581 581 581 580 580 580 580 580 580 579 578 578 577
    576 576 576 576 576 576 576 576 575 575 574 574 573 573 573 573 573
    573 573 572 572 572 572 573 573 0 0 0 0 0 0 0 0 0 0 0 0 0 0 0 0 0
    7030 7030 7030 7030 7030 7030 7030 7030 7030 0 0 0 0 0 583 583 582
    582 582 581 581 581 581 581 581 580 580 580 580 580 579 578 578 577
    577 578 578 577 576 576 577 576 576 575 574 574 573 573 573 573 573
    573 573 572 572 572 572 572 573 0 0 0 0 0 0 0 0 0 0 0 0 0 0 0 0 0
    7030 7030 7030 7030 7030 7030 7030 7030 7030 0 0 0 0 0 583 583 583
    583 582 581 581 581 581 581 581 581 580 580 580 580 579 578 578 578
    578 578 578 578 577 577 577 576 576 576 575 574 574 574 573 573 573
    573 573 572 572 572 572 572 573 573 0 0 0 0 0 0 0 0 0 0 0 0 0 0 0 0
    7030 7030 7030 7030 7030 7030 7030 7030 7030 0 0 0 0 0 583 583 583
    583 582 582 582 581 581 581 581 581 581 580 580 580 579 579 578 578
    578 578 578 577 577 577 577 576 576 576 576 575 575 574 574 574 573
    573 573 573 572 572 572 572 572 572 0 0 0 0 0 0 0 0 0 0 0 0 0 0 0 0
    7030 7030 7030 7030 7030 7030 7030 7030 7030 0 0 0 0 0 584 584 583
    583 583 583 582 581 581 581 581 581 581 581 580 580 580 579 579 579
    578 578 578 577 577 577 577 577 577 576 576 576 575 574 574 574 573
    573 573 573 572 572 572 572 572 572 0 0 0 0 0 0 0 0 0 0 0 0 0 0 0 0
    7030 7030 7030 7030 7030 7030 7030 7030 7030 0 0 0 0 0 584 584 584
    584 583 583 582 582 582 581 581 581 581 581 581 580 580 579 579 579
    578 578 577 577 577 577 577 577 577 576 576 576 575 574 573 573 573
    573 573 573 573 573 573 572 572 0 0 0 0 0 0 0 0 0 0 0 0 0 0 0 0 0 0
    7030 7030 7030 7030 7030 7030 7030 7030 0 0 0 0 0 585 584 584 584
    583 583 583 582 582 583 582 581 581 581 581 580 580 579 579 579 578
    578 577 577 577 577 577 577 577 577 576 576 575 575 573 573 573 573
    573 573 573 573 573 573 573 0 0 0 0 0 0 0 0 0 0 0 0 0 0 0 0 0 0 7030
    7030 7030 7030 7030 7030 7030 7030 0 0 0 0 0 585 584 584 584 583 583
    583 583 583 583 582 581 581 581 581 580 580 579 579 579 579 578 578
    577 577 577 577 577 577 577 577 576 576 575 575 575 574 574 574 574
    573 573 573 573 573 0 0 0 0 0 0 0 0 0 0 0 0 0 0 0 0 0 0 7030 7030
    7030 7030 7030 7030 7030 7030 0 0 0 0 0 585 584 584 584 584 584 583
    583 583 584 582 581 581 581 581 581 580 580 580 580 579 579 578 577
    577 577 577 577 578 577 577 576 576 574 574 575 575 575 575 575 573
    573 573 573 574 576 0 0 0 0 0 0 0 0 0 0 0 0 0 0 0 0 0 7030 7030 7030
    7030 7030 7030 7030 7030 0 0 0 0 0 0 585 584 584 584 584 583 583 583
    584 583 582 582 581 581 581 581 580 580 580 580 580 579 578 577 577
    577 577 578 577 577 576 576 574 574 576 575 575 575 575 574 573 573
    574 575 575 575 0 0 0 0 0 0 0 0 0 0 0 0 0 0 0 0 7030 7030 7030 7030
    7030 7030 7030 7030 0 0 0 0 0 0 585 584 584 584 583 583 583 583 584
    583 583 582 581 581 581 581 580 580 580 580 580 580 579 578 577 577
    577 578 578 578 577 577 576 576 576 575 575 575 575 575 575 575 575
    575 575 575 575 0 0 568 568 0 0 0 0 0 0 0 0 0 0 0 7030 7030 7030
    7030 7030 7030 7030 7030 0 0 0 0 0 0 585 584 584 584 583 583 583 583
    584 583 583 582 582 582 581 581 580 580 580 580 580 580 579 578 578
    577 577 578 578 578 577 577 577 577 576 575 575 575 576 575 575 575
    575 575 575 575 573 573 571 568 568 0 0 0 0 0 0 0 0 0 0 0 7030 7030
    7030 7030 7030 7030 7030 7030 0 0 0 0 0 0 585 584 584 584 583 583
    583 583 584 583 583 583 582 582 581 581 580 580 580 580 580 580 580
    578 578 578 578 578 578 578 577 577 577 577 576 576 575 575 575 576
    576 576 575 575 575 575 573 573 571 568 568 0 0 0 0 0 0 0 0 0 0 0
    7030 7030 7178 7030 7030 7030 7030 7030 0 0 0 0 0 0 585 584 584 584
    584 584 583 583 584 584 584 583 582 582 582 581 581 580 580 580 580
    580 580 579 579 579 579 579 578 578 578 577 577 577 576 576 575 575
    575 575 575 575 575 575 575 575 574 573 573 570 570 0 0 0 0 0 0 0 0
    0 0 0 7178 7030 7030 7030 7030 7030 7030 7030 0 0 0 0 0 0 0 584 584
    584 584 584 583 583 584 584 584 584 583 583 582 581 581 580 580 580
    580 580 580 580 579 579 579 579 579 579 578 577 577 577 577 576 576
    576 576 576 575 575 575 575 575 575 574 573 573 570 570 0 0 0 0 0 0
    0 0 0 0 0 7030 7030 7030 7030 7030 7030 7030 7030 0 0 0 0 0 0 0 585
    584 584 584 584 584 584 584 584 584 584 583 583 583 582 582 581 580
    580 581 581 581 580 580 580 580 579 579 579 578 578 577 577 577 576
    576 576 576 576 575 575 575 575 575 575 574 573 573 572 572 0 0 0 0
    0 0 0 0 0 0 0 7030 7030 7030 7030 7030 7030 7030 7030 0 0 0 0 0 0 0
    586 584 584 584 584 584 584 585 584 584 584 584 583 583 583 583 582
    581 581 581 581 581 581 580 580 580 579 579 579 579 578 578 577 577
    577 577 577 576 576 575 575 575 575 576 576 574 574 573 571 571 0 0
    0 0 0 0 0 0 0 0 0 0 7030 7030 7030 7030 7030 7030 7030 0 0 0 0 0 0 0
    586 585 585 585 585 585 585 585 585 585 584 584 583 583 582 582 583
    582 582 582 581 581 581 580 580 580 580 580 580 579 579 578 577 577
    577 577 577 576 576 575 575 575 576 576 576 576 575 573 571 571 0 0
    0 0 0 0 0 0 0 0 0 0 0 7030 7030 7030 7030 7030 7030 0 0 0 0 0 0 0 0
    586 586 586 586 586 585 585 585 585 584 584 583 583 582 582 583 582
    582 582 581 581 581 581 581 580 580 580 580 580 580 578 577 577 578
    578 578 577 577 576 575 575 576 576 576 576 576 573 573 573 0 0 0 0
    0 0 0 0 0 0 0 0 0 7030 7030 7030 7030 7030 7030 0 0 0 0 0 0 0 0 587
    587 586 586 586 586 585 585 585 585 584 584 583 582 582 583 583 583
    582 581 581 582 582 582 581 581 580 580 580 580 578 578 578 578 578
    578 577 577 576 575 575 576 576 577 577 577 574 574 574 0 0 0 0 0 0
    0 0 0 0 0 0 0 7178 7030 7030 7030 7030 7030 0 0 0 0 0 0 0 0 587 587
    587 587 586 586 586 585 585 585 585 584 583 583 583 583 583 583 582
    582 582 582 582 582 581 581 580 580 580 580 579 579 579 579 578 578
    577 577 576 576 576 576 576 577 577 577 574 574 573 573 0 0 0 0 0 0
    0 0 0 0 0 0 0 7178 7178 7030 7030 7030 0 0 0 0 0 0 0 0 588 587 587
    587 586 586 586 585 585 585 585 584 583 583 583 583 583 583 582 582
    582 582 582 582 581 581 581 580 580 580 580 580 579 579 578 578 577
    577 577 577 577 577 577 578 578 577 574 574 573 573 0 0 0 0 0 0 0 0
    0 0 0 0 5832 5832 5832 5933 5933 7030 0 0 0 0 0 0 0 0 587 587 587
    587 586 586 586 585 585 585 585 584 583 583 584 584 583 583 582 582
    582 582 582 582 581 581 581 580 580 580 580 580 580 579 579 578 578
    577 577 577 577 577 577 578 577 577 575 575 575 575 0 0 0 0 0 0 0 0
    0 0 0 0 5832 5832 5832 5640 5291 5291 0 0 0 0 0 0 0 0 587 587 587
    587 586 586 586 586 586 586 585 584 584 584 584 584 583 583 582 582
    582 582 582 582 581 581 581 581 581 580 580 580 580 580 579 579 578
    577 577 577 578 577 577 578 577 577 576 576 576 576 0 0 0 0 0 0 0 0
    0 0 0 0 5933 5832 5832 5640 5291 5291 0 0 0 0 0 0 0 0 0 587 587 587
    586 586 587 586 586 586 585 584 584 584 584 584 584 583 582 582 582
    582 582 582 582 582 582 581 581 580 580 580 580 579 579 579 578 578
    578 578 578 577 577 578 578 578 577 576 576 574 574 0 0 0 0 0 0 0 0
    0 0 0 0 5933 5832 5734 5548 5460 0 0 0 0 0 0 0 0 0 587 587 587 587
    587 587 586 586 586 586 584 584 584 584 585 584 584 583 582 582 582
    582 582 582 582 582 582 581 580 580 580 579 579 579 579 578 578 578
    578 578 577 577 578 578 578 577 576 576 574 574 0 0 0 0 0 0 0 0 0 0
    0 0 0 5832 5734 5640 5548 0 0 0 0 0 0 0 0 0 587 587 587 587 587 587
    587 586 586 585 585 585 585 585 585 584 584 583 583 583 583 583 583
    582 582 582 582 581 581 580 580 579 579 579 579 578 578 578 578 578
    577 577 577 578 578 577 577 576 575 575 0 0 0 0 0 0 0 0 0 0 0 0 0 0
    0 5640 5548 0 0 0 0 0 0 0 0 0 588 587 587 587 587 588 587 586 586
    585 585 585 585 585 585 584 584 584 583 583 583 583 583 582 582 582
    581 581 581 580 580 580 579 579 579 579 579 579 579 578 577 577 577
    577 577 577 577 576 575 575 0 0 0 0 0 0 0 0 0 0 0 0 0 0 0 5734 5640
    0 0 0 0 0 0 0 0 0 588 588 588 587 587 588 587 586 586 586 586 585
    585 585 585 584 584 584 584 584 584 584 583 582 582 582 581 581 581
    581 581 580 580 580 580 579 579 579 579 578 577 577 577 577 577 577
    577 577 576 576 0 0 0 0 0 0 0 0 0 0 0 0 0 0 0 0 0 0 0 0 0 0 0 0 0 0
    0 588 588 588 588 588 587 586 586 586 586 586 585 585 585 585 584
    584 584 584 584 584 584 582 582 582 582 581 581 581 581 580 580 580
    580 579 579 579 579 578 578 578 577 577 577 577 577 577 576 576 0 0
    0 0 0 0 0 0 0 0 0 0 0 0 0 0 0 0 0 0 0 0 0 0 0 0 588 588 588 588 588
    588 588 587 587 587 587 586 586 585 585 585 584 584 584 584 584 584
    584 583 583 582 582 582 581 581 581 580 580 580 580 580 580 579 579
    579 578 578 578 578 578 578 577 577 577 577 0 0 0 0 0 0 0 0 0 0 0 0
    0 0 0 0 0 0 0 0 0 0 0 0 0 0 588 588 588 588 588 588 588 587 587 588
    588 586 586 585 585 585 585 585 584 584 584 584 584 584 584 583 583
    582 581 581 581 580 580 580 580 580 580 579 579 579 579 578 578 579
    578 578 577 577 577 576 576 0 0 0 0 0 0 0 0 0 0 0 0 0 0 0 0 0 0 0 0
    0 0 0 0 0 588 588 588 588 588 588 588 588 588 588 588 587 586 585
    585 585 585 585 584 584 584 584 584 584 584 584 583 582 582 581 581
    581 581 580 580 580 580 579 579 579 579 578 578 579 579 578 577 577
    577 576 576 0 0 0 0 0 0 0 0 0 0 0 0 0 0 0 0 0 0 0 0 0 0 0 0 0 0 588
    588 588 588 589 588 588 588 588 588 588 587 586 586 586 585 585 585
    585 585 584 584 584 584 584 583 582 582 582 582 582 581 581 580 580
    580 580 580 579 579 579 579 579 579 579 578 577 577 577 577 0 0 0 0
    0 0 0 0 0 0 0 0 0 0 0 0 0 0 0 0 0 0 0 0 0 0 590 589 589 589 589 589
    589 588 588 588 588 588 586 586 586 585 585 585 585 585 585 585 584
    584 584 583 583 582 582 582 582 581 581 580 580 580 580 580 580 579
    579 579 579 580 579 578 578 577 577 577 0 0 0 0 0 0 0 0 0 0 0 0 0 0
    0 0 0 0 0 0 0 0 0 0 0 0 590 590 589 589 589 589 589 589 589 589 588
    588 586 586 586 586 586 586 585 585 585 585 585 584 584 583 583 583
    582 582 582 582 582 581 581 581 580 580 580 579 579 579 579 580 580
    579 578 577 577 578 0 0 0 0 0 0 0 0 0 0 0 0 0 0 0 0 0 0 0 0 0 0 0 0
    0 0 591 590 590 590 590 589 589 589 589 589 588 587 587 587 586 586
    586 586 586 585 585 585 585 585 584 584 583 583 582 582 582 582 582
    581 581 581 581 580 580 580 580 579 579 580 580 579 579 578 578 578
    0 0 0 0 0 0 0 0 0 0 0 0 0 0 0 0 0 0 0 0 0 0 0 0 0 0 0 590 590 590
    590 589 589 589 589 589 588 587 587 587 586 586 586 586 586 585 585
    585 585 585 585 584 583 583 583 583 583 583 583 582 582 581 581 581
    580 580 580 580 580 580 580 579 579 578 578 579 0 0 0 0 0 0 0 0 0 0
    0 0 0 0 0 0 0 0 0 0 0 0 0 0 0 0 0 589 589 590 590 590 589 589 589
    589 588 588 588 587 587 586 586 586 586 586 586 585 585 585 585 584
    584 583 583 583 583 583 583 582 582 581 581 581 581 581 580 580 580
    580 580 580 580 579 579 579 579 0 0 0 0 0 0 0 0 0 0 0 0 0 0 0 0 0 0
    0 0 0 0 0 0 0 0 589 589 590 590 590 589 589 589 589 589 589 588 588
    587 586 586 586 586 586 586 586 585 585 585 584 584 584 584 584 583
    583 583 582 582 582 582 582 581 581 581 580 580 580 580 580 580 579
    579 579 579 0 0 0 0 0 0 0 0 0 0 0 0 0 0 0 0 0 0 0 0 0 0 0 0 0 0 590
    590 590 590 590 590 589 589 589 589 589 588 588 587 587 587 586 586
    586 586 586 585 585 585 584 584 584 584 584 584 584 584 583 582 582
    582 582 582 581 581 581 581 581 581 580 580 580 580 579 579 579 0 0
    0 0 0 0 0 0 0 0 0 0 0 0 0 0 0 0 0 0 0 0 0 0 0 591 591 591 591 591
    590 590 589 589 589 589 588 588 587 587 587 587 587 587 587 586 586
    585 585 585 585 584 584 584 584 584 584 583 582 582 582 582 582 581
    581 581 581 581 581 581 580 580 580 579 579 579 0 0 0 0 0 0 0 0 0 0
    0 0 0 0 0 0 0 0 0 0 0 0 0 0 0 591 591 591 591 591 590 590 590 589
    589 589 588 588 587 587 587 587 587 587 587 586 586 585 585 585 585
    584 584 584 584 584 584 583 583 582 582 582 582 582 582 581 581 581
    581 581 581 581 580 580 580 580 0 0 0 0 0 0 0 0 0 0 0 0 0 0 0 0 0 0
    0 0 0 0 0 0 0 592 592 592 592 592 591 591 591 589 589 589 588 588
    588 588 588 588 588 587 587 587 587 585 585 585 585 584 584 584 584
    584 584 583 583 582 582 582 582 583 583 582 582 582 582 581 581 581
    581 580 580 0 0 0 0 0 0 0 0 0 0 0 0 0 0 0 0 0 0 0 0 0 0 0 0 0 0 592
    592 592 592 592 591 591 591 590 589 589 588 588 588 588 588 588 588
    587 587 587 587 586 586 585 585 585 585 585 585 585 584 584 583 583
    583 582 582 583 583 582 582 581 581 581 581 581 581 581 580 580 0 0
    0 0 0 0 0 0 0 0 0 0 0 0 0 0 0 0 0 0 0 0 0 0 0 593 592 592 592 592
    592 592 591 591 590 589 589 589 588 588 588 588 588 588 588 587 587
    586 586 585 585 585 585 585 585 585 585 584 584 584 583 583 583 584
    583 582 582 581 581 581 581 581 581 581 580 580 0 0 0 0 0 0 0 0 0 0
    0 0 0 0 0 0 0 0 0 0 0 0 0 0 0 0 592 592 593 592 592 592 591 591 590
    589 589 589 589 589 588 588 588 588 588 588 587 587 587 586 586 586
    585 585 585 585 585 584 584 584 584 584 584 584 583 582 582 581 581
    581 581 581 581 581 581 581 0 0 0 0 0 0 0 0 0 0 0 0 0 0 0 0 0 0 0 0
    0 0 0 0 0 0 593 593 593 592 592 592 591 591 590 590 589 589 589 589
    589 589 588 588 588 588 587 587 587 586 586 586 586 586 585 585 585
    585 584 584 584 584 584 584 582 582 581 581 581 581 581 581 581 581
    581 581 0 0 0 0 0 0 0 0 0 0 0 0 0 0 0 0 0 0 0 0 0 0 0 0 0 0 0 593
    593 593 592 592 592 591 591 590 590 589 589 589 589 589 589 589 588
    588 588 587 587 586 586 586 586 586 585 585 585 585 584 584 584 584
    584 584 582 582 581 581 581 581 581 581 581 581 581 581 0 0 0 0 0 0
    0 0 0 0 0 0 0 0 0 0 0 0 0 0 0 0 0 0 0 0 595 594 593 593 592 592 592
    592 591 591 590 590 590 589 589 589 589 589 589 588 588 588 587 587
    587 587 586 586 586 585 585 585 584 584 584 584 584 583 583 582 582
    582 582 582 582 582 582 582 581 581 0 0 0 0 0 0 0 0 0 0 0 0 0 0 0 0
    0 0 0 0 0 0 0 0 0 0 595 594 594 593 593 592 592 592 592 591 591 590
    590 590 589 589 589 589 589 588 588 588 588 587 587 587 586 586 586
    586 586 585 585 585 584 584 584 583 583 583 583 582 582 582 582 583
    582 582 581 581 0 0 0 0 0 0 0 0 0 0 0 0 0 0 0 0 0 0 0 0 0 0 0 0 0 0
    594 594 594 593 593 592 592 592 592 592 592 591 591 590 590 590 589
    589 589 589 589 588 588 587 587 587 587 586 586 586 586 585 585 585
    585 584 584 584 584 584 583 582 582 582 582 583 583 582 581 581 0 0
    0 0 0 0 0 0 0 0 0 0 0 0 0 0 0 0 0 0 0 0 0 0 0 0 593 593 594 594 593
    593 593 592 592 592 592 591 591 590 590 589 589 589 589 589 589 588
    588 588 588 588 587 587 586 586 586 586 585 585 585 584 584 584 584
    584 584 583 583 583 583 583 583 583 583 583 584 0 0 0 0 0 0 0 0 0 0
    0 0 0 0 0 0 0 0 0 0 0 0 0 0 0 593 593 594 594 594 593 593 593 593
    593 592 592 591 590 590 589 589 589 590 589 589 589 588 588 588 588
    587 587 586 586 587 586 586 585 585 585 585 584 584 584 584 584 583
    583 583 583 583 583 583 582 582 0 0 0 0 0 0 0 0 0 0 0 0 0 0 0 0 0 0
    0 0 0 0 0 0 0 0 594 594 594 594 594 593 593 593 593 593 592 592 591
    590 590 589 589 590 589 589 589 589 588 588 588 588 588 587 587 587
    586 586 585 585 585 585 584 584 584 584 584 584 584 584 584 584 583
    583 582 582 582 0 0 0 0 0 0 0 0 0 0 0 0 0 0 0 0 0 0 0 0 0 0 0 0 0
    595 595 595 594 594 593 593 593 593 593 593 592 591 591 591 590 590
    590 590 590 589 589 589 588 588 588 588 587 587 587 587 587 587 586
    586 585 585 585 584 584 584 584 584 584 584 584 584 583 583 582 582
    0 0 0 0 0 0 0 0 0 0 0 0 0 0 0 0 0 0 0 0 0 0 0 0 0 596 596 595 595
    594 593 593 593 593 593 593 592 591 591 591 591 590 589 589 590 589
    589 589 588 588 588 587 587 587 587 587 587 587 587 587 585 585 585
    585 584 584 584 584 584 584 584 584 583 583 580 580 0 0 0 0 0 0 0 0
    0 0 0 0 0 0 0 0 0 0 0 0 0 0 0 0 0 596 596 596 595 594 593 593 593
    593 593 593 592 592 592 592 591 590 589 589 590 589 589 589 588 588
    588 587 587 587 587 587 587 588 587 587 586 586 585 585 584 584 584
    584 584 585 584 584 583 582 580 580 0 0 0 0 0 0 0 0 0 0 0 0 0 0 0 0
    0 0 0 0 0 0 0 0 0 0 597 596 595 595 593 593 593 593 593 593 592 592
    592 591 591 589 589 590 590 590 589 588 588 589 588 588 587 587 587
    587 587 588 588 587 586 586 586 585 585 585 585 585 585 585 585 584
    584 582 581 581 581 0 0 0 0 0 0 0 0 0 0 0 0 0 0 0 0 0 0 0 0 0 0 0 0
    0 597 596 596 595 594 593 593 593 593 593 592 592 592 591 591 589
    589 590 590 590 589 588 588 589 588 588 588 588 588 587 587 588 588
    587 587 587 586 586 585 585 585 585 585 585 585 584 584 584 584 581
    581 0 0 0 0 0 0 0 0 0 0 0 0 0 0 0 0 0 0 0 0 0 0 0 0 0 597 596 595
    595 594 594 594 594 593 593 592 592 592 591 591 590 590 590 590 590
    589 589 589 589 589 589 588 588 588 588 588 588 588 587 587 587 587
    586 585 585 585 585 585 585 585 585 584 584 584 582 582 0 0 0 0 0 0
    0 0 0 0 0 0 0 0 0 0 0 0 0 0 0 0 0 0 0 597 596 595 595 595 594 594
    594 594 593 592 592 592 591 591 591 591 591 591 591 590 589 589 589
    590 590 589 589 588 588 588 588 588 588 587 587 587 586 585 585 585
    585 585 586 585 585 585 585 584 583 583 0 0 0 0 0 0 0 0 0 0 0 0 0 0
    0 0 0 0 0 0 0 0 0 0 0 0 596 595 595 595 595 594 594 594 594 593 593
    592 592 592 591 591 591 591 591 589 589 589 589 590 590 589 589 589
    588 588 588 588 588 587 587 587 586 585 585 585 585 585 586 586 585
    585 585 584 584 0 0 0 0 0 0 0 0 0 0 0 0 0 0 0 0 0 0 0 0 0 0 0 0 0 0
    0 596 596 596 596 596 595 595 594 594 593 593 593 592 592 592 592
    592 592 591 589 589 590 590 590 590 589 589 589 588 588 588 588 588
    588 587 587 586 585 585 585 585 585 586 586 585 585 585 585 585 0 0
    0 0 0 0 0 0 0 0 0 0 0 0 0 0 0 0 0 0 0 0 0 0 0 0 0 596 596 596 596
    596 595 595 594 594 594 593 593 593 592 592 592 592 592 592 589 589
    590 590 590 590 590 589 589 589 589 588 588 588 588 587 587 586 585
    585 585 585 586 586 586 585 585 585 585 585 0 0 0 0 0 0 0 0 0 0 0 0
    0 0 0 0 0 0 0 0 0 0 0 0 0 0 0 596 596 596 596 596 595 595 594 594
    594 593 593 593 592 592 592 592 592 592 590 590 590 590 590 590 590
    590 589 589 589 588 588 588 588 587 587 587 586 586 585 585 586 586
    586 586 586 586 585 585 0 0 0 0 0 0 0 0 0 0 0 0 0 0 0 0 0 0 0 0 0 0
    0 0 0 0 0 596 596 596 596 596 596 595 595 595 594 594 593 593 593
    593 592 592 592 592 590 590 590 590 590 590 590 590 589 589 589 589
    588 588 588 588 588 587 587 587 586 586 587 586 586 586 586 587 586
    586 586 0 0 0 0 0 0 0 0 0 0 0 0 0 0 0 0 0 0 0 0 0 0 0 0 0 0 597 597
    596 596 596 596 596 595 595 595 594 593 593 593 593 592 592 592 592
    591 591 591 590 590 590 590 590 590 590 589 589 588 588 588 588 588
    587 587 587 587 587 587 587 587 587 587 587 586 585 585 0 0 0 0 0 0
    0 0 0 0 0 0 0 0 0 0 0 0 0 0 0 0 0 0 0 0 0 597 597 597 597 596 596
    596 595 595 594 593 593 593 593 593 592 592 592 591 591 592 591 591
    591 591 591 591 590 589 589 588 588 589 588 588 587 587 587 587 587
    588 588 587 587 587 587 586 585 585 0 0 0 0 0 0 0 0 0 0 0 0 0 0 0 0
    0 0 0 0 0 0 0 0 0 0 0 597 597 597 597 596 596 596 595 595 594 594
    594 594 593 593 593 593 592 592 592 592 592 592 591 591 591 590 590
    589 589 589 589 589 589 589 587 587 587 588 588 588 588 587 587 587
    587 586 585 585 0 0 0 0 0 0 0 0 0 0 0 0 0 0 0 0 0 0 0 0 0 0 0 0 0 0
    597 597 597 597 597 596 596 596 595 595 595 594 594 594 594 594 593
    593 593 592 592 592 592 591 591 590 590 590 590 589 589 589 589 589
    589 589 588 587 587 588 588 588 588 588 588 587 587 586 585 585 0 0
    0 0 0 0 0 0 0 0 0 0 0 0 0 0 0 0 0 0 0 0 0 0 0 0 596 596 597 597 597
    596 596 596 595 595 595 594 594 595 594 594 593 593 593 592 592 592
    592 591 591 590 590 590 590 590 590 590 590 589 589 589 588 588 588
    588 588 588 588 588 588 587 587 587 585 585 0 0 0 0 0 0 0 0 0 0 0 0
    0 0 0 0 0 0 0 0 0 0 0 0 0 0 595 595 597 597 597 597 596 596 596 596
    596 595 595 595 594 594 593 593 593 593 593 592 592 592 591 591 591
    591 591 591 590 590 590 589 589 589 588 588 588 588 588 588 588 588
    588 588 587 587 586 586 587 0 0 0 0 0 0 0 0 0 0 0 0 0 0 0 0 0 0 0 0
    0 0 0 0 0 594 594 597 597 597 597 596 596 597 597 596 596 595 595
    594 594 594 593 593 593 593 593 593 592 592 591 591 591 591 591 590
    590 590 590 590 589 588 588 588 588 588 588 588 588 588 588 587 587
    587 587 587 0 0 0 0 0 0 0 0 0 0 0 0 0 0 0 0 0 0 0 0 0 0 0 0 0 594
    594 597 597 597 597 597 597 597 597 596 596 595 594 594 594 594 593
    593 593 593 593 593 592 592 592 592 592 592 591 591 591 590 590 591
    589 589 589 589 589 588 588 588 588 588 588 588 588 588 588 588 0 0
    0 0 0 0 0 0 0 0 0 0 0 0 0 0 0 0 0 0 0 0 0 0 0 0 0 600 599 597 597
    597 597 597 597 596 596 595 594 594 594 594 594 593 593 593 593 593
    593 593 592 592 592 592 592 591 591 591 591 591 590 589 589 589 589
    588 588 588 588 588 588 588 588 588 588 587 587 0 0 0 0 0 0 0 0 0 0
    0 0 0 0 0 0 0 0 0 0 0 0 0 0 0 0 0 599 597 597 597 597 597 597 597
    596 595 595 595 595 595 594 593 593 593 593 593 593 593 592 592 592
    592 592 592 591 591 591 591 590 590 590 590 589 588 588 588 588 588
    588 588 588 588 588 587 587 0 0 0 0 0 0 0 0 0 0 0 0 0 0 0 0 0 0 0 0
    0 0 0 0 0 0 0 599 598 597 597 597 597 597 597 596 596 596 595 595
    595 594 593 593 593 593 593 593 593 592 592 592 592 592 592 592 592
    591 591 591 591 591 590 589 589 588 588 589 589 589 589 588 588 588
    588 588 0 0 0 0 0 0 0 0 0 0 0 0 0 0 0 0 0 0 0 0 0 0 0 0 0 0 0 600
    598 598 597 597 597 597 597 596 596 596 595 595 595 595 594 594 594
    593 593 593 593 593 593 592 592 592 592 592 591 591 591 591 591 591
    590 589 589 589 589 589 589 589 589 588 588 588 588 588 588 0 0 0 0
    0 0 0 0 0 0 0 0 0 0 0 0 0 0 0 0 0 0 0 0 0 0 600 598 598 597 597 597
    597 597 596 596 596 596 596 596 595 595 594 594 594 593 593 593 593
    593 593 593 592 592 592 591 591 591 591 591 591 590 590 589 589 589
    589 589 589 589 589 588 588 588 588 588 0 0 0 0 0 0 0 0 0 0 0 0 0 0
    0 0 0 0 0 0 0 0 0 0 0 0 600 598 598 597 597 597 597 597 596 596 596
    596 596 596 595 595 594 594 594 593 593 593 593 593 593 593 593 592
    592 592 592 592 592 591 591 590 590 590 589 589 589 589 589 589 589
    588 588 588 588 589 0 0 0 0 0 0 0 0 0 0 0 0 0 0 0 0 0 0 0 0 0 0 0 0
    0 0 600 599 599 598 597 597 597 597 597 597 597 596 596 596 596 595
    594 594 594 593 593 593 593 593 594 593 593 593 593 592 592 592 592
    592 591 590 590 590 589 589 589 589 589 589 589 589 588 588 589 589
    0 0 0 0 0 0 0 0 0 0 0 0 0 0 0 0 0 0 0 0 0 0 0 0 0 0 600 600 599 598
    597 597 597 597 597 597 597 597 597 596 596 595 594 594 594 594 593
    593 593 594 594 593 593 593 593 593 593 592 592 592 591 591 591 590
    589 589 589 589 589 589 589 589 588 588 589 589 0 0 0 0 0 0 0 0 0 0
    0 0 0 0 0 0 0 0 0 0 0 0 0 0 0 0 600 600 599 599 598 598 597 597 597
    597 597 597 597 596 596 595 594 594 594 594 594 595 594 594 593 593
    593 593 593 593 593 592 592 592 592 592 591 590 589 589 589 589 589
    590 590 589 589 589 589 589 0 0 0 0 0 0 0 0 0 0 0 0 0 0 0 0 0 0 0 0
    0 0 0 0 0 0 600 600 600 599 599 598 598 598 597 597 597 597 597 596
    596 596 595 594 594 595 595 595 595 594 593 593 593 593 593 593 593
    593 593 592 592 592 591 590 590 589 589 589 589 591 591 590 589 589
    588 588 0 0 0 0 0 0 0 0 0 0 0 0 0 0 0 0 0 0 0 0 0 0 0 0 0 601 600
    600 600 600 599 599 598 598 598 598 597 597 596 596 596 596 595 595
    595 595 595 596 595 595 594 594 593 593 593 593 593 593 593 592 592
    592 591 591 590 590 590 590 591 591 591 590 589 589 588 588 0 0 0 0
    0 0 0 0 0 0 0 0 0 0 0 0 0 0 0 0 0 0 0 0 0 601 600 600 600 600 600
    600 599 599 598 598 597 597 596 596 596 596 595 595 596 596 596 596
    595 595 594 594 594 594 594 594 593 593 593 592 592 592 592 591 591
    591 591 591 591 591 591 590 590 589 588 588 0 0 0 0 0 0 0 0 0 0 0 0
    0 0 0 0 0 0 0 0 0 0 0 0 0 601 600 600 601 600 600 600 600 600 600
    599 598 597 597 597 597 597 596 596 596 596 596 596 595 595 595 595
    594 594 594 594 593 593 593 592 592 592 592 592 592 591 591 591 591
    591 591 590 590 589 588 588 0 0 0 0 0 0 0 0 0 0 0 0 0 0 0 0 0 0 0 0
    0 0 0 0 0 0 601 601 601 601 600 600 600 600 600 599 598 598 597 597
    597 597 596 596 596 596 596 596 595 595 595 595 595 595 594 594 594
    594 594 593 593 592 592 592 592 592 591 591 591 591 591 591 591 589
    588 588 0 0 0 0 0 0 0 0 0 0 0 0 0 0 0 0 0 0 0 0 0 0 0 0 0 0 601 601
    601 601 601 600 600 600 600 600 599 598 598 598 598 597 597 597 597
    597 596 596 596 596 596 596 596 595 594 594 594 594 595 594 593 592
    592 592 592 592 592 592 592 592 592 591 591 590 588 588 0 0 0 0 0 0
    0 0 0 0 0 0 0 0 0 0 0 0 0 0 0 0 0 0 0 0 601 601 602 601 601 601 600
    600 600 600 600 599 599 599 598 597 597 597 597 597 596 596 596 596
    597 596 596 595 595 595 594 594 595 594 594 592 592 592 592 592 592
    592 592 592 592 591 591 590 588 588 0 0 0 0 0 0 0 0 0 0 0 0 0 0 0 0
    0 0 0 0 0 0 0 0 0 0 0 603 603 601 601 601 600 600 600 600 600 600
    599 599 598 598 597 597 597 597 596 596 597 597 597 596 596 596 596
    595 595 595 595 594 594 593 592 592 592 592 592 592 592 592 592 592
    592 590 589 589 0 0 0 0 0 0 0 0 0 0 0 0 0 0 0 0 0 0 0 0 0 0 0 0 0 0
    0 602 602 602 601 601 601 601 601 601 600 600 599 599 598 598 598
    598 597 597 596 596 597 597 597 597 597 596 596 596 596 595 595 594
    594 593 593 593 592 592 592 592 592 592 592 592 592 591 591 591 0 0
    0 0 0 0 0 0 0 0 0 0 0 0 0 0 0 0 0 0 0 0 0 0 0 0 0 602 602 602 601
    601 601 601 601 601 600 600 600 600 599 599 599 598 598 597 597 597
    597 597 597 597 597 596 596 596 596 596 595 595 595 595 594 594 593
    592 592 593 593 593 593 592 592 591 591 591 0 0 0 0 0 0 0 0 0 0 0 0
    0 0 0 0 0 0 0 0 0 0 0 0 0 0 0 603 602 602 602 601 601 601 601 601
    601 600 600 600 600 600 599 599 598 597 597 597 597 597 597 597 597
    597 597 596 596 596 595 595 595 595 594 594 594 594 593 593 593 593
    593 592 592 592 592 592 592 0 0 0 0 0 0 0 0 0 0 0 0 0 0 0 0 0 0 0 0
    0 0 0 0 0 0 602 602 602 602 601 601 601 601 601 601 600 600 600 600
    600 599 599 599 598 597 597 597 597 597 597 597 597 597 596 596 596
    595 595 595 595 595 595 594 594 593 593 593 593 593 593 593 593 592
    592 592 0 0 0 0 0 0 0 0 0 0 0 0 0 0 0 0 0 0 0 0 0 0 0 0 0 0 602 602
    602 602 601 601 601 601 601 601 601 601 600 600 600 599 599 599 598
    598 597 597 597 597 597 597 597 597 596 596 596 596 595 595 596 595
    595 595 594 594 593 593 593 593 593 593 593 592 592 0 0 0 0 0 0 0 0
    0 0 0 0 0 0 0 0 0 0 0 0 0 0 0 0 0 0 0 0 602 602 602 601 601 601 601
    601 601 601 601 600 600 600 599 599 599 598 598 597 597 597 597 597
    597 597 597 596 596 596 596 596 596 596 595 595 595 595 594 594 593
    593 593 593 592 592 592 592 0 0 0 0 0 0 0 0 0 0 0 0 0 0 0 0 0 0 0 0
    0 0 0 0 0 0 0 0 0 603 602 601 601 601 601 602 601 601 601 601 601
    600 599 599 599 598 598 598 598 598 598 598 598 597 597 597 597 596
    596 596 596 596 595 595 595 595 594 594 593 593 593 593 592 592 592
    592 0 0 0 0 0 0 0 0 0 0 0 0 0 0 0 0 0 0 0 0 0 0 0 0 0 0 0 0 0 603
    603 602 602 601 601 602 601 601 601 601 601 600 600 600 599 598 598
    598 598 598 599 598 598 598 597 597 597 597 596 596 596 596 595 595
    595 595 594 594 593 593 593 593 593 592 592 592 592 0 0 0 0 0 0 0 0
    0 0 0 0 0 0 0 0 0 0 0 0 0 0 0 0 0 0 0 609 604 604 603 603 602 602
    602 601 601 601 601 601 601 600 600 600 598 598 599 599 599 599 599
    598 598 598 597 597 597 596 596 596 596 595 595 595 595 594 594 594
    594 593 593 593 592 592 592 592 0 0 0 0 0 0 0 0 0 0 0 0 0 0 0 0 0 0
    0 0 0 0 0 0 0 0 0 609 604 604 603 603 603 602 602 602 602 601 601
    601 601 600 600 600 599 599 599 599 599 599 598 598 598 598 598 597
    597 597 596 596 596 595 595 595 595 595 595 594 594 593 593 593 593
    592 592 592 0 0 0 0 0 0 0 0 0 0 0 0 0 0 0 0 0 0 0 0 0 0 0 0 0 0 0
    606 606 604 603 603 603 602 602 602 602 601 601 601 601 600 600 600
    599 599 599 599 599 599 598 598 598 598 598 598 598 597 596 596 596
    596 596 596 596 595 595 594 594 594 593 593 593 593 592 592 592 0 0
    0 0 0 0 0 0 0 0 0 0 0 0 0 0 0 0 0 0 0 0 0 0 0 0 606 606 606 604 604
    604 603 603 603 602 601 601 601 601 601 601 600 599 599 599 599 599
    599 598 598 598 598 598 598 598 597 596 596 596 596 596 596 596 596
    595 594 594 594 594 594 593 593 592 592 592 0 0 0 0 0 0 0 0 0 0 0 0
    0 0 0 0 0 0 0 0 0 0 0 0 0 0 0 606 606 604 604 604 604 604 604 603
    603 602 602 602 601 601 600 599 599 599 599 599 599 598 598 599 598
    598 598 598 597 597 596 596 596 596 596 596 596 595 594 594 595 594
    594 593 593 593 593 592 592 0 0 0 0 0 0 0 0 0 0 0 0 0 0 0 0 0 0 0 0
    0 0 0 0 0 0 606 606 604 604 603 603 604 604 603 603 603 602 602 601
    601 600 599 599 599 599 599 599 598 598 599 598 598 598 598 597 597
    596 596 596 596 596 596 596 596 595 595 595 595 594 594 593 593 593
    592 592 0 0 0 0 0 2103 2103 2103 2103 0 0 0 0 0 0 0 0 0 0 0 0 0 0 0
    0 604 604 606 604 604 603 603 603 604 603 603 602 602 602 601 601
    600 599 599 599 599 599 600 599 599 599 599 598 598 598 597 597 597
    597 597 596 596 597 596 596 596 596 596 595 595 594 594 593 593 593
    593 0 0 0 0 0 2103 2103 2103 2103 0 0 0 0 0 0 0 0 0 0 0 0 0 0 0 0
    604 604 606 604 604 604 603 603 604 604 603 602 602 602 601 601 601
    600 600 600 600 600 600 600 600 599 599 599 598 598 597 597 597 597
    597 597 597 597 597 597 597 596 596 595 595 595 594 594 593 593 593
    0 0 0 0 0 2103 2053 2040 2028 2016 2016 2028 0 0 0 0 0 0 0 0 0 0 0 0
    0 0 606 606 606 606 604 604 604 604 604 603 602 601 601 601 601 601
    601 601 600 600 600 600 600 600 599 599 599 599 598 597 597 597 597
    597 597 597 597 597 597 597 596 596 595 595 595 594 594 594 593 593
    0 0 0 0 0 2040 2040 2040 2028 2016 2016 2016 2016 0 0 0 0 0 0 0 0 0
    0 0 0 0 606 606 606 606 606 604 604 604 604 603 602 601 601 601 602
    601 601 601 601 601 600 600 600 600 600 600 600 599 599 598 598 598
    597 597 597 597 597 597 597 597 596 596 596 595 595 595 594 594 594
    594 0 0 0 0 0 2016 2016 2005 2005 2005 2005 2016 2016 0 0 0 0 0 0 0
    0 0 0 0 0 0 0 606 606 606 606 604 604 604 604 603 602 602 603 603
    602 601 601 601 601 601 600 600 600 600 600 600 600 599 599 598 598
    598 597 597 597 597 597 597 597 597 596 596 596 596 596 595 594 594
    594 0 0 0 0 0 0 2016 2016 2005 1993 1993 1993 1993 1993 0 0 0 0 0 0
    0 0 0 0 0 0 0 0 606 606 606 606 606 604 604 604 603 603 603 603 603
    602 601 601 602 602 602 601 600 600 600 600 600 600 599 599 598 598
    597 597 597 598 598 597 597 597 597 596 596 596 596 596 595 595 595
    595 0 0 0 0 0 0 2005 1993 1993 1981 1981 1981 1981 1993 0 0 0 0 0 0
    0 0 0 0 0 0 0 0 606 606 606 606 606 606 604 604 603 603 603 603 603
    602 602 602 602 602 602 602 601 601 600 600 600 600 599 599 599 598
    597 597 597 597 598 598 597 597 597 597 596 596 596 596 596 595 595
    595 0 0 0 0 0 0 1993 1993 1993 1981 1981 1970 1970 1993 0 0 0 0 0 0
    0 0 0 0 0 0 0 0 0 607 607 606 606 606 606 604 604 603 603 603 602
    602 602 603 603 603 602 602 601 601 600 600 600 600 599 599 599 598
    598 597 597 597 598 598 598 597 597 597 597 596 596 596 596 596 596
    596 0 0 0 0 0 0 1970 1993 1981 1970 1970 1970 1970 1970 0 0 0 0 0 0
    0 0 0 0 0 0 0 0 0 607 607 606 606 606 606 606 604 603 602 602 602
    602 603 603 603 602 602 602 601 601 601 601 601 600 600 599 599 599
    598 597 597 597 597 598 598 598 597 596 596 596 596 596 596 596 596
    595 595 595 731 730 730 0 1936 1936 1959 1970 1959 1959 1959 1970 0
    0 0 0 0 0 0 0 0 0 0 0 0 0 0 607 607 607 607 606 606 606 604 603 602
    602 602 602 603 603 603 602 602 602 601 601 601 601 601 600 600 600
    600 600 599 598 598 597 597 597 597 597 597 596 596 595 595 596 596
    596 596 595 595 728 728 728 730 731 1926 1926 1959 1970 1959 1959
    1959 0 0 0 0 0 0 0 0 0 0 0 0 0 0 0 0 607 607 607 607 606 606 606 604
    603 603 602 602 602 603 603 603 603 602 602 602 601 601 601 601 601
    600 600 600 600 599 598 598 597 596 596 596 596 596 596 596 595 595
    596 596 596 723 722 722 723 723 723 725 728 1904 1904 1904 1904 1904
    1904 1915 0 0 0 0 0 0 0 0 0 0 0 0 0 0 0 0 0 607 607 607 607 607 606
    604 604 602 602 601 601 602 603 603 603 603 602 602 602 602 602 602
    601 601 730 601 601 731 734 733 597 596 596 596 596 596 682 682 682
    682 738 734 727 722 720 720 720 720 720 722 725 1883 1883 1883 1883
    1883 1883 1883 1894 0 0 0 0 0 0 0 0 0 0 0 0 0 0 0 0 608 608 607 606
    606 606 606 604 602 602 601 601 602 603 604 603 603 603 733 733 734
    736 736 730 730 730 601 601 730 728 728 730 597 597 598 723 682 682
    682 682 684 738 734 722 720 719 719 719 717 716 716 725 1873 1873
    1873 1873 1873 1873 1883 1863 1843 1843 1843 0 0 0 0 0 0 0 0 0 0 0 0
    0 608 608 606 606 606 606 606 604 603 602 601 601 606 606 606 604
    604 693 731 731 733 733 733 728 728 727 727 722 722 723 722 722 720
    719 719 720 720 683 683 682 682 682 713 713 713 714 716 714 714 711
    711 0 1873 1853 1853 1863 1863 1863 1853 1843 1843 1843 1833 1833 0
    0 0 0 0 0 0 0 0 0 0 0 0 608 606 606 606 606 606 604 604 603 603 727
    727 694 691 691 693 693 730 730 725 725 723 723 723 722 719 719 719
    719 719 717 717 716 714 713 711 683 683 682 682 704 704 706 708 708
    706 706 706 706 706 701 1843 1843 1843 1843 1833 1833 1833 1843 1843
    1843 1833 1833 0 0 0 0 0 0 0 0 0 0 0 0 0 0 0 0 0 742 734 733 733 731
    730 727 727 694 693 693 693 693 725 723 722 722 720 720 720 717 717
    716 716 716 716 714 714 713 713 711 711 686 684 684 684 704 703 703
    704 703 703 703 700 700 698 698 1843 1833 1833 1843 1833 1823 1823
    1833 1843 1843 0 0 0 0 0 0 0 0 0 0 0 0 0 0 0 0 0 0 0 725 725 725 727
    725 725 727 728 694 693 693 693 693 722 720 720 720 719 717 717 714
    714 713 711 710 708 707 707 707 706 706 710 687 686 686 688 693 698
    698 700 700 700 696 696 694 694 694 0 1833 1833 1833 1813 1813 1813
    1833 0 0 0 0 0 0 0 0 0 0 0 0 0 0 0 0 0 0 0 0 0 722 722 722 722 722
    722 717 710 694 694 693 693 693 717 716 713 711 711 710 710 710 706
    706 707 706 706 704 704 703 701 701 688 687 686 686 686 687 696 697
    697 697 696 690 690 691 690 690 0 0 0 0 1804 1794 1794 1833 0 0 0 0
    0 0 0 0 0 0 0 0 0 0 0 0 0 0 0 0 0 720 717 717 716 716 716 714 710
    706 703 693 693 693 717 711 704 704 704 701 700 700 701 701 703 703
    703 700 698 698 697 696 688 687 686 686 686 687 688 694 694 694 693
    688 688 690 688 688 0 0 0 0 1804 1794 1794 0 0 0 0 0 0 0 0 0 0 0 0 0
    0 0 0 0 0 0 0 0 0 711 711 710 710 710 710 707 706 704 704 694 694
    700 700 701 701 700 700 697 696 696 698 697 697 694 694 694 696 694
    693 693 688 686 684 684 684 684 684 684 683 683 683 682 682 679 678
    676</data></Depth3963>
</opencv_storage>
