<?xml version="1.0"?>
<opencv_storage>
<Depth8630 type_id="opencv-matrix">
  <rows>101</rows>
  <cols>68</cols>
  <dt>w</dt>
  <data>
    3732 3774 3816 3816 3816 3816 3816 3816 3859 3859 3903 3903 3903
    3948 1123 1123 1123 1123 1123 1123 1119 1126 1126 3948 3948 3948
    3994 4041 4041 4041 4041 4089 4089 4139 4241 4241 4241 4295 4295
    4295 4295 4295 4295 4295 4295 4349 4349 4349 4405 4405 4405 4405
    4463 4463 4522 4522 4582 4582 4582 4582 4582 4582 4645 4645 4708
    4774 4774 4774 3732 3774 3816 3816 3816 3816 3816 3859 3859 3859
    1105 1105 1108 1112 1112 1115 1115 1119 1115 1115 1119 1126 1126
    1138 1138 4089 4089 4089 4089 3948 3948 3948 3948 3948 1126 4295
    4295 4295 4139 4139 4139 4139 4139 4295 4295 4295 4349 4349 4405
    4405 4405 4405 4463 4463 4522 4522 4582 4582 4582 4582 4645 4645
    4645 4645 4774 4774 4774 4774 3774 3774 3816 3816 3816 0 3816 3816
    1105 0 1105 1105 1108 1108 1108 1112 1112 1112 1112 1112 1119 1119
    1123 1119 1119 1123 1126 1134 1138 1138 3948 3948 3948 3948 1126
    1126 1126 1126 4139 4139 4139 4139 4139 4139 4139 4190 4349 4349
    4349 4349 4405 4405 4463 4463 4522 4582 4582 4582 4582 4582 4582
    4645 4645 4645 4645 4645 4774 4774 3774 3774 3732 3653 3653 0 0 0 0
    0 1108 1108 1108 1108 1108 1112 1112 1112 1112 1112 1119 1119 1119
    1119 1119 1123 1126 1130 1134 1130 1130 1138 1138 1138 1138 1126
    1126 1145 1149 1153 1153 1153 4190 4139 1157 1153 1153 1161 1173
    4349 4349 4522 4522 4522 4582 4645 4582 4582 4582 4582 4582 4645
    4645 4645 4645 0 4774 4774 3774 3774 3732 3653 3653 0 0 0 0 0 1112
    1108 1108 1108 1108 1108 1112 1112 1115 1115 1115 1115 1115 1119
    1119 1123 1123 1130 1130 1130 1130 1138 1138 1138 1138 1138 1138
    1145 1145 1153 1153 1153 1157 1157 1157 1153 1153 1161 1169 1169
    1165 1177 1189 1189 1189 1189 1189 1189 4645 4645 4645 4645 4645
    4645 1193 0 0 4774 3732 3732 3692 3692 0 0 0 0 0 0 1112 1112 1108
    1108 1108 1108 1112 1112 1112 1115 1115 1115 1115 1115 1115 1123
    1123 1130 1130 1130 1134 1138 1138 1138 1138 1141 1141 1145 1145
    1153 1153 1153 1157 1153 1153 1153 1153 1157 1165 1165 1165 1177
    1177 1177 1177 1181 1185 1185 1185 1185 4708 4708 1193 1193 1193
    1193 1193 0 3732 3732 3692 3692 0 0 0 0 0 1112 1112 1112 1112 1108
    1108 1108 1112 1112 1112 1112 1115 1115 1115 1115 1115 1123 1123
    1130 1130 1130 1134 1138 1138 1138 1138 1141 1141 1141 1145 1145
    1149 1149 1149 1153 1153 1153 1153 1157 1161 1161 1161 1165 1173
    1173 1177 1177 1181 1181 1181 1181 1181 1185 1189 1189 1193 1193
    1193 1193 3774 3732 3692 3692 0 0 0 0 0 1112 1108 1108 1108 1112
    1112 1112 1112 1112 1112 1112 1115 1115 1119 1119 1119 1123 1123
    1130 1130 1130 1134 1134 1134 1138 1138 1141 1141 1141 1145 1145
    1149 1149 1149 1149 1153 1153 1157 1157 1161 1161 1161 1161 1169
    1169 1173 1173 1177 1177 1177 1181 1181 1185 1189 1189 1189 1189
    1189 1193 3774 3774 3732 3732 0 0 0 0 0 1105 1105 1108 1108 1108
    1112 1112 1112 1112 1112 1115 1115 1115 1119 1123 1123 1123 1123
    1126 1130 1134 1134 1134 1134 1134 1138 1141 1141 1141 1141 1145
    1145 1149 1149 1149 1153 1153 1157 1157 1161 1161 1161 1161 1169
    1169 1173 1173 1173 1177 1177 1181 1185 1185 1185 1185 1189 1189
    1189 1193 3774 3774 3774 3816 0 0 0 0 0 1097 1097 1105 1105 1108
    1112 1112 1112 1112 1112 1115 1115 1115 1119 1119 1123 1123 1123
    1126 1130 1130 1134 1134 1134 1134 1138 1141 1141 1141 1141 1145
    1145 1145 1149 1153 1153 1153 1157 1157 1161 1161 1161 1161 1169
    1169 1173 1173 1173 1177 1177 1181 1181 1185 1185 1185 1189 1189
    1189 1193 3816 3816 3816 3816 0 0 0 0 0 1097 1097 1105 1105 1108
    1112 1112 1112 1112 1115 1112 1112 1112 1115 1119 1123 1123 1123
    1130 1130 1130 1134 1134 1134 1138 1141 1141 1141 1141 1141 1145
    1145 1145 1149 1153 1153 1153 1157 1157 1161 1161 1161 1165 1169
    1169 1173 1173 1173 1177 1177 1181 1181 1185 1185 1185 1189 1189
    1189 1193 3859 3859 3859 3859 0 0 0 0 0 1108 1108 1108 1108 1108
    1112 1112 1112 1112 1115 1112 1112 1112 1115 1119 1119 1123 1123
    1130 1130 1130 1134 1134 1134 1138 1141 1141 1141 1145 1145 1145
    1145 1145 1149 1149 1157 1157 1157 1157 1161 1161 1165 1165 1169
    1169 1169 1173 1173 1177 1177 1177 1177 1181 1185 1189 1189 1189
    1189 1193 3859 3859 3859 3903 0 0 0 0 0 1105 1105 1108 1108 1108
    1112 1112 1112 1115 1115 1115 1115 1115 1115 1119 1119 1123 1123
    1130 1130 1130 1134 1134 1134 1141 1141 1145 1145 1145 1145 1145
    1145 1145 1149 1149 1149 1157 1157 1157 1161 1161 1165 1165 1165
    1169 1169 1173 1173 1173 1177 1177 1177 1181 1185 1189 1189 1189
    1189 1189 3859 3859 3903 3903 0 0 0 0 0 1105 1105 1108 1108 1108
    1112 1112 1112 1115 1115 1115 1115 1115 1115 1119 1123 1123 1123
    1130 1134 1134 1134 1134 1134 1141 1141 1145 1145 1145 1145 1145
    1145 1145 1149 1149 1149 1157 1157 1161 1161 1165 1165 1165 1165
    1169 1169 1173 1173 1173 1177 1177 1177 1181 1185 1189 1189 1189
    1189 1189 3816 3859 3903 0 0 0 0 0 0 1108 1108 1108 1108 1108 1112
    1112 1112 1115 1115 1115 1115 1115 1119 1123 1123 1123 1123 1130
    1134 1134 1134 1134 1138 1141 1141 1145 1145 1145 1145 1149 1149
    1149 1149 1149 1149 1153 1157 1161 1161 1165 1169 1169 1169 1169
    1169 1173 1173 1177 1177 1177 1181 1181 1185 1185 1189 1189 1189
    1189 3816 3859 3903 0 0 0 0 0 0 1108 1108 1108 1108 1112 1112 1112
    1115 1119 1119 1119 1119 1119 1123 1123 1123 1123 1123 1130 1130
    1134 1134 1134 1138 1138 1141 1145 1145 1145 1145 1149 1153 1153
    1149 1149 1149 1153 1157 1161 1165 1165 1169 1169 1169 1169 1169
    1173 1173 1177 1177 1177 1177 1177 1181 1185 1189 1189 1189 1189
    3859 3859 3859 0 0 0 0 0 0 1108 1108 1108 1108 1112 1112 1112 1115
    1115 1119 1119 1119 1119 1123 1123 1126 1126 1126 1130 1130 1130
    1130 1134 1138 1138 1141 1141 1145 1145 1149 1149 1153 1153 1153
    1153 1153 1157 1157 1161 1161 1165 1169 1169 1173 1169 1169 1173
    1173 1177 1177 1177 1177 1177 1177 1181 1189 1189 1189 1189 3816
    3816 3816 0 0 0 0 0 1112 1108 1108 1108 1108 1112 1112 1112 1115
    1115 1115 1119 1119 1123 1123 1123 1123 1126 1126 1130 1130 1130
    1130 1138 1138 1138 1141 1141 1141 1145 1149 1149 1153 1153 1153
    1153 1153 1157 1157 1161 1161 1165 1169 1169 1169 1173 1173 1173
    1177 1177 1177 1177 1177 1177 1177 1181 1189 1189 1185 1185 3816
    3816 3816 0 0 0 0 0 1108 1108 1108 1108 1108 1112 1112 1112 1115
    1115 1115 1119 1119 1123 1123 1123 1123 1126 1126 1130 1134 1134
    1134 1138 1141 1141 1141 1141 1141 1145 1149 1149 1153 1153 1153
    1153 1157 1157 1157 1161 1161 1165 1169 1169 1169 1173 1173 1173
    1177 1177 1177 1177 1177 1181 1181 1185 1189 1189 1185 1185 3816
    3816 3859 0 0 0 0 0 1108 1108 1108 1108 1108 1112 1112 1112 1115
    1115 1115 1115 1119 1119 1119 1123 1123 1123 1126 1130 1134 1134
    1138 1138 1141 1141 1141 1141 1141 1145 1149 1153 1153 1153 1153
    1157 1157 1157 1161 1161 1161 1165 1169 1169 1173 1173 1173 1173
    1177 1177 1177 1181 1181 1181 1181 1185 1189 1189 1189 1189 3816
    3774 3774 0 0 0 0 0 1108 1108 1108 1108 1108 1112 1112 1115 1115
    1115 1115 1115 1119 1119 1119 1123 1123 1123 1126 1134 1134 1138
    1138 1141 1141 1141 1141 1141 1145 1145 1149 1149 1153 1153 1153
    1157 1157 1157 1157 1161 1161 1165 1169 1169 1173 1173 1173 1173
    1173 1177 1177 1181 1181 1181 1181 1189 1189 1189 1189 1189 3816
    3774 3774 0 0 0 0 1108 1108 1108 1108 1108 1108 1112 1112 1115 1115
    1115 1115 1115 1119 1123 1123 1123 1123 1123 1126 1130 1134 1134
    1138 1141 1141 1141 1141 1145 1145 1145 1145 1149 1153 1153 1153
    1157 1157 1157 1157 1161 1161 1165 1169 1169 1173 1173 1173 1173
    1173 1177 1177 1177 1181 1181 1181 1185 1189 1189 1189 1189 3816
    3774 3774 0 0 0 0 1108 1108 1108 1108 1108 1108 1112 1112 1115 1115
    1115 1119 1119 1123 1123 1123 1123 1123 1123 1130 1130 1134 1134
    1138 1141 1141 1141 1141 1145 1145 1145 1145 1149 1149 1153 1153
    1157 1157 1157 1157 1161 1161 1165 1169 1169 1173 1173 1173 1173
    1173 1177 1177 1177 1181 1181 1181 1185 1189 1185 1185 1185 3774
    3774 3774 0 0 0 0 1105 1105 1108 1108 1108 1108 1112 1112 1112 1115
    1115 1115 1119 1123 1123 1123 1123 1123 1123 1130 1130 1130 1134
    1138 1141 1141 1141 1141 1145 1145 1145 1145 1145 1149 1149 1153
    1157 1157 1161 1161 1161 1161 1165 1165 1169 1173 1173 1173 1173
    1177 1177 1177 1181 1181 1181 1181 1185 1189 1185 1185 1185 3732
    3732 0 0 0 0 0 1105 1105 1108 1108 1108 1108 1112 1112 1112 1115
    1115 1115 1119 1119 1123 1123 1123 1123 1123 1130 1130 1130 1134
    1138 1141 1141 1141 1141 1145 1145 1145 1145 1145 1149 1149 1153
    1157 1157 1161 1161 1161 1161 1165 1165 1169 1173 1173 1173 1173
    1177 1177 1177 1181 1181 1181 1181 1185 1189 1185 1185 0 3732 3732
    3732 0 0 0 0 1108 1108 1108 1108 1108 1108 1108 1112 1112 1112 1115
    1115 1119 1119 1123 1123 1123 1123 1126 1130 1130 1130 1134 1138
    1141 1141 1141 1141 1145 1145 1145 1145 1145 1145 1149 1153 1157
    1157 1161 1161 1161 1165 1165 1169 1169 1173 1173 1177 1177 1177
    1177 1181 1181 1181 1181 1185 1189 1189 1185 1185 0 3732 3692 3692 0
    0 0 0 1108 1108 1108 1108 1108 1108 1108 1108 1112 1112 1112 1115
    1119 1123 1123 1123 1123 1123 1126 1130 1130 1130 1138 1138 1141
    1141 1141 1145 1145 1145 1145 1145 1145 1145 1149 1153 1157 1157
    1157 1161 1161 1165 1165 1169 1169 1173 1173 1173 1177 1177 1177
    1177 1181 1181 1181 1185 1189 1189 1189 1189 1189 3732 3692 3692 0 0
    0 0 1108 1108 1108 1108 1108 1108 1108 1108 1112 1112 1112 1115 1115
    1119 1123 1123 1123 1126 1126 1130 1130 1130 1134 1138 1141 1145
    1145 1145 1145 1145 1145 1145 1145 1149 1149 1153 1157 1157 1157
    1161 1165 1165 1165 1169 1169 1173 1173 1173 1177 1177 1177 1177
    1181 1181 1181 1185 1189 1189 1189 1189 1193 3774 3732 3732 0 0 0
    1108 1108 1108 1108 1108 1108 1108 1112 1112 1112 1115 1115 1115
    1115 1119 1123 1123 1123 1126 1126 1130 1130 1130 1134 1138 1141
    1141 1141 1145 1145 1145 1149 1149 1149 1149 1153 1153 1157 1157
    1157 1161 1165 1165 1165 1169 1169 1173 1173 1173 1173 1177 1177
    1177 1181 1181 1185 1185 1189 1189 1189 1193 0 3774 3774 0 0 0 0
    1108 1108 1108 1108 1108 1108 1108 1112 1112 1112 1112 1112 1115
    1115 1119 1123 1123 1126 1126 1126 1130 1130 1130 1134 1138 1141
    1141 1141 1145 1145 1145 1149 1149 1149 1149 1153 1153 1157 1157
    1161 1161 1165 1165 1165 1169 1169 1173 1173 1173 1173 1177 1177
    1177 1181 1181 1185 1185 1189 1189 1189 1193 0 3774 3774 0 0 0 0
    1108 1108 1108 1108 1108 1112 1112 1112 1112 1112 1112 1112 1115
    1115 1119 1119 1123 1123 1126 1126 1130 1130 1130 1134 1138 1141
    1141 1141 1141 1145 1145 1149 1149 1153 1153 1157 1157 1157 1157
    1161 1161 1165 1165 1165 1169 1169 1173 1173 1173 1173 1177 1177
    1177 1181 1185 1185 1189 1189 1189 1189 1189 1189 3692 3692 0 0 0 0
    1108 1108 1108 1108 1108 1112 1112 1115 1112 1112 1112 1112 1115
    1115 1119 1119 1123 1123 1126 1126 1130 1130 1134 1138 1138 1141
    1141 1141 1141 1145 1145 1145 1149 1149 1153 1157 1157 1157 1157
    1157 1161 1165 1165 1165 1165 1169 1173 1173 1173 1173 1177 1177
    1181 1181 1185 1185 1189 1185 1185 1189 1189 0 3692 3692 3692 0 0 0
    1108 1108 1108 1108 1108 1112 1112 1115 1115 1112 1112 1112 1115
    1119 1119 1119 1123 1123 1126 1126 1130 1130 1134 1138 1138 1141
    1141 1141 1141 1145 1145 1145 1149 1149 1153 1157 1157 1157 1157
    1157 1161 1165 1165 1165 1165 1169 1173 1173 1173 1173 1177 1177
    1181 1181 1189 1189 1189 1185 1185 1185 1185 0 3732 3732 0 0 0 0
    1108 1108 1108 1108 1108 1108 1112 1112 1115 1115 1115 1115 1119
    1119 1119 1123 1123 1123 1126 1126 1134 1134 1134 1138 1138 1141
    1141 1141 1141 1145 1145 1145 1149 1149 1149 1153 1153 1153 1157
    1157 1161 1161 1165 1165 1165 1173 1173 1173 1173 1177 1177 1177
    1181 1181 1189 1189 1189 1185 1185 1185 1193 0 3774 3774 0 0 0 0
    1108 1108 1108 1108 1108 1108 1112 1112 1115 1115 1115 1115 1119
    1119 1119 1123 1123 1123 1126 1126 1134 1134 1134 1138 1138 1141
    1141 1141 1141 1145 1145 1145 1149 1149 1149 1153 1153 1153 1157
    1157 1161 1161 1165 1165 1169 1173 1173 1173 1177 1177 1177 1177
    1181 1181 1185 1185 1185 1189 1189 1193 0 0 3732 3774 0 0 0 0 1108
    1108 1108 1108 1108 1108 1112 1112 1112 1115 1115 1119 1119 1123
    1123 1123 1123 1126 1126 1130 1134 1138 1138 1138 1138 1141 1141
    1141 1141 1141 1141 1145 1149 1149 1149 1149 1153 1153 1157 1157
    1161 1165 1165 1169 1169 1173 1173 1177 1177 1177 1177 1177 1181
    1185 1185 1185 1185 1189 1193 1193 0 4774 3692 0 0 0 0 0 1108 1108
    1108 1108 1108 1112 1112 1112 1112 1112 1112 1115 1115 1119 1123
    1123 1126 1126 1126 1130 1134 1134 1138 1138 1138 1141 1141 1141
    1141 1141 1141 1145 1149 1149 1149 1149 1153 1157 1157 1161 1161
    1165 1165 1165 1169 1173 1173 1177 1177 1177 1177 1177 1181 1185
    1185 1189 1189 1189 1189 1189 0 4774 3692 0 0 0 0 0 1108 1108 1108
    1108 1108 1112 1112 1108 1108 1112 1112 1115 1115 1119 1123 1123
    1126 1126 1126 1130 1134 1134 1138 1138 1141 1141 1141 1141 1141
    1141 1145 1145 1149 1149 1149 1149 1153 1157 1157 1161 1161 1161
    1165 1165 1169 1173 1173 1177 1177 1177 1177 1177 1181 1185 1185
    1185 1185 1185 0 0 0 0 3692 0 0 0 0 0 1108 1108 1108 1112 1112 1112
    1112 1108 1108 1112 1112 1115 1115 1115 1119 1123 1126 1126 1126
    1130 1134 1134 1138 1138 1141 1141 1141 1141 1145 1145 1145 1145
    1149 1149 1153 1153 1157 1161 1161 1161 1161 1161 1165 1165 1169
    1173 1173 1173 1177 1177 1177 1177 1177 1181 1185 1185 1185 1185
    1185 0 0 4774 0 0 0 0 0 0 1108 1108 1108 1108 1112 1112 1112 1112
    1112 1112 1115 1115 1115 1115 1119 1123 1126 1126 1126 1126 1130
    1134 1138 1138 1141 1141 1141 1141 1145 1145 1145 1149 1149 1149
    1153 1153 1157 1161 1161 1161 1161 1161 1165 1165 1169 1173 1173
    1173 1177 1177 1177 1177 1177 1181 1185 1185 1189 1189 0 0 0 4774 0
    0 0 0 0 1112 1108 1108 1108 1108 1108 1112 1112 1112 1112 1112 1115
    1115 1115 1119 1119 1119 1126 1126 1126 1126 1130 1134 1138 1138
    1141 1141 1145 1145 1145 1145 1145 1149 1149 1149 1153 1153 1157
    1157 1161 1161 1161 1161 1169 1169 1169 1173 1173 1173 1177 1177
    1177 1177 1177 1181 1181 1189 1189 1189 0 0 0 4842 0 0 0 0 0 1108
    1108 1108 1108 1108 1108 1112 1112 1112 1112 1112 1115 1119 1119
    1119 1119 1119 1123 1126 1126 1130 1134 1134 1138 1138 1141 1141
    1141 1145 1145 1145 1145 1149 1149 1153 1153 1153 1157 1157 1161
    1161 1161 1165 1169 1169 1173 1173 1173 1173 1177 1177 1177 1177
    1177 1181 1181 1189 1189 0 0 0 0 4842 0 0 0 0 1115 1108 1108 1108
    1108 1108 1108 1112 1112 1112 1112 1112 1115 1119 1119 1119 1123
    1123 1123 1126 1126 1130 1134 1134 1138 1138 1141 1141 1141 1145
    1145 1145 1145 1145 1149 1149 1153 1153 1157 1157 1161 1161 1161
    1165 1169 1173 1173 1173 1173 1173 1177 1177 1177 1177 1177 1181
    1181 1189 1189 0 0 0 0 4842 0 0 0 0 1115 1112 1108 1108 1108 1108
    1112 1112 1112 1112 1112 1115 1115 1119 1119 1119 1123 1123 1123
    1126 1126 1130 1134 1134 1138 1138 1141 1141 1141 1145 1145 1145
    1145 1145 1149 1149 1153 1153 1157 1157 1161 1161 1161 1165 1169
    1173 1173 1173 1177 1177 1177 1177 1177 1177 1177 1181 1181 1189
    1189 0 0 0 0 4842 0 0 0 1123 1115 1112 1108 1108 1108 1108 1112 1112
    1112 1112 1112 1112 1115 1119 1119 1119 1119 1123 1123 1126 1130
    1130 1130 1130 1141 1141 1141 1141 1141 1145 1145 1145 1145 1149
    1149 1149 1149 1153 1157 1157 1161 1161 1161 1165 1169 1173 1173
    1173 1173 1173 1173 1177 1177 1177 1177 1181 1181 1189 1189 1189 0 0
    0 4842 0 0 0 1123 1115 1112 1108 1108 1108 1108 1112 1115 1115 1112
    1112 1112 1115 1115 1115 1119 1119 1123 1123 1126 1130 1130 1130
    1130 1141 1141 1141 1141 1141 1145 1145 1149 1153 1153 1153 1149
    1149 1153 1157 1161 1161 1161 1161 1165 1165 1169 1173 1173 1173
    1173 1173 1177 1177 1177 1181 1181 1185 1189 1189 1189 0 0 0 4842 0
    0 0 1123 1112 1105 1105 1105 1108 1108 1112 1115 1115 1115 1119 1123
    1115 1115 1115 1119 1119 1123 1123 1126 1126 1126 1134 1134 1138
    1141 1141 1141 1141 1145 1145 1145 1149 1149 1153 1153 1153 1153
    1161 1161 1161 1161 1161 1165 1165 1169 1169 1173 1173 1173 1173
    1177 1177 1177 1181 1181 1185 1185 1189 1189 0 0 0 4774 0 0 0 0 1108
    1101 1101 1105 1108 1112 1112 1112 1112 1112 1115 1123 1119 1119
    1119 1119 1119 1123 1123 1126 1126 1126 1134 1134 1138 1141 1141
    1141 1141 1145 1145 1145 1149 1149 1153 1153 1153 1153 1157 1161
    1161 1161 1165 1165 1169 1169 1169 1173 1173 1173 1177 1177 1177
    1177 1181 1181 1185 1185 1189 1189 1185 0 4708 4708 0 0 0 0 1105
    1101 1101 1105 1108 1112 1112 1112 1112 1112 1115 1123 1119 1119
    1119 1119 1123 1123 1126 1126 1126 1130 1134 1138 1138 1141 1141
    1141 1141 1145 1145 1149 1149 1149 1153 1153 1153 1157 1157 1161
    1161 1161 1165 1169 1169 1169 1169 1173 1173 1177 1173 1173 1177
    1177 1181 1181 1185 1185 1185 1185 0 0 0 4708 0 0 0 0 1105 1105 1105
    1108 1112 1112 1112 1112 1112 1112 1115 1119 1119 1119 1119 1123
    1123 1123 1126 1126 1126 1130 1134 1138 1141 1141 1141 1141 1141
    1145 1145 1149 1149 1149 1149 1149 1157 1157 1157 1161 1161 1165
    1169 1169 1169 1169 1169 1173 1173 1173 1173 1173 1177 1177 1181
    1185 1185 1185 1185 1185 0 0 0 4708 0 0 0 1108 1105 1105 1105 1105
    1108 1112 1112 1112 1112 1112 1115 1119 1119 1123 1123 1123 1126
    1126 1126 1126 1126 1130 1134 1134 1141 1141 1141 1141 1145 1145
    1145 1145 1149 1149 1149 1149 1157 1157 1157 1161 1161 1165 1169
    1169 1169 1173 1173 1173 1173 1173 1173 1173 1177 1177 1181 1185
    1185 1185 1185 1185 0 0 0 4645 0 0 0 1108 1105 1105 1105 1105 1108
    1112 1112 1112 1112 1112 1115 1115 1119 1123 1123 1123 1126 1126
    1126 1126 1126 1130 1134 1134 1141 1141 1141 1141 1145 1145 1145
    1145 1145 1149 1153 1153 1157 1157 1157 1161 1161 1165 1165 1165
    1169 1169 1173 1173 1173 1173 1173 1173 1177 1177 1181 1185 1185
    1185 1185 1185 0 0 4582 4582 0 0 0 0 1108 1108 1108 1108 1108 1108
    1112 1115 1115 1115 1115 1115 1119 1123 1123 1123 1126 1126 1126
    1126 1130 1130 1134 1141 1141 1145 1141 1141 1145 1145 1145 1145
    1145 1149 1153 1153 1157 1157 1157 1161 1161 1165 1165 1165 1169
    1169 1173 1173 1173 1173 1173 1177 1177 1177 1181 1189 1189 1189 0
    1189 0 4582 4582 4582 0 0 0 0 1112 1108 1108 1108 1108 1108 1112
    1115 1115 1115 1119 1119 1123 1123 1123 1126 1126 1126 1130 1130
    1130 1130 1134 1141 1141 1145 1141 1141 1145 1141 1141 1145 1145
    1149 1153 1153 1157 1157 1161 1161 1161 1165 1165 1165 1169 1169
    1169 1173 1173 1173 1173 1177 1177 1177 1181 1189 1185 1185 0 0 0
    4582 4582 4582 0 0 0 0 1112 1108 1108 1108 1108 1108 1112 1112 1115
    1119 1119 1119 1123 1123 1123 1126 1126 1126 1126 1126 1130 1130
    1141 1141 1141 1145 1141 1141 1141 1141 1141 1145 1149 1153 1153
    1153 1157 1157 1161 1161 1161 1165 1165 1165 1169 1169 1169 1173
    1173 1173 1173 1177 1177 1177 1189 1189 1185 1185 0 0 0 0 4582 4582
    0 0 0 1108 1108 1108 1108 1108 1108 1108 1108 1112 1115 1115 1119
    1119 1123 1123 1123 1126 1126 1126 1126 1126 1130 1130 1141 1141
    1145 1145 1145 1141 1141 1141 1141 1145 1153 1153 1153 1157 1157
    1157 1165 1165 1165 1165 1165 1165 1169 1169 1169 1173 1173 1173
    1177 1177 1177 1177 1181 1185 1185 1185 0 0 0 0 0 4582 0 0 0 1108
    1108 1108 1108 1108 1108 1108 1108 1112 1112 1115 1115 1123 1123
    1123 1123 1123 1126 1126 1126 1130 1130 1130 1138 1138 1141 1145
    1145 1141 1141 1145 1145 1149 1157 1153 1153 1157 1157 1161 1161
    1161 1161 1165 1165 1165 1169 1169 1173 1173 1173 1173 1177 1177
    1177 1181 1181 1185 1185 1185 0 0 0 0 0 3300 0 0 0 1101 1101 1105
    1105 1108 1108 1108 1112 1112 1112 1115 1115 1119 1123 1123 1123
    1123 1126 1126 1126 1130 1130 1130 1138 1138 1141 1145 1145 1145
    1145 1145 1145 1153 1153 1153 1153 1153 1157 1157 1161 1161 1161
    1165 1165 1165 1169 1169 1173 1173 1173 1173 1177 1177 1181 1185
    1185 1185 1185 1185 0 0 0 3333 3333 3300 0 0 0 1097 1097 1105 1105
    1108 1108 1108 1112 1112 1112 1115 1115 1119 1123 1123 1123 1123
    1126 1126 1130 1130 1130 1130 1138 1138 1141 1145 1145 1145 1145
    1145 1149 1149 1149 1149 1149 1153 1157 1157 1161 1161 1161 1165
    1165 1165 1169 1169 1173 1173 1173 1173 1177 1177 1181 1181 1185
    1185 1185 1189 0 0 0 3333 3333 3333 0 0 0 1097 1097 1108 1108 1108
    1108 1112 1112 1112 1112 1115 1115 1119 1119 1123 1123 1126 1126
    1126 1130 1130 1130 1134 1138 1141 1141 1145 1145 1145 1145 1145
    1149 1149 1149 1149 1149 1153 1157 1161 1161 1161 1165 1165 1165
    1165 1169 1169 1173 1173 1173 1173 1177 1177 1181 1181 1185 1189
    1189 1193 0 0 0 3300 3300 3300 0 0 0 1101 1101 1108 1108 1108 1112
    1112 1112 1112 1115 1115 1115 1119 1119 1123 1126 1126 1126 1126
    1126 1130 1130 1134 1138 1141 1141 1145 1145 1145 1145 1145 1149
    1149 1149 1149 1149 1153 1157 1161 1161 1161 1161 1165 1165 1169
    1169 1169 1173 1173 1177 1177 1177 1177 1181 1181 1185 1189 1193
    1193 0 0 0 3300 3300 3300 0 0 0 1108 1108 1108 1108 1112 1112 1112
    1112 1115 1115 1115 1119 1119 1123 1123 1123 1123 1126 1126 1126
    1130 1130 1134 1141 1141 1141 1141 1145 1145 1145 1145 1149 1149
    1149 1149 1149 1157 1157 1157 1157 1161 1161 1165 1165 1169 1169
    1169 1173 1177 1177 1177 1177 1177 1181 1181 1189 1189 1193 1193
    1193 0 3208 3208 3208 3269 0 0 0 1112 1112 1108 1108 1108 1112 1112
    1112 1112 1112 1115 1115 1119 1119 1123 1123 1123 1126 1126 1126
    1130 1130 1134 1141 1141 1141 1141 1145 1145 1145 1145 1149 1153
    1153 1157 1157 1157 1157 1157 1157 1161 1161 1169 1169 1169 1169
    1173 1173 1177 1177 1177 1181 1181 1181 1185 1189 1189 1189 1193
    1193 3269 3269 3208 3208 3269 0 0 0 1112 1112 1108 1108 1108 1112
    1112 1112 1112 1112 1115 1115 1119 1119 1123 1123 1123 1126 1126
    1126 1130 1130 1134 1141 1141 1141 1141 1145 1145 1145 1145 1149
    1153 1153 1153 1157 1157 1161 1161 1161 1161 1161 1169 1169 1169
    1173 1173 1173 1177 1177 1177 1181 1181 1181 1185 1189 1185 1185
    1185 1185 3269 3269 3269 3269 3269 0 0 0 1112 1108 1108 1108 1108
    1112 1108 1108 1112 1112 1115 1119 1119 1119 1123 1123 1123 1126
    1126 1126 1126 1126 1138 1145 1141 1141 1141 1141 1145 1145 1145
    1145 1149 1153 1153 1157 1157 1161 1161 1161 1161 1165 1169 1169
    1173 1173 1173 1173 1177 1177 1177 1181 1181 1181 1185 1189 1181
    1181 1181 0 3269 3269 3269 3269 3300 0 0 0 1105 1105 1108 1108 1108
    1108 1108 1108 1112 1112 1115 1119 1119 1119 1123 1123 1126 1126
    1126 1126 1126 1126 1141 1145 1141 1141 1141 1141 1145 1145 1145
    1145 1149 1153 1153 1157 1157 1161 1161 1161 1161 1161 1165 1173
    1173 1173 1173 1173 1177 1177 1177 1181 1181 1181 1185 1189 1181
    1181 1181 3238 3269 3269 3269 3269 3269 0 0 0 1105 1105 1105 1108
    1108 1108 1108 1112 1112 1115 1115 1119 1119 1123 1123 1123 1126
    1126 1126 1126 1130 1130 1138 1141 1141 1141 1141 1141 1145 1145
    1145 1149 1149 1153 1153 1157 1157 1161 1161 1161 1161 1161 1165
    1173 1173 1173 1173 1173 1177 1177 1177 1181 1181 1181 1185 1189
    1185 1185 1185 3238 3238 3238 3238 3238 3269 0 0 1105 1105 1105 1105
    1105 1105 1112 1115 1115 1115 1119 1119 1119 1119 1123 1123 1123
    1123 1126 1126 1126 1130 1130 1138 1141 1141 1141 1141 1141 1145
    1145 1149 1153 1153 1153 1153 1157 1157 1161 1161 1161 1161 1161
    1165 1169 1169 1173 1173 1173 1177 1177 1177 1181 1181 1181 1185
    1185 1189 1189 1193 1223 3238 3238 3238 3238 3269 0 0 1105 1105 1105
    1105 1105 1105 1112 1112 1115 1115 1115 1115 1119 1123 1123 1123
    1123 1123 1126 1126 1126 1130 1134 1138 1141 1141 1141 1141 1141
    1145 1145 1149 1153 1157 1153 1153 1157 1161 1161 1161 1161 1161
    1161 1165 1169 1169 1173 1173 1177 1177 1177 1177 1181 1181 1181
    1185 1185 1189 1189 1193 1223 0 0 0 3269 3269 0 1105 1105 1105 1105
    1108 1108 1108 1112 1112 1115 1115 1115 1115 1119 1123 1123 1123
    1123 1123 1126 1126 1126 1130 1134 1134 1141 1141 1141 1141 1145
    1145 1145 1153 1153 1157 1153 1153 1157 1161 1161 1161 1161 1161
    1165 1165 1169 1173 1173 1177 1177 1177 1177 1177 1181 1181 1185
    1185 1185 1189 1189 1193 0 0 0 0 3365 3365 0 1105 1105 1108 1108
    1108 1108 1108 1112 1112 1112 1112 1115 1115 1119 1119 1123 1123
    1123 1123 1126 1126 1126 1126 1134 1134 1141 1141 1141 1141 1145
    1145 1149 1149 1153 1157 1153 1153 1157 1161 1161 1161 1161 1161
    1165 1165 1169 1173 1173 1173 1177 1177 1177 1181 1181 1185 1185
    1189 1189 1189 1189 1193 0 0 0 0 0 0 0 0 1108 1108 1108 1108 1108
    1108 1108 1108 1112 1112 1115 1115 1115 1119 1123 1123 1123 1123
    1126 1126 1126 1126 1134 1134 1141 1141 1141 1141 1145 1145 1149
    1149 1149 1157 1157 1157 1157 1161 1161 1161 1161 1165 1169 1169
    1169 1173 1173 1173 1177 1177 1177 1181 1181 1181 1185 1189 1189
    1189 1189 0 0 0 0 0 0 0 0 0 1108 1108 1108 1108 1108 1108 1108 1108
    1112 1112 1115 1115 1115 1119 1123 1123 1126 1126 1126 1126 1126
    1134 1138 1138 1141 1145 1145 1145 1145 1145 1149 1149 1149 1157
    1157 1157 1161 1161 1161 1161 1161 1169 1169 1169 1173 1173 1173
    1177 1177 1177 1177 1181 1181 1181 1185 1189 1189 1189 1189 0 0 0 0
    0 0 0 0 0 0 1105 1105 1108 1108 1108 1108 1108 1112 1112 1115 1115
    1119 1119 1123 1123 1126 1126 1126 1126 1130 1134 1134 1138 1145
    1145 1145 1145 1145 1145 1149 1149 1149 1157 1157 1157 1161 1161
    1161 1161 1161 1169 1169 1169 1173 1173 1173 1177 1177 1177 1181
    1181 1181 1185 1185 1189 1189 1189 0 0 0 0 0 0 0 0 0 0 1108 1105
    1105 1108 1108 1108 1108 1108 1112 1112 1115 1119 1119 1119 1123
    1123 1126 1126 1126 1126 1130 1134 1134 1138 1145 1145 1145 1145
    1145 1149 1149 1149 1153 1153 1153 1157 1161 1161 1161 1161 1165
    1169 1169 1169 1173 1173 1173 1177 1177 1177 1181 1181 1181 1185
    1189 1189 1189 1189 0 0 0 0 0 0 0 0 0 1112 1108 1105 1105 1108 1108
    1108 1112 1112 1112 1115 1115 1119 1123 1123 1123 1123 1126 1130
    1130 1130 1130 1130 1134 1138 1145 1145 1145 1145 1145 1149 1149
    1153 1153 1153 1153 1157 1161 1161 1161 1165 1165 1169 1169 1169
    1173 1173 1173 1177 1177 1177 1181 1181 1181 1185 1189 1189 1189
    1189 0 0 0 0 0 0 0 0 1108 1108 1105 1105 1105 1108 1108 1108 1112
    1112 1112 1112 1112 1119 1123 1123 1123 1126 1126 1130 1130 1130
    1130 1130 1130 1138 1145 1145 1145 1145 1145 1149 1149 1153 1153
    1153 1153 1157 1161 1161 1165 1165 1169 1169 1169 1169 1173 1173
    1173 1177 1177 1177 1181 1181 1185 1185 1189 1189 1189 1189 0 0 0 0
    0 0 0 0 1108 1108 1105 1105 1105 1105 1108 1108 1112 1112 1112 1112
    1112 1119 1123 1123 1123 1126 1126 1130 1130 1130 1130 1130 1130
    1138 1141 1141 1141 1141 1145 1149 1153 1153 1153 1153 1153 1161
    1161 1161 1165 1169 1169 1169 1169 1169 1173 1173 1177 1177 1177
    1181 1181 1181 1185 1185 1189 1189 1189 1189 0 0 0 0 0 0 0 0 1105
    1105 1105 1105 1105 1105 1108 1108 1112 1112 1112 1115 1115 1123
    1123 1123 1123 1126 1126 1126 1126 1130 1130 1138 1138 1138 1141
    1141 1141 1141 1145 1149 1153 1153 1153 1153 1157 1161 1161 1165
    1165 1165 1169 1169 1169 1173 1173 1173 1177 1177 1177 1181 1181
    1185 1185 1189 1189 1189 1189 1189 0 0 0 0 0 0 0 0 1105 1105 1105
    1105 1105 1108 1108 1108 1108 1108 1112 1115 1115 1123 1123 1123
    1123 1123 1123 1126 1126 1130 1130 1134 1138 1138 1141 1141 1141
    1141 1145 1149 1153 1153 1153 1153 1157 1161 1161 1165 1165 1165
    1169 1173 1173 1173 1173 1177 1177 1177 1181 1181 1185 1185 1185
    1189 1189 1189 1189 1189 0 0 0 0 0 0 0 0 1108 1108 1108 1105 1105
    1108 1108 1108 1108 1108 1112 1112 1115 1123 1123 1123 1123 1123
    1123 1126 1126 1130 1134 1134 1138 1138 1141 1141 1141 1145 1149
    1153 1157 1153 1153 1157 1161 1161 1161 1165 1165 1169 1169 1169
    1173 1173 1173 1177 1177 1177 1177 1181 1177 1177 1181 1189 1189
    1189 1189 1189 0 0 0 0 0 0 0 0 1108 1108 1108 1105 1105 1105 1105
    1108 1108 1108 1108 1112 1115 1119 1123 1123 1126 1123 1123 1126
    1130 1134 1134 1134 1138 1138 1141 1145 1145 1145 1145 1153 1157
    1153 1153 1157 1157 1161 1161 1165 1165 1165 1169 1169 1173 1173
    1173 1177 1177 1177 1177 1181 1177 1177 1181 1189 1189 1189 1189
    1193 0 0 0 0 0 0 0 0 1108 1108 1108 1105 1105 1105 1105 1108 1108
    1108 1108 1112 1119 1119 1123 1123 1123 1123 1126 1130 1134 1138
    1138 1138 1138 1138 1141 1141 1145 1145 1145 1153 1153 1153 1153
    1157 1157 1161 1161 1165 1165 1165 1169 1169 1173 1173 1177 1177
    1177 1177 1177 1177 1177 1177 1181 1189 1189 1189 1189 0 0 0 0 0 0 0
    0 0 1112 1108 1108 1108 1108 1105 1105 1108 1108 1108 1112 1112 1119
    1119 1123 1123 1123 1123 1126 1130 1134 1138 1138 1138 1138 1138
    1141 1141 1141 1145 1145 1153 1153 1153 1157 1157 1161 1161 1161
    1165 1165 1165 1165 1169 1173 1173 1177 1177 1177 1177 1177 1177
    1177 1181 1185 1189 1189 1189 1189 0 0 0 0 0 0 0 0 0 1112 1108 1108
    1108 1108 1108 1108 1108 1112 1112 1115 1115 1119 1123 1123 1123
    1123 1123 1126 1134 1138 1141 1138 1138 1138 1138 1138 1138 1138
    1141 1145 1153 1153 1157 1161 1161 1161 1169 1165 1165 1165 1165
    1165 1169 1173 1177 1177 1177 1177 1177 1177 1177 1181 1181 1189
    1189 1185 1185 1189 0 0 0 0 0 0 0 0 0 0 1115 1112 1108 1108 1108
    1108 1108 1115 1119 1115 1115 1115 0 1123 1123 1123 1123 1141 1141
    1145 1145 1141 1141 1134 1134 1138 1138 1138 1141 1157 1157 1157
    1161 1165 1173 1173 1173 1173 1173 0 0 0 0 1181 1181 1181 1181 1181
    1181 1181 1181 1181 1185 1189 1189 1185 1185 0 0 0 0 0 0 0 0 0 0 0 0
    0 1112 1112 1112 1112 0 0 0 0 0 0 0 0 0 1153 1153 1153 1153 1153
    1149 1145 1145 1134 1134 1134 1134 1245 1245 1245 1173 1173 1173
    1173 1181 1181 1181 1173 1173 1173 0 0 0 1189 1189 1189 1193 1202 0
    0 0 0 0 0 0 0 0 0 0 0 0 0 0 0 0 0 0 0 0 0 0 0 0 0 0 0 0 0 0 0 0 0 0
    0 0 1157 1157 1153 1149 1145 1145 1153 1153 1245 1245 1245 1245 1245
    0 1189 1189 1181 1181 1181 1181 1177 1177 1177 0 0 0 0 0 1193 1193
    1206 0 0 0 0 0 0 0 0 0 0 0 0 0 0 0 0 0 0 0 0 0 0 0 0 0 0 0 0 0 0 0 0
    0 0 1202 1202 1202 1202 1153 1153 1149 1145 1145 1149 1149 1245 1245
    1245 1245 1245 1245 0 1189 1189 1181 1177 1177 1177 0 1259 0 0 0 0 0
    0 0 0 0 0 0 0 0 0 0 0 0 0 0 0 0 0 0 0 0 0 0 0 0 0 0 0 0 0 0 0 0 0 0
    1181 1181 1181 1202 1202 1202 1202 1153 1153 1149 1145 1145 1149
    1236 1241 1245 1245 1245 1245 1245 1245 1189 1189 1181 1177 1177
    1177 0 0 0 0 0 0 0 0 0 0 0 0 0 0 0 0 0 0 0 0 0 0 0 0 0 0 0 0 0 0 0 0
    0 0 0 0 0 0 0 0 0 1181 1181 1181 1202 1202 1202 1202 1149 1149 1149
    1149 1232 1232 1232 1236 1241 1245 1245 1245 1245 1245 1245 1245
    1193 1177 1177 1177 1268 1259 1259 1259 0 0 0 0 0 0 0 0 0 0 0 0 0 0
    0 0 0 0 0 0 0 0 0 0 0 0 0 0 0 0 0 0 0 0 0 0 0 1185 1185 1189 1202
    1206 1202 1202 1157 1149 1149 1149 1223 1219 1219 1227 1232 1236
    1241 1241 1241 1241 1236 1236 1236 1177 1177 1177 1255 1255 1255
    1255 0 0 0 0 0 0 0 0 0 0 0 0 0 0 0 0 0 0 0 0 0 0 0 0 0 0 0 0 0 0 0 0
    0 0 0 0 0 0 1206 1206 1202 1202 1202 1202 1157 1153 1153 1153 1219
    1214 1214 1214 1214 1219 1227 1232 1232 1236 1236 1236 1236 1236
    1236 1245 1245 1245 1245 1245 0 0 0 0 0 0 0 0 0 0 0 0 0 0 0 0 0 0 0
    0 0 0 0 0 0 0 0 0 0 0 0 0 0 0 0 0 0 0 0 1202 1197 1197 1193 1193
    1197 1153 1153 1153 1210 1210 1210 1210 1210 1210 1210 1219 1219
    1223 1227 1232 1236 1236 1236 1236 1236 1227 1227 1227 0 0 0 0 0 0 0
    0 0 0 0 0 0 0 0 0 0 0 0 0 0 0 0 0 0 0 0 0 0 0 0 0 0 0 0 0 0 0 0 1189
    1189 1189 1189 1185 1185 1185 1157 1157 1206 1206 1206 1206 1206
    1206 1206 1210 1214 1214 1210 1210 1210 1210 1227 1227 1227 1227
    1227 1227 0 0 0 0 0 0 0 0 0 0 0 0 0 0 0 0 0 0 0 0 0 0 0 0 0 0 0 0 0
    0 0 0 0 0 0 0 0 0 1161 1161 1177 1181 1185 1177 1173 1161 1157 1157
    1202 1202 1202 1202 1202 1202 1202 1206 1206 1206 1185 1185 1185
    1185 1210 1210 1206 1206 1210 1210 0 0 0 0 0 0 0 0 0 0 0 0 0 0 0 0 0
    0 0 0 0 0 0 0 0 0 0 0 0 0 0 0 0 0 0 0 0 1153 1153 1153 1161 1165
    1173 1169 1165 1161 1161 1161 1169 1189 1189 1193 1189 1189 1193
    1193 1193 1193 1185 1185 1185 1185 1185 1189 1193 1197 1206 1206
    1210 0 0 0 0 0 0 0 0 0 0 0 0 0 0 0 0 0 0 0 0 0 0 0 0 0 0 0 0 0 0 0 0
    0 0 0 0 1153 1153 1153 1153 1153 1157 1161 1161 1161 1161 1161 1161
    1165 1169 1173 1177 1177 1177 1177 1177 1177 1185 1181 1181 1185
    1185 1185 1189 1193 1202 1206 1210 0 0 0 0 0 0 0 0 0 0 0 0 0 0 0 0 0
    0 0 0 0 0 0 0 0 0 0 0 0 0 0 0 0 0 0 0 1149 1145 1145 1145 1145 1149
    1153 1157 1161 1157 1157 1157 1157 1157 1161 1165 1165 1165 1169
    1169 1173 1173 1177 1177 1177 1181 1181 1185 1189 1202 1206 1210 0 0
    0 0 0 0 0 0 0 0 0 0 0 0 0 0 0 0 0 0 0 0 0 0 0 0 0 0 0 0 0 0 0 0 0 0
    1149 1138 1138 1138 1141 1145 1145 1145 1153 1153 1149 1149 1149
    1153 1157 1161 1161 1165 1165 1165 1165 1165 1165 1169 1169 1173
    1173 1173 1177 1206 1206 0 0 0 0 0 0 0 0 0 0 0 0 0 0 0 0 0 0 0 0 0 0
    0 0 0 0 0 0 0 0 0 0 0 0 0 0 0 0 1138 1138 1138 1141 1145 1145 1145
    1145 1145 1141 1141 1141 1145 1149 1157 1157 1157 1157 1157 1157
    1161 1161 1161 1161 1165 1161 1161 1161 0 0 0 0 0 0 0 0 0 0 0 0 0 0
    0 0 0 0 0 0 0 0 0 0 0 0 0</data></Depth8630>
</opencv_storage>
