<?xml version="1.0"?>
<opencv_storage>
<Depth2725 type_id="opencv-matrix">
  <rows>42</rows>
  <cols>52</cols>
  <dt>w</dt>
  <data>
    4645 4582 4582 4645 4645 4645 4645 2129 2116 2103 2090 2090 2103
    2103 2103 2103 4582 4582 4522 4463 4463 4463 4463 4463 4463 4463
    4463 4463 4463 4463 4463 4463 4463 4463 4463 4405 4405 4405 4405
    4405 4405 4405 4405 4405 4349 4349 4295 4295 4295 4295 4295 4295
    4645 4645 4645 4645 4645 4645 4645 4645 2116 2103 2090 2090 2103
    2103 2103 2090 2090 2090 4522 4349 4349 4463 4463 4463 4463 4463
    4463 4463 4463 4463 4463 4463 4463 4463 4463 4463 4405 4405 4405
    4405 4405 4405 4405 4405 4349 4349 4349 4295 4295 4295 4295 4295
    4582 4645 4645 4645 4645 4645 4645 2116 2116 2103 2090 2090 2103
    2103 2103 2090 2090 2090 2090 2090 4349 4463 4522 4522 4463 4463
    4463 4463 4522 4522 4463 4463 4463 4463 4463 4463 4463 4405 4405
    4405 4463 4463 4463 4405 4405 4405 4405 4349 4349 4349 4295 4295
    4582 4645 4645 4645 4645 4708 4708 2116 2116 2116 2103 2103 2103
    2103 2103 2103 2103 2090 2090 2090 2103 2103 2103 4522 4463 4463
    4463 4463 4463 4463 4522 4522 4463 4463 4463 4463 4463 4463 4463
    4463 4463 4463 4463 4405 4405 4405 4405 4349 4349 4349 4295 4295
    4645 4645 4708 4708 4708 4708 2116 2116 2116 2103 2103 2103 2103
    2103 2116 2103 2103 2103 2103 2103 2103 2103 2103 2090 2090 4463
    4463 4463 4463 4463 4522 4522 4463 4463 4463 4463 4463 4463 4463
    4463 4463 4463 4405 4405 4405 4405 4405 4349 4349 4349 4349 4295
    4645 4645 4708 4774 4774 4774 2129 2116 2116 2103 2103 2103 2103
    2103 2116 2103 2103 2103 2103 2103 2103 2103 2103 2090 2090 2103
    2129 2129 2116 2116 4582 4522 4522 4522 4522 4463 4463 4463 4463
    4463 4463 4463 4405 4405 4463 4405 4405 4349 4349 4349 4349 4349
    2053 4774 2170 2170 2170 2116 2116 2116 2116 2103 2103 2103 2103
    2103 2116 2116 2116 2116 2116 2103 2103 2103 2090 2090 2090 2090
    2116 2116 2116 2116 2116 2116 4522 4522 4463 4405 4405 4463 4463
    4463 4463 4463 4463 4463 4463 4405 4349 4349 4349 4349 4349 4349
    2065 0 2156 2156 2156 2143 2116 2116 2116 2116 2116 2116 2116 2116
    2116 2116 2116 2116 2116 2103 2103 2103 2090 2090 2090 2090 2103
    2103 2116 2116 2116 2103 2078 2078 4463 4349 4349 4405 4463 4463
    4463 4463 4463 4463 4463 4405 4349 4349 4349 4349 4349 4349 0 0 2156
    2156 2156 2143 2129 2116 2116 2116 2116 2116 2116 2116 2116 2116
    2116 2116 2116 2116 2103 2090 2090 2090 2090 2103 2103 2103 2116
    2116 2116 2090 2078 2078 2078 4349 4349 4405 4463 4463 4463 4463
    4463 4463 4463 4405 4405 4405 4405 4405 4349 4349 0 0 2170 2170 2156
    2129 2129 2116 2116 2116 2116 2116 2116 2116 2116 2116 2116 2116
    2116 2116 2103 2090 2090 2090 2103 2103 2103 2103 2103 2103 2090
    2090 2078 2078 2078 2065 2065 4463 4463 4463 4463 4463 4463 4463
    4463 4405 4405 4405 4405 4405 4405 4405 0 2156 0 0 2156 2129 2129
    2129 2129 2129 2116 2116 2116 2116 2116 2116 2116 2116 2116 2103
    2090 2090 2090 2103 2103 2103 2103 2103 2103 2103 2090 2090 2078
    2078 2078 2065 2065 2078 2078 2090 2090 2116 2116 4463 4463 4405
    4405 4405 4405 4405 4405 4405 0 0 0 0 2143 2129 2129 2129 2129 2129
    2116 2116 2116 2116 2116 2116 2116 2116 2116 2103 2090 2090 2103
    2103 2103 2103 2103 2103 2103 2103 2090 2090 2078 2078 2078 2078
    2078 2078 2078 2090 2090 2116 2116 2103 2103 4405 4405 4405 4405
    4405 4405 4405 0 0 0 0 2129 2129 2129 2129 2129 2129 2129 2116 2116
    2116 2116 2116 2116 2116 2116 2116 2103 2103 2103 2103 2103 2103
    2103 2103 2103 2103 2090 2090 2090 2090 2078 2078 2078 2078 2078
    2090 2090 2103 2090 2078 2078 2078 2078 4405 4405 4405 4405 4405 0 0
    0 2143 2129 2129 2129 2129 2129 2129 2129 2116 2116 2116 2116 2116
    2116 2116 2116 2116 2116 2116 2116 2116 2116 2103 2103 2103 2103
    2103 2090 2090 2090 2090 2090 2090 2090 2090 2103 2103 2103 2103
    2090 2078 2078 2078 2078 2078 4405 4405 4405 4405 2184 0 2156 2143
    2129 2129 2129 2129 2129 2129 2129 2116 2116 2116 2116 2116 2116
    2116 2116 2116 2116 2116 2116 2116 2116 2116 2116 2116 2116 2103
    2103 2103 2090 2090 2090 2090 2090 2103 2103 2103 2103 2103 2090
    2078 2078 2078 2078 2078 2078 2078 2116 2116 2184 2184 2156 2143
    2129 2129 2129 2129 2129 2129 2129 2129 2129 2116 2116 2116 2116
    2116 2116 2116 2116 2116 2116 2116 2116 2116 2116 2116 2116 2116
    2116 2116 2103 2103 2103 2103 2103 2103 2103 2103 2103 2103 2090
    2078 2078 2078 2078 2078 2078 2078 2103 2116 2184 2184 2170 2143
    2129 2129 2129 2129 2129 2129 2129 2129 2129 2129 2116 2116 2116
    2116 2116 2116 2116 2116 2116 2116 2116 2116 2116 2116 2116 2116
    2116 2116 2116 2116 2116 2103 2103 2103 2103 2103 2090 2090 2090
    2090 2078 2078 2078 2078 2090 2090 2103 2103 2170 2170 2156 2143
    2129 2129 2129 2129 2129 2129 2129 2129 2129 2129 2116 2116 2116
    2116 2116 2116 2116 2116 2116 2116 2116 2116 2116 2116 2116 2116
    2116 2116 2116 2116 2116 2116 2116 2103 2103 2103 2090 2090 2090
    2090 2090 2090 2078 2078 2090 2090 2090 2103 2143 2143 2156 2143
    2129 2129 2129 2129 2129 2129 2129 2129 2129 2129 2129 2116 2116
    2116 2116 2116 2116 2116 2116 2116 2116 2116 2116 2116 2116 2116
    2116 2116 2116 2116 2116 2116 2116 2103 2090 2090 2090 2090 2090
    2090 2090 2090 2090 2090 2090 2078 2078 2078 2143 2143 2143 2143
    2143 2129 2129 2129 2129 2129 2143 2129 2129 2129 2129 2129 2129
    2129 2129 2116 2116 2116 2116 2116 2116 2116 2116 2116 2116 2116
    2116 2116 2103 2103 2103 2103 2103 2090 2090 2090 2103 2103 2103
    2103 2090 2090 2090 2090 2090 2078 2078 4522 2156 2143 2143 2143
    2143 2143 2129 2129 2129 2129 2143 2129 2129 2129 2129 2129 2129
    2129 2129 2129 2129 2116 2116 2116 2116 2116 2116 2116 2116 2116
    2116 2116 2103 2103 2103 2103 2103 2090 2090 2090 2103 2103 2103
    2103 2103 2090 2090 2090 2090 2090 2090 4522 2156 2143 2143 2143
    2143 2143 2143 2143 2129 2129 2143 2129 2129 2129 2129 2129 2129
    2129 2129 2129 2129 2116 2116 2116 2116 2116 2116 2116 2116 2116
    2116 2116 2116 2116 2116 2116 2103 2103 2103 2103 2103 2103 2116
    2116 2103 2103 2103 2090 2090 2090 2090 4582 2156 2143 2143 2143
    2156 2156 2156 2143 2129 2129 2129 2129 2129 2129 2129 2129 2129
    2129 2129 2129 2129 2129 2116 2116 2116 2116 2116 2116 2116 2116
    2116 2116 2116 2116 2116 2103 2103 2103 2103 2103 2116 2116 2116
    2116 2116 2103 2103 2090 2090 2090 4708 4582 2156 2156 2156 2156
    2156 2156 2156 2143 2129 2129 2129 2129 2129 2129 2129 2129 2129
    2129 2129 2129 2129 2129 2116 2116 2116 2116 2129 2129 2116 2116
    2116 2116 2116 2116 2116 2103 2103 2103 2103 2116 2103 2103 2116
    2116 2116 2103 2103 2103 2103 2103 4645 4582 2143 2156 2156 2156
    2156 2156 2156 2143 2129 2129 2129 2129 2129 2129 2129 2129 2129
    2129 2129 2129 2129 2129 2116 2116 2116 2116 2129 2129 2116 2116
    2116 2116 2116 2116 2116 2116 2116 2116 2116 2116 2103 2103 2116
    2116 2116 2103 2103 2103 2103 2103 4645 4582 2143 2156 2156 2156
    2156 2143 2143 2143 2143 2143 2143 2143 2129 2129 2129 2129 2129
    2129 2143 2129 2129 2129 2129 2116 2116 2116 2116 2129 2116 2116
    2116 2116 2129 2116 2116 2116 2116 2116 2116 2116 2116 2116 2116
    2116 2103 2103 2103 2103 2103 2103 4645 4645 2156 2156 2156 2156
    2156 2143 2143 2156 2143 2143 2143 2143 2143 2129 2129 2129 2129
    2129 2143 2143 2129 2129 2129 2116 2116 2116 2116 2129 2129 2129
    2129 2129 2129 2129 2129 2116 2116 2116 2116 2116 2116 2116 2116
    2116 2103 2103 2103 2103 2103 4645 4645 4645 2156 2156 2156 2156
    2156 2143 2143 2156 2156 2156 2143 2143 2143 2129 2129 2129 2129
    2129 2143 2143 2129 2129 2129 2129 2129 2129 2129 2129 2129 2129
    2129 2129 2129 2129 2116 2116 2116 2116 2116 2116 2116 2116 2116
    2116 2103 2103 2103 2103 4582 4582 4645 4645 2156 2170 2156 2156
    2156 2156 2156 2156 2156 2156 2143 2143 2143 2129 2129 2129 2129
    2143 2143 2129 2129 2129 2129 2129 2129 2129 2129 2129 2129 2129
    2129 2129 2129 2129 2116 2116 2116 2116 2116 2116 2103 2103 2103
    2103 2116 2103 2103 2103 4582 4582 4645 4645 4983 2170 2156 2156
    2156 2156 2156 2156 2156 2156 2156 2143 2143 2143 2143 2143 2143
    2143 2143 2129 2129 2129 2129 2129 2129 2129 2129 2129 2129 2129
    2129 2129 2129 2116 2116 2116 2116 2116 2116 2116 2103 2103 2103
    2103 2116 2103 2103 2103 4645 4645 4645 4645 5056 5056 5056 2170
    2170 2156 2156 2170 2156 2156 2156 2156 2143 2143 2143 2143 2143
    2143 2143 2143 2129 2129 2143 2143 2143 2129 2129 2129 2129 2129
    2129 2129 2129 2116 2116 2116 2116 2116 2116 2116 2116 2116 2116
    2103 2103 2103 2103 2103 4645 4645 4645 4645 5056 5056 5056 5210
    5132 5056 4983 4983 2156 2156 2156 2170 2156 2156 2143 2143 2143
    2143 2143 2143 2129 2129 2143 2156 2156 2143 2129 2129 2143 2143
    2129 2129 2129 2129 2116 2116 2116 2116 2116 2116 2116 2116 2116
    2103 2103 2103 2103 4842 4708 4708 4708 4708 5132 5132 5132 5210
    5210 5132 5056 5056 5056 2170 2170 2170 2156 2143 2143 2143 2143
    2143 2143 2143 2143 2143 2156 2156 2156 2143 2143 2143 2143 2143
    2143 2129 2129 2129 2129 2129 2116 2116 2116 2116 2116 2116 2116
    2116 2103 2103 4774 4708 4708 4708 4708 4708 5132 5132 5132 5210
    5210 5132 5056 5056 5056 5056 2184 2170 2156 2143 2143 2143 2156
    2156 2156 2156 2156 2156 2156 2143 2143 2143 2143 2143 2143 2143
    2143 2129 2129 2129 2129 2129 2129 2129 2116 2116 2116 2116 2116
    2116 2116 4774 4774 4708 4708 4708 4708 4708 5132 5132 5132 5210
    5210 5132 5056 5056 5056 5056 5056 4983 4983 4983 2156 2156 2156
    2156 2156 2156 2156 2156 2156 2143 2143 2143 2143 2143 2143 2143
    2143 2129 2129 2129 2129 2129 2129 2129 2129 2116 2116 2116 2116
    2129 2129 4708 4708 4708 4708 4708 4708 4708 5132 5132 5132 5210
    5210 5132 5132 5056 5056 5056 5056 4983 4983 5056 5056 5132 5132
    2170 2156 2156 2156 2156 2156 2143 2143 2143 2143 2143 2143 2143
    2143 2129 2129 2129 2129 2129 2129 2129 2129 2129 2129 2116 2116
    2129 2129 4708 4708 4708 4708 4708 4708 4774 5132 5132 5132 5210
    5210 5132 5132 5132 5132 5132 5132 5056 5056 5132 5132 5132 5132
    5132 5056 2170 2170 2156 2156 2143 2143 2143 2143 2143 2143 2143
    2143 2129 2129 2129 2129 2129 2129 2129 2129 2129 2129 2116 2116
    2116 4708 4708 4708 4774 4774 4708 4708 4774 5132 5132 5132 5210
    5210 5132 5132 5132 5132 5132 5132 5132 5132 5132 5132 5132 5132
    5132 5056 5056 5056 5056 2156 2143 2143 2143 2143 2143 2143 2143
    2143 2129 2129 2129 2129 2129 2129 2129 2129 2129 2129 2116 2116
    2116 4774 4774 4774 4774 4774 4774 4774 4842 5132 5132 5132 5210
    5210 5210 5210 5132 5132 5210 5210 5210 5210 5210 5132 5132 5132
    5132 5056 5056 5056 5056 5056 4983 4983 2143 2143 2143 2143 2143
    2143 2143 2143 2143 2143 2129 2129 2129 2129 2129 2129 2129 2129
    2129 4774 4774 4774 4842 4842 4842 4842 4774 5210 5210 5210 5210
    5210 5210 5210 5210 5210 5210 5210 5210 5210 5210 5132 5132 5132
    5132 5132 5132 5056 5056 5056 5056 5056 5056 5056 2170 2156 2143
    2143 2143 2143 2143 2143 2129 2129 2129 2129 2129 2129 2129 2129
    2129 4842 4842 4842 4842 4842 4911 4842 4774 5210 5210 5210 5291
    5210 5210 5210 5210 5210 5210 5210 5291 5210 5210 5210 5210 5210
    5210 5132 5132 5132 5132 5056 5056 5056 5056 5056 5056 4983 2143
    2143 2143 2143 2143 2143 2143 2143 2143 2129 2129 2129 2129 2129
    4842 4842 4842 4842 4842 4911 4911 4842 4774 5210 5210 5210 5291
    5291 5291 5291 5210 5210 5210 5210 5291 5210 5210 5210 5210 5210
    5210 5210 5210 5210 5132 5056 5056 5132 5132 5056 5056 4983 4983
    2143 2143 2143 2156 2156 2143 2143 2143 2129 2129 2143 2143 2143
    4842 4842 4842 4842 4911 4911 4911 4842 4842</data></Depth2725>
</opencv_storage>
