<?xml version="1.0"?>
<opencv_storage>
<Depth14505 type_id="opencv-matrix">
  <rows>21</rows>
  <cols>52</cols>
  <dt>w</dt>
  <data>
    4190 4190 4190 4190 4190 4190 4295 4295 4295 4241 4241 4241 4241
    4241 4190 4190 4190 4241 4241 4241 4241 4241 4241 4241 4241 4241
    4241 4241 4241 4241 4241 4241 4295 4295 4349 4349 4349 3149 3149
    3208 3208 3208 3208 3269 3269 3269 3300 3300 3269 3269 0 0 4139 4139
    4139 4139 4139 4139 4241 4241 4241 4190 4190 4190 4190 4190 4190
    4190 4190 4190 4190 4190 4241 4241 4241 4241 4241 4241 4241 4241
    4241 4241 4241 4241 4241 4241 4349 3178 3178 3149 3149 3208 3178
    3178 3178 3178 3178 3178 3300 3300 3300 0 0 0 4139 4089 4089 4089
    4089 4089 4089 4089 4089 4089 4089 4139 4190 4190 4190 4139 4139
    4190 4190 4190 4190 4241 3120 3120 4241 4190 3120 3120 3092 3092
    3120 3120 3120 3120 3120 3149 3149 3178 3178 3208 3178 3178 3178
    3178 3178 3178 3208 3238 3238 0 0 0 3994 3994 3994 3994 3994 3994
    4041 4041 4089 4089 4089 4089 4139 4139 4139 4139 4139 4190 4190
    4190 4190 3064 3064 3120 3120 3120 3120 3120 3092 3092 3092 3120
    3092 3092 3120 3149 3149 3149 3149 3149 3149 3120 3120 3178 3178
    3178 3178 3208 3238 0 0 0 3948 3948 3948 3948 3948 3948 3994 4041
    4041 4041 4041 4041 4089 4089 4041 3037 3037 3092 4139 4139 3064
    3064 3064 3092 3092 3092 3092 3092 3092 3064 3064 3064 3064 3064
    3092 3120 3120 3120 3120 3149 3149 3120 3120 3178 3178 3178 3178
    3208 3208 3208 3178 3178 3903 3903 3903 3903 3948 3948 3994 4041
    4041 4041 3037 3037 3010 3010 3010 3010 3010 3037 3037 3037 3037
    3037 3037 3037 3037 3064 3064 3064 3092 3064 3064 3064 3064 3064
    3064 3120 3120 3120 3120 3120 3120 3120 3120 3178 3178 3178 3178
    3178 3208 3208 3178 3149 3903 3859 3859 3903 3948 2984 2984 4041
    3010 3010 3037 3037 3010 3010 3010 3010 3010 3010 2984 2984 2984
    2984 3010 3037 3037 3037 3037 3037 3037 3064 3064 3064 3064 3064
    3064 3092 3120 3120 3120 3120 3120 3149 3149 3178 3178 3178 3178
    3178 3208 3208 3178 3149 2883 2883 2908 2958 2958 2984 2958 2958
    2984 2984 3010 3010 3010 2984 2958 2958 2958 2958 2933 2933 2958
    2984 2984 3010 3037 3037 3037 3037 3037 3064 3064 3064 3064 3064
    3092 3092 3120 3120 3120 3120 3120 3120 3149 3149 3149 3149 3149
    3178 3178 3178 3178 3178 2883 2883 2908 2958 2958 2958 2933 2933
    2958 2958 2984 3010 3010 2984 2958 2958 2958 2958 2933 2933 2958
    2984 2984 3010 3037 3037 3037 3037 3037 3064 3064 3064 3092 3092
    3092 3092 3120 3120 3120 3120 3120 3120 3120 3149 3149 3149 3149
    3149 3149 3149 3178 3178 2883 2908 2908 2933 2933 2958 2933 2933
    2933 2933 2958 2984 2984 2933 2933 2933 2933 2933 2933 2958 2984
    2984 3010 3010 3037 3037 3037 3037 3037 3037 3064 3064 3092 3092
    3092 3092 3120 3120 3120 3120 3120 3120 3120 3149 3149 3149 3120
    3120 3120 3149 3178 3178 2812 2835 2835 2835 2883 2908 2908 2908
    2908 2908 2933 2933 2958 2933 2933 2933 2933 2933 2933 2984 2984
    2984 3010 3010 3010 3010 3037 3037 3037 3037 3064 3064 3064 3064
    3064 3064 3092 3092 3120 3120 3092 3092 3120 3149 3149 3149 3120
    3120 3120 3120 3120 0 2789 2812 2812 2812 2859 2883 2908 2908 2908
    2908 2933 2933 2958 2933 2933 2933 2933 2958 2984 2984 3010 3010
    3010 3010 3010 3010 3037 3037 3037 3037 3064 3064 3064 3037 3037
    3037 3064 3064 3092 3092 3092 3092 3120 3149 3149 3149 3149 3149
    3149 3064 3064 0 2789 2812 2812 2812 2859 2883 2908 2908 2908 2908
    2933 2933 2933 2933 2933 2933 2933 2958 2984 2984 3010 3010 3010
    3010 3010 3010 3010 3010 3010 3037 3037 3037 3037 3037 3037 3037
    3037 3064 3092 3092 3092 3092 3120 3178 3178 0 0 0 0 3064 3064 0
    2812 2812 2812 2835 2859 2883 2908 2908 2908 2908 2908 2933 2933
    2933 2933 2933 2958 2958 2984 2984 2984 2984 2984 3010 3010 3010
    3010 3010 3010 3010 3010 3010 3010 3010 3010 3010 3010 3010 3092
    3120 3120 3120 3120 3178 3208 0 0 0 0 0 0 0 2835 2835 2835 2859 2883
    2908 2908 2908 2908 2908 2908 2908 2908 2933 2933 2933 2933 2933
    2958 2958 2984 2984 2984 2984 3010 3010 3010 3010 3010 3010 3010
    3010 3010 3010 3010 3010 3010 3010 0 3120 3120 3120 3120 0 0 0 0 0 0
    0 0 0 2835 2835 2835 2859 2883 2908 2908 2908 2908 2908 2908 2908
    2908 2933 2933 2958 2933 2933 2933 2958 2958 2984 2984 2984 3010
    3010 3010 3010 3010 3010 3010 3010 3010 3010 3037 3010 3010 0 0 0 0
    0 0 0 0 0 0 0 0 0 0 0 2835 2835 2835 2859 2859 2908 2908 2908 2908
    2908 2908 2908 2933 2933 2958 2933 2933 2933 2933 2933 2933 2958
    2958 2984 2984 3010 3010 3010 3010 3010 3037 3037 3037 3037 0 0 0 0
    0 0 0 0 0 0 0 0 0 0 0 0 0 0 2835 2835 2835 2835 2835 2908 2908 2908
    2908 2908 2908 2933 2933 2933 2958 2933 2933 2908 2908 2933 2933
    2958 2958 2984 2984 3010 3010 3010 3010 3010 3037 3037 0 0 0 0 0 0 0
    0 0 0 0 0 0 0 0 0 0 0 0 0 1543 2835 2835 2835 2835 2859 2908 2908
    2933 2908 2908 2933 2933 2958 2958 2933 2933 2908 2908 2933 2933
    2958 2958 3010 2984 2984 2958 2933 2933 0 0 0 0 0 0 0 0 0 0 0 0 0 0
    0 0 0 0 0 0 0 0 0 1536 2835 2812 2812 2835 2859 2883 2908 2908 2883
    2883 2883 2933 2958 2958 2933 2933 2933 2933 2958 2958 0 0 0 2984
    2984 2958 2933 2933 0 0 0 0 0 0 0 0 0 0 0 0 0 0 0 0 0 0 0 0 0 0 0
    1536 0 2812 2812 2835 2835 2883 2908 2908 2883 2859 2859 2958 0 0
    2812 2812 2812 2835 2958 2958 0 0 0 0 0 0 0 0 0 0 0 0 0 0 0 0 0 0 0
    0 0 0 0 0 0 0 0 0 0 0 0</data></Depth14505>
</opencv_storage>
