<?xml version="1.0"?>
<opencv_storage>
<Depth3310 type_id="opencv-matrix">
  <rows>28</rows>
  <cols>38</cols>
  <dt>w</dt>
  <data>
    2883 2883 2883 2883 2883 2883 0 0 1936 1936 2723 2723 2723 2701 2680
    2680 2659 2639 2618 2618 2618 2618 2618 2618 2618 0 2103 2103 2103
    2090 2078 2065 2065 2129 2129 2143 2143 2143 2883 2883 2883 2883
    2883 2883 1970 1970 1936 1936 1936 1926 1926 1915 1904 1904 1904
    1904 1904 1915 1915 1926 1926 2639 2639 1970 2103 2103 2103 2090
    2090 2090 2090 2129 2129 2143 2143 2143 2883 2883 2883 2883 2883
    2883 1970 1970 1936 1926 1926 1926 1915 1915 1904 1904 1904 1904
    1904 1915 1915 1926 1926 1926 1947 1970 1959 1959 1959 2090 2090
    2090 2103 2129 2129 2143 2143 2143 2883 2883 2883 2883 2883 2883
    1970 1959 1936 1926 1926 1926 1915 1915 1904 1904 1904 1904 1904
    1904 1915 1926 1926 1926 1936 1947 1947 1947 1959 1959 2078 2078
    2116 2129 2129 2143 2143 2143 2908 2883 2883 2883 1970 1959 1959
    1947 1926 1926 1926 1915 1915 1915 1904 1904 1904 1904 1904 1904
    1915 1926 1926 1926 1936 1947 1947 1947 1947 1959 1959 1981 2103
    2129 2129 2143 2143 2143 2908 2908 2908 2908 1970 1970 1959 1947
    1926 1926 1926 1915 1915 1915 1904 1904 1904 1904 1904 1904 1915
    1926 1926 1926 1926 1936 1947 1947 1947 1959 1959 1970 2103 2129
    2129 2143 2129 2129 2908 2908 2908 2883 1970 1970 1970 1947 1926
    1926 1926 1915 1915 1904 1904 1904 1904 1904 1904 1904 1915 1926
    1926 1926 1926 1936 1947 1947 1959 1959 1970 1970 1981 2143 2143
    2143 2129 2129 2908 2883 2883 2883 2883 1970 1970 1947 1936 1936
    1926 1915 1915 1904 1904 1894 1894 1894 1904 1904 1915 1926 1926
    1926 1926 1936 1947 1947 1959 1959 1970 1970 1981 2129 2129 2143
    2129 2129 2908 2883 2883 2883 2883 1970 1970 1947 1936 1936 1926
    1915 1915 1915 1904 1894 1894 1894 1904 1904 1915 1926 1926 1926
    1936 1947 1947 1947 1959 1959 1970 1970 1981 2053 2053 2129 2129
    2129 2908 2908 2883 2883 1970 1970 1959 1959 1947 1936 1926 1915
    1915 1915 1904 1894 1894 1894 1904 1904 1915 1926 1926 1926 1936
    1947 1947 1947 1959 1959 1970 1970 1981 2040 2053 2053 2053 2053
    2883 2883 2883 1959 1959 1959 1959 1959 1947 1926 1915 1915 1904
    1904 1894 1894 1894 1904 1904 1904 1915 1915 1926 1936 1947 1947
    1947 1959 1959 1959 1970 1981 1993 2040 2040 2040 2053 2053 1947
    1936 1936 1936 1936 1936 1947 1936 1926 1915 1904 1904 1894 1894
    1883 1883 1894 1894 1904 1904 1904 1915 1926 1926 1947 1959 1959
    1959 1959 1970 1970 1981 1993 2028 2040 2040 2040 2040 1947 1936
    1936 1936 1926 1926 1926 1915 1915 1894 1883 1883 1873 1863 1863
    1863 1853 1853 1843 1843 1843 1915 1926 1926 1947 1959 1959 1959
    1959 1970 1970 1981 1993 2016 2040 2040 2040 2040 1947 1936 1926
    1926 1926 1926 1915 1904 1894 1883 1883 1883 1873 1863 1853 1853
    1833 1833 1823 1804 1794 1794 1785 1766 1766 1748 1748 1739 1731
    1722 1722 1713 1705 1696 1688 1688 1722 2053 1947 1936 1926 1926
    1915 1915 1904 1894 1883 1873 1873 1873 1853 1843 1843 1843 1833
    1833 1823 1804 1794 1794 1785 1766 1766 1748 1748 1739 1731 1722
    1722 1713 1705 1696 1688 1688 1680 1671 1947 1936 1926 1926 1915
    1915 1894 1894 1883 1873 1873 1873 1853 1843 1843 1843 1833 1823
    1804 1804 1804 1794 1785 1776 1776 1757 1748 1739 1731 1722 1722
    1713 1705 1696 1688 1688 1680 1663 1947 1936 1926 1926 1915 1904
    1894 1894 1883 1883 1883 1873 1863 1853 1843 1843 1833 1823 1804
    1804 1794 1794 1785 1776 1776 1757 1757 1748 1739 1731 1722 1722
    1713 1696 1688 1688 1680 1655 1947 1936 1926 1926 1926 1904 1894
    1894 1883 1883 1883 1873 1863 1853 1843 1843 1833 1833 1804 1804
    1794 1794 1785 1776 1776 1757 1757 1748 1739 1731 1722 1722 1713
    1705 1688 1688 1680 1655 1947 1936 1926 1926 1926 1915 1904 1894
    1894 1883 1883 1873 1863 1853 1843 1843 1833 1833 1813 1804 1804
    1794 1785 1776 1776 1757 1757 1748 1739 1731 1731 1722 1713 1713
    1696 1688 1680 1655 1936 1936 1926 1926 1915 1915 1904 1894 1894
    1883 1883 1873 1863 1853 1843 1843 1833 1833 1813 1804 1804 1794
    1785 1776 1776 1757 1757 1748 1739 1731 1731 1722 1713 1713 1696
    1696 1696 0 1936 1936 1926 1926 1915 1915 1904 1904 1894 1883 1883
    1873 1863 1853 1843 1843 1833 1833 1813 1804 1804 1804 1794 1776
    1776 1757 1757 1748 1739 1731 1731 1722 1713 1713 1705 1696 1696 0
    1936 1936 1926 1926 1915 1915 1904 1894 1894 1883 1883 1873 1863
    1853 1843 1833 1833 1813 1813 1804 1804 1804 1794 1785 1776 1757
    1757 1748 1739 1731 1731 1722 1713 1713 1705 1705 0 0 1936 1936 1926
    1926 1915 1904 1904 1894 1894 1883 1883 1873 1863 1853 1843 1833
    1833 1813 1813 1804 1804 1804 1794 1785 1776 1757 1757 1748 1739
    1739 1731 1722 1713 1713 1713 1713 0 0 1936 1936 1926 1926 1915 1904
    1894 1894 1883 1883 1883 1873 1863 1853 1843 1833 1833 1813 1813
    1804 1804 1794 1794 1785 1776 1757 1757 1748 1739 1731 1731 1722
    1713 1705 1705 1713 0 0 1936 1936 1936 1926 1915 1904 1894 1883 1883
    1873 1873 1873 1863 1853 1843 1833 1833 1823 1813 1813 1804 1794
    1785 1785 1776 1757 1757 1748 1739 1731 1722 1713 1713 1705 1705 0 0
    0 1936 1947 1936 1926 1915 1904 1894 1883 1863 1863 1863 1863 1853
    1853 1843 1833 1833 1823 1823 1813 1794 1785 1776 1776 1766 1757
    1757 1748 1739 1731 1722 1713 1713 1705 1705 0 0 0 0 0 0 1926 1915
    1904 1894 1883 1863 1853 1843 1843 1853 1853 1853 1853 0 1823 1823
    1813 1785 1766 1766 1757 1739 1739 1739 1748 1748 1739 1722 1713
    1713 1713 1713 0 0 0 0 0 0 0 0 0 0 0 0 1853 1843 1843 1853 0 0 0 0 0
    0 0 1785 1766 1766 1757 1739 1739 1739 1748 1748 1748 1722 1722 1713
    1713 0 0 0 0</data></Depth3310>
</opencv_storage>
