<?xml version="1.0"?>
<opencv_storage>
<Depth13623 type_id="opencv-matrix">
  <rows>26</rows>
  <cols>32</cols>
  <dt>w</dt>
  <data>
    4582 4582 4645 4645 4708 4708 4774 4842 4911 4911 4911 4842 4842
    4911 4911 2541 2541 2560 2560 2579 2579 2579 2579 2579 2598 5210
    5210 5210 5291 5291 5291 5374 4522 4522 4582 4582 4645 4645 4708
    4774 4842 4842 4842 4842 4774 4708 2560 2541 2541 2560 2560 2579
    2579 2579 2579 2579 2598 2598 5132 5132 5210 5291 5291 5291 4522
    4522 4522 4582 4645 4645 4708 4774 4774 2467 2467 2503 2503 2522
    2503 2503 2503 2503 2522 2579 2579 2579 2598 2598 2598 2598 2598
    2598 5210 5132 5132 5210 4463 4463 4522 4522 4582 4582 4645 4708
    4774 2467 2467 2485 2503 2503 2503 2503 2485 2485 2503 2522 2541
    2560 2598 2598 2598 2598 2598 2598 5132 5132 5132 5132 4463 4463
    4522 4522 4522 2450 2450 2450 2450 2450 2467 2485 2503 2503 2467
    2467 2467 2467 2485 2503 2522 2541 2579 2579 2598 2598 2598 2598
    5132 5132 5132 5132 4463 4463 4522 4522 4522 2450 2450 2450 2450
    2450 2450 2450 2450 2450 2467 2467 2467 2467 2485 2503 2522 2522
    2541 2541 2579 2598 2598 2618 5132 5132 5132 5132 4463 4463 4522
    4522 4522 2467 2467 2467 2450 2450 2450 2450 2450 2450 2467 2467
    2467 2467 2467 2485 2485 2503 2503 2541 2541 2579 2598 2618 2618
    5056 5056 5056 4405 4463 4463 2467 2450 2450 2450 2450 2467 2467
    2450 2450 2450 2450 2467 2467 2467 2467 2467 2485 2485 2503 2503
    2522 2522 2541 2541 2560 2579 4911 4911 5056 4405 4405 4405 2467
    2467 2450 2450 2450 2467 2450 2450 2432 2432 2432 2450 2450 2450
    2467 2467 2467 2485 2485 2485 2503 2503 2522 2541 2541 2560 4842
    4842 4842 4241 4241 0 2450 2450 2432 2432 2432 2450 2450 2432 2432
    2432 2432 2450 2450 2450 2450 2450 2467 2485 2485 2485 2485 2485
    2503 2522 2522 2541 4842 4842 4842 4190 0 2398 2450 2450 2432 2432
    2432 2432 2432 2432 2432 2432 2432 2450 2450 2450 2450 2450 2450
    2485 2485 2467 2467 2485 2485 2485 2503 2522 2560 4842 4842 4190
    2450 2398 2398 2398 2415 2415 2432 2432 2432 2432 2432 2415 2415
    2450 2450 2450 2450 2450 2450 2485 2467 2467 2467 2467 2467 2485
    2485 2522 2541 2541 4842 4190 2450 2432 2398 2398 2415 2415 2432
    2432 2415 2415 2432 2415 2415 2450 2450 2450 2450 2450 2450 2467
    2467 2467 2467 2467 2467 2485 2485 2522 2522 2541 2541 2432 2415
    2398 2381 2381 2415 2415 2415 2415 2415 2415 2432 2415 2415 2432
    2432 2432 2450 2450 2450 2467 2467 2467 2467 2467 2467 2467 2485
    2503 2522 2522 2522 2415 2415 2398 2381 2381 2415 2415 2415 2415
    2415 2415 2415 2415 2415 2415 2415 2432 2450 2450 2450 2467 2467
    2450 2450 2450 2450 2467 2485 2485 2503 2503 2503 2381 2398 2398
    2381 2381 2415 2398 2398 2398 2415 2398 2398 2415 2415 2415 2415
    2432 2432 2432 2432 2432 2450 2450 2450 2450 2450 2467 2485 2485
    2503 2503 2503 2365 2381 2398 2381 2381 2398 2398 2398 2398 2398
    2398 2398 2398 2398 2415 2415 2432 2432 2432 2432 2432 2450 2450
    2450 2450 2450 2467 2467 2485 2485 2503 2503 2365 2381 2415 2381
    2381 2398 2398 2398 2415 2398 2398 2398 2398 2398 2398 2398 2432
    2432 2432 2432 2432 2432 2432 2450 2450 2450 2467 2467 2485 2485
    2485 2467 2432 2415 2398 2398 2398 2415 2398 2398 2398 2398 2398
    2398 2398 2398 2398 2398 2398 2398 2398 2432 2432 2432 2432 2450
    2450 2450 2467 2467 2467 2467 2485 2467 2432 2398 2398 2381 2381
    2398 2398 2398 2398 2398 2398 2398 2398 2398 2398 2398 2398 2398
    2398 2432 2432 2432 2432 2450 2450 2450 2467 2467 2467 2467 2467
    2485 4139 2398 2398 2381 2381 2398 2398 2381 2381 2398 2398 2398
    2398 2398 2398 2398 2415 2398 2398 2432 2415 2415 2432 2432 2450
    2450 2450 2450 2467 2467 2467 2467 4089 2398 2398 2381 2381 2398
    2381 2381 2381 2398 2398 2398 2398 2398 2398 2398 2415 2398 2398
    2398 2415 2415 2432 2432 2450 2450 2450 2450 2467 2467 2485 2467
    3903 2398 2398 2398 2398 2398 2381 2381 2381 2381 2398 2398 2398
    2398 2415 2415 2432 2398 2398 2398 2415 2415 2432 2432 2450 2450
    2450 2450 2450 2450 2503 2503 3903 3859 2432 2398 2398 2398 2381
    2381 2381 2381 2398 2398 2415 2415 2415 2415 2415 2415 2415 2415
    2415 2432 2432 2432 2432 2432 2432 2450 2450 2450 2467 2467 3903
    3859 3816 2415 2398 2398 2381 2381 2381 2398 2398 2398 2415 2432
    2415 2415 2415 2415 2415 2415 2415 2398 2398 2398 2398 2398 2432
    2450 2450 2450 2450 2467 3903 3859 3816 2432 2432 2398 2381 2381
    2381 2398 2398 2415 2415 2432 2415 2415 2398 2398 2398 2398 2398
    2398 2398 2398 2398 2398 2432 2450 2450 2450 2450 4522</data></Depth13623>
</opencv_storage>
