<?xml version="1.0"?>
<opencv_storage>
<Depth3637 type_id="opencv-matrix">
  <rows>84</rows>
  <cols>102</cols>
  <dt>w</dt>
  <data>
    1119 1119 1123 1119 1119 1123 1123 1126 1126 1130 3010 3010 3010
    3010 3010 3010 3010 3010 3010 3037 3092 3064 3064 3064 3064 3092
    3120 1145 1145 1145 1145 1145 1145 3092 3092 3092 3092 3092 3092
    3092 3092 3092 3092 3092 3092 3092 3092 3092 3092 3092 3092 3092
    3092 3092 3092 3092 3092 3092 3092 3092 3092 3092 3092 3092 3092
    3092 3092 3092 3120 3120 3120 3120 3120 3120 3120 3120 3120 3120
    3120 3120 3120 3120 3120 3120 3120 3120 3120 3120 3120 3120 3120
    3120 3120 3120 3120 3120 3120 3120 3120 3092 3092 3092 1119 1119
    1123 1119 1119 1123 1123 1126 1130 1130 3010 3010 3010 3010 3010
    3010 3010 3010 3010 3064 3064 3010 3010 3037 3064 3092 3092 1145
    1145 1145 1141 1141 1145 1145 1145 1145 3092 3092 3092 3092 3092
    3092 3064 3064 3092 3092 3092 3092 3092 3092 3092 3092 3092 3092
    3092 3092 3092 3092 3092 3092 3092 3092 3092 3092 3092 3092 3092
    3092 3120 3120 3120 3120 3120 3120 3120 3120 3120 3120 3120 3120
    3120 3120 3120 3120 3120 3120 3120 3120 3120 3120 3120 3120 3120
    3120 3120 3120 3120 3120 3120 3092 3092 3092 1119 1119 1119 1119
    1119 1119 1123 1123 1126 1126 1126 3010 3010 3010 3010 3010 3010
    3010 3010 3064 3064 2984 2984 3037 3064 3092 1141 1141 1141 1141
    1141 1141 1145 1145 1145 1138 1138 1138 3092 3092 3092 3092 3064
    3064 3092 3092 3092 3092 3092 3092 3092 3092 3092 3092 3092 3092
    3092 3092 3092 3092 3092 3092 3092 3092 3092 3092 3092 3092 3120
    3120 3120 3120 3120 3120 3120 3120 3120 3120 3120 3120 3120 3092
    3092 3120 3120 3120 3120 3092 3092 3120 3120 3120 3120 3120 3120
    3120 3120 3120 3120 3092 3092 3092 1119 1119 1119 1119 1119 1119
    1123 1123 1126 1126 0 3010 3010 3010 2984 2984 3010 3010 3037 3064
    3064 2984 1145 1145 1145 1145 1138 1138 1141 1141 1141 1145 1145
    1145 1145 1138 1138 1145 1145 3092 3092 3092 3092 3092 3092 3092
    3092 3092 3092 3092 3092 3092 3092 3092 3092 3092 3092 3092 3092
    3092 3092 3092 3092 3092 3092 3092 3092 3092 3120 3120 3120 3120
    3120 3120 3120 3120 3120 3120 3120 3120 3120 3092 3092 3120 3120
    3120 3092 3092 3092 3120 3120 3120 3120 3120 3120 3120 3120 3092
    3092 3092 3092 3092 1115 1119 1119 1119 1119 1119 1123 1123 1123
    1123 0 3010 3010 3010 2984 2984 3010 3037 3092 3064 3064 3064 1145
    1145 1145 1141 1138 1138 1141 1141 1141 1145 1145 1145 1145 1145
    1145 1145 1145 1149 1149 3092 3092 3092 3092 3092 3092 3092 3092
    3092 3092 3092 3092 3092 3092 3092 3092 3092 3092 3092 3092 3092
    3092 3092 3092 3092 3092 3092 3120 3120 3120 3120 3120 3120 3120
    3120 3120 3120 3120 3120 3120 3120 3120 3120 3120 3120 3092 3092
    3120 3120 3120 3120 3120 3120 3120 3120 3092 3092 3092 3092 3092
    3092 1115 1119 1119 1119 1119 1119 1123 1123 1123 1123 0 0 3010 3010
    3010 3010 3037 3064 3092 3092 3092 3092 1145 1145 1134 1134 1134
    1138 1141 1141 1141 1145 1145 1145 1145 1145 1145 1145 1145 1145
    1149 1149 3120 3120 3092 3092 3092 3092 3092 3092 3092 3092 3092
    3092 3092 3092 3120 3092 3092 3092 3092 3092 3092 3092 3064 3064
    3064 3092 3120 3120 3120 3120 3120 3120 3120 3120 3120 3120 3120
    3120 3120 3120 3120 3120 3120 3120 3092 3092 3120 3120 3120 3120
    3120 3120 3120 3120 3092 3092 3092 3120 3120 3120 1115 1119 1119
    1119 1119 1119 1123 1126 1177 1177 0 0 3010 3010 3010 3037 3064 3092
    3092 3092 3092 1134 1145 1145 1134 1134 1134 1138 1141 1141 1141
    1145 1145 1145 1145 1145 1145 1145 1145 1145 1149 1149 1149 1149
    3092 3092 3092 3092 3092 3092 3092 3092 3092 3092 3092 3120 3092
    3092 3092 3092 3092 3092 3092 3092 3064 3064 3064 3092 3120 3120
    3120 3120 3120 3120 3120 3120 3120 3120 3120 3120 3120 3120 3120
    3120 3120 3120 3092 3092 3120 3120 3120 3120 3120 3120 3120 3120
    3092 3092 3092 3120 3120 3120 1115 1115 1119 1119 1119 1123 1126
    1134 1153 1177 0 0 0 3010 3010 3037 3092 3092 3092 3092 0 1134 1134
    1134 1134 1134 1138 1138 1141 1141 1141 1145 1145 1145 1141 1141
    1141 1141 1145 1145 1145 1149 1149 1149 1149 1149 1149 1153 3120
    3092 3092 3092 3092 3092 3092 3092 3092 3092 3092 3092 3092 3092
    3092 3092 3092 3092 3092 3092 3120 3120 3120 3120 3120 3120 3120
    3120 3120 3120 3120 3120 3120 3120 3120 3120 3120 3120 3092 3092
    3120 3120 3120 3120 3120 3120 3120 3120 3120 3120 3120 3120 3120
    3120 1115 1115 1115 1115 1119 1123 1134 1145 1149 0 0 0 0 0 0 0 3092
    3092 3092 3092 0 1134 1134 1134 1134 1134 1138 1138 1138 1138 1141
    1141 1141 1145 1141 1141 1141 1141 1145 1145 1145 1145 1145 1145
    1145 1149 1149 1149 1149 1149 3092 3092 3092 3092 3092 3092 3092
    3092 3092 3092 3092 3092 3092 3092 3092 3092 3092 3092 3120 3120
    3120 3120 3120 3120 3120 3120 3120 3120 3120 3120 3120 3120 3120
    3120 3120 3120 3120 3120 3120 3120 3120 3120 3120 3120 3120 3120
    3120 3120 3120 3120 3120 3120 1115 1115 1115 1115 1119 1126 1138
    1145 1145 0 0 0 0 0 0 0 3092 3092 3092 3092 0 1134 1134 1134 1138
    1138 1138 1138 1138 1138 1141 1141 1141 1141 1141 1141 1145 1145
    1145 1145 1145 1145 1145 1145 1145 1149 1149 1149 1149 1149 1149
    3092 3092 3064 3064 3092 3092 3092 3092 3092 3092 3092 3092 3092
    3092 3092 3092 3092 3120 3092 3092 3092 3092 3120 3120 3120 3120
    3120 3120 3120 3120 3120 3120 3120 3120 3120 3120 3120 3120 3120
    3120 3120 3120 3120 3120 3120 3120 3120 3120 3120 3120 3120 1115
    1115 1115 1115 1123 1141 1145 1145 1145 0 0 0 0 0 0 0 0 0 0 0 0 1134
    1134 1134 1134 1138 1138 1138 1138 1138 1138 1138 1141 1141 1145
    1145 1145 1145 1145 1145 1145 1145 1145 1145 1145 1149 1149 1149
    1149 1149 1149 1149 3064 3064 3064 3064 3092 3092 3092 3092 3092
    3092 3092 3092 3092 3092 3092 3092 3120 3092 3092 3092 3092 3120
    3120 3120 3120 3120 3120 3120 3120 3120 3120 3120 3120 3120 3120
    3092 3092 3120 3092 3092 3120 3120 3120 3120 3120 3120 3120 3120
    3120 3120 1115 1115 1119 1126 1134 1157 1153 1145 1145 0 0 0 0 0 0 0
    0 0 0 0 1134 1134 1134 1134 1134 1138 1138 1134 1134 1134 1138 1138
    1141 1141 1141 1141 1145 1141 1141 1145 1145 1145 1145 1145 1145
    1145 1149 1149 1149 1149 1149 1149 1153 1153 3064 3064 3092 3092
    3092 3092 3092 3120 3120 3092 3092 3092 3092 3092 3120 3092 3092
    3092 3120 3120 3120 3120 3120 3120 3120 3120 3120 3120 3120 3120
    3120 3120 3120 3092 3092 3092 3092 3092 3120 3120 3120 3120 3120
    3120 3120 3120 3120 3120 1115 1115 1119 1130 1141 1161 1161 1177 0 0
    0 0 0 0 0 0 0 0 0 1130 1126 1126 1134 1134 1134 1134 1134 1134 1134
    1134 1134 1138 1141 1141 1141 1141 1141 1141 1141 1145 1145 1145
    1145 1145 1145 1145 1145 1149 1149 1149 1149 1149 1149 1149 1149
    1149 3120 3120 3120 3120 3120 3120 3120 3120 3120 3120 3120 3120
    3120 3120 3120 3120 3120 3120 3120 3120 3120 3120 3120 3120 3120
    3120 3120 3120 3120 3120 3120 3120 3120 3092 3092 3092 3120 3120
    3120 3120 3120 3120 3120 3120 3120 3120 1119 1119 1123 1134 1157
    1161 1165 1177 0 0 0 0 0 0 0 0 0 0 0 1130 1126 1126 1134 1134 1134
    1134 1134 1134 1134 1134 1134 1134 1134 1134 1138 1138 1141 1141
    1141 1141 1141 1141 1145 1145 1145 1145 1145 1145 1145 1149 1149
    1149 1149 1149 1149 1149 1149 1149 3120 3120 3120 3120 3120 3120
    3120 3120 3120 3120 3120 3120 3120 3120 3120 3120 3120 3120 3120
    3120 3120 3120 3120 3120 3120 3120 3120 3120 3120 3120 3120 3120
    3120 3120 3120 3120 3120 3120 3120 3120 3120 3120 3120 3120 1119
    1123 1130 1145 1157 1165 1169 0 0 0 0 0 0 0 0 0 0 1141 1134 1130
    1130 1130 1130 1134 1134 1134 1134 1134 1134 1134 1134 1134 1134
    1134 1138 1138 1141 1141 1138 1138 1141 1141 1141 1145 1145 1145
    1145 1145 1145 1149 1149 1149 1149 1149 1149 1149 1149 1149 1149
    1149 3149 3120 3092 3092 3092 3092 3120 3120 3120 3120 3120 3120
    3120 3120 3120 3120 3120 3120 3120 3120 3120 3120 3120 3120 3120
    3120 3120 3120 3120 3120 3120 3120 3120 3120 3120 3120 3120 3120
    3120 3120 3120 3120 1119 1126 1134 1149 1161 1173 1181 0 0 0 0 0 0 0
    0 0 1149 1141 1134 1130 1130 1130 1130 1130 1130 1134 1134 1134 1134
    1134 1134 1134 1134 1134 1134 1134 1138 1141 1138 1138 1141 1141
    1141 1145 1145 1145 1145 1145 1145 1149 1149 1149 1149 1149 1145
    1145 1149 1149 1145 1145 1145 3092 3092 3092 3092 3092 3092 3120
    3120 3120 3120 3120 3120 3120 3120 3120 3120 3120 3120 3120 3120
    3120 3120 3120 3120 3120 3120 3120 3120 3120 3120 3120 3120 3120
    3120 3120 3120 3120 3120 3120 3120 3120 1119 1130 1141 1149 1161
    1177 1185 0 0 0 0 0 0 0 0 1145 1145 1138 1134 1134 1130 1130 1126
    1126 1130 1134 1134 1134 1134 1134 1134 1134 1134 1134 1134 1134
    1138 1141 1141 1141 1141 1141 1141 1145 1145 1145 1145 1145 1145
    1145 1145 1145 1145 1145 1145 1145 1149 1149 1145 1145 1141 1141
    1141 3092 3092 3092 3092 3120 3120 3120 3120 3120 3120 3120 3120
    3120 3120 3120 3120 3120 3120 3120 3120 3120 3092 3092 3120 3120
    3120 3120 3120 3120 3120 3120 3120 3120 3120 3120 3120 3120 3120
    3120 1123 1138 1149 1157 1165 1189 1193 0 0 0 0 0 0 0 0 1145 1134
    1134 1134 1130 1130 1130 1126 1126 1130 1134 1134 1134 1134 1134
    1134 1134 1134 1134 1134 1134 1134 1141 1141 1141 1141 1141 1145
    1145 1141 1141 1145 1145 1145 1145 1145 1145 1145 1145 1145 1145
    1149 1149 1149 1149 1141 1141 1149 1149 1149 3120 3120 3120 3120
    3120 3120 3120 3120 3120 3120 3120 3120 3120 3120 3120 3120 3120
    3120 3120 3092 3092 3120 3120 3120 3120 3120 3120 3120 3120 3120
    3120 3120 3120 3120 3120 3120 3120 1126 1149 1153 1161 1185 1197
    1206 1227 0 0 0 0 0 0 0 0 1126 1126 1126 1130 1126 1126 1126 1126
    1130 1134 1134 1134 1134 1134 1134 1134 1134 1134 1134 1134 1134
    1138 1141 1141 1141 1141 1141 1145 1141 1141 1141 1141 1145 1145
    1145 1145 1145 1145 1145 1145 1145 1145 1149 1149 1149 1149 1149
    1149 1153 1149 1149 3149 3149 3149 3120 3120 3120 3120 3120 3120
    3120 3120 3120 3120 3120 3120 3120 3120 3120 3120 3120 3120 3120
    3120 3120 3120 3120 3120 3120 3120 3120 3120 3120 3120 3120 3120
    1145 1153 1161 1169 1193 1206 1219 1227 0 0 0 0 0 0 0 1119 1119 1126
    1126 1130 1126 1126 1126 1126 1130 1134 1134 1134 1134 1134 1134
    1134 1134 1134 1134 1134 1134 1138 1138 1138 1138 1141 1141 1141
    1141 1141 1141 1141 1141 1141 1145 1145 1145 1145 1145 1145 1145
    1145 1145 1145 1149 1149 1149 1149 1153 1149 1149 1149 1149 3120
    3120 3120 3120 3120 3120 3120 3120 3120 3120 3120 3120 3120 3120
    3120 3120 3120 3120 3120 3120 3120 3120 3120 3120 3120 3120 3120
    3120 3120 3120 3120 3120 3120 1149 1161 1165 1189 1197 1214 1219
    1227 0 0 0 0 0 0 1126 1119 1119 1123 1126 1130 1130 1130 1130 1130
    1130 1134 1134 1134 1134 1134 1134 1134 1134 1134 1134 1134 1134
    1134 1138 1138 1138 1138 1141 1141 1141 1141 1141 1141 1141 1141
    1145 1145 1145 1145 1145 1145 1145 1145 1145 1145 1145 1145 1149
    1149 1153 1153 1149 1149 1149 1149 1153 1153 3120 3120 3120 3120
    3120 3120 3120 3120 3120 3120 3120 3120 3120 3120 3120 3120 3120
    3120 3120 3120 3120 3120 3120 3120 3120 3120 3120 3120 3120 3120
    1126 1197 1197 1197 1202 1223 1223 1232 0 0 0 0 0 1134 1126 1119
    1119 1123 1126 1130 1130 1130 1130 1130 1130 1134 1134 1134 1134
    1134 1134 1134 1134 1134 1134 1134 1134 1134 1134 1134 1138 1138
    1141 1141 1141 1141 1141 1141 1141 1141 1141 1145 1145 1145 1145
    1145 1145 1145 1145 1145 1145 1145 1149 1149 1153 1153 1153 1153
    1149 1149 1153 1153 1153 1153 3120 3120 3120 3120 3120 3120 3120
    3120 3120 3120 3120 3120 3120 3120 3120 3120 3120 3120 3120 3120
    3120 3120 3120 3120 3120 3120 3120 3120 1126 1206 1206 1206 1210
    1227 1227 1236 0 0 0 0 0 1134 1130 1126 1126 1126 1126 1130 1126
    1126 1126 1126 1130 1134 1130 1130 1130 1130 1134 1134 1134 1134
    1134 1134 1134 1134 1134 1134 1138 1138 1141 1141 1141 1141 1141
    1141 1141 1141 1141 1141 1145 1145 1145 1145 1145 1145 1145 1145
    1145 1145 1149 1149 1153 1153 1153 1153 1153 1153 1153 1153 1153
    1153 1153 1153 3120 3120 3120 3120 3120 3120 3120 3120 3120 3120
    3120 3120 3120 3120 3120 3120 3120 3120 3120 3120 3120 3120 3120
    3120 3120 3120 1210 1210 1210 1210 1214 1232 1232 0 0 0 0 0 1134
    1126 1126 1126 1126 1126 1126 1126 1126 1126 1126 1126 1130 1130
    1130 1130 1130 1130 1130 1130 1134 1134 1134 1134 1134 1134 1134
    1134 1138 1141 1141 1141 1141 1141 1141 1141 1141 1141 1141 1141
    1145 1145 1145 1145 1145 1145 1145 1145 1145 1145 1145 1149 1153
    1149 1149 1149 1153 1153 1153 1153 1153 1153 1153 1153 1153 1149
    1149 3120 3120 3120 3120 3120 3120 3120 3120 3120 3120 3120 3120
    3120 3120 3120 3120 3120 3120 3120 3120 3120 3120 3120 1165 1214
    1214 1214 1227 1236 0 0 0 0 0 0 1126 1126 1126 1126 1123 1123 1126
    1126 1126 1126 1126 1126 1130 1130 1130 1130 1130 1130 1130 1130
    1130 1134 1134 1134 1138 1138 1138 1138 1138 1141 1141 1141 1141
    1141 1141 1141 1141 1141 1141 1141 1145 1145 1141 1141 1141 1145
    1145 1145 1145 1145 1145 1149 1149 1149 1149 1149 1153 1153 1153
    1153 1153 1153 1153 1153 1153 1149 1149 1153 1153 3120 3120 3120
    3120 3120 3120 3120 3120 3120 3120 3120 3120 3092 3092 3120 3120
    3120 3120 3120 3120 3120 1165 0 0 0 0 0 0 0 0 0 0 1123 1123 1123
    1123 1123 1123 1123 1126 1126 1126 1126 1126 1126 1126 1130 1130
    1130 1130 1130 1130 1130 1130 1134 1134 1134 1134 1134 1138 1138
    1138 1138 1138 1138 1138 1138 1138 1141 1141 1141 1141 1141 1145
    1145 1141 1141 1141 1141 1145 1145 1145 1145 1145 1149 1149 1149
    1149 1149 1153 1153 1153 1153 1153 1153 1153 1153 1153 1153 1153
    1153 1157 1157 3120 3120 3120 3120 3120 3120 3120 3120 3120 3120
    3092 3092 3092 3120 3120 3120 3120 3120 3120 3120 1193 1193 0 0 0 0
    0 0 0 0 1123 1123 1123 1123 1119 1119 1119 1123 1123 1123 1126 1126
    1126 1126 1126 1130 1130 1130 1130 1130 1130 1130 1130 1134 1134
    1134 1134 1134 1138 1138 1138 1138 1138 1138 1138 1138 1138 1141
    1141 1141 1141 1141 1141 1145 1141 1141 1141 1141 1145 1145 1145
    1145 1145 1149 1149 1149 1149 1149 1153 1153 1153 1153 1153 1153
    1153 1153 1153 1153 1153 1153 1157 1157 1157 3120 3120 3120 3120
    3120 3120 3120 3120 3120 3092 3092 3120 3120 3120 3120 3120 3120
    3120 3120 1193 1193 1193 0 0 0 0 0 0 1126 1123 1119 1119 1119 1119
    1119 1119 1119 1119 1123 1126 1126 1126 1126 1126 1126 1126 1126
    1126 1130 1130 1130 1130 1130 1130 1134 1134 1134 1134 1134 1138
    1138 1134 1134 1134 1134 1134 1138 1138 1138 1141 1141 1141 1141
    1141 1141 1141 1141 1141 1141 1141 1145 1145 1149 1149 1149 1149
    1149 1153 1149 1149 1149 1149 1149 1149 1153 1153 1153 1153 1153
    1157 1157 1157 1157 3149 3120 3120 3120 3120 3120 3120 3120 3120
    3120 3120 3120 3120 3120 3120 3120 3120 3120 1197 1193 1193 0 0 0 0
    0 0 1119 1119 1119 1119 1119 1119 1119 1119 1119 1119 1123 1126 1126
    1126 1126 1126 1126 1126 1126 1126 1126 1130 1130 1130 1130 1130
    1130 1130 1134 1134 1134 1134 1134 1134 1134 1134 1134 1134 1134
    1134 1134 1138 1138 1138 1141 1141 1141 1141 1141 1141 1141 1141
    1141 1145 1149 1149 1149 1149 1149 1149 1149 1149 1149 1149 1149
    1149 1149 1149 1149 1153 1153 1153 1157 1157 1157 1153 1153 1153
    3120 3120 3120 3120 3120 3120 3120 3120 3120 3120 3120 3120 3120
    3120 3120 1202 1193 1193 0 0 0 0 0 1115 1115 1115 1119 1119 1119
    1119 1119 1119 1119 1119 1123 1119 1119 1123 1123 1126 1126 1126
    1126 1126 1126 1130 1130 1130 1130 1130 1130 1130 1130 1134 1134
    1134 1134 1134 1134 1134 1134 1134 1134 1134 1134 1138 1138 1138
    1138 1138 1138 1138 1141 1141 1141 1141 1141 1145 1149 1149 1149
    1149 1149 1149 1149 1149 1149 1149 1149 1149 1149 1149 1149 1149
    1149 1153 1153 1153 1153 1153 1153 1153 1153 3149 3149 3120 3120
    3120 3120 3120 3120 3120 3120 3120 3120 3120 3120 1210 1202 1202 0 0
    0 0 0 1115 1115 1115 1115 1119 1119 1119 1119 1119 1119 1119 1119
    1119 1119 1119 1123 1126 1126 1126 1126 1130 1130 1130 1130 1130
    1130 1130 1130 1130 1130 1134 1134 1134 1134 1134 1134 1134 1134
    1134 1134 1134 1134 1138 1138 1138 1138 1138 1138 1138 1141 1141
    1141 1141 1141 1141 1149 1149 1149 1149 1149 1149 1149 1149 1149
    1149 1149 1149 1149 1149 1149 1149 1149 1149 1153 1153 1153 1153
    1153 1153 1153 1153 1153 3149 3149 3120 3120 3120 3120 3120 3120
    3120 3120 3120 3120 1214 1214 1214 0 0 0 1112 1112 1112 1115 1115
    1115 1119 1119 1119 1119 1119 1119 1119 1119 1119 1119 1119 1126
    1126 1126 1126 1126 1126 1130 1130 1130 1130 1130 1130 1130 1130
    1130 1130 1134 1134 1134 1134 1134 1134 1134 1134 1134 1134 1134
    1138 1138 1138 1138 1138 1138 1138 1141 1141 1141 1141 1141 1141
    1145 1149 1149 1149 1149 1149 1149 1149 1149 1149 1149 1149 1149
    1149 1149 1149 1149 1149 1153 1149 1149 1153 1153 1153 1153 1153
    1153 1153 1153 1153 3120 3120 3120 3092 3092 3092 3120 3120 3120
    1214 2958 2958 0 0 0 1112 1112 1112 1115 1115 1115 1119 1119 1119
    1119 1119 1119 1119 1119 1119 1119 1119 1126 1126 1126 1123 1123
    1126 1126 1130 1130 1130 1130 1130 1130 1130 1130 1130 1130 1134
    1134 1134 1134 1134 1134 1134 1134 1134 1134 1134 1134 1138 1138
    1138 1138 1138 1141 1141 1141 1141 1141 1141 1145 1145 1149 1149
    1149 1149 1149 1149 1149 1149 1149 1149 1149 1149 1149 1149 1149
    1149 1149 1149 1149 1149 1153 1153 1153 1153 1153 1153 1153 1153
    1157 1157 1157 3092 3092 3092 3092 3120 3120 2958 2958 2984 0 0 1112
    1112 1112 1115 1115 1115 1119 1119 1119 1119 1119 1119 1119 1119
    1119 1119 1119 1119 1123 1126 1126 1123 1123 1126 1126 1130 1130
    1130 1130 1130 1130 1130 1130 1130 1130 1130 1130 1134 1134 1134
    1134 1134 1134 1134 1134 1134 1134 1138 1138 1138 1138 1138 1138
    1138 1138 1138 1141 1141 1141 1145 1145 1149 1149 1149 1149 1149
    1149 1149 1149 1149 1149 1149 1149 1149 1149 1149 1149 1149 1149
    1149 1149 1149 1153 1153 1153 1153 1153 1153 1153 1153 1153 1153
    1153 3092 3092 3120 3120 2984 2984 2984 0 0 1112 1112 1112 1115 1115
    1119 1119 1119 1119 1119 1119 1119 1119 1119 1119 1119 1119 1119
    1123 1123 1123 1123 1123 1126 1126 1126 1126 1130 1130 1130 1130
    1130 1130 1130 1130 1130 1130 1130 1134 1134 1134 1134 1134 1134
    1134 1134 1134 1134 1134 1138 1138 1138 1138 1138 1134 1134 1138
    1141 1141 1145 1145 1145 1149 1149 1149 1149 1149 1149 1149 1149
    1149 1149 1149 1149 1149 1149 1149 1149 1149 1149 1149 1149 1149
    1149 1153 1153 1153 1153 1153 1153 1153 1153 1153 1153 3120 3120
    3120 3010 3010 3010 3010 0 1115 1115 1115 1115 1115 1115 1115 1119
    1119 1115 1115 1115 1119 1119 1119 1119 1119 1119 1119 1119 1119
    1119 1123 1126 1126 1126 1126 1126 1130 1130 1130 1130 1130 1130
    1130 1130 1130 1130 1130 1130 1134 1134 1134 1134 1134 1134 1134
    1134 1134 1134 1134 1134 1138 1134 1134 1134 1138 1138 1141 1141
    1141 1145 1145 1149 1145 1145 1145 1145 1149 1149 1149 1149 1149
    1149 1149 1149 1149 1149 1149 1149 1149 1149 1149 1149 1149 1149
    1153 1153 1149 1149 1153 1153 1153 1153 1153 3120 3120 3010 3010
    3010 1119 1115 1115 1115 1115 1115 1115 1115 1115 1115 1115 1115
    1115 1115 1119 1119 1119 1119 1119 1119 1119 1119 1119 1119 1123
    1119 1119 1123 1123 1126 1126 1126 1126 1126 1126 1130 1130 1130
    1130 1130 1130 1130 1130 1130 1130 1134 1134 1134 1134 1134 1134
    1134 1134 1134 1134 1134 1134 1134 1138 1138 1141 1141 1141 1141
    1145 1145 1145 1145 1145 1145 1145 1149 1149 1149 1149 1149 1149
    1149 1149 1149 1149 1149 1149 1149 1149 1149 1149 1149 1149 1149
    1149 1149 1153 1153 1153 1153 1153 1153 3149 3010 3010 3010 1119
    1119 1115 1115 1115 1115 1115 1115 1115 1115 1115 1115 1115 1115
    1119 1119 1119 1119 1119 1119 1119 1119 1119 1119 1119 1119 1119
    1119 1123 1123 1126 1126 1126 1126 1126 1130 1130 1130 1130 1130
    1130 1130 1130 1130 1130 1134 1134 1134 1134 1134 1134 1134 1134
    1134 1134 1134 1134 1134 1134 1134 1141 1138 1138 1141 1141 1145
    1145 1145 1145 1145 1145 1145 1145 1145 1149 1149 1149 1149 1149
    1149 1149 1149 1149 1149 1149 1149 1149 1149 1149 1149 1149 1149
    1153 1153 1153 1153 1153 1153 1153 3037 3037 1115 1115 1115 1115
    1115 1115 1115 1115 1115 1115 1115 1115 1115 1115 1115 1119 1119
    1119 1119 1119 1119 1119 1119 1119 1119 1119 1119 1119 1119 1123
    1123 1126 1126 1126 1126 1126 1130 1130 1130 1130 1130 1130 1130
    1130 1130 1130 1130 1130 1134 1134 1134 1134 1134 1134 1134 1134
    1134 1134 1134 1134 1134 1141 1138 1138 1141 1141 1141 1141 1141
    1141 1141 1145 1145 1145 1145 1149 1149 1149 1149 1149 1149 1149
    1149 1149 1149 1149 1149 1149 1149 1149 1149 1149 1149 1153 1153
    1153 1153 1153 1153 1153 3037 0 1115 1115 1115 1115 1115 1115 1115
    1115 1115 1115 1115 1115 1115 1115 1115 1119 1119 1119 1119 1119
    1119 1119 1119 1119 1119 1119 1119 1119 1119 1123 1123 1123 1123
    1123 1123 1126 1126 1130 1130 1130 1130 1130 1130 1130 1130 1130
    1130 1130 1130 1134 1134 1134 1134 1134 1134 1134 1134 1134 1134
    1138 1138 1141 1138 1138 1138 1138 1138 1141 1141 1141 1141 1141
    1141 1145 1145 1145 1145 1145 1145 1145 1149 1149 1149 1149 1149
    1149 1149 1149 1149 1149 1149 1149 1149 1153 1153 1153 1153 1153
    1153 1153 3037 1112 1112 1108 1108 1112 1112 1112 1112 1112 1112
    1115 1115 1115 1115 1115 1115 1115 1115 1115 1115 1119 1119 1119
    1119 1119 1119 1119 1119 1119 1119 1123 1123 1123 1123 1123 1123
    1126 1126 1126 1130 1130 1130 1130 1130 1130 1130 1130 1130 1130
    1130 1130 1130 1130 1130 1130 1134 1134 1134 1134 1134 1134 1134
    1138 1138 1138 1138 1138 1138 1141 1141 1141 1141 1141 1141 1145
    1145 1145 1145 1145 1145 1145 1145 1145 1145 1145 1149 1149 1149
    1149 1149 1149 1149 1149 1149 1153 1153 1153 1153 1153 1157 1161
    3037 1108 1108 1108 1108 1108 1108 1108 1112 1112 1112 1115 1115
    1115 1115 1115 1115 1115 1115 1115 1115 1115 1119 1119 1119 1119
    1119 1119 1119 1119 1123 1123 1123 1123 1123 1123 1123 1123 1123
    1123 1126 1130 1130 1130 1130 1130 1130 1130 1130 1130 1130 1130
    1130 1130 1130 1130 1130 1130 1134 1134 1134 1134 1134 1138 1138
    1138 1138 1138 1138 1138 1141 1141 1141 1141 1141 1141 1141 1141
    1141 1145 1145 1145 1145 1145 1145 1145 1145 1145 1145 1145 1149
    1149 1149 1149 1149 1153 1153 1157 1157 1157 1161 1161 1105 1108
    1108 1108 1108 1108 1108 1108 1108 1108 1112 1115 1115 1115 1115
    1115 1115 1115 1115 1115 1115 1115 1115 1119 1119 1119 1119 1119
    1119 1119 1119 1119 1123 1123 1123 1123 1119 1119 1123 1123 1123
    1126 1130 1130 1130 1130 1130 1130 1130 1130 1130 1130 1130 1130
    1130 1130 1130 1130 1134 1134 1134 1134 1134 1138 1138 1138 1138
    1138 1138 1138 1141 1141 1141 1141 1141 1141 1141 1138 1138 1141
    1141 1141 1141 1141 1145 1145 1145 1145 1145 1145 1145 1149 1149
    1149 1149 1149 1149 1157 1161 1165 1161 1161 1105 1105 1105 1108
    1108 1108 1108 1105 1105 1108 1112 1112 1115 1112 1112 1112 1112
    1112 1115 1115 1115 1115 1115 1119 1119 1119 1119 1119 1119 1119
    1119 1119 1123 1123 1123 1123 1119 1119 1119 1119 1123 1123 1126
    1130 1130 1130 1130 1130 1130 1130 1130 1130 1130 1130 1130 1130
    1130 1130 1130 1130 1130 1134 1134 1138 1138 1138 1138 1138 1138
    1138 1138 1141 1141 1141 1141 1141 1138 1138 1138 1141 1141 1141
    1141 1141 1141 1141 1145 1145 1145 1145 1145 1145 1145 1145 1149
    1149 1149 1153 1153 1165 1165 1165 1105 1101 1101 1108 1105 1105
    1105 1105 1105 1108 1112 1112 1112 1112 1112 1112 1112 1112 1115
    1115 1115 1115 1115 1115 1115 1115 1115 1119 1119 1119 1119 1119
    1119 1119 1123 1123 1119 1119 1119 1119 1123 1123 1123 1126 1130
    1130 1130 1130 1130 1130 1130 1130 1130 1130 1130 1130 1130 1130
    1130 1130 1130 1130 1130 1134 1134 1134 1138 1138 1138 1138 1138
    1138 1141 1141 1141 1141 1138 1138 1138 1138 1138 1141 1138 1138
    1141 1141 1145 1145 1145 1145 1145 1145 1145 1145 1145 1145 1145
    1149 1153 1165 1165 3149 0 1101 1101 1108 1105 1105 1105 1105 1105
    1108 1108 1108 1108 1108 1108 1112 1112 1112 1115 1115 1115 1115
    1115 1115 1115 1115 1115 1119 1119 1119 1119 1119 1119 1119 1119
    1123 1123 1123 1123 1123 1123 1123 1123 1126 1126 1130 1130 1130
    1130 1126 1126 1126 1130 1130 1130 1130 1130 1130 1130 1130 1130
    1130 1130 1134 1134 1134 1138 1138 1138 1138 1138 1138 1141 1141
    1141 1141 1141 1138 1138 1138 1138 1138 1138 1138 1138 1141 1141
    1141 1141 1141 1141 1141 1145 1145 1145 1145 1145 1149 1149 3149
    3149 3120 0 0 1108 1108 1108 1105 1105 1108 1108 1108 1108 1108 1108
    1108 1108 1112 1112 1112 1112 1112 1115 1115 1115 1115 1115 1115
    1115 1119 1119 1119 1119 1119 1119 1119 1119 1123 1123 1123 1123
    1123 1123 1123 1123 1126 1126 1126 1126 1126 1126 1126 1126 1126
    1126 1130 1130 1130 1130 1130 1130 1130 1130 1130 1130 1134 1134
    1134 1138 1138 1138 1138 1138 1138 1138 1138 1138 1138 1141 1141
    1138 1138 1138 1138 1138 1138 1138 1141 1141 1138 1138 1138 1141
    1141 1141 1145 1145 1145 1145 1145 3120 3120 3120 3120 0 0 0 1108
    1108 1105 1105 1108 1112 1112 1108 1108 1108 1108 1108 1108 1108
    1112 1112 1112 1115 1115 1115 1115 1115 1115 1115 1115 1115 1119
    1119 1119 1119 1119 1119 1119 1119 1123 1123 1126 1126 1126 1123
    1123 1123 1123 1123 1126 1126 1126 1126 1126 1126 1126 1130 1130
    1130 1130 1130 1130 1130 1130 1130 1134 1134 1134 1134 1138 1138
    1138 1138 1138 1138 1138 1138 1138 1138 1138 1138 1138 1138 1138
    1138 1138 1138 1141 1138 1138 1138 1138 1141 1141 1141 1145 1141
    1141 1141 3120 3120 3120 3120 3120 0 0 0 0 0 0 1112 1112 1112 1112
    1108 1108 1108 1108 1108 1108 1108 1108 1108 1108 1112 1112 1112
    1115 1115 1115 1115 1115 1115 1115 1115 1115 1119 1119 1119 1119
    1119 1123 1123 1123 1126 1126 1123 1123 1123 1123 1123 1126 1126
    1126 1126 1126 1126 1126 1126 1130 1130 1130 1130 1130 1130 1130
    1130 1134 1134 1134 1134 1134 1134 1138 1138 1138 1138 1138 1138
    1138 1138 1138 1138 1138 1138 1138 1138 1138 1138 1138 1138 1138
    1138 1138 1138 1141 1141 1141 1141 1141 1141 3120 3120 3120 3120
    3120 0 0 0 0 0 0 0 1119 1119 1115 1108 1108 1108 1108 1108 1108 1108
    1108 1108 1108 1112 1112 1112 1115 1115 1115 1115 1115 1115 1115
    1115 1115 1115 1115 1115 1119 1119 1119 1119 1123 1126 1126 1123
    1123 1123 1123 1123 1123 1126 1126 1126 1123 1123 1123 1126 1126
    1126 1126 1130 1130 1130 1130 1130 1134 1134 1134 1134 1134 1134
    1134 1134 1138 1138 1138 1138 1138 1138 1138 1138 1138 1138 1138
    1138 1138 1138 1138 1138 1138 1138 1138 1138 1141 1138 1138 1138
    1138 3120 3120 3120 3120 3120 3120 3178 0 0 0 0 0 0 0 0 1119 1112
    1112 1108 1108 1108 1108 1112 1112 1112 1112 1112 1112 1112 1112
    1115 1115 1115 1115 1115 1115 1115 1115 1115 1115 1115 1115 1119
    1119 1119 1119 1123 1123 1123 1123 1123 1123 1123 1123 1126 1126
    1126 1123 1123 1123 1126 1126 1126 1126 1126 1130 1130 1130 1130
    1134 1134 1134 1134 1134 1134 1134 1134 1138 1134 1134 1134 1134
    1134 1138 1138 1138 1138 1138 1138 1138 1138 1138 1138 1138 1138
    1138 1138 1141 1138 1138 1138 1138 3120 3120 3120 3120 3120 3120
    3149 3149 0 3149 0 0 0 0 0 0 0 0 0 1112 1112 1112 1112 1112 1112
    1112 1112 1112 1112 1112 1112 1115 1115 1115 1115 1115 1115 1115
    1115 1115 1115 1115 1115 1119 1119 1119 1119 1123 1119 1119 1123
    1123 1123 1123 1123 1126 1123 1123 1123 1123 1126 1123 1123 1126
    1126 1130 1130 1130 1130 1134 1134 1134 1134 1134 1134 1134 1134
    1138 1134 1134 1134 1134 1134 1134 1138 1138 1138 1138 1138 1138
    1138 1138 1138 1138 1138 1138 1138 1141 1138 1138 1138 3120 3120
    3120 3120 3120 3120 3120 3149 3149 3149 0 0 0 0 0 0 0 0 0 0 1115
    1115 1115 1112 1112 1112 1112 1112 1112 1112 1112 1112 1115 1115
    1115 1115 1115 1115 1115 1115 1115 1115 1115 1115 1119 1119 1119
    1119 1119 1119 1119 1119 1123 1123 1123 1123 1123 1123 1123 1123
    1123 1123 1123 1123 1126 1126 1126 1130 1130 1130 1134 1134 1134
    1134 1134 1134 1134 1134 1134 1134 1134 1134 1134 1134 1134 1138
    1138 1138 1138 1138 1138 1138 1138 1138 1138 1138 1138 1138 1138
    1138 1138 1138 3120 3120 3120 3120 3120 3120 3120 3149 3149 3120
    3120 3120 3120 3092 3092 0 0 0 0 0 1119 0 1119 1119 1115 1112 1112
    1112 1108 1108 1112 1112 1112 1115 1115 1115 1112 1112 1112 1112
    1115 1115 1115 1119 1119 1119 1119 1119 1119 1119 1119 1119 1119
    1123 1123 1123 1123 1123 1123 1123 1123 1123 1123 1126 1126 1126
    1126 1126 1126 1126 1130 1134 1134 1134 1134 1134 1134 1134 1134
    1134 1134 1134 1134 1138 1138 1138 1138 1138 1138 1134 1134 1134
    1134 1134 1134 1138 1138 1138 1138 1138 1138 3120 3149 3149 3120
    3120 3120 3120 3120 3149 3120 3120 3120 3120 3120 3092 3092 3092 0 0
    0 0 0 1130 1130 1130 1119 1115 1115 1112 1108 1108 1112 1112 1112
    1115 1115 1112 1112 1112 1112 1112 1115 1115 1115 1115 1119 1119
    1119 1119 1119 1119 1119 1119 1119 1119 1119 1119 1119 1119 1123
    1123 1123 1123 1123 1126 1126 1126 1126 1126 1126 1126 1130 1130
    1130 1134 1134 1134 1134 1134 1134 1134 1134 1134 1134 1134 1134
    1134 1134 1134 1134 1134 1134 1134 1134 1134 1134 1138 1138 1134
    1134 1138 1138 3120 3120 3120 3120 3120 3120 3120 3120 3149 3120
    3120 3120 3120 3120 3120 3092 3092 3092 0 0 0 0 0 0 1141 1141 1123
    1119 1115 1112 1112 1112 1112 1112 1112 1112 1112 1112 1112 1112
    1115 1115 1115 1115 1115 1115 1119 1119 1119 1115 1115 1119 1119
    1119 1119 1119 1119 1119 1119 1119 1123 1123 1123 1123 1123 1123
    1123 1123 1123 1126 1126 1130 1130 1130 1130 1130 1130 1130 1134
    1134 1134 1134 1134 1134 1134 1134 1134 1134 1134 1134 1134 1134
    1134 1134 1134 1138 1138 1134 1134 1134 1134 1134 3120 3120 3120
    3120 3120 3120 3120 3120 3149 3149 3149 3120 3120 3120 3120 3120
    3092 3092 3120 3149 3149 3149 0 0 0 3149 0 1119 1119 1115 1112 1112
    1112 1112 1112 1112 1112 1112 1112 1112 1115 1115 1115 1115 1115
    1115 1115 1115 1115 1115 1115 1115 1115 1119 1119 1119 1119 1119
    1119 1119 1119 1119 1119 1123 1123 1123 1123 1123 1123 1126 1126
    1130 1126 1126 1126 1126 1126 1130 1130 1130 1130 1134 1134 1130
    1130 1130 1130 1134 1134 1134 1134 1134 1134 1134 1134 1134 1134
    1134 1126 1126 1126 0 3120 3120 3120 3120 3120 3120 3120 3120 3149
    3120 3120 3120 3120 3120 3120 3120 3120 3120 3120 3149 3149 3149
    3149 3149 0 0 3149 0 0 0 1112 1112 1112 1112 1112 1112 1112 1112
    1112 1112 1115 1115 1115 1115 1115 1115 1115 1115 1115 1115 1115
    1115 1115 1119 1119 1119 1119 1119 1119 1119 1119 1119 1119 1123
    1123 1123 1123 1123 1123 1126 1126 1126 1126 1126 1126 1126 1126
    1126 1130 1130 1130 1130 1130 1130 1130 1130 1130 1130 1134 1134
    1134 1134 1134 1134 1134 1134 1134 1134 1126 1126 1126 3178 3178
    3149 3120 3120 3120 3120 3120 3120 3120 3120 3120 3120 3120 3149
    3120 3120 3120 3120 3149 3149 3149 3149 3149 3149 3149 3149 3149
    3149 0 3149 0 0 1115 1112 1112 1112 1112 1112 1112 1112 1112 1112
    1112 1115 1115 1115 1115 1115 1115 1115 1115 1115 1115 1119 1119
    1119 1119 1119 1119 1119 1119 1119 1119 1119 1119 1123 1119 1119
    1119 1123 1123 1126 1126 1126 1126 1126 1126 1126 1126 1126 1130
    1130 1130 1130 1130 1130 1130 1130 1134 1134 1134 1134 1134 1134
    1130 1130 1130 1134 1134 1134 3149 3149 3149 3149 3149 3120 3120
    3120 3120 3120 3120 3120 3120 3120 3120 3149 3149 3149 3149 3149
    3149 3149 3149 3149 3149 3149 3149 3149 3149 3149 3149 0 0 0 1115 0
    1115 1115 1115 1115 1115 1112 1112 1112 1112 1115 1115 1115 1115
    1115 1115 1115 1115 1115 1115 1119 1119 1119 1119 1119 1119 1119
    1119 1119 1119 1119 1119 1119 1119 1119 1119 1123 1123 1126 1126
    1123 1123 1126 1126 1126 1126 1126 1126 1130 1130 1130 1130 1130
    1130 1130 1130 1130 1130 1130 1134 1134 1130 1126 1126 1134 1134
    3149 0 3120 3120 3120 3120 3120 3120 3120 3120 3120 3120 3149 3149
    3149 3149 3149 3149 3149 3149 3149 3149 3149 3149 3149 3149 3149
    3120 3120 3120 3149 3149 0 0 0 0 1119 0 1119 1115 1115 1115 1115
    1115 1112 1112 1115 1115 1115 1115 1115 1115 1115 1115 1115 1115
    1119 1119 1119 1119 1119 1119 1119 1119 1119 1119 1119 1119 1119
    1119 1119 1119 1119 1119 1123 1123 1123 1123 1126 1126 1126 1126
    1126 1126 1126 1130 1130 1130 1130 1130 1130 1130 1130 1130 1130
    1130 1130 1126 1126 1126 1126 1126 3149 3149 3120 3120 3120 3120
    3120 3120 3120 3120 3120 3120 3120 3120 3149 3149 3149 3149 3149
    3149 3149 3120 3120 3149 3149 3149 3149 3120 3120 3120 3120 3120 0
    3120 0 3208 0 1115 1115 1115 1115 1115 1115 1115 1112 1112 1115 1115
    1115 1115 1115 1115 1115 1115 1115 1115 1119 1119 1119 1119 1119
    1119 1119 1119 1119 1119 1119 1119 1119 1119 1119 1119 1119 1119
    1123 1123 1123 1123 1126 1126 1126 1126 1126 1126 1126 1126 1130
    1130 1130 1130 1126 1126 1126 1126 1126 1130 1130 1126 1126 0 1126 0
    3149 3149 3120 3120 3120 3120 3120 3120 3120 3120 3120 3120 3120
    3120 3149 3149 3120 3120 3120 3149 3149 3120 3120 3149 3149 3149
    3149 3120 3120 3120 3120 3120 3120 3120 3149 3208 3208 3178 3178
    1119 1119 1119 1115 1115 1115 1115 1115 1115 1115 1115 1115 1115
    1115 1115 1115 1115 1119 1119 1119 1119 1119 1119 1119 1119 1119
    1119 1119 1119 1119 1119 1119 1119 1123 1123 1123 1126 1123 1123
    1123 1123 1123 1123 1126 1126 1126 1126 1126 1126 1130 1126 1126
    1126 1126 1126 1126 1126 1126 1126 1126 1126 0 0 3149 3149 3120 3120
    3120 3120 3120 3120 3120 3120 3120 3120 3120 3120 3149 3149 3120
    3120 3120 3149 3149 3149 3120 3120 3149 3149 3149 3120 3120 3120
    3120 3120 3120 3120 3120 3149 3149 3178 3178 3178 1119 1119 1119
    1119 1119 1119 1119 1119 1115 1115 1115 1115 1115 1115 1115 1115
    1115 1119 1119 1119 1119 1115 1115 1119 1119 1119 1119 1119 1119
    1119 1119 1119 1119 1119 1123 1123 1123 1123 1123 1123 1123 1123
    1123 1126 1126 1126 1126 1126 1130 1126 1126 1126 1126 1126 1126
    1126 1126 1126 1126 0 0 0 3149 3149 3120 3120 3120 3120 3120 3120
    3120 3120 3120 3120 3120 3120 3120 3120 3120 3120 3120 3149 3149
    3120 3120 3120 3120 3149 3149 3149 3120 3120 3120 3120 3120 3120
    3120 3120 3149 3178 3178 3178 3120 3120 3120 1130 1130 1130 1126
    1119 1119 1115 1115 1115 1115 1115 1115 1115 1115 1115 1115 1119
    1119 1115 1115 1115 1119 1119 1119 1119 1119 1119 1119 1119 1119
    1119 1123 1123 1123 1123 1123 1123 1123 1123 1123 1123 1123 1123
    1123 1123 1126 1126 1126 1126 1126 1126 1126 1126 1126 1126 1134
    1134 0 3149 3149 3120 3120 3120 3120 3120 3120 3120 3120 3120 3120
    3120 3149 3149 3120 3120 3120 3120 3120 3120 3120 3120 3120 3120
    3120 3149 3149 3149 3149 3149 3149 3149 3120 3120 3120 3120 3149
    3178 3178 3120 3120 3120 3120 3149 1138 1138 1130 1126 1119 1115
    1115 1115 1115 1115 1115 1115 1115 1115 1115 1115 1119 1115 1115
    1115 1119 1119 1119 1115 1115 1115 1115 1115 1119 1119 1123 1123
    1123 1123 1123 1123 1123 1123 1123 1123 1123 1123 1123 1123 1123
    1123 1123 1126 1126 1126 1126 1126 1126 1134 0 1134 0 0 3149 3120
    3120 3120 3120 3120 3120 3120 3120 3120 3120 3120 3149 3120 3120
    3120 3120 3120 3120 3120 3120 3120 3120 3120 3149 3149 3149 3149
    3149 3149 3149 3149 3149 3149 3149 3149 3149 3178 3178 3120 3120
    3120 3149 3149 3120 3120 3120 1119 1119 1119 1115 1112 1112 1115
    1115 1115 1115 1115 1115 1115 1115 1115 1115 1115 1115 1115 1119
    1115 1115 1115 1115 1115 1115 1115 1123 1123 1123 1123 1123 1123
    1123 1123 1123 1123 1123 1123 1123 1123 1123 1123 1123 1126 1126
    1126 1126 1126 1126 1138 0 3120 0 3149 3149 3120 3120 3120 3120 3120
    3120 3120 3120 3120 3120 3120 3120 3120 3120 3120 3120 3120 3149
    3149 3149 3120 3120 3120 3149 3149 3149 3149 3149 3149 3149 3149
    3149 3149 3149 3149 3149 3149 3149 3149 3149 3149 3149 3149 3120
    3120 3120 3092 3120 1115 1115 1112 1112 1115 1115 1112 1112 1115
    1115 1115 1115 1115 1115 1115 1115 1115 1115 1115 1115 1115 1115
    1115 1115 1115 1123 1123 1123 1123 1123 1123 1123 1123 1123 1123
    1123 1123 1123 1123 1123 1123 1123 1123 1123 1123 1123 1126 1126
    1126 0 3120 3120 3120 3149 3120 3120 3120 3120 3120 3120 3120 3120
    3120 3120 3120 3120 3120 3120 3120 3120 3120 3120 3149 3149 3120
    3120 3120 3149 3149 3149 3149 3149 3149 3149 3149 3149 3149 3149
    3149 3149 3149 3149 3149 3149 3149 3149 3149 3120 3092 3092 3092
    3120 3120 3092 1115 1115 1115 1115 1112 1112 1115 1115 1115 1115
    1115 1115 1115 1115 1115 1115 1115 1115 1115 1115 1115 1115 1115
    1119 1123 1123 1123 1123 1123 1123 1123 1123 1123 1123 1123 1123
    1123 1123 1123 1123 1123 1123 1119 1119 1123 1123 1123 3178 3120
    3120 3120 3120 3120 3120 3120 3120 3120 3120 3120 3120 3120 3120
    3120 3120 3120 3120 3120 3120 3120 3120 3149 3149 3120 3120 3120
    3120 3149 3149 3149 3149 3149 3149 3149 3149 3178 3149 3149 3149
    3149 3149 3149 3149 3149 3178 3149 3120 3092 3092 3092 3092 3092
    3092 3149 3149 3120 3120 1115 1115 1115 1115 1115 1115 1115 1115
    1115 1115 1115 1115 1115 1115 1115 1115 1115 1115 1115 1119 1119
    1119 1119 1119 1123 1123 1123 1123 1123 1123 1123 1123 1123 1123
    1123 1123 1123 1123 1119 1119 1119 1119 0 3178 3178 3120 3120 3120
    3120 3120 3120 3120 3120 3120 3120 3120 3149 3149 3120 3120 3120
    3149 3120 3120 3120 3120 3120 3149 3149 3149 3120 3120 3149 3149
    3149 3149 3149 3149 3149 3149 3149 3149 3149 3149 3149 3149 3149
    3149 3149 3178 3149 3149 3120 3120 3120 3092 3092 3149 3149 3149
    3120 3120 0 1119 1119 1119 1119 1119 1115 1115 1115 1112 1112 1112
    1115 1115 1115 1115 1115 1115 1115 1119 1119 1119 1119 1119 1123
    1119 1119 1123 1123 1123 1123 1123 1123 1123 1123 1123 1123 1123
    1119 1119 1119 1119 0 3178 3178 3149 3120 3120 3120 3120 3120 3120
    3120 3120 3120 3120 3149 3149 3120 3120 3120 3149 3120 3120 3120
    3120 3120 3149 3149 3149 3149 3149 3149 3149 3149 3149 3149 3178
    3149 3149 3149 3149 3149 3149 3149 3149 3149 3149 3149 3178 3149
    3149 3120 3120 3120 3120 3149 3149 3120 3120 3120 3120 3120 3120
    3120 1123 1123 1123 1115 1115 1115 1112 1112 1112 1115 1115 1115
    1115 1115 1115 1119 1119 1119 1119 1119 1119 1119 1119 1119 1119
    1123 1123 1123 1123 1123 1123 1123 1123 1123 1123 1119 1119 1119
    1119 3149 3149 3149 3149 3120 3120 3120 3120 3120 3120 3120 3120
    3120 3120 3149 3149 3120 3120 3120 3149 3120 3120 3120 3149 3149
    3149 3149 3149 3149 3149 3149 3149 3149 3149 3149 3178 3149 3149
    3149 3149 3178 3149 3149 3149 3149 3149 3149 3120 3120 3120 3120
    3120 3149 3149 3149 3120 3120 3120 3120 3120 3120 3120 3120 3120
    3120 1119 1119 1115 1115 1115 1115 1115 1115 1112 1112 1112 1112
    1115 1115 1119 1119 1119 1119 1119 1119 1119 1119 1119 1123 1123
    1123 1123 1123 1123 1123 1123 1123 1119 1119 1119 1123 1123 3149
    3149 3149 3149 3149 3120 3120 3120 3120 3120 3120 3120 3120 3149
    3149 3149 3120 3120 3149 3149 3120 3120 3149 3149 3149 3149 3149
    3149 3149 3149 3149 3149 3149 3149 3149 3178 3149 3149 3149 3149
    3178 3149 3149 3149 3149 3149 3149 3120 3120 3120 3149 3149 3149
    3149 3178 3120 3120 3120 3120 3120 3120 3120 3120 3120 3120 3120
    3120 1115 1115 1115 1115 1115 1112 1112 1112 1112 1112 1112 1115
    1119 1119 1119 1119 1119 1119 1119 1119 1119 1123 1123 1123 1123
    1123 1123 1123 1123 1123 1119 1119 1119 1119 3120 3120 3120 3149
    3149 3149 3120 3120 3120 3120 3120 3120 3120 3120 3120 3120 3149
    3120 3120 3149 3149 3120 3120 3149 3149 3149 3149 3149 3149 3149
    3149 3149 3149 3149 3149 3149 3178 3149 3149 3178 3178 3178 3178
    3178 3149 3149 3149 3149 3149 3149 3149 3149 3149 3178 3178 3178
    3149 3149 3120 3120 3120 3120 3120 3120 3120 3120 3120 3120 3120
    3178 1115 1115 1115 1112 1112 1112 1108 1108 1112 1115 1119 1119
    1119 1119 1119 1119 1119 1119 1119 1123 1119 1119 1119 1119 1123
    1123 1123 1119 1119 1119 1119 3120 3120 3120 3120 3149 3149 3149
    3120 3120 3120 3120 3120 3120 3120 3120 3120 3120 3149 3120 3120
    3149 3149 3149 3149 3149 3149 3149 3149 3149 3149 3149 3149 3149
    3149 3120 3120 3120 3149 3149 3149 3149 3149 3178 3178 3178 3149
    3149 3149 3149 3149 3149 3149 3149 3149 3178 3178 3178 3149 3149
    3149 3149 3149 3149 3149 3149 3120 3120 3120 3120 3178 3178 0 0 1115
    1115 1112 1112 1108 1108 1112 1115 1119 1119 1119 1119 1119 1119
    1119 1119 1119 1119 1119 1119 1119 1119 1119 1119 1123 1119 1119
    1119 1119 3120 3120 3120 3120 3149 3149 3149 3120 3120 3120 3120
    3120 3120 3120 3120 3120 3120 3149 3120 3120 3120 3120 3149 3149
    3149 3149 3149 3149 3149 3149 3149 3149 3149 3120 3120 3120 3120
    3149 3149 3149 3149 3149 3149 3149 3149 3149 3149 3149 3149 3149
    3149 3149 3149 3149 3149 3149 3178 3149 3149 3149 3149 3149 3149
    3178 3149 3149 3120 3120 3149 3178 3178 3149 3149 3149 0 0 1108 1108
    1108 1112 1112 1119 1119 1119 1119 1119 1115 1115 1119 1119 1119
    1119 1119 1119 1119 1119 1119 1119 1119 1123 1123 3149 3149 3120
    3120 3120 3149 3149 3149 3120 3120 3120 3120 3120 3120 3120 3120
    3120 3120 3120 3120 3120 3120 3120 3120 3120 3120 3120 3120 3149
    3149 3149 3149 3120 3120 3120 3120 3120 3120 3120 3149 3149 3149
    3149 3149 3149 3149 3149 3149 3178 3178 3178 3149 3149 3149 3149
    3149 3149 3149 3178 3178 3149 3149 3149 3149 3178 3149 3149 3149
    3149 3149 3178 3178 3149 3149 3149 3120 0 3120 1112 1112 1112 1112
    1119 1119 1119 1119 1119 1115 1115 1119 1119 1119 1119 1119 1119
    1119 1119 1119 1119 1119 1119 1119 3149 3149 3149 3149 3149 3149
    3149 3149 3120 3120 3120 3120 3120 3120 3120 3120 3120 3120 3120
    3120 3120 3149 3149 3120 3120 3120 3120 3120 3120 3120 3149 3120
    3120 3120 3120 3120 3120 3120 3120 3149 3149 3149 3149 3178 3149
    3149 3149 3149 3178 3178 3178 3149 3149 3149 3149 3149 3149 3149
    3178 3178 3149 3149 3149 3149 3178 3178 3178 3149 3149 3178 3149
    3149 3149 3120 3120 0 3120 3120 0 3120 1126 1126 1126 1123 1119 1119
    1119 1115 1115 1119 1119 1119 1119 1119 1119 1119 1119 1119 1115
    1115 1115 0 3149 3149 3149 3149 3149 3149 3149 3149 3149 3149 3149
    3149 3120 3120 3120 3120 3120 3120 3120 3120 3120 3149 3149 3120
    3120 3120 3120 3120 3120 3120 3149 3120 3120 3120 3120 3120 3149
    3149 3149 3149 3149 3149 3149 3178 3178 3178 3149 3149 3178 3178
    3178 3149 3149 3149 3149 3149 3149 3149 3178 3149 3149 3149 3149
    3149 3149 3178 3178 3178 3178 3178 3149 3149 3149 3120 3120 3120
    3120 3120 3120 3120 3120 3120 1123 1123 1119 1119 1119 1119 1119
    1119 1119 1119 1119 1119 1119 1119 1119 1119 1115 1115 0 0 0 3149
    3149 3149 3149 3149 3149 3149 3149 3149 3149 3149 3120 3120 3120
    3120 3120 3120 3120 3120 3120 3149 3149 3149 3149 3120 3120 3120
    3120 3120 3149 3149 3149 3149 3149 3149 3149 3149 3149 3149 3149
    3149 3178 3178 3178 3178 3178 3178 3178 3178 3178 3178 3149 3149
    3149 3149 3149 3149 3149 3149 3149 3149 3149 3149 3149 3149 3149
    3149 3149 3149 3149 3149 3149 3120 3120 3120 3120 3120 3120 3120
    3120 3120 3120 1126 1126 1123 1123 1119 1119 1119 1119 1119 1119
    1119 1119 1119 1119 1115 1115 1115 1115 0 3149 3149 3149 3149 3149
    3149 3149 3149 3149 3149 3149 3149 3149 3149 3149 3149 3149 3120
    3120 3120 3120 3120 3149 3149 3149 3120 3120 3120 3120 3120 3120
    3149 3149 3149 3149 3149 3149 3149 3149 3149 3178 3178 3178 3178
    3178 3178 3178 3178 3178 3178 3178 3178 3178 3178 3149 3149 3149
    3149 3149 3149 3149 3149 3120 3120 3149 3149 3149 3149 3149 3149
    3149 3149 3149 3149 3149 3120 3120 3120 3120 3120 3120 3120 3178
    3178 3178 1126 1126 1119 1119 1115 1115 1115 1119 1119 1119 1115
    1115 1112 1112 1112 1112 0 3149 3149 3149 3149 3149 3149 3149 3149
    3149 3149 3149 3149 3149 3149 3149 3149 3149 3149 3149 3120 3120
    3120 3149 3149 3149 3120 3120 3120 3120 3120 3120 3149 3149 3149
    3149 3149 3149 3149 3149 3149 3178 3178 3178 3178 3178 3178 3178
    3178 3178 3178 3178 3149 3149 3149 3149 3149 3149 3149 3149 3149
    3149 3149 3120 3120 3149 3149 3149 3149 3149 3149 3149 3178 3149
    3149 3149 3149 3149 3120 3120 3120 3120 3120 3149 3149 3149 3149
    1119 1119 1112 1112 1112 1115 1119 1119 1119 1115 1112 1112 1112
    1112 0 0 3149 3149 3149 3149 3149 3149 3149 3149 3149 3149 3149 3149
    3149 3149 3149 3149 3149 3149 3149 3120 3120 3120 3149 3120 3120
    3120 3120 3120 3120 3120 3120 3149 3149 3149 3149 3149 3149 3149
    3149 3149 3178 3178 3178 3149 3149 3149 3178 3178 3178 3178 3149
    3149 3149 3149 3149 3149 3149 3149 3149 3149 3149 3149 3149 3149
    3149 3149 3149 3149 3149 3149 3149 3149 3149 3149 3149 3149 3149
    3149 3120 3120 3120 3120 3149 3149 3149 3149 1108 1108 1108 1108
    1112 1115 1119 1119 1119 1115 1112 1112 1112 3149 3149 3178 3149
    3149 3149 3149 3149 3149 3149 3149 3149 3149 3149 3149 3149 3149
    3149 3149 3149 3149 3149</data></Depth3637>
</opencv_storage>
