<?xml version="1.0"?>
<opencv_storage>
<Depth0768 type_id="opencv-matrix">
  <rows>54</rows>
  <cols>78</cols>
  <dt>w</dt>
  <data>
    3365 3365 3365 3399 3365 3365 3399 3399 1439 1433 1427 1427 1421
    1421 1421 1421 1421 1421 1421 3365 3365 3365 3333 3333 3333 3333
    3333 3333 3333 3333 3300 3300 3269 3269 3269 3269 3269 3269 3269
    3269 3269 3269 3269 3269 3269 3269 3300 3300 4349 4349 4295 4295
    4295 4295 4241 4241 4241 4241 4241 4241 4241 4241 4241 4241 4241
    4241 4241 4241 4241 4241 4241 4241 4241 4241 4241 4241 4190 4139
    3365 3365 3365 3399 3399 3399 3399 1433 1433 1427 1427 1421 1421
    1421 1421 1421 1421 1421 1421 1415 1415 1421 1421 1415 1415 3333
    3333 3333 1439 1433 1427 1421 1415 1415 3269 3269 3269 3269 3269
    3269 3269 3269 3238 3238 3269 3269 3300 3300 4349 4349 4349 4349
    4295 4295 4295 4295 4241 4241 4241 4241 4295 4295 4295 4241 4241
    4241 4241 4241 4241 4241 4241 4241 4241 4190 4190 4190 4190 4190
    3365 3365 3365 3365 3365 3365 0 1427 1427 1421 1421 1421 1415 1415
    1421 1421 1421 1415 1415 1415 1415 1415 1415 1415 1415 1415 1421
    1421 1421 1421 1421 1421 1415 1415 1415 1410 1410 1410 3269 3269
    3269 1427 1427 1427 1421 1421 3300 3300 4241 4241 4295 4295 4295
    4295 4295 4295 4241 4241 4241 4241 4295 4295 4295 4241 4241 4241
    4241 4241 4241 4241 4241 4241 4241 4190 4190 4190 4190 4190 3333
    3333 3300 3300 3300 0 1415 1421 1421 1415 1415 1415 1415 1415 1415
    1415 1415 1415 1415 1415 1415 1415 1415 1415 1415 1415 1415 1415
    1421 1421 1421 1415 1415 1415 1415 1410 1410 1410 1421 1421 1421
    1415 1415 1415 1421 1421 1421 1421 1421 1421 1415 1415 4295 4295
    4295 4295 4241 4241 4241 4241 4295 4295 4295 4241 4241 4241 4241
    4241 4241 4241 4241 4241 4241 4241 4241 4190 4190 4190 3333 3333
    3300 3300 3300 1404 1415 1415 1415 1415 1415 1410 1410 1410 1410
    1410 1410 1410 1410 1410 1410 1415 1415 1415 1410 1410 1410 1410
    1410 1415 1415 1415 1415 1415 1415 1415 1415 1415 1415 1415 1415
    1415 1415 1415 1415 1415 1421 1415 1415 1415 1415 1415 1415 4349
    4349 4190 4190 4241 4241 4241 4295 4295 4295 4241 4241 4241 4241
    4241 4241 4241 4241 4295 4295 4295 3333 3333 4190 4190 3333 3333
    3333 3333 3333 1404 1404 1404 1410 1410 1410 1404 1404 1404 1404
    1410 1404 1404 1410 1410 1410 1410 1410 1410 1410 1410 1410 1410
    1410 1410 1410 1410 1410 1410 1410 1404 1404 1410 1410 1410 1415
    1415 1415 1415 1415 1415 1415 1415 1410 1410 1415 1415 1415 1410
    1410 1404 1404 1410 1415 1415 1415 1410 1410 1410 1415 1415 1421
    1415 1415 1415 1415 4295 4295 4349 3333 3333 3333 3333 3333 3333
    3333 0 0 1398 1398 1398 1404 1404 1404 1404 1398 1398 1398 1398 1398
    1398 1398 1398 1398 1404 1404 1404 1404 1410 1404 1404 1398 1398
    1404 1404 1404 1404 1404 1404 1404 1404 1404 1404 1410 1410 1410
    1410 1410 1410 1410 1410 1410 1410 1410 1410 1410 1410 1410 1404
    1404 1410 1415 1415 1415 1410 1410 1410 1415 1415 1421 1415 1415
    1415 1415 1421 1421 1421 3333 3333 3333 3333 3333 3365 3365 0 0 1398
    1398 1398 1398 1398 1404 1398 1398 1398 1398 1398 1398 1398 1398
    1398 1398 1398 1398 1398 1398 1404 1404 1398 1398 1398 1398 1398
    1398 1398 1398 1398 1398 1398 1404 1404 1404 1398 1398 1404 1404
    1404 1404 1404 1404 1404 1404 1404 1404 1404 1404 1404 1410 1410
    1410 1410 1410 1410 1410 1410 1415 1415 1415 1415 1415 1415 1415
    1421 1421 1421 1421 1421 3333 3333 3333 3333 3365 3365 0 1392 1392
    1398 1398 1398 1392 1392 1392 1392 1392 1392 1398 1398 1398 1398
    1398 1392 1392 1398 1398 1398 1398 1398 1398 1398 1398 1398 1398
    1398 1398 1398 1398 1398 1398 1398 1398 1398 1398 1398 1398 1398
    1398 1398 1398 1398 1398 1398 1398 1398 1404 1404 1404 1404 1404
    1404 1404 1404 1404 1404 1410 1410 1415 1410 1410 1415 1415 1415
    1415 1415 1415 1415 3365 3365 3333 3333 3333 0 1392 1392 1392 1392
    1392 1392 1392 1392 1387 1387 1387 1387 1387 1387 1387 1387 1392
    1392 1392 1392 1392 1392 1392 1392 1392 1392 1392 1392 1392 1392
    1392 1392 1392 1392 1392 1392 1392 1392 1392 1398 1398 1398 1398
    1398 1392 1392 1398 1398 1398 1398 1398 1398 1398 1398 1398 1398
    1398 1398 1398 1398 1404 1404 1404 1404 1404 1404 1404 1410 1404
    1404 1404 1404 3300 3300 3333 3333 3333 0 1381 1381 1381 1381 1381
    1381 1381 1381 1381 1381 1381 1381 1381 1381 1381 1387 1387 1387
    1387 1387 1387 1387 1387 1392 1392 1392 1392 1392 1392 1392 1392
    1392 1392 1392 1392 1392 1392 1392 1392 1392 1392 1392 1392 1392
    1392 1392 1392 1398 1398 1398 1392 1392 1398 1398 1398 1398 1398
    1398 1398 1398 1398 1398 1398 1398 1398 1398 1398 1404 1398 1398
    1404 1404 3269 3269 3333 0 3333 0 1370 0 1381 1381 1381 1381 1381
    1376 1376 1376 1376 1376 1376 1376 1381 1381 1381 1381 1381 1381
    1381 1381 1381 1381 1381 1381 1381 1381 1381 1387 1387 1387 1392
    1387 1387 1381 1381 1387 1387 1387 1392 1392 1392 1392 1392 1392
    1392 1392 1392 1392 1392 1392 1392 1392 1392 1392 1392 1392 1392
    1392 1398 1398 1398 1398 1398 1398 1398 1398 1398 1398 1398 1398
    3269 3269 3365 0 0 0 1370 1370 1370 1376 1376 1376 1376 1376 1376
    1376 1376 1376 1376 1376 1376 1376 1376 1376 1376 1376 1376 1376
    1376 1376 1376 1376 1376 1381 1381 1381 1381 1381 1381 1381 1376
    1376 1376 1381 1381 1381 1387 1387 1387 1387 1387 1387 1387 1392
    1392 1387 1387 1387 1387 1387 1392 1392 1392 1392 1392 1392 1392
    1392 1392 1392 1392 1392 1392 1392 1392 1392 1398 1398 3300 3300
    3365 0 0 0 1365 1365 1365 1370 1370 1370 1370 1370 1370 1370 1370
    1370 1370 1370 1370 1376 1376 1376 1376 1376 1370 1370 1370 1370
    1370 1376 1376 1376 1376 1376 1376 1376 1376 1376 1376 1376 1376
    1376 1376 1376 1376 1381 1381 1381 1381 1381 1387 1387 1387 1381
    1381 1381 1381 1381 1387 1387 1387 1387 1392 1392 1392 1392 1392
    1392 1392 1392 1392 1392 1392 1392 1392 1392 3333 3333 3399 0 0 0
    1365 1365 1365 1365 1365 1370 1370 1370 1370 1370 1370 1370 1370
    1370 1370 1370 1370 1370 1370 1370 1370 1370 1370 1370 1370 1370
    1370 1370 1376 1370 1370 1370 1370 1370 1370 1370 1370 1376 1376
    1370 1370 1370 1370 1370 1376 1376 1376 1381 1376 1376 1376 1376
    1376 1376 1381 1381 1381 1381 1387 1392 1392 1392 1387 1387 1387
    1387 1387 1387 1387 1387 1387 1387 3365 3365 3399 0 0 0 1359 1359
    1359 1359 1365 1365 1370 1370 1365 1365 1365 1365 1365 1365 1365
    1365 1365 1365 1365 1365 1365 1365 1370 1365 1365 1365 1365 1370
    1370 1370 1370 1370 1370 1370 1370 1370 1370 1370 1370 1370 1370
    1370 1370 1370 1370 1370 1370 1376 1376 1376 1376 1376 1376 1376
    1376 1376 1376 1376 1381 1387 1387 1381 1381 1381 1381 1387 1387
    1387 1381 1381 1381 1381 1381 1381 3399 0 0 0 1349 1349 1354 1359
    1359 1359 1365 1365 1365 1359 1359 1359 1359 1359 1359 1359 1359
    1354 1354 1359 1359 1359 1359 1359 1359 1359 1359 1359 1365 1365
    1365 1365 1365 1365 1365 1365 1370 1370 1370 1370 1370 1370 1370
    1370 1370 1370 1370 1370 1370 1370 1370 1370 1370 1370 1370 1370
    1370 1370 1376 1381 1381 1376 1376 1376 1376 1376 1381 1381 1381
    1381 1376 1376 1376 0 3399 0 0 0 1349 1349 1354 1359 1359 1359 1359
    1359 1359 1359 1359 1359 1359 1359 1354 1354 1354 1354 1354 1354
    1354 1354 1354 1359 1359 1359 1354 1354 1354 1359 1359 1359 1359
    1359 1359 1359 1365 1365 1365 1365 1365 1365 1365 1365 1365 1365
    1370 1370 1370 1370 1370 1370 1365 1365 1365 1370 1370 1370 1370
    1370 1370 1370 1370 1370 1376 1376 1376 1376 1376 1376 1376 1376
    1376 0 3333 0 0 0 1354 1354 1354 1354 1354 1354 1354 1354 1354 1354
    1354 1354 1354 1354 1354 1354 1354 1354 1354 1354 1354 1354 1354
    1354 1354 1354 1354 1354 1354 1354 1354 1354 1354 1354 1354 1359
    1359 1359 1359 1359 1359 1359 1359 1359 1359 1359 1365 1365 1365
    1365 1365 1365 1359 1359 1359 1370 1365 1365 1365 1365 1370 1370
    1370 1370 1370 1370 1370 1370 1370 1370 1376 1376 1376 0 3333 3333 0
    1349 1349 1349 1349 1349 1349 1349 1349 1349 1349 1349 1349 1354
    1349 1349 1354 1354 1354 1349 1349 1349 1349 1349 1354 1354 1354
    1354 1354 1354 1349 1349 1354 1354 1354 1354 1354 1354 1354 1354
    1354 1354 1354 1354 1359 1359 1359 1359 1359 1359 1359 1359 1359
    1359 1359 1359 1359 1365 1359 1359 1359 1359 1359 1365 1365 1365
    1365 1365 1365 1365 1365 1365 1365 1365 0 0 3365 3365 0 1349 1349
    1349 1349 1349 1349 1349 1349 1349 1349 1349 1349 1349 1349 1349
    1349 1349 1349 1349 1349 1349 1349 1349 1349 1349 1349 1349 1349
    1349 1349 1349 1349 1349 1354 1354 1354 1354 1354 1354 1354 1354
    1354 1354 1354 1354 1354 1354 1354 1354 1354 1354 1354 1354 1354
    1354 1354 1354 1354 1354 1354 1354 1359 1359 1359 1359 1359 1359
    1359 1359 1359 1365 1365 1398 1398 0 3365 0 0 0 1343 1343 1349 1349
    1349 1343 1343 1343 1343 1343 1343 1343 1343 1343 1343 1343 1343
    1343 1343 1343 1343 1343 1349 1349 1349 1349 1349 1349 1349 1349
    1349 1349 1349 1349 1349 1349 1349 1349 1349 1349 1349 1354 1354
    1354 1349 1349 1349 1349 1354 1354 1354 1354 1354 1354 1354 1354
    1354 1354 1354 1354 1354 1354 1354 1359 1354 1354 1354 1354 1359
    1359 1365 1381 1398 0 3433 0 1328 1343 1343 1343 1343 1343 1343 1338
    1338 1338 1333 1333 1338 1338 1338 1338 1338 1338 1338 1338 1338
    1333 1333 1333 1338 1338 1343 1343 1343 1343 1343 1343 1343 1343
    1343 1343 1343 1349 1349 1349 1349 1349 1349 1349 1349 1349 1349
    1349 1349 1349 1349 1349 1349 1349 1349 1349 1349 1349 1354 1349
    1349 1349 1354 1354 1354 1354 1354 1354 1354 1354 1359 1359 1365
    1370 0 0 3365 0 1328 1328 1328 1333 1338 1343 1343 1333 1333 1333
    1333 1333 1333 1333 1333 1333 1333 1333 1333 1333 1333 1333 1333
    1333 1333 1333 1338 1338 1338 1338 1338 1343 1338 1338 1338 1338
    1338 1338 1338 1343 1343 1343 1343 1343 1343 1349 1349 1349 1349
    1349 1349 1349 1349 1349 1349 1349 1349 1349 1349 1349 1349 1349
    1349 1349 1349 1349 1349 1349 1349 1354 1354 1359 1365 1365 0 0 0 0
    0 1328 1328 1333 1333 1333 1333 1328 1328 1328 1333 1333 1333 1333
    1333 1333 1333 1333 1333 1333 1333 1333 1328 1328 1333 1333 1333
    1333 1333 1333 1333 1333 1333 1333 1333 1333 1333 1333 1333 1333
    1333 1338 1338 1338 1343 1343 1343 1343 1343 1343 1349 1343 1343
    1349 1349 1349 1349 1349 1349 1349 1349 1349 1349 1349 1349 1343
    1343 1343 1349 1349 1354 1354 1354 1365 0 0 0 0 0 1322 1322 1328
    1328 1328 1328 1328 1328 1328 1328 1328 1328 1328 1328 1328 1328
    1328 1328 1328 1328 1328 1328 1328 1328 1328 1328 1328 1328 1333
    1333 1333 1333 1333 1333 1333 1333 1333 1333 1333 1333 1333 1333
    1333 1333 1333 1333 1333 1333 1338 1338 1338 1338 1343 1343 1343
    1343 1343 1343 1343 1343 1349 1349 1349 1349 1343 1343 1343 1343
    1349 1349 1349 1349 0 0 0 0 0 0 1322 1322 1328 1328 1328 1328 1322
    1322 1322 1322 1322 1322 1317 1317 1322 1322 1322 1322 1322 1322
    1328 1328 1328 1328 1328 1328 1328 1328 1328 1328 1328 1328 1328
    1328 1328 1328 1328 1328 1328 1328 1328 1328 1328 1328 1328 1333
    1333 1333 1333 1333 1333 1333 1333 1338 1338 1338 1338 1338 1338
    1338 1343 1343 1343 1343 1338 1338 1338 1338 1343 1343 1343 1349 0 0
    0 0 0 0 1317 1317 1317 1317 1322 1317 1317 1317 1317 1317 1317 1317
    1317 1317 1317 1317 1317 1322 1322 1317 1317 1317 1317 1322 1322
    1322 1322 1322 1322 1322 1322 1328 1328 1328 1328 1328 1328 1328
    1328 1328 1328 1328 1328 1328 1328 1328 1328 1328 1333 1333 1333
    1333 1333 1333 1333 1333 1333 1333 1333 1333 1333 1338 1338 1338
    1333 1333 1333 1338 1338 1333 1333 0 0 0 0 0 1307 0 1317 1317 1317
    1317 1317 1312 1312 1312 1312 1312 1312 1317 1312 1312 1312 1312
    1312 1317 1317 1317 1312 1312 1312 1317 1317 1312 1312 1312 1312
    1317 1317 1322 1322 1322 1322 1322 1322 1322 1322 1322 1328 1322
    1322 1322 1322 1322 1328 1328 1328 1328 1328 1328 1328 1328 1328
    1328 1328 1328 1328 1328 1333 1333 1333 1333 1333 1333 1333 1333
    1333 1328 1328 1328 0 0 0 0 0 1307 1307 1312 1312 1312 1312 1312
    1312 1312 1312 1312 1312 1312 1312 1312 1307 1307 1312 1312 1312
    1312 1312 1312 1312 1312 1312 1312 1312 1312 1312 1312 1312 1312
    1312 1312 1317 1317 1312 1312 1322 1322 1322 1322 1322 1322 1317
    1317 1322 1322 1328 1328 1328 1328 1328 1328 1328 1328 1328 1328
    1328 1328 1328 1328 1328 1328 1328 1328 1333 1328 1328 1328 1328
    1328 0 0 0 0 0 1307 1307 1307 1307 1312 1312 1307 1307 1307 1307
    1307 1307 1307 1307 1307 1307 1307 1307 1312 1312 1312 1312 1312
    1312 1312 1312 1312 1312 1312 1312 1312 1312 1312 1312 1312 1312
    1312 1312 1312 1312 1312 1312 1312 1312 1312 1317 1317 1317 1317
    1322 1328 1328 1328 1328 1322 1322 1322 1322 1322 1322 1322 1322
    1328 1328 1328 1328 1328 1328 1328 1328 1328 1328 1328 1338 0 0 0 0
    1307 1307 1307 1307 1307 1307 1307 1307 1307 1307 1307 1307 1307
    1307 1307 1302 1302 1307 1307 1307 1307 1307 1307 1307 1312 1312
    1312 1307 1307 1307 1307 1307 1307 1307 1312 1312 1312 1312 1312
    1312 1307 1307 1312 1312 1312 1312 1312 1312 1312 1312 1317 1322
    1322 1317 1317 1317 1317 1317 1317 1317 1317 1322 1322 1328 1322
    1322 1322 1328 1328 1328 1328 1328 1328 1333 0 0 0 1312 1307 1302
    1302 1302 1302 1302 1302 1302 1302 1302 1302 1302 1307 1307 1302
    1302 1302 1302 1302 1302 1302 1302 1302 1307 1307 1307 1307 1307
    1307 1307 1302 1302 1302 1307 1307 1307 1307 1307 1307 1307 1307
    1307 1307 1307 1307 1312 1312 1312 1312 1312 1312 1312 1312 1312
    1312 1312 1312 1312 1312 1312 1312 1317 1317 1317 1317 1317 1317
    1322 1322 1328 1328 1328 1328 1333 0 0 0 1312 1307 1302 1302 1302
    1302 1302 1302 1302 1297 1297 1297 1297 1297 1297 1302 1297 1297
    1297 1297 1297 1297 1297 1297 1297 1297 1302 1302 1307 1302 1297
    1297 1297 1297 1302 1302 1302 1302 1302 1302 1302 1307 1307 1307
    1307 1307 1307 1307 1307 1307 1307 1307 1307 1307 1307 1307 1307
    1307 1312 1312 1312 1312 1312 1312 1312 1312 1312 1312 1317 1317
    1322 1322 1322 1322 0 0 0 0 1312 1307 1302 1302 1297 1297 1302 1302
    1297 1297 1297 1297 1297 1297 1297 1297 1292 1292 1292 1292 1292
    1292 1292 1292 1292 1292 1292 1297 1302 1297 1297 1292 1292 1297
    1292 1292 1297 1297 1297 1297 1297 1302 1302 1307 1302 1302 1307
    1302 1302 1302 1307 1307 1307 1307 1302 1302 1302 1302 1307 1307
    1307 1307 1307 1307 1307 1307 1307 1312 1312 1312 1317 1312 1312
    1312 1317 0 0 0 1312 1307 1302 1302 1297 1297 1302 1302 1297 1297
    1297 1297 1297 1297 1297 1297 1292 1292 1292 1292 1292 1292 1292
    1292 1288 1288 1292 1292 1292 1292 1292 1292 1292 1292 1292 1292
    1292 1292 1292 1292 1292 1297 1297 1297 1302 1302 1302 1297 1297
    1297 1297 1302 1307 1302 1302 1302 1302 1302 1302 1302 1302 1307
    1307 1307 1307 1307 1307 1307 1307 1307 1307 1312 1312 1312 1317 0 0
    0 1317 1312 1307 1307 1302 1302 1302 1307 1302 1297 1297 1297 1297
    1297 1297 1297 1292 1292 1292 1292 1292 1292 1292 1292 1288 1288
    1292 1292 1292 1292 1292 1292 1292 1292 1292 1292 1288 1288 1292
    1292 1292 1292 1292 1292 1297 1297 1297 1292 1292 1292 1297 1297
    1302 1302 1302 1302 1297 1297 1297 1297 1297 1302 1307 1307 1307
    1307 1302 1302 1302 1302 1307 1307 1307 1307 1312 0 0 0 1322 1322
    1317 1312 1312 1312 1312 1312 1307 1307 1302 1302 1302 1302 1297
    1297 1292 1292 1292 1292 1297 1292 1292 1288 1288 1288 1292 1292
    1292 1292 1292 1292 1292 1292 1292 1292 1288 1288 1292 1292 1292
    1292 1292 1292 1292 1292 1292 1292 1292 1292 1292 1292 1297 1297
    1297 1297 1297 1297 1297 1297 1297 1302 1302 1302 1302 1302 1297
    1297 1297 1297 1302 1302 1302 1302 1307 0 0 1338 1328 1322 1322 1317
    1317 1317 1317 1317 1312 1312 1312 1307 1307 1307 1312 1307 1302
    1302 1302 1302 1302 1297 1292 1288 1288 1288 1292 1292 1292 1292
    1292 1292 1292 1292 1292 1292 1292 1292 1292 1292 1292 1292 1292
    1292 1292 1292 1292 1292 1292 1288 1288 1288 1292 1292 1292 1292
    1292 1292 1292 1292 1292 1297 1297 1297 1297 1297 1292 1292 1292
    1297 1297 1302 1302 1302 1302 0 0 1338 1333 1333 1328 1328 1328 1328
    1322 1322 1317 1317 1317 1317 1317 1312 1312 1312 1312 1312 1307
    1307 1307 1302 1302 1297 1297 1297 1297 1297 1297 1292 1292 1292
    1292 1292 1292 1292 1292 1292 1292 1292 1292 1292 1292 1292 1292
    1292 1292 1292 1292 1288 1288 1288 1288 1292 1292 1292 1292 1292
    1292 1292 1292 1292 1292 1292 1292 1292 1292 1292 1292 1292 1292
    1297 1297 1297 1302 0 0 1343 1343 1338 1333 1333 1333 1333 1328 1328
    1328 1322 1322 1322 1322 1317 1317 1317 1317 1317 1312 1312 1312
    1307 1307 1307 1307 1307 1302 1302 1302 1302 1302 1302 1297 1297
    1297 1297 1292 1292 1292 1292 1292 1292 1292 1292 1292 1292 1292
    1292 1292 1288 1288 1288 1288 1288 1292 1292 1292 1292 1292 1292
    1292 1292 1292 1292 1292 1292 1292 1292 1292 1292 1292 1292 1297
    1297 1292 1292 0 1349 1349 1349 1338 1338 1338 1338 1333 1333 1333
    1333 1333 1328 1328 1328 1328 1322 1322 1322 1322 1322 1322 1317
    1317 1312 1312 1312 1312 1312 1307 1307 1307 1307 1307 1307 1302
    1302 1302 1297 1297 1297 1297 1297 1297 1297 1297 1297 1292 1292
    1292 1292 1292 1292 1288 1288 1292 1292 1292 1292 1292 1292 1292
    1292 1292 1292 1292 1292 1292 1292 1292 1292 1292 1292 1292 1292
    1292 1292 1297 1365 1365 1359 1354 1354 1354 1354 1343 1343 1338
    1338 1338 1333 1333 1333 1333 1328 1328 1328 1328 1328 1328 1322
    1322 1322 1322 1317 1317 1317 1312 1312 1312 1312 1312 1312 1307
    1307 1307 1307 1307 1307 1307 1307 1307 1307 1302 1302 1302 1297
    1297 1292 1292 1292 1292 1292 1292 1292 1292 1292 1292 1292 1292
    1292 1292 1292 1292 1292 1292 1292 1292 1292 1292 1292 1292 1292
    1292 1292 1292 1365 1365 1365 1365 1359 1359 1365 1359 1359 1359
    1354 1354 1343 1343 1343 1343 1338 1338 1338 1333 1333 1333 1333
    1328 1328 1328 1328 1328 1328 1322 1322 1322 1322 1317 1317 1317
    1317 1317 1312 1312 1317 1317 1312 1312 1307 1307 1307 1307 1307
    1302 1302 1302 1302 1302 1297 1292 1292 1292 1292 1292 1292 1292
    1292 1292 1292 1292 1292 1292 1292 1292 1292 1292 1292 1292 1292
    1288 1288 1292 1370 1370 1376 1370 1370 1381 1376 1370 1370 1365
    1365 1365 1354 1354 1354 1354 1354 1349 1349 1343 1343 1343 1338
    1338 1338 1333 1333 1333 1333 1328 1328 1328 1328 1328 1322 1322
    1322 1322 1322 1322 1322 1322 1322 1317 1317 1312 1312 1312 1312
    1312 1312 1312 1312 1312 1307 1302 1302 1302 1302 1302 1302 1302
    1292 1292 1297 1297 1297 1297 1297 1297 1297 1292 1292 1292 1292
    1288 1288 0 1381 1376 1376 1376 1376 1376 1376 1376 1376 1376 1376
    1370 1365 1359 1354 1354 1354 1354 1354 1354 1354 1354 1354 1349
    1343 1343 1343 1338 1338 1333 1333 1333 1333 1333 1328 1328 1328
    1328 1328 1328 1328 1328 1328 1328 1328 1322 1322 1322 1317 1317
    1312 1312 1312 1312 1317 1312 1312 1312 1312 1312 1307 1307 1307
    1302 1302 1307 1307 1302 1302 1302 1297 1297 1292 1292 1292 1292 0 0
    4911 4911 4842 4842 4842 4842 1376 1376 1376 1381 1381 1376 1376
    1376 1376 1376 1370 1359 1359 1359 1365 1365 1359 1354 1354 1354
    1354 1354 1354 1343 1338 1338 1338 1338 1338 1333 1333 1333 1333
    1333 1333 1333 1333 1328 1328 1328 1328 1328 1328 1328 1322 1322
    1322 1322 1322 1322 1317 1312 1312 1312 1312 1312 1312 1312 1312
    1307 1307 1307 1307 1307 1307 1302 1297 1297 1297 0 0 0 4911 4842
    4842 4842 4842 4842 4911 4842 4842 4774 4774 4842 4911 1387 1387
    4842 4842 4911 1376 1376 1370 1365 1365 1365 1365 1365 1365 1365
    1359 1359 1354 1354 1354 1354 1354 1349 1349 1343 1338 1338 1338
    1333 1333 1333 1333 1333 1333 1333 1333 1333 1328 1328 1328 1328
    1328 1328 1328 1322 1322 1322 1322 1322 1317 1317 1317 1312 1312
    1312 1312 1312 1307 1307 1297 1297 1302 0 0 0 4911 4842 4842 4842
    4842 4842 4911 4911 4911 4911 4911 4911 4911 4842 4842 4842 4842
    4842 4842 4842 1376 1370 1370 1370 1370 1370 1370 1370 1365 1365
    1365 1359 1354 1354 1354 1354 1354 1354 1359 1359 1359 1349 1349
    1349 1343 1343 1343 1343 1338 1338 1338 1338 1338 1333 1333 1333
    1328 1328 1328 1328 1328 1328 1328 1328 1322 1317 1317 1317 1317
    1317 1312 1307 1302 1302 1307 0 0 0 4911 4842 4842 4842 4842 4842
    4911 4911 4911 4911 4911 4911 4911 4842 4842 4842 4842 4842 4842
    4842 4842 4842 4842 4708 4708 1376 1376 1370 1370 1370 1365 1365
    1365 1359 1359 1359 1359 1365 1365 1365 1365 1365 1359 1359 1354
    1354 1354 1354 1349 1349 1349 1349 1349 1349 1343 1338 1338 1333
    1333 1333 1333 1333 1333 1333 1328 1322 1322 1322 1322 1322 1322
    1317 1312 1312 0 0 0 0 4911 4842 4842 4842 4842 4842 4911 4911 4911
    4911 4911 4911 4911 4911 4911 4842 4842 4842 4842 4842 4842 4842
    4842 4842 4842 4842 1381 1381 1381 1387 1387 1387 4842 4842 1370
    1370 1370 1370 1370 1370 1370 1370 1365 1365 1365 1365 1365 1365
    1365 1359 1359 1359 1354 1354 1349 1349 1343 1343 1343 1343 1343
    1343 1343 1338 1333 1333 1328 1328 1328 1333 1333 1333 1333 1333 0 0
    0 3503 4911 4842 4842 4842 4842 4842 4983 4911 4911 4911 4911 4911
    4911 4911 4911 4842 4842 4842 4842 4842 4842 4842 4842 4842 4842
    4842 4842 4911 4842 4842 4842 4842 4842 4842 4774 4774 1376 1376
    1376 1370 1370 1370 1365 1365 1365 1365 1370 1370 1365 1365 1359
    1359 1365 1365 1365 1365 1365 1365 1349 1349 1349 1349 1349 1343
    1343 1338 1333 1333 1338 1338 1333 1333 1338 1338 0 0 3503 3503 4911
    4911 4911 4911 4911 4911 4983 4911 4911 4911 4911 4911 4911 4911
    4911 4911 4911 4911 4842 4842 4842 4911 4911 4911 4911 4911 4911
    4911 4842 4842 4842 4842 4842 4842 4774 4774 4842 4842 4911 4842
    4774 4708 4708 4708 4708 4774 1370 1370 1370 1365 1365 1365 1370
    1370 1370 1370 1370 1370 1370 1370 1365 1365 1365 1349 1349 1349
    1349 1349 1349 1343 1343 1343 1343 1343 0 3503 3503 3503 4911 4911
    4911 4911 4911 4911 4983 4983 4911 4911 4911 4911 4911 4911 4911
    4911 4911 4911 4911 4911 4911 4911 4911 4911 4911 4911 4911 4911
    4842 4842 4842 4842 4842 4842 4842 4842 4842 4842 4842 4842 4774
    4774 4774 4774 4842 4774 4774 4774 4774 4774 4774 1370 1370 1370
    1370 1370 1370 1376 4842 1370 1365 1365 1365 1365 1365 1365 1365
    1365 1349 1349 1349 1349 1349 4582 4582 3503 3503 3503</data></Depth0768>
</opencv_storage>
