<?xml version="1.0"?>
<opencv_storage>
<Depth17565 type_id="opencv-matrix">
  <rows>171</rows>
  <cols>65</cols>
  <dt>w</dt>
  <data>
    5460 5460 5460 5460 5548 5548 5460 5460 5460 5460 727 725 725 727
    727 727 727 728 728 5374 5460 5460 5460 731 730 730 5210 5210 5210
    5210 5210 5210 5132 5132 5132 5132 5291 5291 5291 5210 5210 5210
    5210 5210 5132 5132 5056 4983 4983 4983 5056 0 0 0 0 0 0 0 0 5132
    5132 5132 4983 4983 4983 5460 5460 5460 5460 5460 5460 5460 5460
    5460 5460 727 727 727 727 727 727 727 728 728 728 728 733 733 731
    730 730 730 5210 5210 5132 5132 5132 5132 5132 5132 5132 5291 5291
    5291 5210 5210 5210 5210 5132 5056 5056 5056 4983 4983 4983 0 0 0 0
    0 0 0 0 0 5210 5132 5056 4983 4983 4983 5460 5460 5460 5460 5460
    5460 5460 5460 5460 5460 728 728 727 727 727 727 727 728 728 728 728
    733 733 731 730 730 730 730 5132 5132 5132 5132 5132 5132 5132 5132
    5291 5374 0 0 0 5210 5210 5132 4983 4983 5056 0 0 0 0 0 0 0 0 0 0 0
    0 0 5132 5056 5056 5056 4983 5548 5548 5460 5460 5460 5460 5460 5460
    5460 5460 728 728 727 727 727 727 727 728 728 728 728 728 728 730
    730 730 730 717 717 5210 5210 5210 5210 0 0 0 0 0 0 0 0 0 0 4708
    4708 4983 0 0 0 0 0 0 0 0 0 0 0 0 0 0 0 5056 5056 5056 4983 0 0 5460
    5460 5460 5460 5460 5548 5548 5548 5548 5640 727 727 727 728 728 728
    728 730 728 728 727 727 725 719 719 717 717 717 0 717 526 0 0 0 0 0
    0 0 0 0 0 4708 4708 0 0 0 0 0 0 0 0 0 0 0 0 0 0 0 0 0 5056 5056 4983
    0 0 0 0 0 0 0 0 0 0 0 526 728 728 728 728 728 728 728 730 728 727
    725 719 714 714 719 717 717 717 0 0 0 0 0 0 0 0 0 0 0 0 0 0 0 0 0 0
    0 0 0 0 0 0 0 0 0 0 0 0 0 0 0 0 4983 0 0 0 0 0 0 0 0 0 0 526 526 526
    530 530 526 728 728 728 730 728 727 725 719 714 714 714 527 526 526
    0 0 0 0 0 0 0 0 0 0 0 0 0 0 0 0 0 0 0 0 0 0 0 0 0 0 0 0 0 0 0 0 0 0
    0 0 0 0 0 0 0 0 0 0 0 526 526 526 530 530 526 525 525 733 733 733
    733 526 528 528 527 527 527 526 526 526 526 526 526 526 525 525 0 0
    0 0 0 0 0 0 0 0 0 0 0 0 0 0 0 0 0 0 0 0 0 0 0 0 0 0 0 0 0 0 0 0 0
    525 525 525 526 526 526 526 526 526 525 525 525 526 526 526 526 526
    527 527 527 527 526 526 526 526 526 526 526 525 525 527 0 0 0 0 0 0
    0 0 0 0 0 0 0 0 0 0 0 0 0 0 0 0 0 0 0 0 0 0 0 0 0 0 0 0 0 525 525
    525 525 526 526 526 526 526 525 525 526 526 526 526 526 527 527 527
    527 526 526 526 527 527 526 526 526 526 527 527 0 0 0 528 527 527
    527 0 0 0 0 0 0 0 0 0 0 0 0 0 0 0 0 0 0 0 526 526 526 526 526 526
    526 525 525 525 525 525 526 526 526 527 526 525 525 526 526 526 526
    527 527 527 527 527 526 526 526 526 527 527 527 527 528 527 527 528
    0 0 528 527 527 527 529 0 0 0 0 0 0 0 0 0 0 0 0 0 0 0 0 0 0 526 526
    526 526 526 526 526 525 525 525 525 525 526 526 526 527 527 526 526
    526 527 527 527 528 527 527 527 527 527 527 526 526 527 527 527 528
    528 527 527 528 529 529 529 528 528 529 529 0 0 0 0 0 0 0 0 0 0 0 0
    0 0 0 0 0 0 526 526 526 526 526 526 526 525 525 525 526 526 526 527
    527 527 527 526 526 527 527 527 528 528 528 528 528 528 527 527 528
    529 529 529 529 529 528 528 528 529 529 529 529 529 529 529 529 0 0
    0 0 0 0 0 0 0 0 0 0 0 0 0 0 0 0 526 526 527 527 526 526 526 526 526
    526 526 527 527 528 528 528 527 526 526 527 527 528 528 529 529 529
    529 529 528 528 529 529 529 529 529 529 529 529 529 529 529 529 529
    529 529 529 529 0 0 0 0 0 0 0 0 0 0 0 0 0 0 0 0 0 0 527 528 528 529
    529 529 527 526 526 527 528 528 528 529 529 528 527 527 527 527 528
    528 528 529 529 529 529 529 529 529 529 530 530 529 529 529 529 529
    529 529 530 530 530 530 530 530 530 531 0 0 0 0 0 0 0 0 0 0 0 0 0 0
    0 0 0 527 528 528 529 529 529 527 527 527 528 528 529 529 529 529
    529 528 528 528 528 528 528 528 529 529 530 530 529 529 529 529 530
    530 530 530 530 530 530 530 530 530 530 530 530 530 530 530 531 0 0
    0 0 0 0 0 0 0 0 0 0 0 0 0 0 0 528 529 529 529 529 529 527 527 528
    529 529 529 529 529 529 529 529 529 529 529 528 528 529 529 529 529
    530 530 530 529 529 530 530 530 530 529 529 530 530 530 530 530 530
    530 530 530 530 531 0 0 0 0 0 0 0 0 0 0 0 0 0 0 0 0 0 529 529 529
    529 529 529 528 528 528 529 529 529 529 529 529 529 529 529 529 529
    529 529 529 529 529 529 530 530 530 529 529 530 529 529 530 529 529
    530 530 530 530 530 530 530 530 530 531 532 0 0 0 0 0 0 0 0 0 0 0 0
    0 0 0 0 0 529 529 529 529 529 529 529 528 528 529 529 529 529 530
    530 530 530 530 530 529 529 529 529 530 530 530 530 530 530 530 530
    530 529 529 530 530 530 530 531 531 531 530 530 530 531 531 532 533
    534 0 0 0 0 0 0 0 0 0 0 0 0 0 0 0 0 530 530 529 529 530 529 529 529
    529 529 529 529 529 530 530 531 531 531 531 529 529 529 529 530 530
    530 530 531 531 531 531 530 530 530 530 531 530 530 531 531 531 531
    531 531 532 532 533 534 534 0 0 0 0 0 0 0 0 0 0 0 0 0 0 0 0 531 530
    529 529 530 529 529 529 529 529 529 529 530 530 530 531 531 531 531
    531 531 531 531 531 531 530 530 531 532 532 531 531 531 531 531 531
    531 531 531 531 531 532 531 531 532 533 534 534 534 0 0 0 0 0 0 0 0
    0 0 0 0 0 0 0 0 531 530 530 530 530 530 529 529 529 529 529 530 531
    531 531 531 531 532 532 532 531 531 531 532 532 531 531 532 532 532
    532 532 532 531 531 531 531 531 532 532 532 532 532 532 532 533 533
    534 534 0 0 0 0 0 0 0 0 0 0 0 0 0 0 0 0 0 530 530 531 531 530 530
    530 529 529 530 530 532 532 532 531 531 532 532 531 531 531 531 532
    532 533 533 533 533 533 533 533 532 531 531 531 531 531 531 531 532
    533 532 532 532 533 533 533 533 0 0 0 0 0 0 0 0 0 0 0 0 0 0 0 0 0
    530 530 531 531 530 530 530 529 529 530 531 532 532 532 532 532 532
    532 531 531 531 531 532 533 533 533 533 533 533 533 533 533 532 532
    532 532 532 531 531 532 533 533 533 533 533 533 533 533 0 0 0 0 0 0
    0 0 0 0 0 0 0 0 0 0 531 530 530 531 532 532 532 531 531 531 532 532
    532 532 532 532 532 532 532 531 531 531 531 533 533 534 534 533 533
    533 533 533 533 532 532 532 532 532 533 533 533 533 534 534 534 534
    534 534 534 536 0 0 0 0 0 0 0 0 0 0 0 0 0 0 0 531 531 531 532 532
    532 532 532 532 533 533 533 533 532 532 532 532 532 532 531 531 531
    532 533 534 534 534 534 534 533 533 533 533 533 533 533 533 533 533
    534 534 534 534 534 534 534 534 534 535 536 0 0 0 0 0 0 0 0 0 0 0 0
    0 0 0 532 532 532 532 533 533 533 533 533 533 534 534 534 534 534
    534 534 533 533 533 532 532 532 534 534 534 534 534 534 534 534 534
    534 534 534 534 533 533 534 534 534 534 534 534 534 534 534 534 535
    536 0 0 0 0 0 0 0 0 0 0 0 0 0 0 0 534 533 533 533 533 533 533 533
    533 534 534 534 534 534 534 534 534 534 534 534 534 534 534 534 534
    535 534 534 534 534 534 535 534 534 534 534 534 534 534 534 534 534
    534 534 534 534 534 535 536 536 0 0 0 0 0 0 0 0 0 0 0 0 0 0 0 0 534
    534 534 534 534 534 533 533 534 534 534 534 534 535 535 535 534 534
    534 535 535 535 534 534 536 535 535 535 535 535 535 535 535 535 535
    534 534 534 534 534 535 534 534 534 534 534 536 536 537 0 0 0 0 0 0
    0 0 0 0 0 0 0 0 0 0 534 534 534 534 534 534 534 534 535 534 534 534
    535 535 535 535 534 534 535 535 535 535 535 535 536 536 536 536 536
    536 536 537 536 536 536 534 534 534 534 534 535 534 534 534 534 535
    536 536 537 537 0 0 0 0 0 0 0 0 0 0 0 0 0 0 0 535 535 535 534 534
    534 534 535 535 535 535 535 535 535 536 536 535 535 535 535 535 535
    536 536 536 536 536 536 536 537 537 537 536 536 536 536 537 537 536
    536 537 536 535 535 535 536 536 536 537 536 536 0 0 0 0 0 0 0 0 0 0
    0 0 0 0 536 536 535 535 535 535 535 535 535 535 535 535 535 535 536
    536 536 536 535 535 535 535 536 536 537 537 537 537 537 537 537 537
    536 536 537 537 537 537 537 537 537 537 536 536 536 537 537 537 537
    536 536 0 0 0 0 0 0 0 0 0 0 0 0 0 0 536 536 535 535 535 535 535 535
    535 535 535 536 536 536 536 536 536 537 535 535 535 535 537 537 537
    537 538 538 537 537 537 537 536 536 537 537 538 537 537 537 537 538
    538 538 537 537 538 538 539 539 0 0 0 0 0 0 0 0 0 0 0 0 0 0 0 0 537
    536 536 536 536 536 536 536 536 536 536 536 536 536 536 537 537 536
    536 536 536 537 537 538 538 538 539 538 537 537 537 537 537 537 537
    537 537 537 537 537 538 538 539 538 538 539 540 540 540 0 0 0 0 0 0
    0 0 0 0 0 0 0 0 0 0 538 537 537 536 536 536 536 536 536 536 537 537
    537 537 537 537 537 536 536 536 536 537 537 538 538 538 539 538 537
    537 537 537 537 537 537 537 537 538 538 538 539 539 539 539 539 539
    540 540 540 540 540 0 0 0 0 0 0 0 0 0 0 0 0 0 0 538 537 537 537 537
    537 537 537 537 538 538 538 538 537 537 537 537 537 536 536 538 538
    538 538 538 538 538 539 539 538 538 538 538 538 538 540 539 538 538
    539 539 539 539 539 538 538 540 540 540 540 540 0 0 0 0 0 0 0 0 0 0
    0 0 0 0 538 538 538 537 537 538 538 538 539 539 539 539 539 538 538
    538 538 537 537 538 539 539 539 539 538 538 538 539 539 539 539 539
    539 539 539 540 539 538 538 539 539 540 539 539 538 538 540 540 540
    540 540 540 0 0 0 0 0 0 0 0 0 0 0 0 0 539 539 538 538 538 538 538
    539 539 539 539 539 539 539 539 538 538 538 538 538 539 540 539 539
    538 538 539 540 540 539 539 539 539 539 539 540 540 540 540 540 540
    540 540 540 540 540 540 540 541 540 540 540 0 0 0 0 0 0 0 0 0 0 0 0
    0 539 539 539 539 539 539 539 539 539 539 539 539 539 539 539 539
    539 539 539 539 539 540 539 539 540 540 540 540 540 540 540 539 539
    540 540 540 540 540 540 540 540 540 540 540 540 540 541 541 541 540
    540 540 0 0 0 0 0 0 0 0 0 0 0 0 0 539 539 539 539 539 539 539 539
    539 539 540 539 539 539 539 539 539 539 540 539 539 540 540 540 540
    540 540 540 540 540 540 539 539 540 540 540 540 540 540 540 540 540
    540 540 540 541 541 542 542 541 541 0 0 0 0 0 0 0 0 0 0 0 0 0 0 540
    539 539 539 539 539 540 540 540 540 540 540 540 540 540 540 540 540
    540 540 540 540 540 540 540 540 540 540 540 540 540 539 539 540 540
    540 540 540 540 540 540 540 540 540 541 542 542 542 542 542 542 541
    541 0 0 0 0 0 0 0 0 0 0 0 0 540 540 540 539 539 540 540 540 540 540
    540 540 540 540 540 540 540 540 540 540 540 540 540 540 540 540 540
    540 540 540 540 540 540 541 541 541 540 540 540 540 540 540 540 540
    541 541 541 541 542 542 542 540 540 0 0 0 0 0 0 0 0 0 0 0 0 0 540
    540 540 540 540 540 540 541 541 540 540 540 540 540 540 540 540 540
    540 540 541 540 540 541 540 540 540 540 540 540 540 540 542 542 541
    541 541 541 542 541 541 541 541 541 541 541 541 542 543 542 540 540
    0 0 0 0 0 0 0 0 0 0 0 0 0 541 540 540 540 540 540 540 541 541 541
    540 540 541 541 542 542 541 540 540 540 542 541 541 541 541 542 542
    542 541 540 540 541 542 542 542 542 542 542 543 542 542 542 541 541
    541 542 542 542 543 543 540 540 542 0 0 0 0 0 0 0 0 0 0 0 0 542 541
    541 540 540 540 542 542 542 541 540 540 541 541 542 542 542 542 542
    542 543 542 541 541 542 542 542 542 541 541 541 541 542 542 542 542
    543 543 543 543 542 542 541 541 541 542 543 544 543 543 542 542 542
    0 0 0 0 0 0 0 0 0 0 0 0 542 541 541 541 541 541 542 542 542 542 541
    541 542 542 543 542 542 542 543 543 543 542 541 541 542 542 543 543
    543 543 543 543 543 543 542 542 543 543 543 543 543 543 542 542 542
    542 543 544 544 543 543 543 0 0 0 0 0 0 0 0 0 0 0 0 0 544 543 542
    542 542 542 542 543 542 542 542 542 543 543 543 542 542 542 543 543
    544 543 543 543 543 543 543 543 543 543 544 543 543 543 543 543 543
    543 543 543 543 543 543 543 543 543 543 544 544 544 543 543 544 0 0
    0 0 0 0 0 0 0 0 0 0 544 543 543 543 543 543 543 543 543 543 543 543
    543 543 543 542 542 542 543 544 544 544 544 544 544 544 544 544 544
    544 544 544 544 544 543 543 544 544 544 544 544 544 543 543 543 543
    544 544 544 544 544 544 544 0 0 0 0 0 0 0 0 0 0 0 0 544 543 543 543
    543 543 543 543 544 544 544 544 544 543 543 542 542 543 543 544 546
    545 544 544 544 544 544 544 544 545 544 544 544 544 544 544 544 544
    544 545 545 545 544 544 544 545 545 545 545 545 545 545 544 544 0 0
    0 0 0 0 0 0 0 0 0 544 544 543 543 543 543 543 544 544 545 545 545
    545 545 544 543 543 543 543 545 546 546 545 545 545 545 545 545 545
    546 544 544 546 544 544 544 545 545 545 545 545 545 544 544 544 545
    545 546 546 546 546 545 544 544 0 0 0 0 0 0 0 0 0 0 0 543 543 544
    544 544 544 544 545 545 546 546 546 546 546 545 545 545 545 545 545
    546 546 546 546 545 545 546 545 545 546 544 544 546 545 544 544 545
    545 545 545 545 546 545 544 544 545 546 546 546 547 546 545 545 0 0
    0 0 0 0 0 0 0 0 0 0 543 543 545 545 545 545 546 546 546 546 546 546
    546 546 545 545 546 546 546 546 546 546 546 546 546 546 546 545 545
    546 545 545 546 545 545 545 545 545 545 545 546 546 545 545 545 545
    546 547 547 547 546 546 546 0 0 0 0 0 0 0 0 0 0 0 0 0 546 546 546
    546 546 546 546 546 546 546 546 546 546 546 546 546 546 546 546 546
    546 546 546 546 546 546 546 546 546 546 546 546 545 545 546 546 546
    546 546 546 546 546 545 545 545 546 547 547 548 546 546 546 0 0 0 0
    0 0 0 0 0 0 0 0 0 546 546 546 546 546 546 546 546 546 546 546 546
    546 546 546 546 546 546 546 546 546 546 546 546 546 546 546 546 546
    547 547 546 546 546 546 546 546 546 546 546 546 546 546 546 546 546
    547 548 548 547 547 547 0 0 0 0 0 0 0 0 0 0 0 0 0 546 546 546 546
    546 546 546 546 546 546 546 546 546 546 546 546 546 546 546 547 547
    547 547 546 546 546 546 546 547 547 547 546 546 546 547 546 546 546
    546 546 546 546 546 546 546 546 547 548 549 548 547 547 0 0 0 0 0 0
    0 0 0 0 0 0 0 546 546 546 546 546 546 546 546 546 546 546 546 546
    546 546 546 546 546 546 547 547 547 547 547 547 547 547 547 547 547
    547 547 547 547 547 547 547 547 546 546 547 547 547 546 546 547 548
    549 549 548 547 547 0 0 0 0 0 0 0 0 0 0 0 0 0 546 546 546 546 546
    546 546 546 546 546 546 546 546 546 546 546 546 546 546 548 547 547
    548 548 548 548 548 548 547 547 547 547 547 547 547 547 547 547 547
    547 547 548 547 547 547 548 549 550 549 549 547 547 0 0 0 0 0 0 0 0
    0 0 0 0 0 550 546 546 546 547 547 546 546 546 546 547 547 547 547
    547 546 546 547 547 548 548 548 548 548 548 549 549 548 548 548 548
    548 548 547 547 548 547 547 548 548 548 549 549 548 548 549 550 550
    549 549 550 550 0 0 0 0 0 0 0 0 0 0 0 0 0 0 549 549 548 548 548 547
    546 546 547 548 549 549 548 547 547 547 548 548 549 549 549 549 549
    549 549 549 549 549 549 549 549 549 549 549 549 549 549 549 549 549
    549 549 549 550 551 551 551 550 550 550 550 0 0 0 0 0 0 0 0 0 0 0 0
    0 550 549 549 549 548 548 548 548 548 549 549 549 549 548 548 548
    548 548 548 549 549 549 549 549 549 550 549 549 549 549 549 549 549
    550 550 550 550 550 550 550 550 549 549 549 550 551 551 551 550 550
    550 550 551 0 0 0 0 0 0 0 0 0 0 0 0 550 550 549 549 549 549 549 549
    549 549 549 550 550 549 549 549 549 549 549 550 550 550 550 550 550
    550 549 549 550 550 550 550 550 550 550 551 550 550 550 550 550 549
    549 549 550 551 551 551 551 551 551 551 551 0 0 0 0 0 0 0 0 0 0 0
    547 547 547 550 550 550 550 549 549 550 550 550 550 550 549 549 549
    549 549 550 550 550 550 551 550 550 550 550 550 550 550 550 550 550
    550 551 551 551 550 550 550 550 550 550 551 551 552 552 552 551 551
    551 551 551 0 0 0 0 0 0 0 0 0 0 0 546 546 547 550 550 550 550 550
    550 550 550 551 551 550 550 550 550 550 550 550 552 552 551 551 551
    552 551 551 551 552 551 551 550 550 551 551 551 551 551 550 550 552
    552 552 552 552 552 553 553 553 552 552 551 551 0 0 0 0 0 0 0 0 0 0
    0 546 546 547 550 550 550 550 551 551 551 551 551 551 550 550 550
    550 551 551 551 552 552 551 551 553 553 552 552 552 552 551 551 552
    552 552 552 552 552 551 551 552 552 552 552 552 552 552 553 554 554
    553 553 552 551 551 0 0 0 0 0 0 0 0 0 0 0 0 551 551 551 551 551 552
    552 552 551 551 551 551 551 551 552 552 552 552 553 552 552 553 553
    553 553 552 552 552 552 552 553 553 553 552 552 553 553 553 553 553
    553 552 552 552 553 554 554 554 554 553 553 551 551 0 0 0 0 0 0 0 0
    0 0 0 0 551 551 551 552 552 552 552 552 552 551 551 552 552 552 552
    552 552 552 553 552 552 553 553 553 553 553 553 552 552 552 554 554
    553 553 554 554 554 554 554 553 553 553 552 552 553 554 554 554 554
    554 554 554 554 0 0 0 0 0 0 0 0 0 0 0 0 552 552 552 552 552 552 553
    553 553 552 552 552 552 552 552 552 552 552 553 552 552 553 554 554
    554 553 553 552 552 553 554 554 554 554 554 554 554 554 554 554 554
    553 553 553 554 554 554 554 554 555 554 554 554 0 0 0 0 0 0 0 0 0 0
    0 0 552 552 553 553 553 553 553 553 553 553 553 553 553 553 553 552
    552 553 553 553 553 554 554 554 554 554 553 553 553 554 554 554 554
    554 554 554 554 554 554 554 554 554 554 554 554 554 554 555 555 555
    554 554 554 0 0 0 0 0 0 0 0 0 0 0 0 553 553 553 553 553 553 554 554
    554 554 553 553 553 553 553 552 552 553 554 554 554 554 554 554 554
    554 554 553 553 554 554 554 554 554 554 554 554 554 554 554 554 554
    554 554 554 554 556 556 556 556 555 555 555 0 0 0 0 0 0 0 0 0 0 0 0
    553 553 553 554 554 554 554 554 554 554 554 554 554 554 554 553 553
    553 554 554 554 554 554 554 554 554 554 554 554 554 554 554 554 554
    554 554 554 554 554 554 555 554 554 554 554 555 556 556 556 556 556
    556 556 0 0 0 0 0 0 0 0 0 0 0 0 0 554 554 554 554 554 554 554 554
    554 554 554 554 554 554 553 553 554 554 554 554 554 554 554 554 554
    554 554 555 555 555 555 554 554 554 554 555 555 555 556 556 556 555
    555 555 556 556 557 556 556 556 556 557 0 0 0 0 0 0 0 0 0 0 0 0 556
    554 554 554 554 555 555 555 555 555 554 554 554 554 554 554 554 554
    554 554 554 554 555 555 555 554 554 554 555 556 556 556 554 554 554
    554 555 555 556 556 556 556 556 555 555 556 557 557 557 557 557 557
    557 0 0 0 0 0 0 0 0 0 0 0 0 556 555 555 555 555 555 556 555 555 555
    555 555 554 554 554 554 554 555 555 555 555 556 556 556 556 556 555
    555 556 557 557 557 555 555 555 556 556 556 557 557 557 557 556 556
    556 556 557 557 557 557 557 557 557 0 0 0 0 0 0 0 0 0 0 0 0 556 556
    556 556 556 556 556 556 556 556 556 556 555 555 555 555 555 555 556
    555 555 556 556 556 557 556 556 556 557 557 557 557 556 556 556 557
    557 557 557 557 557 557 557 557 557 557 558 558 558 558 558 558 558
    0 0 0 0 0 0 0 0 0 0 0 0 556 555 555 556 556 556 556 556 556 556 556
    556 556 556 555 555 555 555 556 556 556 557 557 557 557 557 557 557
    557 557 557 557 557 557 557 557 557 558 558 558 558 557 557 557 557
    557 558 558 558 558 558 558 0 0 0 0 0 0 0 0 0 0 0 0 0 0 555 555 557
    557 557 557 557 556 556 556 556 556 556 556 556 556 556 557 557 557
    557 557 557 557 557 557 558 558 558 558 558 558 558 558 558 558 558
    558 558 558 557 557 557 558 558 559 559 559 558 558 558 0 0 0 0 0 0
    0 0 0 0 0 0 0 0 555 555 557 557 557 557 557 557 557 557 557 557 557
    557 557 557 557 558 557 557 557 557 557 558 558 558 558 558 558 558
    558 558 558 558 558 558 558 559 559 559 558 558 558 558 558 559 560
    560 559 559 559 0 0 0 0 0 0 0 0 0 0 0 0 0 0 556 556 557 557 557 558
    558 558 558 557 557 557 557 558 558 558 558 559 559 558 558 558 558
    558 558 558 558 558 558 558 558 558 558 558 559 559 559 560 560 560
    559 558 558 558 558 559 560 560 560 560 559 559 0 0 0 0 0 0 0 0 0 0
    0 0 0 557 557 558 558 559 559 559 559 559 558 558 558 558 558 559
    558 558 559 559 559 559 559 559 559 559 559 558 558 559 559 559 559
    559 559 560 560 560 560 560 560 560 559 559 559 559 560 561 561 560
    560 559 558 558 0 0 0 0 0 0 0 0 0 0 0 0 558 558 559 559 560 560 559
    559 559 559 559 559 559 559 559 559 559 560 560 560 560 560 560 560
    560 561 561 561 560 560 559 559 560 560 560 560 560 561 560 560 560
    560 560 560 560 561 561 561 561 561 559 557 557 0 0 0 0 0 0 0 0 0 0
    0 0 559 559 560 560 560 560 560 560 560 559 559 559 559 559 559 559
    559 560 561 561 561 561 561 561 561 561 561 561 561 560 560 561 561
    561 561 561 561 561 561 561 561 561 561 561 561 561 562 562 562 562
    560 557 557 0 0 0 0 0 0 0 0 0 0 0 0 560 560 560 560 560 560 560 560
    560 560 560 560 560 559 559 559 560 561 561 561 561 561 561 561 561
    561 561 561 561 561 561 561 561 561 561 561 561 562 562 562 562 562
    561 561 561 561 562 562 563 562 561 558 558 0 0 0 0 0 0 0 0 0 0 0 0
    0 561 561 561 561 560 560 560 560 560 560 561 560 560 560 560 560
    561 562 562 562 562 562 562 562 561 561 561 561 562 562 562 562 562
    562 562 562 562 562 562 562 562 561 561 562 562 563 564 564 563 561
    559 559 0 0 0 0 0 0 0 0 0 0 0 0 0 561 561 561 561 561 560 560 561
    561 561 561 561 561 560 560 561 562 562 562 562 562 562 562 562 562
    561 561 562 562 562 562 562 562 562 562 562 562 562 563 563 562 562
    562 562 563 564 565 565 565 565 565 565 0 0 0 0 0 0 0 0 0 0 0 0 0
    562 561 561 561 561 561 561 561 562 561 561 561 561 561 561 561 562
    563 563 562 562 562 562 562 562 562 562 563 563 562 562 562 562 563
    563 563 563 564 564 564 563 562 562 563 563 565 565 565 565 565 565
    565 0 0 0 0 0 0 0 0 0 0 0 0 0 563 562 562 562 562 562 562 563 563
    562 562 561 561 561 561 562 563 564 563 562 562 562 562 563 563 563
    563 563 564 563 563 563 563 563 564 564 564 564 564 564 563 563 563
    564 565 565 565 565 565 565 565 565 565 0 0 0 0 0 0 0 0 0 0 0 0 564
    562 562 563 563 563 563 563 563 563 562 562 562 562 562 563 564 564
    564 563 563 563 563 563 563 563 563 563 564 564 563 563 563 564 564
    564 565 565 565 565 565 564 564 565 565 565 565 565 565 565 565 565
    565 0 0 0 0 0 0 0 0 0 0 0 0 564 563 563 563 563 564 564 564 564 564
    563 563 563 563 563 564 565 565 565 564 564 563 563 564 564 564 565
    565 564 564 564 564 564 565 565 565 565 565 565 565 565 565 565 565
    565 565 565 565 565 565 565 565 0 0 0 0 0 0 0 0 0 0 0 0 0 563 563
    563 564 564 564 564 564 564 564 564 564 564 564 564 564 565 565 565
    565 565 564 564 565 564 564 565 565 565 565 565 565 565 565 565 565
    565 565 565 565 565 565 565 565 565 565 566 566 565 565 565 565 0 0
    0 0 0 0 0 0 0 0 0 0 0 563 563 564 564 565 564 564 564 564 564 564
    564 564 564 564 565 565 565 565 565 565 565 565 565 565 565 565 565
    565 565 565 565 565 565 565 565 565 565 565 565 565 565 565 565 565
    565 567 567 566 565 565 565 0 0 0 0 0 0 0 0 0 0 0 0 0 563 563 564
    565 565 565 565 565 565 565 565 565 565 565 565 565 565 565 565 565
    565 565 565 565 565 565 565 565 565 565 565 565 566 566 566 566 566
    565 565 565 565 565 565 565 565 565 567 567 568 567 567 0 0 0 0 0 0
    0 0 0 0 0 0 0 0 0 565 565 565 565 565 565 565 565 565 565 565 565
    565 565 565 565 565 565 565 565 566 566 565 565 565 566 566 566 566
    566 566 566 566 567 567 566 566 566 566 566 566 566 566 566 567 567
    568 568 568 568 0 0 0 0 0 0 0 0 0 0 0 0 0 0 0 566 566 566 565 565
    565 565 565 565 565 565 565 565 565 565 565 565 566 566 566 566 566
    566 566 566 566 566 566 567 567 567 567 567 567 567 566 566 566 567
    567 567 567 567 567 568 568 568 568 568 568 569 0 0 0 0 0 0 0 0 0 0
    0 0 0 0 567 567 567 566 566 565 565 565 565 566 566 566 565 565 565
    566 566 566 566 566 567 567 567 567 567 567 567 567 567 567 567 568
    568 568 567 567 567 567 567 567 568 568 568 568 568 568 569 569 569
    569 569 0 0 0 0 0 0 0 0 0 0 0 0 0 0 567 567 567 567 566 566 566 566
    566 567 567 566 566 566 567 568 568 568 567 567 567 567 567 567 567
    568 567 567 568 568 568 568 568 568 568 568 568 568 568 568 568 568
    569 569 569 569 569 569 569 569 569 0 0 0 0 0 0 0 0 0 0 0 0 0 0 568
    568 568 567 567 567 567 567 567 567 567 567 566 566 567 569 568 568
    568 568 568 568 568 568 568 568 568 568 568 568 568 568 568 568 568
    568 568 568 568 568 568 569 569 569 569 570 570 570 569 569 569 0 0
    0 0 0 0 0 0 0 0 0 0 0 0 568 568 568 568 568 568 567 567 567 567 567
    567 567 567 567 569 569 568 568 568 568 568 568 569 569 569 569 568
    568 568 568 569 569 568 568 569 569 569 569 569 569 569 569 569 569
    570 571 570 569 569 569 0 0 0 0 0 0 0 0 0 0 0 0 0 572 571 569 569
    569 568 568 568 568 568 568 568 567 567 568 568 569 569 569 569 569
    569 569 569 570 569 569 569 569 569 569 569 570 570 569 569 570 569
    569 569 569 569 569 569 570 571 571 572 571 570 569 569 0 0 0 0 0 0
    0 0 0 0 0 0 0 572 572 571 570 570 568 568 568 568 568 568 568 568
    568 568 568 570 569 569 569 569 570 570 570 570 570 570 570 570 570
    569 569 570 571 571 571 571 571 571 571 570 570 570 570 571 571 571
    572 571 571 570 570 0 0 0 0 0 0 0 0 0 0 0 0 0 572 572 571 570 570
    568 568 569 568 568 569 569 569 569 569 569 571 570 570 570 570 571
    571 571 571 570 570 570 570 570 570 571 571 571 571 571 571 571 571
    571 571 571 571 571 572 572 572 572 571 571 571 571 0 0 0 0 0 0 0 0
    0 0 0 0 0 0 0 571 570 570 569 569 570 570 570 570 570 570 570 570
    570 571 571 571 571 571 572 572 571 571 571 571 572 571 571 571 571
    571 571 571 572 572 572 572 572 572 572 572 572 572 572 572 573 573
    572 572 572 0 0 0 0 0 0 0 0 0 0 0 0 0 0 0 0 570 570 570 570 570 570
    570 570 571 571 571 571 571 572 572 572 572 572 572 572 572 572 572
    572 572 571 571 571 572 572 571 571 572 572 572 572 572 572 572 572
    572 572 572 572 573 573 573 573 573 573 0 0 0 0 0 0 0 0 0 0 0 0 0 0
    0 570 570 571 571 571 571 571 571 571 571 571 571 571 572 572 572
    572 572 573 572 572 572 572 572 572 572 572 573 572 572 572 572 572
    573 573 572 572 572 572 572 572 572 572 572 573 573 573 573 573 573
    0 0 0 0 0 0 0 0 0 0 0 0 0 0 0 571 571 571 572 572 572 571 571 572
    572 572 572 572 573 573 573 573 573 573 573 573 572 572 572 573 573
    573 573 573 573 572 572 573 573 573 573 573 573 573 573 573 573 573
    573 574 574 574 574 573 573 0 0 0 0 0 0 0 0 0 0 0 0 0 0 573 572 572
    572 572 572 572 572 572 572 572 572 572 572 573 573 573 573 573 573
    573 573 573 573 573 573 573 573 573 573 573 573 573 574 574 574 573
    573 573 573 573 573 573 573 575 575 576 575 574 573 573 0 0 0 0 0 0
    0 0 0 0 0 0 0 0 573 573 572 572 572 572 572 573 573 573 573 572 572
    573 574 574 573 573 573 573 573 573 574 573 573 574 573 573 573 573
    573 573 574 575 575 575 574 574 574 574 574 574 574 575 576 576 576
    576 576 573 573 0 0 0 0 0 0 0 0 0 0 0 0 0 0 573 573 572 572 572 572
    573 574 574 574 574 573 573 573 574 574 574 574 574 573 573 574 574
    575 575 575 574 574 574 574 574 574 575 575 576 576 575 575 575 575
    575 575 575 576 576 576 576 576 576 574 573 573 0 0 0 0 0 0 0 0 0 0
    0 0 0 575 573 573 573 573 573 574 574 574 574 574 573 573 574 574
    575 574 574 574 574 574 575 575 575 575 576 575 575 575 575 575 575
    575 576 576 576 575 575 575 575 576 576 576 576 576 577 577 577 576
    575 573 573 0 0 0 0 0 0 0 0 0 0 0 0 0 0 573 573 573 574 574 574 574
    574 575 574 574 574 574 575 575 574 574 574 574 575 576 576 576 576
    576 575 575 576 575 575 576 576 576 576 576 576 576 576 576 576 576
    576 576 576 577 577 577 576 576 576 0 0 0 0 0 0 0 0 0 0 0 0 0 0 0
    576 575 574 574 575 575 575 575 575 575 574 574 574 575 576 575 575
    575 575 575 576 576 576 576 576 576 576 577 576 576 576 576 577 577
    577 576 576 577 577 577 577 577 577 577 578 577 577 577 577 577 0 0
    0 0 0 0 0 0 0 0 0 0 0 0 0 0 576 576 576 576 575 575 576 575 575 574
    574 575 575 576 576 576 576 576 576 576 576 576 576 576 577 577 577
    577 577 577 577 577 577 577 577 577 577 577 577 577 577 577 578 578
    578 578 578 578 579 581 0 0 0 0 0 0 0 0 0 0 0 0 0 0 0 577 577 577
    576 576 576 576 576 576 576 576 576 576 577 577 576 576 576 577 577
    577 577 577 577 577 577 577 577 577 577 577 577 577 577 577 577 577
    577 577 578 578 578 578 578 579 579 579 579 580 581 0 0 0 0 0 0 0 0
    0 0 0 0 0 0 0 577 577 577 577 576 576 576 576 576 577 577 577 577
    577 577 578 578 577 577 577 577 577 577 577 577 577 578 578 578 578
    577 577 577 577 577 577 578 577 577 578 578 578 579 579 579 579 580
    580 580 580 0 0 0 0 0 0 0 0 0 0 0 0 0 0 0 577 577 578 577 577 577
    576 576 577 577 577 577 579 579 579 578 578 578 578 578 579 579 579
    578 578 578 578 578 579 578 578 578 577 577 577 577 579 579 579 579
    579 579 579 579 580 580 580 580 580 580 0 0 0 0 0 0 0 0 0 0 0 0 0 0
    0 577 577 578 577 577 577 577 578 577 577 578 578 579 579 579 578
    578 578 578 579 579 580 579 579 579 579 580 580 579 579 579 578 578
    578 579 579 580 580 580 580 580 579 579 579 580 580 580 580 580 0 0
    0 0 0 0 0 0 0 0 0 0 0 0 0 0 577 577 578 577 577 578 578 579 578 578
    578 578 579 579 579 579 578 578 578 579 580 580 580 580 580 580 580
    580 580 580 580 580 580 580 580 580 580 580 580 580 580 580 580 580
    580 580 581 580 580 580 0 0 0 0 0 0 0 0 0 0 0 0 0 0 0 579 579 578
    578 578 579 579 580 579 579 579 579 580 580 580 579 579 579 580 580
    580 580 580 580 580 580 580 580 580 580 580 580 580 581 581 581 581
    581 581 581 581 580 580 580 580 581 581 580 580 580 0 0 0 0 0 0 0 0
    0 0 0 0 0 0 0 579 579 579 579 579 579 579 580 580 580 579 579 580
    580 580 579 579 580 580 580 580 580 580 580 581 580 580 580 581 581
    580 580 581 582 581 581 581 581 581 582 581 581 582 582 582 582 582
    581 581 580 580 0 0 0 0 0 0 0 0 0 0 0 0 0 0 579 579 579 579 579 580
    580 580 580 580 579 579 581 581 581 580 580 580 580 581 581 581 581
    581 581 581 581 581 581 582 582 582 583 583 582 582 582 582 582 582
    582 582 582 583 583 584 584 582 581 580 578 578 0 0 0 0 0 0 0 0 0 0
    0 0 0 579 579 580 580 580 580 580 580 580 580 580 580 581 581 581
    581 581 581 581 581 581 581 582 582 582 581 581 582 582 583 582 582
    583 583 583 582 582 582 582 582 582 582 583 584 584 584 584 583 582
    580 578 578 0 0 0 0 0 0 0 0 0 0 0 0 0 0 580 580 580 580 580 580 580
    580 581 581 581 582 582 582 581 581 581 581 581 581 581 582 582 582
    582 582 583 583 583 583 583 583 583 583 583 583 583 583 584 583 583
    583 584 584 584 584 584 583 583 583 0 0 0 0 0 0 0 0 0 0 0 0 0 0 0
    582 582 581 581 581 581 581 581 582 581 581 583 583 583 582 582 582
    582 582 582 582 582 583 583 583 583 583 584 584 584 584 584 584 584
    583 583 584 584 584 584 584 584 584 585 585 585 584 584 584 585 0 0
    0 0 0 0 0 0 0 0 0 0 0 0 0 583 583 582 582 581 581 581 581 582 582
    582 583 583 583 583 583 583 583 582 582 582 582 583 583 584 584 584
    584 584 584 584 584 584 584 584 584 584 584 584 584 584 585 585 585
    585 585 585 585 585 585 0 0 0 0 0 0 0 0 0 0 0 0 0 0 0 584 583 583
    583 582 582 582 582 582 582 582 583 583 583 583 583 583 583 582 582
    583 583 583 584 584 584 584 584 584 584 584 584 585 584 584 585 585
    585 585 585 585 585 585 586 586 585 585 583 583 0 583 0 954 0 0 0 0
    0 0 0 0 0 0 0 0 584 583 583 583 583 583 583 583 583 583 583 584 584
    584 584 584 584 583 583 583 583 584 584 584 584 584 584 585 585 585
    585 585 585 585 585 585 585 585 585 585 585 585 585 586 586 585 585
    583 583 0 0 0 956 0 0 0 0 0 0 0 0 0 0 0 0 584 584 584 583 583 583
    584 584 583 583 583 584 584 584 584 584 584 584 584 584 584 584 584
    585 585 585 585 585 585 585 585 585 585 585 585 585 585 586 585 585
    586 586 586 586 587 586 586 586 587 0 0 0 956 0 0 0 0 0 0 0 0 0 0 0
    0 585 584 584 584 583 583 584 584 584 584 584 585 585 585 585 584
    584 584 585 585 585 586 586 586 586 586 586 586 586 586 585 585 586
    586 586 586 586 586 586 586 586 586 586 587 588 588 587 587 587 587
    0 956 956 0 0 0 0 0 0 0 0 0 0 0 0 0 584 584 584 584 584 584 585 585
    584 584 585 585 585 585 585 585 585 585 585 586 586 586 586 586 586
    586 586 587 586 586 586 586 586 586 587 587 587 587 587 587 587 587
    588 588 588 588 588 588 0 0 0 956 0 0 0 0 0 0 0 0 0 0 0 0 0 587 585
    585 585 585 585 585 585 585 585 586 586 586 586 585 585 585 585 586
    586 587 586 586 586 586 587 587 587 587 586 586 586 586 586 587 588
    588 588 588 588 588 588 588 589 589 589 589 589 0 0 0 0 0 0 0 0 0 0
    0 0 0 0 0 0 0 587 586 586 586 586 586 587 587 587 587 587 587 586
    586 586 585 585 586 587 587 587 587 587 587 587 587 587 587 588 588
    587 587 588 588 588 589 589 588 588 588 588 588 589 589 589 589 589
    590 0 0 0 0 0 0 0 0 0 0 0 0 0 0 0 0 0 587 587 587 587 587 587 587
    587 587 587 587 587 587 587 587 586 586 587 588 588 588 588 588 587
    587 587 588 588 588 588 588 588 588 588 589 589 589 589 589 589 589
    589 589 590 590 590 590 590 592 0 0 0 0 0 0 0 0 0 0 0 0 0 0 0 0 587
    587 587 587 587 587 587 587 587 587 587 588 588 588 588 588 588 588
    588 588 588 588 588 588 588 588 588 588 588 588 588 588 589 589 589
    590 589 589 589 589 589 589 591 591 591 591 591 591 591 0 0 0 0 0 0
    0 0 0 0 0 0 0 0 0 0 587 587 587 587 587 587 587 587 588 587 587 588
    588 589 589 589 589 589 589 589 589 589 589 589 589 589 589 589 589
    589 589 589 590 590 590 590 589 589 589 589 589 590 591 592 592 592
    592 591 591 0 0 0 0 0 0 0 0 0 0 0 0 0 0 0 0 588 588 588 587 587 587
    587 587 588 588 588 588 589 589 589 589 589 589 589 589 589 589 589
    589 589 590 589 589 589 591 590 590 591 591 591 591 590 590 590 590
    590 591 592 592 592 592 592 591 591 0 0 0 0 0 0 0 0 0 0 0 0 0 0 0 0
    588 588 588 588 588 588 588 588 588 588 588 589 589 590 589 589 589
    589 589 589 589 590 590 590 590 591 590 590 591 592 592 592 591 591
    591 592 591 591 591 591 591 592 593 592 592 592 592 592 592 0 0 0 0
    0 0 0 0 0 0 0 0 0 0 0 0 588 588 589 588 588 588 588 588 589 589 590
    590 590 590 590 590 590 590 590 590 590 590 590 591 591 591 592 592
    592 592 592 592 592 592 592 592 592 592 592 592 592 593 593 593 593
    593 593 592 592 0 0 0 0 0 0 0 0 0 0 0 0 0 0 0 0 590 590 589 589 589
    589 589 590 590 590 591 591 590 590 591 591 591 591 591 591 591 591
    591 592 592 592 592 592 593 593 592 592 592 592 592 592 592 592 592
    593 593 593 593 594 594 593 593 593 593 598 598 0 0 0 0 0 0 0 0 0 0
    0 0 0 0 590 590 590 589 589 590 590 590 591 591 591 592 591 591 591
    591 592 592 592 591 591 592 592 592 592 592 593 593 593 593 593 593
    593 593 593 593 593 593 593 593 593 593 593 594 594 595 595 595 595
    596 598 0 0 0 0 0 0 0 0 0 0 0 0 0 0 590 590 591 590 590 591 591 591
    591 591 592 592 592 592 592 592 592 592 592 592 592 592 592 592 593
    593 593 593 593 593 593 593 593 593 593 593 593 593 593 595 594 594
    594 594 595 596 596 595 595 596 0 0 0 0 0 0 0 0 0 0 0 0 0 0 0 591
    591 592 591 591 591 591 591 591 591 593 593 592 592 592 592 593 593
    593 593 593 593 593 593 594 594 593 593 593 594 594 594 594 594 594
    594 594 595 595 595 594 594 595 595 596 596 596 596 596 596 0 0 1833
    1843 0 0 0 0 0 0 0 0 0 0 0 0 592 592 592 592 591 591 591 591 592 593
    593 593 592 592 593 593 593 593 593 593 594 594 594 594 594 593 593
    593 594 594 594 594 594 595 595 595 596 596 596 596 596 596 596 597
    597 596 596 596 0 0 0 1823 1833 0 0 0 0 0 0 0 0 0 0 0 0 592 592 592
    592 592 592 592 592 592 594 594 593 593 593 593 593 593 593 593 594
    594 594 594 594 595 594 594 594 595 595 595 595 595 595 595 596 596
    596 596 596 596 596 596 597 597 597 596 596 0 0 0 1804 1804 1804 0 0
    0 0 0 0 0 0 0 0 0 0 593 592 592 592 592 593 592 592 594 594 594 594
    594 594 594 594 594 594 595 595 595 596 596 595 595 594 594 595 595
    595 596 596 596 596 596 596 596 597 597 597 597 597 597 598 597 597
    597 599 0 0 1794 1794 1804 0 0 0 0 0 0 0 0 0 0 0 597 593 593 593 593
    593 593 593 593 594 594 594 594 594 594 594 595 594 594 595 595 595
    596 596 596 596 596 596 596 596 596 596 596 597 597 597 597 597 597
    597 597 597 597 598 599 599 598 598 599 0 0 1794 1794 0 0 0 0 0 0 0
    0 0 0 0 0 596 595 594 594 594 594 594 594 594 594 595 595 595 595
    595 595 595 595 595 595 596 596 596 597 597 597 597 597 597 597 597
    597 597 597 597 597 597 597 597 597 597 597 598 598 599 599 599 599
    599 0 0 1794 0 0 0 0 0 0 0 0 0 0 0 0 0 596 595 595 594 594 594 594
    594 594 595 596 595 595 595 595 595 596 595 595 596 596 596 597 597
    597 597 597 598 597 597 597 597 597 597 597 597 597 597 598 598 598
    598 599 599 600 599 599 597 597 0 0 1748 0 0 0 0 0 0 0 0 0 0 0 0 0
    596 595 595 595 595 595 595 595 595 596 596 596 596 596 596 596 596
    596 596 596 597 597 597 597 597 597 598 598 599 598 598 598 598 597
    597 598 598 598 598 598 599 599 599 599 600 600 598 597 597 0 0 1748
    0 0 0 0 0 0 0 0 0 0 0 0 0 0 597 596 596 596 595 595 595 596 597 597
    596 596 596 596 597 597 597 597 597 597 597 597 598 598 598 598 598
    599 599 599 598 598 598 598 598 599 599 599 599 599 599 599 599 600
    600 598 596 596 0 0 1731 1731 0 0 0 0 0 0 0 0 0 0 0 0 0 597 597 596
    596 596 596 596 596 597 597 597 597 597 597 597 598 598 597 597 597
    597 598 598 599 599 599 599 599 600 599 599 599 599 599 599 599 600
    600 600 600 600 600 600 601 600 599 596 596 0 0 1731 1731 0 0 0 0 0
    0 0 0 0 0 0 0 0 597 597 597 597 596 596 596 597 598 598 598 598 598
    598 598 598 599 598 598 598 598 599 600 600 600 600 600 600 600 600
    600 600 599 599 599 600 600 600 600 600 600 601 601 601 601 600 600
    600 0 0 1731 1731 0 0 0 0 0 0 0 0 0 0 0 0 0 0 598 597 597 597 597
    598 598 598 599 599 599 599 599 599 599 600 600 600 599 599 600 600
    600 600 600 600 600 600 600 600 600 600 600 600 600 601 601 601 601
    601 601 601 601 601 601 600 600 0 0 1713 1713 0 0 0 0 0 0 0 0 0 0 0
    0 0 0 598 598 598 598 598 598 598 598 600 600 600 600 600 600 600
    600 600 600 600 600 601 601 601 600 600 600 600 600 601 600 600 600
    600 600 600 601 601 601 601 601 602 602 602 601 601 601 601 0 0 1696
    1696 0 0 0 0 0 0 0 0 0 0 0 0 0 0 598 598 599 599 599 599 598 598 600
    600 600 600 600 601 601 600 600 600 600 601 601 601 601 601 601 601
    601 601 601 601 601 601 601 601 601 601 601 601 601 601 601 602 602
    602 602 602 602 0 0 1688 1688 0 0 0 0 0 0 0 0 0 0 0 0 0 0 599 599
    599 599 599 599 598 598 600 600 601 601 601 601 601 601 601 601 601
    601 601 601 601 601 601 601 601 602 602 602 601 601 601 601 601 601
    601 602 601 601 601 602 602 603 603 603 603 0 0 1680 1663 1663 0 0 0
    0 0 0 0 0 0 0 0 0 0 600 600 600 599 599 599 598 598 600 600 601 601
    601 601 601 601 602 602 602 602 602 602 602 602 601 601 601 602 602
    602 602 602 602 602 602 602 602 602 602 602 602 602 604 604 604 604
    604 606 0 1663 1663 1663 0 0 0 0 0 0 0 0 0 0 0 0 0 600 600 600 599
    599 599 599 599 600 601 601 601 600 600 601 601 602 603 603 603 603
    603 603 603 602 602 602 602 602 603 602 602 602 602 603 603 603 602
    602 603 603 603 604 604 604 604 606 606 0 1655 1655 1655 0 0 0 0 0 0
    0 0 0 0 0 0 0 601 600 600 600 601 601 600 600 601 601 601 601 600
    600 601 601 603 603 603 603 603 604 604 604 603 603 603 603 603 603
    602 602 603 603 604 604 603 603 603 604 604 604 604 604 604 606 606
    608 0 1647 1639 1639 0 0 0 0 0 0 0 0 0 0 0 0 0 601 601 601 602 602
    602 602 602 602 602 602 601 601 601 601 602 603 603 603 603 603 604
    604 604 604 604 603 603 604 603 603 603 604 604 606 606 604 604 604
    606 606 606 606 606 606 606 606 0 0 1639 1639 1632 1632 0 0 0 0 0 0
    0 0 0 0 0 0 603 603 603 603 603 603 603 603 603 602 602 602 602 602
    603 603 603 604 604 604 604 604 604 604 604 604 604 604 604 604 604
    604 604 607 607 607 606 606 606 606 606 606 606 606 606 606 606 0 0
    1632 1632 1624 1624 0 0 0 0 0 0 0 0 0 0 0 0 603 603 603 603 603 603
    603 603 603 602 602 603 603 603 604 604 604 604 604 604 604 604 604
    604 604 604 604 604 606 606 606 606 606 606 606 606 606 606 607 607
    607 607 606 606 607 606 606 0 0 1609 1609 1609 1616 0 0 0 0 0 0 0 0
    0 0 0 0 604 604 603 603 603 603 603 603 604 603 603 604 604 604 604
    604 604 606 606 606 606 606 604 604 604 604 604 604 606 606 606 607
    607 606 606 606 607 711 714 609 608 608 609 610 608 608 707 704 704
    1594 1594 1594 1594 0 0 0 0 0 0 0 0 0 0 0 0 604 604 604 604 604 604
    604 604 604 604 604 604 604 606 606 606 606 606 606 606 607 606 606
    604 604 604 604 604 606 606 608 608 608 608 708 707 707 707 708 710
    710 710 710 710 711 710 704 704 704 1586 1594 1586 1586 1586 0 0 0 0
    0 0 0 0 0 0 0 0 606 604 604 604 604 604 604 606 606 606 604 604 606
    606 713 713 713 713 713 713 710 710 710 710 711 711 711 606 606 608
    608 608 710 707 707 706 706 706 706 706 707 708 708 710 703 703 704
    704 1579 1586 1579 1579 1572 1564 1564 0 0 0 0 0 0 0 0 0 0 606 606
    604 604 604 604 604 606 606 607 604 604 606 713 711 711 711 711 711
    710 710 708 708 708 708 708 710 710 710 710 710 708 708 706 704 704
    704 704 704 704 706 704 701 700 700 700 700 703 1572 1579 1572 1564
    1564 1564 1564 1572 0 0 0 0 0 0 0 0 707 707 606 606 606 606 606 606
    606 606 607 607 706 706 707 710 710 710 710 708 708 707 706 704 704
    704 704 703 703 704 706 706 706 704 701 700 700 700 700 701 703 701
    698 697 697 697 697 697 698 1564 1572 1564 1564 1564 1564 1564 1572
    0 0 0 0 0 0 0 0 707 704 704 704 704 707 707 706 706 708 707 706 706
    706 706 707 706 706 706 704 704 703 701 701 701 701 701 700 698 698
    700 700 703 701 700 700 698 696 696 696 696 696 694 694 694 694 691
    691 698 1557 1557 1557 1557 1557 1564 1564 0 0 0 0 0 0 0 0 0 701 700
    700 701 701 703 703 703 700 700 706 704 704 703 703 703 701 701 700
    698 698 698 698 698 698 698 698 697 696 696 696 696 696 697 694 693
    691 691 691 691 691 691 691 691 691 690 688 687 687 1550 1543 1543
    1543 1550 1550 1564 0 0 0 0 0 0 0 0 0 701 698 697 697 697 693 691
    691 693 694 693 693 691 691 693 698 698 698 697 696 696 696 696 694
    694 694 694 694 693 693 691 691 691 691 690 690 690 690 690 690 690
    690 690 690 690 687 687 684 684 1536 1529 1529 1543 1543 1550 0 0 0
    0 0 0 0 0 0 0 0 694 694 693 691 688 688 690 690 693 691 690 690 690
    690 688 688 688 688 693 693 691 690 690 690 688 688 691 690 690 688
    688 688 687 687 688 688 688 688 688 688 688 688 688 687 684 683 682
    682 1529 1529 1529 1543 1543 1550 0 0 0 0 0 0 0 0 0 0 691 690 690
    690 687 687 687 687 687 688 688 688 688 687 687 686 684 684 684 686
    686 687 687 688 687 686 686 686 686 687 687 686 684 684 684 686 683
    683 683 682 682 680 680 680 682 680 680 680 680 1529 1529 1529 0 0 0
    0 0 0 0 0 0 0 0 0 0 691 690 690 690 687 687 687 687 687 688 688 688
    688 687 687 686 684 684 684 686 686 687 686 683 683 682 682 683 682
    682 682 680 680 679 679 679 679 679 679 678 678 678 678 678 679 679
    679 679 678</data></Depth17565>
</opencv_storage>
