<?xml version="1.0"?>
<opencv_storage>
<Depth16478 type_id="opencv-matrix">
  <rows>11</rows>
  <cols>44</cols>
  <dt>w</dt>
  <data>
    3994 3994 3859 3859 3859 3994 3994 3948 3903 3903 3903 3903 3903
    4983 4911 4842 4774 4774 4774 4774 4774 4774 4774 4774 3816 3816
    4774 4774 4774 4774 4774 4774 4774 4774 4774 4842 4842 4842 4774
    4708 4708 4708 4708 4645 3994 4041 3994 3994 3994 3994 3994 3948
    3903 3903 3903 3903 3903 3948 3948 3948 3948 3948 3903 3903 3903
    3903 3903 3859 3816 3816 3816 3816 3816 3816 3816 3816 3816 3732
    3732 4842 3816 3816 4842 4708 4708 3816 3816 4774 4041 4041 4041
    3994 3994 3994 3994 3994 3994 3994 3948 3948 3948 3948 3948 3948
    3948 3903 3903 3903 3903 3903 3903 3859 3859 3816 3816 3816 3816
    3816 3816 3816 3816 3732 3732 3774 3774 3816 3859 3859 3859 3816
    3816 3903 4041 4041 4041 4041 4041 4041 4041 3994 3994 3994 3948
    3948 3948 3948 3948 3948 3948 3903 3903 3903 3903 3903 3903 3903
    3859 3859 3816 3816 3859 3859 3816 3816 3816 3774 3774 3774 3774
    3816 3859 3859 3859 3859 3859 3816 4041 4041 3994 3994 3994 3994
    4041 3994 3994 3994 3948 3948 3948 3948 3948 3948 3948 3903 3903
    3903 3903 3903 3903 3903 3903 3903 3859 3859 3859 3859 3859 3816
    3816 3774 3774 3774 3816 3859 3859 3859 3859 3859 3859 3816 4041
    3994 3994 3994 3994 3994 4041 3994 3994 3994 3948 3948 3948 3948
    3948 3948 3948 3903 3903 3903 3903 3903 3903 3903 3903 3903 3903
    3903 3859 3859 3816 3816 3816 3816 3859 3859 3859 3903 3903 3859
    3859 3859 3859 3859 4041 3994 3994 4041 4041 4089 4089 4041 3994
    3994 3948 3948 3994 3994 3994 3948 3948 3948 3903 3903 3903 3903
    3903 3903 3903 3903 3903 3903 3859 3859 3816 3816 3816 3816 3859
    3859 3859 3859 3859 3859 3859 3859 3859 3859 2365 2365 2333 2333
    2333 2333 2450 2450 3994 3994 3994 3994 3994 3994 3994 3948 3948
    3948 3948 3903 3903 3859 3859 3903 3903 3903 3903 3859 3859 3816
    3816 3816 3816 3859 3859 3859 3859 3859 3859 3859 3859 3859 3903
    3859 2365 2365 2333 2333 2333 2333 2365 2381 3994 3994 3994 3994
    3994 3994 3994 3948 3948 3948 3903 3859 3859 3859 3859 3859 3859
    3859 3859 3859 3774 3774 3774 3774 3816 3859 3859 3859 3859 3859
    3859 3859 3903 3903 3903 3903 2365 2365 2365 2365 2365 2365 2365
    2381 2170 2170 2184 3994 3948 3948 3948 3994 3994 3948 3903 3859
    3859 3859 3859 3859 3859 3859 3859 3859 3774 3774 3774 3774 3774
    3859 3859 3859 3859 3903 3903 3903 3903 3903 3903 3903 2365 2349
    2349 2365 2365 2349 2349 2349 2170 2170 2184 2198 2198 3948 3948
    4041 4041 4041 4774 4774 4842 3859 3859 3859 3859 3859 3859 3859
    3859 4842 4842 3774 3774 3816 3816 3859 3859 4774 4708 4708 4842
    5132 5132 3903</data></Depth16478>
</opencv_storage>
