<?xml version="1.0"?>
<opencv_storage>
<Depth3121 type_id="opencv-matrix">
  <rows>45</rows>
  <cols>55</cols>
  <dt>w</dt>
  <data>
    2078 5291 5291 5291 5291 5291 5132 5132 5132 1993 1993 1993 1993
    1993 1981 1981 2005 2005 2016 2016 5132 4983 4983 4983 4983 4983
    4983 4983 4983 4911 4911 4911 4911 4911 4842 4842 4842 4911 4842
    4842 4842 4774 4774 4774 4774 4774 4842 4774 4774 4774 4774 4708
    4708 4645 4645 2065 2065 5374 5291 5291 5291 5210 5210 1970 1970
    1981 1981 1981 1993 1981 1981 2005 2005 2005 2005 2005 5056 4983
    4983 4983 4983 4983 4983 4983 4983 4911 4911 4911 4911 4842 4842
    4842 4911 4911 4911 4911 4842 4842 4842 4842 4842 4842 4774 4774
    4774 4774 4774 4774 4708 4708 2065 5460 5374 5291 5291 5291 1993
    1993 1970 1970 1970 1970 1970 1981 1981 1993 1993 1993 1993 1993
    2005 2005 2005 5056 4983 4983 5056 5056 4983 4983 4983 4983 4911
    4911 4911 4911 4911 4911 4911 4911 4911 4842 4842 4842 4842 4842
    4842 4842 4842 4842 4774 4774 4774 4774 4708 2028 5460 5374 5291
    5291 5291 1993 1959 1959 1959 1970 1970 1970 1970 1981 1981 1981
    1981 1981 1993 2005 2005 2005 2005 2005 2005 2005 2016 2016 5056
    5056 5056 4983 4983 4911 4911 4911 4911 4911 4911 4911 4842 4842
    4842 4842 4842 4842 4842 4842 4842 4842 4842 4842 4774 4708 2028
    2028 5374 5291 5291 5291 1970 1959 1959 1959 1959 1959 1959 1970
    1970 1970 1981 1970 1970 1981 1993 1993 2005 2005 2005 2005 2005
    2005 2005 2005 2005 5056 4983 4983 4911 4911 4911 4911 4911 4911
    4911 4911 4911 4911 4911 4842 4842 4842 4842 4842 4842 4842 4842
    4774 4774 2028 2028 2078 2078 1970 1959 1959 1959 1959 1959 1959
    1947 1947 1959 1970 1970 1970 1970 1970 1970 1970 1981 1993 1993
    1993 2005 2005 2005 1993 1993 2005 2005 1993 1993 4983 4983 4983
    4983 4983 4983 4983 4911 4911 4911 4911 4911 4911 4911 4842 4842
    4842 4842 4842 4842 4842 2028 2078 2078 0 1970 1970 1959 1959 1959
    1959 1947 1947 1947 1959 1959 1959 1959 1959 1959 1959 1970 1970
    1970 1981 1981 1993 1993 1993 1993 1993 1993 1993 1981 1981 1981
    4983 4983 4983 4983 5056 5056 4911 4911 4911 4911 4911 4911 4911
    4842 4842 4842 4842 4842 4842 4842 2065 2078 2078 0 1970 1970 1970
    1959 1959 1959 1947 1947 1947 1959 1959 1959 1959 1947 1947 1959
    1959 1959 1959 1959 1970 1981 1981 1981 1981 1981 1993 1993 1981
    1981 1993 1993 5056 5056 5056 5056 4983 4983 4911 4911 4911 4911
    4911 4911 4911 4911 4842 4842 4842 4842 4842 2078 2078 2078 1981
    1981 1981 1970 1970 1970 1959 1959 1959 1959 1959 1959 1959 1959
    1947 1947 1947 1947 1959 1959 1959 1959 1970 1970 1970 1970 1970
    1981 1981 1993 1993 1981 1981 1993 1993 5132 5056 4911 4911 4911
    4911 4911 4911 4911 4911 4911 4911 4842 4842 4842 4842 4842 2053
    2053 0 1981 1981 1981 1970 1970 1970 1970 1970 1959 1959 1959 1959
    1959 1959 1947 1947 1947 1947 1947 1947 1947 1959 1959 1959 1959
    1959 1959 1959 1959 1970 1970 1970 1981 1981 1981 1981 1970 1970
    1981 4911 4911 4911 4911 4911 4911 4911 4911 4842 4842 4842 4842
    4842 2053 2053 2028 1981 1981 1981 1970 1970 1970 1970 1970 1970
    1959 1959 1959 1959 1959 1947 1947 1947 1947 1947 1947 1947 1947
    1947 1959 1959 1959 1959 1959 1959 1959 1959 1959 1970 1970 1970
    1970 1970 1970 1970 1970 1970 4911 4911 4911 4911 4911 4842 4842
    4911 4911 4911 4911 2065 2065 2028 2005 1981 1981 1981 1981 1970
    1970 1970 1970 1970 1970 1970 1970 1959 1959 1959 1959 1959 1959
    1947 1947 1947 1947 1947 1947 1947 1947 1947 1947 1947 1959 1959
    1959 1959 1970 1970 1970 1970 1970 1970 1970 1970 1970 1970 4911
    4842 4842 4842 4842 4842 4911 4911 2065 0 2028 2005 2005 2005 1993
    1981 1981 1981 1981 1970 1970 1970 1970 1970 1970 1959 1959 1959
    1959 1959 1959 1959 1947 1947 1947 1947 1947 1947 1947 1947 1947
    1947 1959 1947 1947 1959 1959 1959 1959 1970 1970 1970 1970 1970
    1970 1981 1993 1981 1981 1981 4842 4911 4911 2129 2040 2040 2028
    2016 2016 2005 1993 1993 1981 1981 1970 1970 1970 1970 1970 1970
    1970 1959 1959 1959 1959 1959 1959 1947 1947 1947 1947 1936 1936
    1936 1947 1947 1947 1947 1947 1947 1959 1959 1959 1959 1959 1970
    1959 1959 1970 1970 1970 1981 1970 1970 1970 1970 4911 4911 0 2053
    2053 2028 2028 2016 2016 2005 1993 1993 1981 1981 1970 1970 1970
    1970 1970 1970 1970 1970 1970 1970 1959 1959 1959 1959 1959 1947
    1936 1936 1936 1947 1947 1947 1947 1947 1947 1947 1947 1947 1947
    1959 1959 1959 1959 1970 1970 1970 1970 1970 1970 1970 1970 1981
    1981 0 2028 2028 2028 2028 2016 2016 2005 2005 2005 2005 1993 1981
    1981 1981 1970 1970 1970 1970 1970 1970 1970 1970 1970 1959 1959
    1959 1959 1947 1947 1947 1947 1947 1947 1947 1947 1947 1947 1936
    1936 1947 1947 1959 1959 1959 1959 1959 1947 1947 1970 1970 1970
    1970 1981 1993 0 0 2028 2028 2028 2016 2016 2016 2016 2005 2005 2005
    1993 1981 1981 1981 1981 1981 1981 1981 1981 1981 1981 1970 1970
    1970 1970 1959 1947 1947 1947 1959 1959 1947 1947 1947 1947 1947
    1936 1936 1936 1947 1959 1959 1959 1947 1947 1947 1947 1959 1959
    1970 1970 1981 1981 0 2053 2028 2028 2028 2028 2016 2016 2016 2016
    2016 2016 2005 2005 2005 2005 2005 1993 1993 1993 1993 1993 1993
    1981 1970 1970 1970 1970 1959 1959 1959 1959 1959 1959 1959 1959
    1947 1947 1936 1936 1936 1947 1947 1947 1947 1936 1936 1947 1947
    1959 1959 1959 1970 1970 1970 2078 2053 2053 2028 2028 2028 2016
    2016 2028 2016 2016 2016 2005 2005 2005 2005 2005 2005 2005 2005
    2005 2005 1993 1981 1981 1970 1970 1970 1959 1959 1959 1959 1959
    1959 1959 1959 1947 1947 1947 1947 1947 1947 1947 1947 1936 1926
    1926 1936 1947 1947 1947 1959 1970 1970 1970 2078 2078 2053 2040
    2028 2028 2028 2028 2028 2028 2028 2028 2016 2016 2005 2005 2005
    2005 2005 2005 2005 2005 2005 1993 1993 1981 1970 1970 1970 1970
    1970 1970 1970 1959 1959 1959 1959 1959 1959 1947 1947 1947 1947
    1936 1936 1926 1926 1936 1936 1947 1947 1959 1959 1959 1959 2078
    2078 2053 2040 2040 2040 2053 2053 2053 2040 2028 2028 2028 2016
    2016 2016 2016 2016 2016 2005 2005 2005 2005 1993 1993 1981 1981
    1970 1970 1970 1970 1970 1970 1970 1970 1959 1959 1959 1959 1959
    1959 1959 1947 1936 1936 1936 1936 1936 1936 1936 1936 1947 1959
    1959 0 5210 2078 2065 2053 2053 2053 2053 2053 2053 2053 2040 2040
    2028 2028 2016 2016 2016 2016 2016 2016 2005 2005 2005 2005 2005
    1993 1993 1981 1981 1981 1981 1970 1970 1970 1970 1970 1970 1959
    1959 1959 1959 1959 1959 1947 1936 1936 1936 1936 1936 1926 1926
    1947 1959 1959 0 5210 2065 2065 2053 2053 2053 2053 2053 2053 2053
    2053 2040 2040 2028 2016 2016 2016 2016 2016 2016 2016 2016 2016
    2016 2005 2005 2005 1993 1993 1993 1993 1993 1993 1981 1981 1981
    1970 1970 1970 1970 1959 1959 1959 1959 1947 1936 1936 1936 1936
    1926 1926 1947 1947 1947 0 2065 2065 2065 2065 2053 2053 2053 2053
    2065 2053 2053 2040 2040 2040 2028 2028 2028 2028 2028 2016 2016
    2016 2016 2016 2016 2005 2005 2005 2005 1993 1993 1993 2005 1993
    1993 1981 1981 1981 1970 1970 1970 1970 1970 1959 1947 1947 1947
    1936 1936 1936 1936 1959 1959 5132 5132 2065 2078 2078 2090 2078
    2065 2065 2065 2065 2053 2053 2053 2053 2053 2040 2040 2040 2040
    2028 2028 2028 2028 2028 2016 2016 2016 2016 2005 2005 2005 2005
    2005 2005 2005 2005 1993 1993 1981 1981 1970 1970 1970 1970 1959
    1959 1959 1947 1947 1947 1936 1936 1936 5132 5132 5132 2065 2078
    2090 2090 2090 2078 2065 2065 2065 2065 2065 2065 2053 2053 2053
    2040 2040 2040 2040 2040 2028 2028 2028 2028 2028 2016 2016 2016
    2016 2005 2005 2005 2005 2005 2005 2005 2005 1993 1981 1981 1970
    1970 1970 1970 1970 1959 1959 1959 1947 1947 1947 1947 5132 5132
    5132 2090 2090 2103 2103 2103 2103 2078 2065 2065 2065 2065 2065
    2065 2053 2053 2053 2040 2040 2040 2040 2040 2040 2040 2028 2028
    2016 2016 2016 2016 2016 2016 2016 2016 2016 2016 2005 2005 1993
    1981 1981 1970 1970 1970 1970 1970 1970 1959 1959 1959 1959 1959
    1959 5132 5132 5132 2116 2116 2116 2103 2103 2103 2090 2078 2078
    2065 2065 2065 2065 2065 2065 2053 2053 2053 2053 2053 2053 2053
    2053 2040 2028 2016 2016 2016 2016 2016 2016 2016 2016 2016 2016
    2005 2005 1993 1981 1981 1981 1981 1981 1981 1981 1981 1970 1970
    1959 1959 1959 5132 5132 5132 5132 2116 2116 2116 2103 2103 2103
    2103 2090 2090 2078 2078 2078 2078 2078 2078 2065 2065 2065 2053
    2053 2053 2053 2053 2040 2028 2028 2028 2016 2016 2016 2016 2016
    2016 2005 2005 2005 2005 2005 1993 1981 1981 1981 1981 1993 1993
    1993 1981 1981 1970 1970 1970 5132 5132 5132 5132 2116 2129 2129
    2116 2103 2103 2103 2103 2103 2090 2090 2090 2090 2090 2078 2078
    2065 2065 2065 2065 2065 2053 2053 2053 2040 2040 2040 2040 2040
    2040 2028 2028 2028 2005 2005 2005 2005 2005 2005 1993 1993 2005
    2005 2005 2005 1993 1993 1981 1981 1981 1981 5132 5132 5132 5132
    2116 2129 2129 2116 2116 2116 2116 2103 2103 2103 2103 2103 2090
    2090 2090 2078 2078 2065 2065 2065 2065 2065 2065 2053 2053 2053
    2053 2053 2053 2053 2040 2040 2040 2028 2028 2016 2016 2016 2005
    2005 2005 2005 2005 2005 2005 1993 1993 1993 1981 1981 1981 5132
    5132 5132 5132 2116 2129 2129 2116 2116 2116 2116 2116 2116 2103
    2103 2103 2103 2090 2090 2078 2078 2065 2065 2065 2065 2065 2065
    2065 2065 2065 2065 2065 2053 2053 2053 2040 2040 2040 2028 2028
    2028 2016 2016 2016 2016 2016 2016 2016 2005 1993 1993 1993 1993
    1993 1993 5132 5132 5132 5132 4983 2143 2129 2116 2116 2116 2116
    2116 2116 2116 2103 2103 2103 2103 2090 2090 2090 2078 2078 2078
    2078 2078 2078 2065 2065 2065 2065 2065 2065 2053 2053 2053 2053
    2053 2040 2040 2028 2028 2028 2028 2028 2028 2016 2016 2005 2005
    2005 2005 2005 2005 5132 5132 5132 5132 5056 5056 5056 5056 5056
    2116 2116 2129 2116 2103 2103 2103 2103 2103 2103 2103 2103 2103
    2090 2090 2090 2090 2090 2090 2078 2065 2065 2065 2065 2065 2053
    2053 2053 2053 2053 2053 2040 2040 2040 2040 2040 2040 2028 2028
    2016 2016 2016 2016 2016 2016 2016 5132 5132 5132 5132 5056 5132
    5056 5056 5056 5056 5056 5056 2116 2103 2090 2090 2090 2103 2103
    2116 2103 2103 2103 2103 2103 2103 2103 2090 2078 2078 2065 2065
    2065 2065 2065 2065 2053 2053 2053 2053 2053 2053 2053 2053 2040
    2040 2040 2028 2016 2016 2016 2016 2028 2028 5132 5132 5132 5132
    5132 5056 5056 4983 4983 5056 5056 5056 5056 5056 5056 2090 2090
    2090 2103 2103 2116 2103 2103 2103 2103 2103 2103 2103 2103 2090
    2078 2065 2065 2065 2065 2065 2065 2065 2053 2053 2053 2053 2053
    2053 2053 2040 2040 2040 2028 2016 2016 2016 2016 2040 2040 5056
    5056 5056 5056 5056 5056 5056 4983 4983 5056 5056 5056 5056 5056
    5056 4983 4983 4983 2129 2129 2116 2103 2103 2116 2116 2116 2116
    2103 2103 2090 2090 2078 2078 2065 2065 2065 2065 2065 2065 2053
    2053 2053 2053 2053 2053 2040 2040 2053 2040 2028 2028 2028 2040
    2053 2053 5056 5056 5056 5056 5056 5056 4983 4983 4983 4983 4983
    4983 4983 5056 5056 4983 4983 4983 4983 4983 2116 2103 2090 2090
    2103 2116 2116 2116 2103 2103 2103 2090 2090 2078 2078 2078 2065
    2065 2065 2065 2065 2065 2065 2065 2053 2053 2053 2053 2053 2040
    2040 2040 2040 2053 2053 5056 5056 5056 5056 5056 5056 4983 4983
    4983 4983 4983 4983 4983 4983 4983 4911 4911 4983 4983 4983 4983
    4911 2090 2090 2103 2116 2116 2116 2103 2103 2103 2103 2103 2090
    2090 2078 2078 2078 2078 2078 2078 2065 2065 2065 2065 2053 2053
    2053 2053 2053 2053 2053 2053 2053 5056 5056 4983 4983 4983 5056
    5056 4983 4983 4983 4983 4983 4911 4911 4983 4983 4911 4911 4983
    4983 4983 4983 4911 4911 4911 4911 4911 2129 2116 2116 2116 2103
    2103 2103 2103 2090 2090 2090 2078 2078 2078 2078 2078 2078 2078
    2065 2065 2053 2053 2053 2053 2065 2065 2065 4983 5132 5132 4983
    4983 4983 5056 4983 4983 4983 4983 4983 4983 4911 4911 4911 4911
    4983 4983 4983 4983 4983 4911 4911 4911 4911 4911 4911 4983 5056
    4911 2116 2116 2116 2103 2103 2103 2090 2090 2090 2090 2090 2090
    2090 2090 2090 2078 2065 2065 2053 2053 2065 2065 2103 2103 4983
    4983 4983 4911 4911 4983 4983 4983 4983 4983 4983 4983 4983 4911
    4911 4911 4911 4911 4983 4911 4911 4911 4911 4911 4911 4911 4911
    4983 4983 4983 4911 4911 2116 2116 2116 2116 2103 2103 2103 2103
    2103 2103 2103 2103 2103 2103 2090 2078 2065 2065 2065 2065 2065
    2103 4983 4983 4983 4983 4911 4911 4911 4911 4911 4983 4983 4983
    4983 4983 4911 4911 4911 4911 4911 4911 4911 4911 4911 4911 4911
    4911 4911 4911 4911 4983 4983 4911 4911 4911 4911 2129 2116 2103
    2103 2103 2103 2103 2103 2103 2103 2103 2103 2103 2090 2078 2065
    2065 2065 2065 5132 4983 4911 4911 4911 4911 4911 4911 4911 4911
    4983 4983 4983 4983 4983 4911 4911 4911 4911 4911 4911 4911 4911
    4911 4911 4911 4911 4911 4911 4911 4911 4911 4911 4911 4911 4911
    4911 4911 4911 4911 4911 4911 2103 2103 2116 2116 2103 2103 2103
    2090 2078 2065 2065 2065 2065 5056 4983 4911 4911 4911 4911 4911
    4911 4911 4911 4911 4983 4983 4983 4983 4842 4842 4842 4842 4911
    4911 4911 4911 4911 4911 4911 4911 4911 4911 4911 4911 4911 4911
    4911 4911 4911 4911 4911 4911 4911 4911 4911 4842 4842 2116 2116
    2116 2103 2103 2090 2090 2078 2065 2065 2065 4983 4911 4911 4911
    4911 4911 4911 4911 4911 4911</data></Depth3121>
</opencv_storage>
