<?xml version="1.0"?>
<opencv_storage>
<Depth17231 type_id="opencv-matrix">
  <rows>97</rows>
  <cols>56</cols>
  <dt>w</dt>
  <data>
    4241 4241 4241 4190 4190 4190 4190 4190 4190 1445 1433 1433 1433
    1433 1433 3994 3994 3994 3994 3994 3948 3948 3903 3903 3903 3903
    3903 3859 3859 3816 3816 3859 3859 3859 3859 3816 3816 3774 3732
    3732 3732 3732 3732 3732 3692 3692 3692 3692 3653 3653 3614 3614
    3576 3576 3576 3576 4241 4241 4241 4190 4190 4190 4190 4190 4190
    1433 1427 1427 1421 1415 1415 1415 4041 4041 3994 3994 3948 3948
    3948 1404 1404 3903 3903 3859 3859 3816 3816 3859 3859 3859 3859
    3816 3816 3774 3732 3732 3732 3732 3732 3732 3692 3692 3692 3692
    3653 3653 3614 3614 3576 3576 3539 3539 4241 4241 4241 4241 4241
    4241 4241 1445 1445 1433 1427 1421 1421 1415 1404 1398 1392 1392
    1392 1392 1392 1392 1392 1392 1398 1398 3948 3948 3859 3816 3816
    3859 3859 3859 3859 3816 3774 3774 3732 3732 3732 3732 3692 3692
    3692 3692 3692 3653 3653 3653 3653 3614 3576 3539 3503 3503 4241
    4241 4241 4241 4241 1445 1445 1445 1439 1433 1421 1421 1421 1415
    1404 1398 1392 1392 1392 1387 1387 1381 1381 1381 1381 1381 1381
    1370 1365 1365 1365 3859 3859 3859 3859 3816 3774 3774 3732 3732
    3732 3692 3692 3692 3692 3692 3653 3653 3653 1359 1359 1359 1359
    3539 3503 3503 4241 4241 4241 4241 0 1439 1445 1445 1439 1433 1421
    1421 1415 1415 1410 1404 1398 1398 1392 1387 1387 1381 1381 1376
    1376 1376 1376 1365 1359 1354 1354 1359 1359 3859 3859 3859 3859
    3732 3732 3692 3692 3692 3692 3692 3692 3692 3653 3653 1359 1354
    1354 1359 1354 1354 1354 3539 4241 4241 4241 4241 0 1439 1439 1439
    1433 1433 1421 1421 1415 1415 1410 1404 1398 1398 1392 1392 1387
    1376 1376 1376 1376 1370 1370 1365 1359 1354 1354 1354 1354 1343
    1338 1333 1333 1333 1328 1317 1317 1317 3692 3692 1312 1312 3692
    3653 1354 1354 1354 1359 1354 1354 1354 3539 4089 4241 4241 0 1452
    1439 1439 1439 1433 1427 1421 1415 1415 1415 1410 1404 1404 1398
    1392 1392 1387 1376 1376 1376 1370 1365 1365 1359 1359 1354 1354
    1354 1349 1338 1338 1333 1333 1328 1322 1317 1317 1312 1307 1302
    1302 1302 1312 1322 1349 1349 1349 1349 1349 1354 1354 3539 4089
    4089 0 0 0 1452 1445 1445 1427 1427 1421 1415 1415 1415 1410 1404
    1404 1398 1392 1392 1387 1376 1376 1376 1370 1365 1365 1359 1354
    1354 1354 1349 1343 1338 1338 1333 1333 1328 1322 1317 1317 1312
    1307 1302 1297 1297 1297 1302 1343 1343 1343 1343 1343 1354 1359
    1359 4089 0 0 0 0 1445 1445 1439 1427 1421 1415 1415 1415 1410 1410
    1404 1398 1398 1392 1392 1392 1381 1376 1376 1370 1365 1365 1359
    1354 1354 1354 1349 1343 1338 1338 1333 1328 1322 1322 1317 1317
    1312 1307 1302 1297 1297 1297 1297 1312 1328 1333 1333 1338 1338
    1359 1359 4241 4241 0 0 1439 1439 1439 1439 1427 1421 1415 1415 1410
    1404 1404 1398 1398 1392 1392 1392 1387 1376 1376 1376 1370 1365
    1365 1359 1354 1354 1354 1349 1343 1338 1333 1333 1328 1322 1322
    1317 1312 1307 1302 1302 1297 1297 1297 1297 1307 1317 1322 1328
    1333 1338 1354 1354 4241 4241 4241 0 1439 1439 1439 1433 1427 1421
    1421 1415 1410 1404 1404 1398 1398 1392 1392 1392 1381 1376 1376
    1376 1370 1365 1365 1359 1354 1354 1354 1349 1343 1333 1333 1333
    1328 1322 1317 1317 1312 1307 1302 1302 1302 1297 1297 1297 1302
    1312 1317 1328 1333 1349 1349 1354 4241 4241 4241 0 1445 1445 1439
    1433 1427 1421 1421 1415 1415 1404 1404 1398 1398 1398 1392 1392
    1381 1376 1376 1370 1370 1365 1365 1359 1354 1354 1349 1343 1338
    1333 1333 1328 1322 1322 1317 1312 1312 1307 1302 1302 1302 1297
    1297 1297 1302 1312 1317 1328 1333 1343 1349 1349 4241 4241 4241
    4241 1445 1445 1445 1433 1427 1427 1421 1421 1415 1410 1404 1398
    1398 1398 1392 1392 1381 1376 1376 1370 1370 1365 1365 1359 1354
    1354 1349 1343 1338 1333 1333 1328 1322 1322 1317 1312 1312 1312
    1302 1297 1297 1297 1297 1297 1307 1312 1317 1328 1338 1343 1349
    1349 4295 4241 4241 0 1452 1445 1445 1439 1433 1427 1421 1421 1415
    1410 1410 1398 1398 1398 1392 1392 1381 1376 1376 1370 1370 1365
    1365 1359 1354 1354 1349 1343 1338 1333 1333 1328 1322 1322 1312
    1312 1312 1312 1302 1297 1297 1292 1292 1297 1307 1317 1322 1328
    1338 1343 1349 1349 4241 4241 4241 0 1445 1445 1445 1439 1433 1427
    1421 1421 1415 1415 1410 1404 1398 1398 1392 1392 1381 1376 1376
    1370 1370 1365 1365 1359 1354 1354 1349 1349 1343 1333 1333 1328
    1322 1317 1312 1312 1312 1307 1297 1297 1292 1292 1292 1297 1307
    1317 1322 1333 1338 1349 1349 1349 4241 4241 4241 1445 1445 1445
    1445 1439 1433 1427 1421 1421 1415 1415 1410 1404 1398 1398 1392
    1392 1381 1376 1376 1376 1370 1365 1365 1359 1354 1354 1349 1349
    1343 1333 1333 1328 1322 1317 1317 1312 1312 1307 1297 1297 1292
    1292 1292 1297 1307 1317 1322 1333 1338 1349 1354 1354 4295 4295
    4295 1445 1445 1445 1439 1433 1433 1427 1421 1421 1415 1415 1410
    1404 1398 1398 1392 1381 1381 1376 1376 1370 1365 1365 1365 1359
    1354 1354 1354 1349 1343 1338 1333 1328 1322 1317 1317 1312 1312
    1302 1297 1292 1292 1292 1292 1297 1307 1317 1322 1333 1338 1349
    1354 1359 4295 4295 0 1452 1452 1445 1439 1433 1433 1427 1421 1421
    1415 1415 1410 1404 1398 1392 1392 1381 1376 1376 1376 1370 1365
    1365 1365 1359 1359 1354 1354 1343 1338 1338 1333 1328 1322 1317
    1317 1317 1312 1302 1297 1292 1292 1292 1292 1307 1312 1322 1322
    1333 1349 1354 1354 1359 4295 4295 0 1458 1458 1452 1439 1433 1433
    1427 1421 1421 1415 1415 1410 1404 1398 1392 1392 1381 1376 1376
    1376 1370 1365 1365 1365 1359 1359 1354 1349 1343 1338 1338 1333
    1328 1322 1317 1317 1312 1312 1307 1297 1297 1297 1297 1297 1307
    1312 1317 1322 1333 1349 1354 1359 1359 4349 4349 0 1464 1464 1452
    1439 1433 1433 1427 1421 1415 1415 1415 1410 1404 1398 1392 1392
    1381 1376 1376 1376 1370 1370 1365 1359 1359 1354 1354 1349 1343
    1338 1333 1333 1328 1322 1317 1312 1312 1307 1307 1297 1297 1297
    1302 1302 1307 1312 1317 1322 1333 1349 1354 1354 1354 4405 4405 0
    1464 1464 1445 1439 1439 1433 1421 1421 1415 1415 1415 1410 1404
    1398 1392 1392 1381 1376 1376 1376 1370 1370 1365 1359 1359 1354
    1349 1343 1343 1338 1333 1333 1328 1322 1317 1312 1312 1307 1307
    1302 1297 1297 1297 1297 1302 1312 1317 1322 1333 1349 1349 1349 0
    4349 4349 4295 0 1445 1445 1439 1439 1433 1421 1421 1415 1415 1415
    1410 1404 1398 1392 1392 1381 1376 1376 1370 1370 1370 1365 1365
    1359 1354 1349 1343 1343 1338 1333 1333 1328 1322 1317 1312 1312
    1307 1307 1302 1297 1297 1297 1297 1302 1312 1317 1328 1333 1349
    1349 1349 0 4295 4295 4295 0 1445 1445 1439 1439 1433 1427 1421 1415
    1415 1415 1410 1404 1398 1392 1387 1381 1376 1376 1370 1365 1365
    1365 1365 1359 1354 1349 1343 1338 1338 1338 1333 1328 1322 1317
    1317 1312 1307 1307 1302 1297 1297 1297 1297 1312 1312 1317 1328
    1338 1343 1343 1343 0 4295 4295 4295 0 1445 1445 1439 1439 1433 1427
    1421 1415 1415 1415 1410 1404 1398 1392 1387 1381 1376 1376 1370
    1365 1365 1365 1365 1359 1354 1349 1343 1338 1338 1338 1333 1328
    1322 1317 1317 1312 1312 1307 1302 1297 1297 1297 1297 1307 1317
    1322 1328 1343 1343 1343 0 0 4349 4349 4349 0 1445 1445 1439 1433
    1433 1427 1421 1421 1415 1415 1410 1404 1398 1392 1392 1387 1376
    1376 1370 1365 1359 1359 1359 1359 1354 1349 1343 1338 1338 1333
    1333 1328 1322 1317 1317 1312 1312 1307 1302 1297 1297 1297 1302
    1307 1317 1322 1328 1343 1343 1343 1343 0 4405 4405 4405 1445 1445
    1445 1439 1433 1427 1427 1421 1415 1415 1410 1404 1404 1398 1392
    1392 1387 1381 1376 1370 1365 1359 1354 1354 1359 1354 1349 1343
    1338 1338 1333 1333 1328 1322 1317 1317 1312 1312 1307 1302 1297
    1297 1297 1297 1302 1317 1322 1333 1343 1343 1343 1343 0 4405 4405 0
    1452 1452 1445 1439 1433 1427 1427 1421 1415 1415 1410 1404 1404
    1398 1392 1387 1387 1381 1376 1370 1365 1359 1354 1354 1359 1354
    1354 1343 1338 1333 1333 1328 1328 1322 1317 1312 1312 1307 1307
    1302 1297 1297 1297 1297 1302 1317 1322 1333 1343 1349 1354 1354 0
    4463 4463 0 1452 1452 1445 1439 1433 1427 1421 1421 1415 1415 1410
    1404 1398 1398 1392 1381 1381 1376 1376 1370 1370 1359 1354 1354
    1359 1354 1354 1349 1338 1333 1333 1328 1328 1322 1317 1312 1312
    1307 1307 1302 1292 1292 1297 1302 1307 1317 1322 1333 1343 1349
    1354 1354 3539 4463 4463 1458 1445 1445 1445 1439 1427 1427 1421
    1415 1415 1415 1410 1410 1398 1398 1392 1381 1381 1376 1376 1370
    1370 1365 1359 1359 1359 1354 1354 1343 1338 1333 1333 1328 1328
    1322 1317 1312 1312 1307 1307 1297 1292 1292 1297 1307 1307 1317
    1322 1333 1343 1354 1354 1354 3539 4463 4463 1458 1458 1445 1445
    1439 1427 1427 1421 1415 1415 1410 1410 1404 1398 1398 1392 1387
    1381 1376 1376 1370 1370 1365 1359 1359 1359 1359 1354 1338 1338
    1333 1333 1333 1328 1322 1317 1312 1312 1307 1307 1297 1292 1292
    1297 1307 1312 1317 1322 1343 1349 1354 1354 1359 3539 4349 4349
    1452 1452 1445 1445 1439 1427 1427 1421 1415 1415 1410 1410 1404
    1398 1398 1392 1392 1387 1376 1376 1370 1370 1365 1354 1354 1359
    1354 1354 1338 1338 1333 1333 1333 1328 1322 1317 1312 1312 1312
    1307 1302 1297 1297 1297 1307 1312 1317 1328 1343 1349 1354 1359
    1359 3539 4349 0 1452 1452 1452 1445 1439 1427 1427 1421 1415 1415
    1410 1404 1404 1398 1398 1392 1392 1387 1376 1376 1370 1365 1359
    1354 1354 1359 1354 1354 1338 1338 1333 1333 1333 1328 1317 1317
    1312 1312 1312 1302 1302 1297 1297 1302 1307 1312 1317 1328 1343
    1349 1354 1359 1359 3539 4295 0 1452 1452 1452 1445 1439 1433 1427
    1421 1421 1415 1410 1404 1404 1398 1398 1392 1392 1381 1376 1370
    1370 1365 1359 1354 1354 1354 1354 1354 1338 1338 1333 1333 1333
    1328 1317 1317 1312 1312 1307 1302 1302 1302 1302 1302 1307 1312
    1317 1328 1343 1349 1354 1354 1354 3539 4241 0 1452 1452 1445 1445
    1439 1433 1427 1421 1421 1415 1415 1410 1410 1404 1398 1392 1387
    1381 1376 1370 1370 1365 1359 1354 1354 1354 1354 1354 1338 1338
    1333 1333 1333 1328 1317 1317 1317 1312 1307 1302 1297 1297 1297
    1302 1312 1312 1322 1333 1343 1343 1343 1343 0 3539 4241 0 1445 1445
    1445 1445 1439 1433 1433 1421 1421 1421 1415 1410 1410 1404 1398
    1392 1381 1376 1376 1376 1370 1365 1359 1354 1354 1354 1354 1349
    1343 1338 1333 1333 1328 1322 1317 1317 1317 1312 1307 1302 1297
    1297 1297 1297 1307 1317 1322 1338 1343 1343 1343 1343 0 3539 4405 0
    1445 1445 1445 1439 1439 1439 1433 1427 1421 1415 1415 1415 1410
    1404 1392 1387 1381 1376 1376 1370 1370 1365 1359 1354 1354 1354
    1354 1349 1343 1338 1333 1333 1328 1322 1317 1317 1312 1312 1307
    1302 1297 1297 1297 1297 1307 1317 1322 1338 1343 1343 1349 1349
    1365 3503 0 0 1452 1452 1445 1439 1439 1433 1433 1427 1421 1415 1415
    1410 1404 1398 1392 1387 1381 1376 1376 1370 1370 1365 1359 1354
    1354 1354 1354 1349 1343 1338 1333 1333 1328 1317 1317 1317 1312
    1307 1302 1302 1297 1297 1297 1297 1307 1317 1317 1338 1343 1349
    1354 1365 1365 3503 0 1458 1452 1452 1445 1439 1439 1433 1427 1421
    1415 1415 1415 1410 1404 1398 1392 1387 1381 1381 1376 1370 1370
    1365 1359 1354 1354 1354 1354 1349 1343 1338 1333 1333 1328 1317
    1317 1317 1312 1307 1302 1302 1297 1297 1297 1297 1307 1312 1317
    1338 1349 1354 1359 1359 1359 3503 0 1458 1458 1452 1445 1445 1439
    1433 1427 1421 1415 1415 1415 1410 1404 1398 1392 1387 1387 1381
    1376 1370 1370 1365 1359 1354 1354 1354 1354 1343 1338 1338 1333
    1333 1328 1317 1317 1317 1312 1307 1302 1297 1297 1297 1297 1302
    1312 1312 1317 1343 1349 1354 1359 1359 1359 3503 0 0 1458 1452 1452
    1445 1439 1427 1427 1421 1415 1415 1415 1410 1404 1398 1392 1387
    1387 1381 1376 1376 1370 1365 1359 1354 1354 1354 1354 1338 1338
    1338 1333 1333 1328 1322 1317 1317 1312 1307 1302 1297 1297 1297
    1297 1307 1312 1317 1317 1343 1349 1354 1359 1359 1359 3576 0 0 1452
    1452 1445 1445 1439 1427 1427 1421 1415 1415 1415 1410 1404 1398
    1392 1387 1387 1381 1376 1370 1370 1365 1359 1354 1354 1354 1349
    1338 1338 1338 1333 1333 1328 1322 1317 1317 1312 1307 1307 1297
    1297 1297 1297 1307 1312 1317 1322 1343 1349 1354 1354 1359 3576
    3576 0 0 1445 1445 1445 1445 1439 1433 1427 1421 1415 1415 1415 1410
    1404 1398 1392 1387 1381 1376 1376 1370 1370 1365 1359 1354 1354
    1354 1349 1338 1338 1338 1333 1333 1328 1322 1317 1317 1312 1312
    1307 1297 1297 1297 1297 1302 1312 1317 1338 1343 1349 1354 1359
    1359 3576 3576 0 1445 1445 1445 1439 1439 1439 1433 1427 1421 1415
    1415 1415 1410 1404 1398 1392 1387 1381 1376 1376 1370 1365 1359
    1354 1354 1354 1354 1349 1338 1338 1333 1333 1328 1322 1317 1317
    1317 1312 1312 1307 1297 1297 1297 1297 1302 1312 1317 1338 1343
    1349 1359 1359 1359 1359 3539 0 1445 1445 1445 1439 1439 1439 1433
    1427 1421 1415 1415 1410 1404 1398 1398 1392 1392 1387 1376 1376
    1370 1365 1359 1354 1354 1354 1354 1349 1338 1338 1333 1333 1328
    1322 1317 1317 1317 1312 1312 1302 1297 1297 1297 1297 1302 1317
    1322 1338 1343 1349 1354 1359 1359 3576 3539 0 1445 1445 1445 1439
    1439 1439 1433 1427 1421 1415 1415 1410 1404 1398 1392 1392 1392
    1387 1381 1376 1370 1365 1359 1354 1354 1354 1354 1349 1343 1338
    1333 1333 1328 1322 1322 1317 1317 1312 1307 1302 1297 1297 1297
    1297 1302 1317 1322 1338 1343 1349 1349 1359 1359 3576 3576 1445
    1452 1452 1452 1445 1439 1439 1433 1427 1421 1421 1415 1410 1404
    1398 1392 1392 1387 1387 1381 1376 1370 1370 1359 1354 1354 1354
    1354 1343 1338 1338 1333 1333 1328 1322 1322 1317 1317 1312 1307
    1302 1297 1297 1297 1302 1302 1317 1322 1338 1343 1349 1349 1349
    1349 3576 3576 0 1445 1445 1445 1445 1439 1433 1427 1421 1421 1415
    1415 1410 1404 1398 1392 1392 1387 1381 1376 1376 1370 1370 1359
    1354 1354 1354 1354 1343 1338 1338 1333 1333 1328 1322 1322 1317
    1317 1312 1302 1297 1297 1297 1297 1302 1307 1317 1322 1338 1343
    1349 1349 1349 0 3576 3576 1445 1445 1445 1445 1445 1439 1433 1427
    1421 1421 1415 1415 1410 1404 1398 1392 1392 1381 1381 1376 1376
    1370 1370 1359 1359 1354 1354 1349 1343 1338 1338 1333 1333 1328
    1322 1322 1317 1312 1307 1302 1297 1297 1297 1297 1302 1302 1317
    1322 1338 1343 1349 1349 1349 1359 3539 3539 1433 1433 1433 1445
    1439 1439 1439 1433 1421 1421 1415 1415 1410 1404 1398 1392 1392
    1381 1381 1376 1376 1370 1370 1359 1359 1354 1354 1349 1343 1338
    1338 1333 1333 1328 1322 1322 1317 1312 1307 1302 1297 1297 1297
    1297 1302 1302 1317 1333 1338 1343 1349 1349 1359 1359 3539 3539
    1433 1433 1433 1445 1439 1439 1439 1433 1421 1421 1415 1415 1410
    1404 1398 1392 1392 1387 1387 1381 1376 1376 1370 1359 1359 1354
    1354 1354 1349 1338 1338 1333 1333 1328 1328 1322 1317 1312 1307
    1302 1302 1297 1297 1297 1302 1302 1312 1338 1338 1349 1349 1354
    1359 1359 3576 3576 1452 1452 1452 1445 1445 1439 1439 1433 1421
    1421 1415 1415 1410 1404 1398 1392 1392 1392 1387 1381 1376 1370
    1365 1359 1359 1354 1354 1354 1349 1338 1338 1333 1333 1328 1328
    1322 1317 1312 1307 1302 1302 1297 1297 1297 1302 1302 1312 1333
    1343 1349 1349 1349 1349 3576 3576 3576 1445 1445 1452 1445 1445
    1439 1439 1433 1427 1421 1415 1415 1410 1404 1398 1392 1392 1387
    1381 1376 1370 1370 1365 1359 1359 1354 1354 1354 1349 1338 1338
    1333 1333 1328 1322 1322 1317 1312 1307 1307 1302 1297 1297 1297
    1302 1302 1317 1333 1343 1349 1349 1349 1349 3576 3576 3576 1445
    1445 1452 1445 1445 1439 1433 1427 1421 1421 1415 1415 1410 1404
    1398 1392 1392 1387 1381 1376 1370 1370 1365 1359 1359 1354 1354
    1354 1349 1338 1338 1333 1333 1328 1322 1322 1317 1312 1307 1307
    1297 1297 1297 1297 1307 1312 1317 1333 1343 1349 1354 1354 1354
    3576 3576 3539 1452 1452 1452 1445 1445 1439 1433 1427 1421 1421
    1421 1415 1415 1404 1398 1392 1392 1387 1381 1376 1370 1370 1365
    1359 1359 1354 1354 1354 1349 1338 1338 1333 1333 1328 1328 1317
    1317 1312 1307 1302 1297 1297 1297 1297 1307 1317 1328 1333 1343
    1349 1354 1354 1354 3539 3539 3503 1452 1452 1452 1445 1445 1439
    1439 1427 1427 1421 1421 1415 1415 1404 1398 1398 1392 1387 1381
    1376 1370 1370 1365 1359 1359 1354 1354 1349 1343 1338 1338 1333
    1333 1328 1322 1317 1312 1307 1307 1302 1297 1297 1297 1297 1307
    1317 1328 1333 1343 1349 1354 1354 0 3539 3539 3503 1452 1452 1452
    1445 1445 1439 1439 1433 1427 1421 1421 1415 1410 1398 1398 1398
    1392 1387 1381 1376 1376 1370 1370 1365 1359 1354 1354 1349 1343
    1338 1338 1338 1333 1328 1322 1317 1312 1307 1307 1302 1297 1297
    1297 1297 1307 1317 1328 1338 1343 1349 1354 1354 0 3468 3468 3468
    1464 1458 1452 1445 1445 1439 1439 1433 1433 1427 1421 1415 1410
    1398 1398 1398 1392 1387 1381 1376 1376 1370 1370 1365 1365 1354
    1354 1349 1343 1338 1338 1333 1328 1322 1322 1317 1312 1307 1307
    1302 1297 1297 1297 1302 1307 1317 1328 1338 1343 1349 1354 1354 0
    3433 3433 3433 1464 1458 1458 1445 1445 1439 1439 1433 1427 1421
    1421 1415 1410 1404 1398 1398 1392 1387 1381 1376 1376 1370 1365
    1359 1359 1354 1354 1349 1343 1338 1338 1333 1328 1322 1322 1317
    1312 1312 1307 1302 1297 1297 1297 1302 1307 1317 1333 1338 1343
    1354 1359 1359 1370 3433 3433 3433 1464 1458 1458 1445 1439 1439
    1433 1427 1427 1421 1415 1415 1410 1404 1398 1392 1387 1387 1381
    1376 1376 1370 1365 1359 1359 1354 1354 1349 1343 1338 1338 1333
    1333 1322 1322 1317 1312 1312 1307 1302 1297 1297 1297 1302 1307
    1317 1333 1343 1343 1354 1359 1370 1370 0 3433 3433 1464 1458 1452
    1445 1439 1433 1433 1427 1421 1421 1415 1415 1410 1404 1398 1392
    1387 1387 1381 1376 1370 1370 1365 1359 1359 1354 1354 1354 1343
    1338 1338 1333 1333 1328 1322 1317 1312 1312 1307 1302 1302 1302
    1302 1302 1312 1317 1338 1343 1349 1354 1365 1370 1370 0 3433 3433
    1464 1458 1452 1445 1439 1433 1427 1421 1421 1421 1415 1415 1404
    1404 1398 1392 1387 1387 1381 1376 1370 1370 1365 1359 1359 1354
    1354 1354 1343 1338 1338 1333 1333 1333 1328 1317 1312 1312 1307
    1302 1302 1302 1302 1302 1312 1322 1338 1343 1349 1354 1365 1365
    1365 3539 3433 3433 1458 1458 1452 1445 1439 1433 1427 1421 1421
    1415 1415 1410 1398 1398 1398 1392 1387 1387 1381 1376 1376 1370
    1365 1359 1359 1354 1354 1354 1343 1338 1338 1333 1333 1333 1328
    1317 1312 1312 1307 1302 1302 1302 1302 1307 1312 1322 1333 1343
    1349 1354 1359 1365 1365 3539 3539 3433 1458 1458 1452 1445 1439
    1439 1433 1427 1421 1415 1415 1410 1398 1398 1398 1392 1387 1387
    1381 1376 1376 1370 1370 1359 1359 1354 1354 1349 1343 1338 1333
    1333 1333 1328 1328 1317 1312 1312 1307 1302 1302 1302 1307 1312
    1317 1328 1333 1343 1349 1354 1359 1359 1359 3539 3539 3503 1458
    1458 1452 1445 1439 1433 1433 1427 1421 1415 1415 1410 1398 1392
    1392 1392 1392 1387 1381 1376 1376 1370 1365 1359 1359 1354 1354
    1349 1343 1338 1333 1333 1333 1328 1322 1317 1312 1312 1307 1302
    1302 1302 1307 1312 1317 1328 1338 1349 1354 1354 1359 1359 0 3539
    3539 3503 1458 1452 1452 1445 1439 1433 1433 1427 1427 1421 1415
    1404 1398 1392 1392 1392 1392 1387 1381 1376 1376 1370 1365 1359
    1354 1354 1354 1354 1343 1338 1333 1333 1333 1328 1322 1317 1317
    1312 1312 1302 1302 1302 1302 1312 1317 1333 1338 1349 1354 1359
    1359 1359 0 3539 3539 3539 1458 1452 1452 1445 1439 1433 1433 1427
    1427 1421 1415 1404 1398 1392 1392 1392 1392 1387 1381 1376 1376
    1370 1359 1359 1354 1354 1354 1354 1343 1338 1333 1333 1328 1328
    1322 1317 1317 1312 1312 1302 1302 1302 1302 1312 1317 1333 1338
    1349 1354 1359 1359 1359 3539 3539 3539 3539 1458 1452 1452 1439
    1439 1439 1433 1427 1427 1421 1421 1410 1398 1398 1392 1392 1387
    1387 1381 1376 1376 1370 1359 1354 1354 1354 1354 1354 1343 1338
    1333 1333 1328 1328 1322 1317 1317 1312 1312 1302 1302 1302 1302
    1312 1317 1333 1338 1349 1354 1354 1354 0 3539 3539 3539 3539 1458
    1452 1452 1439 1439 1439 1439 1433 1421 1421 1421 1410 1398 1398
    1392 1392 1387 1387 1376 1376 1370 1370 1365 1354 1349 1349 1354
    1349 1343 1338 1333 1333 1328 1322 1322 1317 1312 1312 1307 1307
    1307 1307 1307 1312 1333 1338 1338 1349 1354 1354 1354 0 3539 3539
    3539 3539 3692 3692 3692 1439 1433 1433 1439 1433 1421 1415 1415
    1404 1398 1398 1392 1392 1387 1381 1376 1376 1370 1370 1365 1359
    1349 1349 1349 1349 1338 1338 1333 1333 1328 1322 1322 1317 1312
    1312 1302 1302 1302 1307 1312 1317 1333 1333 1343 1349 1354 1354
    1354 0 3539 3539 3539 3539 3692 3692 3692 3692 1433 1433 1439 1439
    1427 1415 1410 1398 1398 1392 1392 1392 1387 1381 1376 1376 1370
    1370 1365 1359 1349 1349 1349 1343 1338 1338 1333 1333 1328 1328
    1322 1317 1312 1312 1302 1302 1302 1302 1307 1317 1322 1333 1338
    1343 1354 1354 1354 0 3576 3576 3539 3539 3653 3653 3653 3653 3614
    3614 3539 3539 3539 1415 1410 1398 1392 1392 1392 1392 1387 1381
    1376 1370 1370 1370 1365 1359 1354 1354 1349 1343 1338 1338 1333
    1333 1328 1322 1322 1317 1312 1312 1302 1302 1302 1302 1307 1317
    1322 1333 1338 1343 1349 1354 1354 3238 3238 3238 3238 3503 2812
    3653 3653 3653 3614 3614 3576 3539 3503 3503 3503 1392 1392 1392
    1392 1392 1387 1381 1376 1370 1370 1370 1365 1354 1354 1354 1349
    1343 1338 1338 1333 1333 1328 1322 1317 1317 1312 1312 1302 1302
    1302 1302 1307 1317 1322 1333 1338 1343 1349 1354 1354 3238 3238
    3208 3208 3208 2812 2812 2812 3653 3614 3576 3539 3503 3503 3503
    3539 3539 3576 3576 1392 1392 1392 1387 1376 1370 1370 1370 1365
    1354 1354 1354 1349 1343 1338 1338 1333 1333 1328 1322 1317 1317
    1312 1312 1307 1307 1307 1307 1312 1317 1322 1333 1338 1343 1343
    1354 1354 3208 3208 3208 3178 3178 2789 2767 2744 2723 2723 3576
    3539 3503 3503 3503 3539 3539 3539 3539 1392 1392 1392 1392 1392
    1370 1370 1370 1370 1354 1354 1354 1349 1343 1338 1338 1333 1333
    1328 1322 1317 1317 1317 1312 1307 1307 1307 1307 1312 1317 1322
    1333 1338 1343 1343 1343 3208 3208 3208 3208 3178 3178 2723 2723
    2723 2723 2723 2723 2723 3503 3539 3539 3539 3539 3539 3503 3503
    3503 3503 3503 3503 3503 1354 0 1354 1354 1354 1354 1354 1349 1343
    1338 1333 1333 1333 1322 1317 1317 1312 1312 1307 1307 1307 1307
    1312 1317 1322 1333 1343 1349 1349 1349 3269 3238 3238 3208 3208
    3178 2680 2680 2701 2701 2701 2701 2680 2680 3539 3539 3539 3539
    3503 3503 3468 3468 3468 3468 0 0 0 0 1354 1354 1354 1354 1354 1349
    1338 1338 1333 1333 1333 1322 1317 1317 1312 1312 1307 1302 1302
    1302 1307 1317 1317 1333 1343 1359 3238 3238 3238 3269 3269 3238
    3238 3238 2659 2659 2659 2680 2680 2680 2659 2659 2659 3576 3539
    3539 3468 3468 3468 3468 3468 3468 1477 1477 1477 0 1458 1359 1359
    1359 1359 1354 1338 1338 1333 1333 1333 1322 1322 1317 1312 1312
    1307 1302 1302 1302 1302 1312 1312 1312 3269 3238 3238 3238 3238
    3238 3269 3238 3238 3269 2639 2639 2639 2639 2639 2639 2639 2659
    2659 2659 3614 3539 3433 3433 3468 3468 3503 1477 1477 1477 1477
    1477 1458 1458 1365 1365 1365 1359 1359 1338 1338 1338 1338 1333
    1333 1317 1317 1312 1302 1302 1302 1297 1297 1302 1312 1312 3269
    3269 3269 3238 3208 3208 3208 3208 3208 3208 2639 2639 2639 2639
    2618 2618 2618 2639 2639 2639 3692 3692 3433 1452 1433 1433 1452
    1464 1470 1464 1458 1458 1458 1458 1452 1477 1370 1370 1370 1370
    1483 1483 1452 3399 3399 3399 1317 1312 1302 1302 1302 1297 1297
    1297 1297 3300 3238 3238 3238 3238 3208 3208 3208 3178 3178 3178
    2659 2659 2639 2639 2618 2598 2598 2618 2618 2639 3774 3774 3774
    1445 1433 1427 1427 1445 1458 1458 1452 1452 1452 1452 1452 1477
    1477 1376 1376 1483 1483 1452 0 0 3333 3333 3333 1312 1302 1297 1297
    1297 1297 1297 1297 3300 3269 3238 3208 3208 3208 3208 3208 3178
    3178 3178 2659 2659 2639 2639 2618 2598 2598 2618 2618 1427 1421
    1421 1427 1439 1427 1427 1427 1433 1445 1445 1445 1445 1445 1445
    1445 1445 1470 1376 1376 1452 1452 1452 1421 1421 3333 3333 3333
    3333 3300 1297 1297 1297 3300 3300 3300 3269 3269 3238 3208 3208
    3208 3208 3208 3178 3178 3178 2659 2659 2639 2639 2639 2639 2639
    1415 1415 1410 1410 1415 1415 1415 1415 1415 1421 1427 1427 1433
    1433 1433 1433 1427 1427 1427 1470 1470 1439 1433 1427 1421 1421
    1421 3399 3399 3333 3333 3300 3300 3269 3269 3269 3269 3300 3269
    3269 3238 3208 3208 3208 3208 3208 3208 3178 3178 2659 2659 2618
    2618 2639 2639 1421 1421 1410 1404 1404 1404 1404 1404 1404 1410
    1410 1410 1410 1415 1427 1421 1421 1421 1427 1427 1427 1427 1427
    1427 1421 1415 1415 1421 1427 1427 3333 3333 3333 3269 3269 3238
    3238 3238 3269 3269 3269 3238 3208 3208 3208 3208 3208 3208 3208
    3208 2659 2659 2618 2618 2618 1421 1421 1415 1410 1404 1398 1398
    1398 1398 1398 1398 1398 1398 1398 1398 1398 1398 1398 1387 1387
    1387 1381 1381 1415 1410 1410 1404 1404 1410 1415 1410 1410 3365
    3333 3269 3238 3208 3208 3208 3208 3208 3238 3208 3208 3178 3178
    3178 3178 3178 3208 3208 2659 2659 2618 2618 2618 1421 1421 1415
    1410 1404 1398 1392 1392 1392 1392 1387 1381 1381 1381 1381 1381
    1381 1381 1376 1370 1370 1376 1381 1404 1398 1398 1398 1398 1398
    1410 1404 1404 1404 1404 3300 3238 3208 3178 3178 3178 3178 3208
    3178 3178 3149 3149 3178 3178 3178 3178 3178 2659 2639 2639 2639
    2639 1421 1421 1415 1410 1404 1398 1392 1392 1387 1381 1381 1376
    1376 1370 1370 1370 1376 1376 1370 1370 1370 1376 1376 1376 1376
    1376 1381 1387 1387 1392 1398 1404 1404 1404 1404 3269 3178 3178
    3178 3149 3149 3149 3149 3149 3149 3149 3149 3149 3149 3149 3149
    2659 2639 2639 2639 0 1410 1410 1410 1404 1398 1398 1392 1387 1381
    1376 1376 1370 1370 1370 1365 1365 1370 1370 1365 1365 1365 1365
    1370 1370 1370 1370 1376 1376 1381 1381 1387 1398 1404 1404 1404
    1404 3178 3178 3149 3149 3149 3149 3149 3149 3149 3149 3149 3149
    3149 3092 3092 2639 2598 2598 2598 0 0 1410 1410 1404 1398 1398 1392
    1387 1381 1376 1370 1370 1365 1365 1359 1359 1359 1354 1354 1354
    1354 1359 1359 1359 1359 1365 1370 1376 1376 1381 1381 1387 1398
    1404 1404 1404 3178 3178 3120 3120 3120 3120 3092 3092 3120 3120
    3120 3092 3092 3064 3064 2618 2579 2579 0 0 0 1404 1404 1404 1398
    1398 1392 1387 1381 1370 1370 1365 1365 1359 1359 1359 1354 1349
    1349 1343 1343 1343 1349 1349 1354 1359 1365 1370 1376 1381 1381
    1387 1398 1404 1404 1415 1415 1439 1439 2381 2381 3120 3092 3092
    3092 3092 3064 3064 3064 3037 3037 2618 2579 2579 0 0 0 1404 1404
    1404 1398 1398 1392 1387 1381 1370 1370 1365 1365 1359 1359 1359
    1349 1349 1343 1338 1338 1338 1338 1338 1343 1354 1359 1370 1376
    1376 1381 1387 1398 1398 1410 1415 2381 1439 1439 2381 2365 2365
    2365 2365 2365 3010 3064 3064 3064 3037 3037 0 0 0 0 0 0 0 1404 1398
    1398 1398 1392 1387 1381 1376 1370 1370 1365 1359 1359 1354 1349
    1349 1338 1333 1333 1338 1338 1338 1338 1354 1359 1370 1376 1376
    1381 1387 1398 1398 1410 1410 2365 2365 2365 2365 2365 2365 2365
    2365 2365 2365 2365 3037 3037 3037 3010 0 0 0 0 0 0 0 1404 1398 1398
    1398 1392 1392 1387 1376 1370 1370 1365 1359 1354 1354 1349 1343
    1338 1333 1333 1333 1333 1338 1338 1349 1359 1370 1376 1376 1381
    1387 1381 1381 1410 2317 2317 2317 2333 2349 2349 2365 2365 2365
    2349 2333 2333 2333 2349 3037 2984 0 0 0 0 0 0 0 0 1398 1398 1398
    1398 1392 1387 1376 1376 1370 1365 1359 1354 1349 1349 1343 1338
    1333 1333 1333 1333 1338 1338 1349 1359 1370 1376 1376 1376 1392
    1381 1381 2317 2317 2301 2301 2317 2317 2317 2317 2317 2333 2317
    2317 2317 2317 2317 2317 2317 0 0 0 0 0 0 0 0 0 0 1398 1398 1398
    1387 1381 1376 1370 1370 1359 1354 1349 1349 1349 1338 1333 1333
    1333 1333 1338 1338 1349 1359 1365 1370 1376 1376 2365 2349 2317
    2317 2301 2301 2301 2301 2301 2301 2301 2286 2286 2286 2286 2301
    2317 2301 2301 2301 0 0 0 0 0 0 0 0 0 0 0 0 0 1392 1387 1381 1376
    1370 1365 1359 1354 1349 1343 1338 1333 1333 1333 1333 1338 1343
    1354 1359 1365 1370 1376 2365 2365 2349 2317 2301 2301 2301 2301
    2301 2301 2301 2271 2271 2271 2271 2286 2286 2301 2301 2301 2301 0 0
    0 0 0 0 0 0 0 0 0 0 0 0 1392 1381 1376 1370 1370 1365 1354 1349 1343
    1338 1333 1333 1338 1338 1338 1349 1354 1359 1359 1376 2349 2349
    2365 2349 2317 2301 2301 2301 2301 2301 2301 2286 2271 2271 2271
    2271 2256 2256 2286 2286 2286 2286 0 0 0 0 0 0 0 0 0 0 0 0 0 0 1398
    1392 1381 1376 1370 1370 1370 1354 1343 1338 1333 1333 1338 1338
    1338 1354 1365 1359 1359 0 2349 2349 2365 2317 2317 2301 2301 2317
    2317 0 2301 2271 2271 2271 2271 2256 2256 2256 2256 2256 2256 2241</data></Depth17231>
</opencv_storage>
