<?xml version="1.0"?>
<opencv_storage>
<Depth17069 type_id="opencv-matrix">
  <rows>96</rows>
  <cols>36</cols>
  <dt>w</dt>
  <data>
    3365 0 0 3365 0 0 0 1312 1307 1307 1307 1307 1297 1297 0 0 0 0 0 0
    3269 3269 3300 3300 3300 3269 3269 3269 3269 3269 3269 3269 3269
    3269 3269 3269 0 0 0 0 0 0 0 1307 1302 1302 1297 1297 1297 1297 0 0
    0 0 0 0 0 0 0 0 1177 1177 1177 3269 3269 3269 3300 3269 3269 3269
    3269 3269 0 0 0 0 0 0 0 1302 1292 1288 1273 1273 1297 1297 1241 0
    1227 0 0 0 0 0 0 0 0 0 1177 1177 1177 1181 1181 3269 3269 3269 3269
    3269 3399 0 0 0 0 0 0 1283 1273 1273 1268 1255 1241 1241 1241 1227
    1227 1227 0 0 0 0 0 0 1185 1185 1177 1177 1177 1177 1169 1169 1169
    1169 3269 3269 3399 0 0 0 0 0 0 1283 1273 1273 1268 1255 1219 1219
    1219 1219 1223 1223 0 0 0 0 0 1185 1185 1185 1185 1181 1181 1177
    1169 1169 1169 1165 3269 3269 3399 0 0 0 0 0 0 0 0 1206 1206 1206
    1202 1202 1202 1202 1197 1193 1193 1189 1185 1185 0 0 1185 1185 1181
    1177 1177 1177 1165 1165 1165 1165 1165 3300 3433 0 0 0 0 0 0 0 0
    1197 1193 1193 1193 1193 1193 1189 1189 1185 1185 1181 1177 1173
    1173 1177 1177 1177 1177 1173 1169 1169 1161 1161 1161 1161 1165
    1165 0 0 0 0 0 0 0 0 1189 1189 1189 1185 1185 1185 1181 1181 1181
    1177 1173 1173 1173 1173 1173 1173 1173 1173 1173 1173 1169 1169
    1161 1161 1161 1161 1161 1161 0 0 0 0 0 0 0 0 1189 1185 1185 1181
    1177 1177 1177 1177 1173 1173 1173 1173 1169 1169 1173 1173 1173
    1169 1169 1169 1169 1169 1169 1165 1161 1157 1157 1157 0 0 0 0 0 0 0
    0 1185 1185 1185 1181 1177 1177 1177 1177 1173 1173 1169 1169 1169
    1169 1173 1169 1169 1169 1169 1169 1169 1169 1169 1165 1161 1157
    1157 1157 3399 0 0 0 0 0 0 0 1185 1185 1185 1181 1177 1177 1177 1177
    1173 1173 1169 1169 1169 1169 1173 1169 1169 1173 1169 1169 1169
    1169 1169 1169 1161 1157 1157 1157 3365 0 0 0 0 0 0 0 1189 1189 1185
    1181 1181 1181 1177 1177 1177 1173 1173 1173 1173 1173 1173 1173
    1173 1173 1169 1169 1169 1169 1169 1169 1161 1157 1157 1157 3333 0 0
    0 0 0 1245 1245 1245 1189 1185 1185 1181 1181 1177 1177 1177 1177
    1177 1173 1173 1173 1173 1173 1173 1173 1169 1169 1169 1169 1169
    1169 1165 1157 1153 1153 3269 0 0 0 0 0 1241 1236 1219 1189 1185
    1185 1185 1181 1177 1177 1177 1177 1177 1173 1173 1173 1173 1173
    1173 1173 1169 1169 1169 1169 1169 1169 1165 1161 1153 1149 3269 0 0
    0 0 0 1241 1236 1219 1193 1189 1185 1185 1181 1181 1177 1177 1177
    1177 1173 1173 1173 1173 1173 1173 1173 1173 1169 1169 1169 1169
    1169 1165 1161 1153 1149 3269 0 0 0 0 0 1245 1241 1189 1189 1185
    1185 1185 1185 1181 1177 1177 1177 1177 1173 1173 1173 1173 1173
    1173 1173 1173 1169 1169 1169 1169 1169 1169 1161 1161 1161 3269 0 0
    0 0 0 0 0 1189 1189 1185 1185 1185 1185 1185 1181 1177 1177 1173
    1173 1173 1173 1173 1173 1173 1173 1173 1173 1173 1169 1169 1169
    1169 1161 1161 1161 3300 0 0 0 0 0 0 0 1189 1189 1189 1185 1185 1185
    1185 1181 1177 1177 1173 1173 1173 1173 1173 1173 1173 1169 1169
    1169 1173 1169 1169 1169 1169 1161 1161 1161 3333 0 0 0 0 0 0 0 1189
    1189 1185 1185 1185 1185 1185 1185 1181 1177 1173 1173 1173 1173
    1173 1173 1169 1169 1169 1169 1173 1169 1169 1169 1165 1161 1161
    1161 3333 0 0 0 0 0 0 0 1189 1189 1185 1185 1185 1185 1185 1185 1181
    1177 1177 1177 1177 1173 1173 1173 1169 1169 1169 1169 1173 1169
    1169 1169 1165 1165 1165 1165 3333 0 0 0 0 0 0 0 0 1189 1185 1185
    1185 1185 1185 1185 1181 1181 1177 1177 1177 1173 1173 1173 1169
    1169 1169 1169 1173 1173 1173 1169 1169 1169 1169 1169 3333 0 0 0 0
    0 0 0 0 1189 1185 1185 1185 1185 1185 1185 1181 1181 1177 1177 1177
    1173 1173 1173 1169 1169 1169 1169 1169 1173 1173 1173 1169 1169
    1169 1169 3333 0 0 0 0 0 0 0 0 1193 1189 1189 1185 1185 1181 1181
    1181 1181 1181 1177 1177 1173 1173 1173 1173 1173 1169 1169 1169
    1169 1173 1169 1169 1169 1169 1169 2365 2365 0 0 0 0 0 0 0 1197 1189
    1189 1185 1185 1181 1181 1181 1181 1181 1177 1177 1177 1173 1173
    1173 1173 1169 1169 1169 1169 1169 1169 1169 1169 1169 1169 2365
    2365 0 0 0 0 0 0 0 1197 1189 1189 1185 1185 1185 1185 1185 1181 1181
    1181 1177 1177 1173 1173 1173 1173 1173 1173 1169 1169 1169 1169
    1169 1169 1169 0 2365 2365 0 0 0 0 0 0 0 1193 1189 1189 1185 1185
    1185 1185 1185 1181 1181 1181 1177 1177 1173 1173 1173 1173 1173
    1173 1169 1169 1169 1169 1169 1169 1169 0 3365 0 0 0 0 0 0 0 1189
    1189 1189 1189 1185 1185 1185 1185 1185 1181 1181 1181 1181 1181
    1177 1173 1173 1173 1173 1173 1169 1169 1169 1169 1169 1169 1169 0
    3365 0 0 0 0 0 0 0 1189 1189 1189 1189 1185 1185 1185 1185 1185 1181
    1181 1181 1181 1177 1177 1173 1173 1173 1173 1173 1173 1169 1169
    1169 1169 1173 0 0 3365 0 0 0 0 0 0 0 1189 1189 1189 1189 1185 1185
    1181 1181 1181 1181 1181 1181 1177 1177 1177 1177 1177 1173 1173
    1173 1173 1173 1173 1169 1169 1169 0 0 3333 0 0 0 0 0 0 0 1206 1197
    1193 1189 1185 1185 1181 1181 1181 1181 1181 1177 1177 1177 1177
    1177 1177 1177 1173 1173 1173 1173 1173 1169 1169 1169 0 0 3300 0 0
    0 0 0 0 0 1206 1197 1189 1189 1185 1185 1185 1181 1181 1181 1181
    1177 1177 1177 1177 1177 1177 1177 1177 1173 1173 1173 1173 1173
    1173 1173 1173 0 3300 0 0 0 0 0 0 0 1206 1202 1189 1185 1185 1185
    1181 1181 1181 1181 1181 1181 1177 1177 1177 1177 1173 1173 1173
    1173 1173 1173 1173 1169 1169 1169 1169 0 3300 0 0 0 0 0 0 0 1202
    1197 1189 1185 1185 1185 1181 1181 1185 1181 1181 1181 1177 1177
    1177 1177 1173 1173 1173 1173 1173 1173 1173 1169 1169 1169 1169 0
    3333 0 0 0 0 0 0 1197 1197 1193 1189 1185 1185 1185 1185 1185 1185
    1185 1185 1181 1181 1181 1177 1177 1173 1173 1173 1173 1173 1169
    1169 1169 1169 1169 1169 1173 3399 0 0 0 0 0 0 1197 1189 1189 1189
    1189 1185 1185 1185 1185 1185 1185 1185 1181 1181 1181 1181 1181
    1177 1177 1177 1173 1173 1169 1169 1169 1169 1169 1173 1173 3365 0 0
    0 0 0 0 1197 1189 1189 1189 1189 1189 1185 1185 1185 1185 1185 1185
    1185 1185 1185 1181 1181 1177 1177 1173 1173 1173 1173 1173 1173
    1173 1173 1173 1173 3333 0 0 0 0 0 0 0 1189 1189 1185 1185 1189 1189
    1189 1189 1185 1185 1185 1185 1185 1185 1181 1181 1177 1177 1173
    1173 1173 1173 1173 1173 1173 1173 1173 1173 3333 0 0 0 0 0 0 0 1189
    1189 1185 1185 1189 1189 1189 1189 1185 1185 1185 1185 1185 1181
    1181 1181 1177 1177 1177 1173 1173 1173 1173 1173 1173 1169 1169
    1169 3333 0 0 0 0 0 0 0 1189 1189 1189 1189 1189 1189 1189 1189 1185
    1185 1185 1185 1185 1181 1181 1181 1177 1177 1177 1173 1173 1173
    1173 1173 1169 1169 1169 1169 0 0 0 0 0 0 0 0 1206 1197 1193 1189
    1189 1189 1189 1189 1185 1185 1185 1185 1185 1185 1181 1181 1181
    1181 1181 1177 1173 1173 1169 1169 1169 1169 1169 0 0 0 0 0 0 0 0
    1227 1210 1202 1197 1189 1189 1189 1189 1185 1185 1185 1185 1185
    1185 1185 1181 1181 1177 1177 1177 1177 1173 1173 1169 1169 1169
    1169 1169 0 0 0 0 0 0 0 0 1227 1210 1202 1197 1189 1189 1189 1189
    1185 1185 1185 1185 1185 1185 1185 1181 1181 1177 1177 1177 1177
    1177 1173 1169 1169 1173 1173 1173 3269 0 0 0 0 0 0 0 0 1210 1202
    1197 1189 1189 1189 1189 1185 1185 1185 1185 1185 1185 1185 1181
    1181 1177 1177 1177 1177 1177 1173 1169 1169 1173 1173 1173 3269 0 0
    0 0 0 0 0 0 1210 1202 1189 1189 1189 1189 1189 1189 1185 1185 1185
    1185 1185 1185 1181 1181 1177 1177 1177 1177 1177 1177 1173 1173
    1173 1173 0 3269 0 0 0 0 0 0 0 0 1210 1197 1189 1189 1189 1189 1189
    1189 1185 1185 1185 1185 1185 1185 1181 1181 1181 1177 1177 1177
    1177 1177 1173 1173 1165 1165 1165 3333 0 0 0 0 0 0 1250 1236 1210
    1197 1189 1189 1189 1189 1189 1189 1189 1185 1185 1185 1185 1185
    1185 1181 1181 1181 1177 1177 1177 1177 1173 1173 1165 1165 1165
    1165 0 0 0 0 0 1255 1245 1236 1219 1197 1189 1189 1189 1189 1189
    1189 1189 1189 1189 1185 1185 1185 1185 1181 1181 1185 1181 1177
    1177 1177 1177 1173 1165 1165 1165 0 0 0 0 0 0 1255 1245 1241 1223
    1193 1189 1189 1189 1189 1189 1189 1189 1189 1189 1189 1185 1185
    1185 1181 1181 1185 1181 1177 1177 1177 1177 1173 1173 1173 1173
    3178 0 0 0 0 0 1264 1245 1245 1210 1193 1189 1189 1189 1189 1189
    1189 1189 1189 1189 1189 1185 1185 1185 1181 1181 1185 1181 1181
    1177 1177 1177 1173 1173 1173 1173 3178 0 0 0 0 0 1264 1241 1232
    1210 1193 1189 1189 1189 1189 1189 1189 1189 1189 1189 1189 1189
    1185 1185 1185 1185 1181 1181 1181 1181 1177 1177 1173 1173 1173 0
    3149 0 0 0 0 0 0 1236 1227 1210 1197 1189 1189 1193 1193 1189 1189
    1189 1189 1189 1189 1189 1185 1185 1185 1185 1181 1181 1181 1181
    1177 1177 1173 1173 1173 0 3149 0 0 0 0 0 0 1236 1227 1210 1202 1197
    1193 1193 1193 1189 1189 1189 1189 1189 1189 1189 1185 1185 1185
    1185 1181 1181 1177 1177 1177 1177 1177 1173 1173 1173 3149 0 0 0 0
    0 0 0 1236 1206 1202 1197 1197 1197 1193 1189 1189 1189 1185 1185
    1189 1189 1185 1185 1185 1185 1185 1181 1177 1177 1177 1177 1177
    1173 1173 1173 1173 0 0 0 0 0 0 0 0 1206 1202 1197 1197 1197 1193
    1189 1189 1189 1185 1185 1185 1185 1185 1185 1185 1185 1185 1181
    1181 1181 1181 1177 1177 1173 1173 1173 0 0 0 0 0 0 0 0 1223 1210
    1202 1197 1197 1197 1197 1193 1189 1189 1189 1185 1185 1185 1185
    1185 1185 1185 1185 1185 1181 1181 1181 1177 1173 1173 1173 1173 0 0
    0 0 0 0 0 1232 1223 1210 1202 1197 1197 1197 1197 1193 1189 1189
    1189 1189 1189 1185 1185 1185 1185 1185 1185 1185 1181 1181 1181
    1177 1173 1173 1173 1173 3300 0 0 0 0 0 0 1232 1223 1214 1206 1197
    1197 1197 1197 1193 1189 1189 1189 1189 1189 1185 1185 1185 1185
    1185 1185 1185 1181 1181 1181 1177 1177 1177 1177 0 3300 0 0 0 0 0 0
    1232 1227 1214 1206 1202 1197 1197 1197 1193 1193 1189 1189 1189
    1189 1185 1185 1185 1185 1185 1185 1185 1181 1181 1181 1177 1177
    1177 1177 0 3300 0 0 0 0 0 0 1236 1236 1214 1206 1202 1197 1197 1197
    1193 1193 1189 1189 1189 1189 1189 1185 1185 1185 1185 1185 1185
    1181 1181 1181 1181 1181 1181 1181 0 3269 0 0 0 0 0 0 1236 1236 1210
    1206 1202 1197 1197 1197 1197 1197 1193 1189 1189 1189 1189 1185
    1185 1185 1185 1185 1185 1185 1181 1181 1181 1181 1181 1181 1181
    3269 0 0 0 0 0 0 0 1206 1206 1206 1202 1197 1197 1197 1197 1197 1193
    1193 1193 1189 1189 1189 1185 1185 1185 1185 1185 1185 1185 1181
    1181 1181 1181 1181 1181 1181 0 0 0 0 0 0 0 1206 1206 1206 1202 1197
    1197 1197 1193 1193 1193 1193 1193 1189 1189 1189 1189 1185 1185
    1185 1185 1185 1185 1181 1181 1181 1177 1177 1177 0 0 0 0 0 0 0 0 0
    1210 1206 1202 1197 1197 1197 1193 1193 1193 1193 1193 1189 1189
    1189 1189 1185 1185 1185 1185 1185 1185 1181 1181 1177 1173 1173
    1173 0 0 0 0 0 0 0 0 1223 1210 1206 1202 1197 1197 1197 1193 1193
    1193 1193 1189 1189 1189 1189 1189 1189 1185 1185 1185 1185 1185
    1181 1181 1177 1173 1173 1173 0 0 0 0 0 0 0 0 1219 1210 1206 1202
    1197 1197 1197 1193 1193 1193 1189 1189 1189 1189 1189 1189 1189
    1185 1185 1185 1185 1185 1185 1181 1181 1173 1173 1173 0 0 0 0 0 0 0
    0 1214 1210 1206 1202 1197 1197 1197 1193 1193 1193 1189 1189 1189
    1189 1189 1189 1189 1185 1185 1185 1185 1185 1185 1181 1181 1173
    1173 1173 0 0 0 0 0 0 0 0 1210 1206 1202 1197 1197 1197 1197 1193
    1193 1193 1193 1193 1189 1189 1189 1189 1189 1189 1185 1185 1185
    1185 1185 1185 1185 1177 1177 1177 3208 0 0 0 0 0 0 1219 1206 1206
    1202 1197 1197 1197 1197 1197 1197 1197 1193 1193 1189 1189 1189
    1189 1189 1189 1185 1185 1185 1185 1185 1185 1185 1185 1185 1185
    3208 3120 0 0 0 0 0 1219 1206 1206 1202 1197 1197 1197 1197 1197
    1197 1197 1197 1193 1193 1189 1189 1189 1189 1189 1189 1185 1185
    1185 1185 1185 1181 1181 1181 1181 3208 3064 3064 0 0 0 0 0 1206
    1202 1202 1197 1197 1197 1197 1197 1197 1197 1197 1193 1193 1193
    1189 1189 1189 1189 1189 1185 1185 1185 1185 1185 1181 1181 1181 0
    3178 3064 3064 0 0 0 0 0 1206 1202 1202 1197 1197 1197 1197 1197
    1197 1197 1197 1193 1193 1193 1189 1189 1189 1189 1189 1189 1189
    1189 1185 1185 1177 1177 1177 0 3178 3149 3149 0 0 0 0 0 0 1206 1202
    1202 1197 1197 1197 1197 1197 1197 1197 1193 1193 1193 1193 1189
    1189 1189 1189 1189 1185 1185 1185 1181 1177 1177 1177 0 3178 3238 0
    0 0 0 0 0 0 1202 1202 1202 1197 1197 1197 1197 1197 1197 1197 1197
    1193 1193 1193 1189 1189 1189 1189 1189 1185 1185 1185 1181 1177
    1177 1177 0 3149 0 0 0 0 0 1181 1181 1197 1197 1202 1202 1202 1202
    1202 1197 1197 1197 1197 1197 1193 1193 1193 1189 1189 1189 1189
    1189 1185 1185 1185 1185 1185 1185 0 3120 3120 0 0 0 0 0 1181 1181
    1185 1197 1202 1202 1202 1202 1202 1202 1202 1202 1197 1197 1193
    1193 1193 1189 1189 1189 1189 1189 1185 1185 1185 1185 1185 1185
    1185 3120 3120 3120 0 0 0 0 1185 1185 1185 1202 1202 1202 1202 1202
    1202 1202 1202 1202 1202 1197 1193 1193 1193 1193 1189 1189 1189
    1189 1189 1185 1185 1185 1181 1181 1181 3064 3064 3120 3149 3149 0 0
    1193 1193 1193 1202 1202 1202 1202 1202 1202 1202 1202 1202 1202
    1197 1193 1193 1193 1193 1189 1189 1189 1189 1189 1189 1189 1185
    1181 1181 1181 3064 3064 3092 3149 0 0 0 1206 1206 1206 1206 1202
    1202 1202 1202 1202 1202 1202 1202 1202 1202 1197 1193 1193 1193
    1193 1189 1189 1189 1189 1189 1189 1185 1185 1185 1185 2349 2958
    2398 3149 3149 2365 0 1206 1206 1206 1206 1206 1206 1202 1202 1202
    1202 1202 1202 1202 1202 1197 1193 1193 1193 1189 1189 1189 1189
    1189 1189 1189 1189 1189 1189 1189 2349 2349 2381 2365 2365 2365
    1376 1206 1206 1206 1206 1206 1206 1202 1202 1202 1197 1197 1202
    1202 1202 1202 1197 1197 1193 1189 1189 1189 1189 1193 1189 1189
    1185 1185 1185 1185 2349 2349 2381 2365 1370 1370 1376 1381 1381
    1206 1206 1206 1206 1202 1202 1202 1197 1197 1197 1202 1202 1202
    1197 1197 1193 1193 1193 1189 1189 1193 1189 1189 1185 1185 1185
    1185 2317 2317 2365 1376 1370 1370 1370 1359 1354 1206 1206 1206
    1206 1206 1202 1202 1197 1197 1197 1197 1202 1202 1197 1197 1193
    1193 1193 1193 1193 1193 1189 1185 1185 1185 1185 1185 2286 2286
    2365 1376 1365 1365 1359 1354 1354 1210 1206 1206 1206 1206 1202
    1202 1197 1197 1197 1197 1202 1197 1193 1193 1193 1193 1193 1193
    1193 1193 1189 1185 1185 1185 1185 1185 2271 2271 2365 1354 1354
    1354 1354 1354 1343 1343 1343 1206 1206 1206 1202 1202 1202 1197
    1197 1202 1197 1197 1193 1189 1189 1193 1193 1193 1193 1193 1189
    1189 1185 1185 1189 1189 2256 2256 1354 1354 1349 1343 1338 1338
    1333 1328 1307 1297 1297 1302 1322 1333 1333 1333 1333 1202 1197
    1197 1193 1185 1185 1193 1193 1193 1193 1193 1193 1189 1185 1185
    1185 2286 2256 2256 1349 1349 1343 1338 1328 1328 1322 1317 1302
    1292 1292 1297 1317 1328 1328 1328 1328 1328 1322 1197 1193 1185
    1185 1185 1317 1317 1317 1193 1193 1189 1189 2286 2286 2286 2286
    2271 1349 1349 1338 1328 1317 1317 1312 1312 1297 1292 1292 1297
    1312 1322 1317 1317 1317 1312 1312 1312 1312 1297 1297 1297 1297
    1302 1307 1307 1307 1307 2286 2286 2286 2301 2301 2286 1349 1349
    1333 1317 1312 1312 1307 1307 1297 1292 1292 1297 1302 1302 1312
    1307 1307 1302 1302 1302 1297 1283 1278 1278 1292 1297 1302 1297
    1297 1297 2286 2286 2286 2301 2301 2301 1322 1333 1333 1297 1292
    1292 1297 1292 1292 1292 1292 1292 1297 1297 1297 1297 1297 1292
    1292 1292 1288 1283 1278 1278 1278 1292 1297 1292 1292 1292 2301
    2301 2301 2301 2301 2301 1322 1317 1297 1292 1288 1283 1283 1283
    1283 1288 1288 1292 1292 1288 1288 1288 1283 1283 1288 1283 1283
    1278 1278 1278 1278 1288 1292 1288 1288 1288 2301 2301 2301 2301
    2301 2301 1322 1317 1297 1283 1278 1278 1278 1278 1278 1273 1273
    1273 1273 1278 1278 1278 1278 1278 1273 1268 1268 1268 1273 1273
    1273 1273 1283 1283 1273 1273 2317 2301 2301 2301 2301 2301 1317
    1317 1288 1278 1278 1273 1273 1273 1268 1259 1259 1259 1268 1268
    1268 1268 1273 1268 1268 1264 1264 1259 1259 1264 1264 1264 1268
    1268 1264 1264 1264 2301 2301 2301 2301 2301 1283 1283 1283 1278
    1273 1273 1268 1268 1264 1259 1259 1259 1264 1259 1259 1259 1259
    1259 1259 1259 1259 1255 1255 1259 1259 1259 1259 1259 1259 1259
    1259 2301 2301 2301 2301 2301 0 1278 1278 1278 1273 1273 1268 1268
    1264 1259 1259 1259 1264 1259 1259 1259 1259 1259 1255 1255 1255
    1255 1255 1255 1255 1255 1255 1250 1250 1255 1255 1255 2301 2301
    2301 2301 0 1278 1278 1278 1273 1268 1268 1268 1264 1264 1264 1264
    1264 1259 1259 1259 1259 1259 1255 1255 1255 1255 1255 1255 1250
    1250 1255 1250 1250 1250 1245 1245 2301 2301 2301 2301 0 0 1278 1273
    1273 1268 1268 1268 1264 1264 1264 1264 1264 1259 1259 1264 1259
    1259 1259 1255 1255 1255 1255 1255 1250 1250 1255 1250 1250 1250
    1245 1245 1245 2286 2286 2286</data></Depth17069>
</opencv_storage>
