<?xml version="1.0"?>
<opencv_storage>
<Depth7291 type_id="opencv-matrix">
  <rows>78</rows>
  <cols>42</cols>
  <dt>w</dt>
  <data>
    5056 5056 5056 5056 4983 4911 4911 1776 1776 1776 1785 1766 1766
    1766 1766 3092 3064 3037 3037 3010 3010 3010 2984 2984 3503 3468
    1776 1776 1776 1785 1785 1794 3399 1785 1776 1776 1785 1785 1785
    3399 3399 3433 5210 5210 1748 1748 1748 1748 1748 1757 1757 1757
    1757 1757 1757 1757 1757 1766 1748 1748 1748 3010 2984 2984 1748
    1748 1748 1748 1757 1766 1766 1766 1766 1776 1776 1776 1757 1757
    1776 1776 1776 3399 3399 3399 5210 0 1748 1748 1748 1748 1748 1748
    1748 1748 1748 1748 1748 1748 1748 1739 1739 1739 1739 1748 1748
    1748 1739 1739 1748 1739 1739 1748 1748 1748 1748 1739 1731 1731
    1731 1757 1757 1757 1705 1696 1696 3399 5210 1739 1748 1748 1748
    1739 1739 1748 1748 1748 1739 1739 1739 1739 1731 1731 1731 1731
    1731 1739 1739 1739 1731 1731 1731 1731 1731 1731 1731 1731 1731
    1731 1722 1722 1722 1722 1713 1713 1705 1696 1696 1696 5291 1739
    1739 1739 1739 1739 1739 1739 1739 1739 1739 1731 1731 1731 1731
    1731 1731 1731 1731 1739 1739 1739 1731 1731 1731 1722 1722 1722
    1722 1722 1722 1713 1713 1713 1713 1713 1705 1705 1705 1705 1705
    1705 5291 1739 1739 1739 1739 1739 1739 1739 1739 1739 1739 1731
    1731 1731 1722 1722 1731 1731 1731 1739 1731 1731 1731 1722 1722
    1722 1722 1722 1722 1713 1713 1713 1713 1713 1713 1713 1705 1705
    1696 1696 1696 1696 5291 1739 1739 1739 1739 1739 1739 1739 1739
    1739 1731 1731 1731 1731 1722 1722 1731 1731 1731 1731 1722 1722
    1722 1722 1722 1722 1722 1722 1722 1713 1713 1713 1713 1713 1713
    1713 1705 1705 1696 1696 1696 1696 5056 1757 1748 1739 1739 1739
    1739 1739 1739 1731 1731 1731 1722 1722 1722 1722 1722 1731 1731
    1731 1722 1722 1722 1722 1722 1722 1722 1722 1713 1713 1713 1713
    1713 1713 1713 1713 1705 1705 1705 1705 1705 1705 5056 1757 1739
    1739 1739 1739 1739 1739 1731 1731 1731 1731 1722 1722 1722 1722
    1722 1731 1731 1731 1722 1722 1722 1722 1722 1722 1722 1713 1713
    1713 1713 1713 1713 1713 1705 1705 1705 1705 1705 1705 1713 1713
    5056 1739 1739 1739 1739 1739 1739 1739 1731 1731 1731 1731 1731
    1722 1722 1722 1722 1722 1722 1731 1722 1722 1722 1722 1722 1722
    1722 1713 1713 1713 1713 1713 1713 1705 1705 1705 1705 1705 1705
    1705 1713 1713 4983 1739 1739 1739 1739 1739 1739 1739 1731 1731
    1731 1731 1731 1731 1731 1722 1722 1722 1722 1731 1722 1722 1722
    1722 1722 1722 1722 1713 1713 1713 1713 1713 1713 1705 1705 1705
    1705 1705 1705 1705 1705 1705 4911 1731 1731 1731 1731 1731 1731
    1731 1731 1731 1731 1731 1731 1722 1722 1713 1713 1722 1722 1731
    1722 1722 1722 1722 1722 1722 1722 1713 1713 1713 1713 1713 1713
    1705 1705 1696 1696 1696 1696 1696 1696 1696 4774 1731 1731 1731
    1731 1731 1731 1731 1731 1731 1731 1731 1731 1722 1713 1713 1713
    1713 1713 1722 1722 1722 1722 1722 1722 1722 1722 1722 1722 1713
    1713 1713 1713 1705 1705 1696 1696 1696 1696 1696 1688 1688 4774
    1722 1722 1722 1731 1731 1731 1731 1731 1731 1731 1731 1722 1713
    1713 1713 1713 1713 1713 1722 1722 1722 1722 1722 1722 1722 1722
    1722 1713 1713 1713 1713 1713 1705 1705 1696 1696 1696 1696 1696
    1688 1688 4911 1722 1722 1722 1731 1731 1731 1731 1722 1722 1722
    1731 1722 1713 1713 1713 1713 1713 1713 1722 1722 1722 1722 1722
    1722 1722 1722 1713 1713 1713 1713 1713 1713 1705 1705 1696 1696
    1696 1696 1696 1696 1696 4911 1722 1722 1722 1731 1731 1731 1731
    1722 1722 1722 1722 1722 1713 1713 1713 1713 1713 1713 1722 1722
    1722 1722 1713 1713 1722 1713 1713 1713 1713 1713 1713 1713 1705
    1705 1696 1696 1696 1696 1688 1688 1688 4983 1731 1731 1731 1731
    1731 1731 1731 1731 1722 1722 1722 1722 1722 1713 1713 1713 1713
    1713 1722 1722 1713 1713 1713 1713 1713 1713 1713 1713 1713 1713
    1713 1713 1713 1705 1696 1696 1696 1688 1688 1680 1680 4983 1731
    1731 1731 1731 1731 1731 1731 1731 1731 1722 1722 1722 1722 1713
    1713 1713 1713 1713 1722 1722 1713 1713 1713 1713 1713 1713 1713
    1713 1713 1713 1713 1713 1705 1705 1696 1696 1688 1688 1688 1680
    1680 4983 1739 1739 1731 1731 1739 1739 1739 1731 1731 1722 1722
    1722 1722 1713 1713 1713 1713 1713 1722 1722 1713 1713 1713 1713
    1713 1713 1713 1713 1713 1713 1713 1713 1705 1705 1696 1696 1688
    1688 1688 1680 1680 1776 1776 1739 1739 1731 1731 1731 1731 1731
    1731 1722 1722 1722 1713 1713 1713 1713 1713 1713 1722 1722 1713
    1713 1713 1713 1713 1713 1713 1713 1713 1713 1713 1713 1705 1705
    1696 1696 1696 1688 1688 1688 1688 1776 1776 1739 1739 1731 1731
    1731 1731 1722 1722 1731 1722 1713 1713 1713 1713 1713 1713 1713
    1722 1722 1713 1713 1713 1713 1713 1713 1713 1713 1713 1713 1705
    1705 1705 1705 1705 1696 1696 1696 1688 1688 1688 1776 1739 1739
    1739 1731 1731 1722 1722 1722 1722 1731 1722 1713 1713 1713 1713
    1713 1713 1713 1722 1722 1713 1713 1713 1713 1713 1713 1713 1713
    1713 1713 1705 1705 1705 1705 1705 1696 1696 1696 1688 1688 1688
    1776 1776 1739 1739 1731 1731 1722 1722 1722 1722 1722 1722 1713
    1713 1713 1713 1713 1713 1713 1722 1722 1713 1713 1713 1713 1713
    1713 1713 1713 1713 1713 1705 1705 1705 1705 1705 1696 1696 1688
    1688 1688 1688 1776 1776 1739 1739 1731 1722 1722 1722 1722 1722
    1722 1713 1713 1713 1713 1713 1713 1713 1713 1722 1722 1722 1713
    1713 1713 1713 1713 1713 1713 1713 1713 1713 1705 1705 1696 1696
    1696 1688 1688 1688 1680 1680 1776 1776 1739 1739 1731 1722 1722
    1722 1722 1722 1722 1713 1713 1713 1713 1713 1713 1713 1713 1722
    1722 1713 1713 1713 1713 1713 1713 1713 1713 1713 1713 1713 1705
    1696 1696 1688 1688 1688 1688 1688 1680 1680 1785 1776 1757 1739
    1739 1731 1722 1722 1722 1722 1722 1713 1713 1713 1713 1713 1713
    1713 1713 1722 1722 1713 1713 1713 1713 1713 1713 1713 1713 1713
    1713 1705 1705 1696 1688 1688 1688 1688 1688 1680 1680 1680 1776
    1766 1757 1739 1731 1731 1722 1722 1722 1722 1722 1722 1713 1713
    1713 1713 1713 1713 1713 1722 1722 1713 1713 1713 1713 1713 1713
    1713 1713 1713 1705 1705 1696 1688 1688 1688 1688 1688 1688 1680
    1680 1680 1776 1766 1748 1739 1731 1731 1722 1722 1722 1722 1722
    1722 1713 1713 1713 1713 1713 1713 1713 1722 1713 1713 1713 1713
    1713 1713 1713 1713 1713 1705 1705 1705 1696 1688 1688 1688 1688
    1688 1688 1680 1680 1680 1776 1748 1739 1731 1731 1731 1722 1722
    1722 1722 1722 1713 1713 1713 1713 1713 1713 1713 1713 1713 1713
    1713 1713 1713 1713 1713 1713 1713 1705 1705 1705 1705 1696 1688
    1688 1688 1688 1688 1688 1680 1680 1680 1739 1739 1739 1731 1731
    1722 1722 1722 1722 1722 1713 1713 1713 1713 1713 1713 1713 1705
    1705 1713 1713 1713 1722 1713 1713 1713 1705 1705 1705 1705 1705
    1705 1705 1696 1688 1688 1688 1688 1688 1680 1680 1680 1739 1739
    1739 1731 1731 1722 1722 1722 1722 1722 1713 1713 1713 1713 1713
    1713 1713 1705 1705 1713 1713 1713 1713 1713 1713 1713 1705 1705
    1705 1705 1705 1705 1705 1696 1696 1688 1688 1688 1688 1680 1680
    1680 1739 1739 1739 1739 1731 1722 1722 1722 1722 1722 1713 1713
    1713 1713 1713 1713 1713 1705 1705 1713 1713 1713 1713 1713 1713
    1705 1705 1705 1705 1705 1705 1705 1705 1696 1696 1688 1688 1688
    1688 1680 1680 1680 1739 1739 1739 1739 1731 1722 1722 1722 1722
    1722 1713 1713 1713 1713 1713 1713 1713 1713 1713 1713 1713 1713
    1713 1713 1713 1705 1705 1696 1696 1696 1705 1696 1696 1696 1696
    1688 1688 1688 1688 1688 1688 1688 1739 1739 1739 1739 1731 1722
    1722 1722 1722 1722 1722 1713 1713 1713 1713 1713 1713 1713 1713
    1713 1713 1713 1713 1713 1713 1705 1705 1696 1696 1696 1696 1696
    1688 1688 1696 1696 1688 1688 1688 1688 1688 1688 1748 1748 1739
    1739 1722 1722 1722 1722 1722 1722 1713 1713 1713 1713 1713 1713
    1713 1713 1713 1713 1713 1713 1713 1713 1713 1705 1705 1705 1696
    1696 1696 1688 1688 1688 1688 1688 1688 1688 1688 1688 1688 1688
    1748 1748 1739 1739 1722 1722 1722 1722 1722 1713 1713 1713 1713
    1713 1713 1713 1713 1713 1713 1713 1713 1713 1705 1705 1705 1705
    1705 1705 1705 1696 1696 1688 1688 1688 1688 1688 1688 1688 1688
    1688 1688 1688 1748 1748 1739 1739 1722 1722 1722 1722 1722 1713
    1713 1713 1713 1713 1713 1713 1713 1705 1705 1713 1713 1713 1705
    1705 1705 1705 1705 1705 1705 1696 1696 1688 1688 1688 1688 1688
    1688 1688 1688 1688 1688 1688 1757 1757 1739 1731 1722 1713 1713
    1713 1713 1713 1713 1713 1713 1713 1713 1713 1705 1705 1705 1713
    1713 1713 1705 1705 1705 1705 1705 1705 1705 1696 1696 1696 1696
    1688 1688 1688 1688 1688 1688 1688 1688 1688 4911 1722 1722 1722
    1722 1713 1713 1713 1713 1713 1713 1713 1713 1713 1713 1713 1705
    1705 1705 1713 1713 1713 1713 1713 1713 1705 1705 1705 1705 1705
    1696 1696 1696 1688 1688 1688 1680 1680 1688 1688 1688 1688 4983
    1722 1722 1722 1722 1713 1713 1722 1713 1713 1713 1713 1713 1713
    1713 1713 1713 1713 1713 1713 1713 1713 1713 1713 1713 1705 1705
    1705 1696 1696 1696 1696 1696 1688 1688 1688 1680 1680 1688 1688
    1688 1688 4983 1722 1722 1731 1731 1722 1722 1722 1713 1713 1713
    1713 1713 1713 1713 1713 1713 1713 1713 1713 1713 1713 1713 1713
    1713 1705 1705 1705 1696 1696 1696 1696 1696 1688 1688 1688 1680
    1680 1680 1688 1688 1688 1731 1731 1731 1731 1731 1722 1722 1722
    1713 1713 1713 1713 1713 1713 1705 1705 1705 1705 1713 1713 1713
    1713 1713 1713 1713 1713 1705 1696 1696 1696 1696 1696 1696 1696
    1688 1688 1688 1680 1680 1680 1680 1680 1731 1731 1731 1731 1731
    1731 1722 1722 1713 1713 1713 1713 1713 1705 1705 1705 1705 1705
    1705 1713 1713 1713 1713 1713 1705 1705 1705 1696 1696 1696 1696
    1696 1696 1696 1688 1688 1688 1680 1680 1680 1680 1680 1739 1739
    1739 1739 1722 1722 1722 1722 1713 1713 1713 1713 1713 1705 1705
    1705 1705 1705 1705 1713 1713 1713 1713 1705 1705 1705 1705 1696
    1696 1696 1696 1696 1696 1696 1688 1688 1688 1680 1680 1680 1680
    1680 1739 1739 1739 1739 1722 1722 1722 1722 1713 1713 1713 1713
    1713 1705 1705 1705 1705 1705 1705 1713 1713 1713 1713 1705 1705
    1705 1705 1696 1696 1696 1696 1696 1696 1696 1688 1688 1688 1680
    1680 1680 1680 1680 1739 1739 1739 1739 1722 1722 1722 1722 1713
    1713 1713 1713 1713 1705 1705 1705 1705 1705 1705 1713 1713 1713
    1713 1705 1705 1705 1705 1696 1696 1696 1696 1688 1688 1688 1688
    1688 1680 1680 1680 1680 1680 1680 1748 1748 1739 1731 1731 1722
    1722 1722 1713 1713 1713 1713 1713 1705 1705 1705 1705 1705 1705
    1713 1713 1713 1713 1705 1696 1696 1705 1705 1696 1696 1696 1688
    1688 1688 1688 1688 1680 1680 1680 1680 1680 1680 1748 1748 1739
    1731 1731 1722 1722 1713 1713 1713 1713 1713 1705 1705 1705 1705
    1705 1705 1705 1713 1713 1713 1705 1705 1696 1696 1705 1705 1696
    1696 1688 1688 1688 1688 1688 1688 1680 1680 1680 1680 1680 1680
    1748 1739 1731 1731 1722 1713 1713 1713 1713 1713 1713 1713 1705
    1705 1705 1705 1705 1705 1705 1713 1705 1705 1696 1696 1696 1696
    1705 1705 1696 1688 1688 1688 1688 1688 1688 1688 1688 1680 1680
    1680 1671 1671 1748 1731 1731 1722 1713 1713 1713 1713 1713 1713
    1713 1713 1705 1705 1705 1705 1705 1705 1705 1713 1705 1705 1696
    1696 1696 1696 1696 1696 1696 1688 1688 1688 1688 1688 1688 1688
    1688 1688 1680 1680 1671 1671 1731 1731 1722 1722 1713 1713 1713
    1713 1713 1713 1713 1713 1705 1705 1705 1696 1696 1705 1705 1713
    1705 1705 1696 1696 1696 1696 1696 1696 1688 1688 1688 1688 1688
    1688 1688 1688 1680 1680 1680 1680 1680 1680 1722 1722 1722 1722
    1713 1713 1713 1713 1713 1713 1713 1713 1705 1705 1705 1696 1696
    1705 1705 1713 1705 1705 1696 1696 1696 1688 1688 1688 1688 1688
    1688 1688 1688 1688 1688 1688 1680 1680 1680 1680 1680 1680 1722
    1722 1722 1722 1713 1713 1713 1713 1713 1713 1713 1713 1713 1705
    1705 1696 1696 1696 1696 1705 1705 1705 1696 1696 1688 1688 1688
    1688 1688 1688 1688 1688 1688 1688 1688 1680 1680 1671 1671 1671
    1680 1680 1722 1722 1722 1722 1713 1713 1713 1713 1713 1713 1713
    1713 1713 1705 1705 1696 1696 1688 1688 1696 1696 1696 1696 1696
    1688 1688 1688 1688 1688 1688 1688 1688 1688 1688 1688 1680 1680
    1671 1671 1671 1680 1680 1722 1722 1722 1722 1713 1713 1713 1713
    1713 1713 1713 1713 1713 1705 1705 1705 1696 1688 1688 1696 1696
    1696 1696 1696 1688 1688 1688 1688 1688 1688 1688 1688 1688 1688
    1688 1680 1680 1671 1663 1663 1663 1663 1722 1722 1722 1722 1713
    1713 1713 1713 1713 1705 1705 1705 1705 1705 1705 1705 1696 1688
    1688 1696 1696 1696 1696 1696 1688 1688 1688 1688 1688 1688 1688
    1688 1688 1688 1688 1688 1680 1671 1663 1663 1663 1663 1731 1731
    1731 1722 1722 1713 1713 1713 1713 1705 1705 1705 1705 1705 1705
    1705 1696 1688 1688 1696 1705 1705 1705 1696 1688 1688 1688 1688
    1688 1688 1688 1688 1688 1688 1688 1688 1680 1680 1671 1663 1663
    1663 3859 1731 1731 1731 1722 1713 1713 1713 1705 1705 1705 1705
    1705 1705 1705 1705 1705 1696 1696 1705 1705 1705 1705 1696 1688
    1688 1688 1688 1688 1688 1688 1688 1688 1688 1688 1688 1680 1680
    1671 1663 1663 1663 3816 3774 1739 1739 1722 1713 1713 1713 1705
    1705 1705 1705 1705 1713 1713 1705 1705 1705 1705 1705 1713 1705
    1705 1696 1696 1688 1688 1688 1688 1688 1688 1688 1688 1688 1688
    1688 1680 1680 1671 1663 1663 3433 3774 3732 3732 3692 3692 3692
    1713 1713 1713 1713 1705 1705 1705 1713 1713 1713 1696 1696 1696
    1705 1713 1705 1705 1713 1705 1696 1688 1688 1688 1688 1696 1696
    1688 1688 1688 1688 1680 1680 1671 1671 1671 3433 3774 3732 3732
    3692 3692 3692 3692 3653 3614 3614 3614 3614 1722 1722 1722 1713
    1696 1696 1696 1696 1696 1722 1722 1722 1713 1705 1688 1688 1688
    1696 1696 1696 1688 1688 1688 1671 1671 1680 1680 3468 3433 3433
    3774 3732 3732 3732 3692 3692 3653 3653 3576 3576 3576 3614 1785
    1785 1739 1713 1696 1696 1696 1696 0 0 1731 1731 1722 1713 1713 1688
    1688 1705 1705 3468 3468 1688 1688 1671 1671 3433 3433 3433 3433
    3433 3732 3732 3732 3732 3692 3692 3653 3653 3576 3576 3614 3614
    1776 1748 1748 1748 1748 1757 1776 0 0 1766 1739 1739 1739 1722 1722
    1722 3468 3468 3468 3433 3433 4349 4295 3269 3269 3365 3399 3433
    3399 3399 3732 3732 3732 3732 3692 3692 3653 3653 3614 3614 3614
    1748 1748 1722 1722 1722 1757 1757 1776 1785 1785 1766 1766 1748
    1739 1739 1739 1739 1739 3433 3433 3433 3333 3333 3300 3269 3269
    3333 3365 3399 3399 3399 3732 3732 3732 3692 3692 3692 3653 3653
    3614 3614 1766 1748 1748 1722 1722 1722 1722 1757 1776 1785 1785
    1776 1766 1748 1748 1748 1748 1748 0 3433 3433 3399 3333 3300 3300
    3300 3300 3333 3333 3333 3333 3365 3732 3732 3692 3653 3653 3692
    3653 3653 3614 1757 1757 1757 1757 1722 1713 1713 1713 1731 1766
    1766 1766 1776 1776 1739 1739 1739 1739 1739 0 3433 3433 3365 3333
    3300 3300 3300 3300 3333 3333 3333 3333 3333 3732 3732 3692 3653
    3653 3692 0 3692 0 1757 1757 1748 1739 1722 1713 1713 1713 1722 1739
    1748 1748 1748 1757 1722 1722 1722 1731 1731 0 3365 3365 3365 3333
    3300 3300 3300 3300 3333 3300 3300 3300 3300 0 0 0 3692 3692 0 0 0 0
    1722 1713 1696 1696 1705 1713 1713 1713 1713 1722 1731 1731 1722
    1713 1713 1713 1722 1722 1722 1713 1713 3333 3333 3300 3300 3269
    3269 3269 3333 3208 3208 3208 3238 0 0 0 0 0 0 0 0 0 1696 1696 1688
    1688 1688 1688 1696 1696 1696 1713 1722 1713 1713 1705 1696 1696
    1696 1722 1713 1713 1713 1713 3333 3300 3300 3269 3208 3208 3178
    3178 3178 3178 3178 0 0 0 0 0 0 0 0 0 1696 1696 1688 1688 1688 1688
    1680 1680 1680 1680 1688 1688 1688 1688 1688 1688 1688 1688 1688
    1688 1696 1696 3333 3300 3300 3269 3208 3208 3178 3178 3178 3178
    3178 0 0 0 0 0 0 0 0 0 1688 1688 1688 1688 1688 1688 1680 1680 1680
    1680 1680 1680 1680 1680 1680 1680 1680 1680 1680 1680 1688 1688
    1688 3300 3300 3300 3238 3238 3208 3208 3178 3178 3178 0 0 0 0 0 0 0
    0 0 1680 1680 1688 1688 1688 1680 1680 1680 1680 1680 1680 1680 1680
    1680 1680 1680 1680 1680 1680 1680 1680 1680 1688 3300 3300 3300
    3269 3269 3238 3208 3178 3178 3178 0 0 0 0 0 0 0 0 0 1680 1680 1680
    1680 1680 1680 1680 1680 1680 1680 1680 1680 1680 1680 1680 1680
    1680 1680 1680 1680 1680 1680 1688 1766 3333 3300 3300 3269 3238
    3208 3208 3178 3178 0 0 0 0 0 0 0 0 0 1696 1688 1680 1680 1680 1680
    1680 1680 1680 1680 1680 1680 1680 1680 1680 1680 1680 1680 1680
    1680 1680 1680 1688 1766 1776 1766 1748 1748 3300 3238 3208 3208
    3208 0 0 0 0 0 0 0 0 0 1696 1680 1680 1680 1680 1680 1680 1680 1680
    1680 1680 1680 1680 1680 1680 1680 1680 1680 1680 1680 1680 1680
    1696 1776 1776 1766 1748 1748 1748 1757 3238 3208 3208 0 0 0 0 0 0 0
    0 0 0 1680 1680 1680 1680 1680 1680 1680 1680 1680 1680 1680 1680
    1680 1680 1680 1680 1680 1680 1680 1671 1671 1776 1785 1785 1776
    1757 1748 1748 1757 1757 3238 3208 0 0 0 0 0 0 0 0 0 0 0 1680 1680
    1680 1680 1688 1688 1688 1688 1688 1688 1688 1688 1688 1680 1680
    1680 1680 1680 1671 1671 1785 1785 1785 1776 1757 1757 1757 1757
    1757 1757 3208 0 0 0 0 0 0 0 0 0 0 0 0 0 1688 1688 1696 1696 1688
    1688 1688 1688 1688 1688 1688 1688 1688 1688 1688 1776 1776 1776
    1785 1785 1785 1776 1766 1766 1757 1757 1757 1757 0</data></Depth7291>
</opencv_storage>
