<?xml version="1.0"?>
<opencv_storage>
<Depth16655 type_id="opencv-matrix">
  <rows>150</rows>
  <cols>63</cols>
  <dt>w</dt>
  <data>
    2184 2156 2156 2156 2156 2156 835 835 837 837 837 837 839 2156 2156
    2156 2156 2156 2170 2170 2198 860 860 2212 2212 2212 2212 2226 2226
    2226 2241 2241 2241 2256 2286 2286 2286 2301 2317 2349 2349 2349
    2333 2333 2333 2333 2333 2333 2333 2333 2349 2984 2984 2984 2984
    2958 2958 2933 2933 2933 2933 2933 2908 2184 2184 2156 2156 2156 835
    835 835 837 837 837 839 839 856 862 862 862 864 864 864 864 860 860
    867 873 873 875 2226 2226 2226 2241 2241 2241 2256 2286 2286 2286
    2286 2301 2349 2349 2333 2333 2333 2317 2317 2333 2333 2333 2333
    2349 2984 2984 2984 2984 2958 2958 2933 2933 2933 2933 2933 2908
    2184 2184 2170 2170 2170 835 835 835 837 839 839 839 839 856 858 860
    860 862 862 864 862 862 862 862 867 869 869 871 862 860 860 860 2271
    2271 2286 2286 2286 2286 2301 2349 2349 2333 2333 2333 2317 2317
    2317 2333 2333 2333 2984 2984 2984 2984 2984 2958 2958 2933 2933
    2933 2933 2908 2908 2198 847 847 2198 847 835 835 835 837 839 839
    839 839 849 854 858 858 858 858 860 858 858 858 858 860 862 862 871
    860 860 858 858 0 0 0 0 0 0 0 0 2349 2333 2333 2333 2333 2317 2317
    2317 2333 2333 2349 2984 3010 2984 2984 2984 2958 2958 2933 2933
    2933 2908 2908 847 847 845 845 847 841 839 839 839 839 839 841 845
    847 847 854 854 851 845 845 843 843 851 856 856 851 849 849 860 860
    858 858 0 0 0 0 0 0 0 0 0 2333 2333 2333 2317 2317 2317 2317 2333
    2333 2349 3010 3010 2984 2984 2984 2958 2958 2958 2958 2933 2933
    2908 845 845 845 845 849 854 841 839 839 839 839 841 845 843 843 845
    845 847 845 843 843 843 843 847 847 851 849 849 0 0 0 0 0 0 0 0 0 0
    0 0 0 0 2333 2333 2317 2317 2317 2317 2333 2333 2365 3010 3010 2984
    2984 2984 2984 2958 2958 2958 2933 2933 2908 845 845 845 845 851 851
    809 781 781 845 845 845 845 843 839 839 839 847 880 843 841 837 833
    833 833 833 0 0 0 0 0 0 0 0 0 0 0 0 0 0 0 0 2349 2333 2333 2333 2317
    2317 2333 2333 3010 2984 2984 2984 2984 2984 2984 2984 2984 2958
    2958 2933 2908 0 835 825 825 809 809 809 781 781 781 761 755 833 833
    833 833 839 885 880 878 841 837 833 833 833 833 0 0 0 0 0 0 0 0 0 0
    0 0 0 0 0 0 0 0 2349 2333 2333 2333 2333 2333 3010 2984 2984 2984
    2984 2984 2984 2984 2984 2958 2933 2908 2908 835 833 825 825 809 805
    785 781 781 781 761 755 755 833 833 833 889 885 880 878 875 875 0 0
    0 0 0 0 0 0 0 0 0 0 0 0 0 0 0 0 0 0 0 0 0 0 0 0 2984 2984 2984 2984
    2984 2984 2984 2984 2984 2984 2958 2958 2933 2908 2908 835 833 829
    829 809 805 785 781 781 764 761 755 755 755 754 754 885 885 885 885
    0 0 0 0 0 0 0 0 0 0 0 0 0 0 0 0 0 0 0 0 0 0 0 0 0 0 0 0 708 707 707
    706 706 2984 2984 2984 2984 2984 2958 2958 0 2958 0 839 835 829 829
    809 805 785 780 776 764 761 755 754 754 754 747 0 727 0 0 0 0 0 0 0
    0 0 0 0 0 0 0 0 0 0 0 0 0 0 0 0 0 0 0 0 0 0 0 708 708 707 706 706
    706 707 711 711 3010 3010 0 0 0 0 839 835 831 829 809 805 785 778
    773 767 764 761 754 747 747 747 727 727 0 0 0 0 0 0 0 0 0 0 0 0 0 0
    0 0 0 0 0 0 0 0 0 0 0 0 0 0 734 734 708 708 707 706 706 706 707 711
    711 711 0 710 0 0 0 841 839 833 827 813 807 802 778 773 767 764 759
    744 738 730 727 727 727 0 0 0 0 0 0 0 0 0 0 0 0 0 0 0 0 0 0 0 0 0 0
    0 0 0 0 736 734 734 0 0 708 707 707 707 707 708 710 710 710 710 0 0
    0 0 841 839 833 825 815 809 802 780 771 767 762 757 744 738 728 725
    722 722 700 697 696 696 0 0 0 0 0 0 0 0 0 0 0 0 0 0 0 0 0 0 0 0 0 0
    736 728 728 728 727 710 708 707 707 708 708 710 708 708 0 0 0 0 0
    843 839 833 823 817 811 796 780 769 767 762 757 750 742 728 725 722
    714 700 697 696 696 0 0 0 0 0 0 0 0 0 0 0 0 0 0 0 0 0 0 0 0 0 0 0
    725 725 727 725 722 714 710 708 707 707 707 704 704 704 704 0 0 0
    843 841 835 823 815 811 796 781 769 767 762 757 750 744 728 725 722
    714 701 698 698 698 678 676 676 0 0 0 0 0 0 670 670 670 675 0 0 0 0
    0 0 0 0 720 720 722 720 720 720 720 720 714 703 703 704 704 704 704
    704 704 708 711 0 843 841 837 823 815 809 798 792 773 767 762 759
    752 744 730 727 722 716 703 701 701 680 678 676 676 667 666 666 666
    667 668 668 670 670 671 671 672 674 674 676 0 682 682 682 686 686
    686 687 690 693 693 697 697 698 703 703 704 704 706 707 708 710 711
    845 843 837 825 815 809 800 794 773 767 764 761 755 744 730 727 722
    717 703 701 701 679 676 675 672 667 664 664 664 666 667 668 670 670
    671 671 672 674 674 676 680 680 682 682 684 686 686 687 690 691 693
    696 697 697 700 703 703 704 706 707 708 710 711 847 845 837 829 817
    805 800 796 789 767 764 759 755 754 730 727 722 719 701 700 700 678
    675 672 671 666 664 664 664 666 667 668 670 670 671 672 674 675 675
    678 680 680 682 682 684 686 687 688 690 691 696 696 697 697 700 703
    703 704 706 707 710 710 711 847 845 835 829 819 805 800 794 789 781
    764 759 754 754 728 727 722 720 701 698 697 678 674 671 671 666 664
    664 664 666 667 668 670 670 671 672 674 675 676 679 680 682 682 684
    686 686 687 688 690 693 696 696 697 697 701 703 703 704 706 708 710
    710 711 849 845 835 829 821 805 800 790 785 780 766 759 754 750 728
    727 723 720 720 698 697 697 671 671 671 666 666 664 664 666 667 668
    670 671 671 674 675 676 678 679 680 682 683 684 686 687 688 690 691
    696 696 696 697 698 701 703 704 704 707 710 711 711 713 849 845 837
    831 821 807 798 790 783 778 767 759 754 750 730 728 723 720 719 698
    697 697 671 671 671 666 666 666 666 666 667 668 671 671 674 675 675
    678 679 680 680 682 684 686 687 687 688 691 693 696 696 697 698 701
    703 706 707 708 708 711 713 713 714 849 845 839 833 821 807 798 790
    783 776 769 761 754 752 731 728 725 720 716 701 697 697 697 671 670
    666 666 666 666 666 668 670 672 672 674 675 676 679 680 682 682 683
    686 687 687 688 690 691 693 697 697 698 698 703 704 707 708 710 710
    711 713 714 714 849 845 841 835 827 807 800 794 785 776 769 762 755
    752 733 730 727 722 710 701 698 696 696 670 668 666 666 666 666 667
    670 671 672 672 674 676 678 679 680 683 683 686 687 687 688 690 691
    693 693 696 697 698 698 703 704 707 708 710 710 711 713 714 716 849
    847 843 837 827 817 803 796 785 776 771 764 757 754 734 731 728 725
    710 703 698 696 694 670 666 666 666 666 666 667 671 671 674 674 675
    676 679 680 682 683 684 686 687 687 688 691 691 693 696 696 698 700
    700 703 706 708 708 710 710 711 714 716 716 851 849 841 837 827 819
    805 798 785 778 773 766 757 754 734 731 728 725 708 701 698 694 693
    693 666 666 666 666 667 670 671 672 674 675 676 678 679 680 682 684
    686 686 687 687 690 691 693 693 696 696 698 700 701 704 707 708 710
    710 710 713 714 716 717 851 849 841 837 827 821 805 800 787 778 773
    767 759 754 734 731 728 725 708 701 698 694 691 691 666 666 667 667
    668 670 671 674 675 675 676 678 679 680 683 686 686 687 687 687 690
    691 693 694 696 698 700 701 703 706 707 708 710 710 711 713 714 717
    719 851 849 843 837 827 821 803 798 789 780 774 769 759 752 736 731
    728 725 710 704 700 696 691 690 670 670 668 668 670 670 672 675 676
    676 676 678 680 680 683 686 687 687 688 688 691 691 693 694 697 698
    701 703 706 707 708 710 710 710 713 714 716 717 720 856 849 843 837
    829 821 803 798 789 781 776 769 759 752 736 733 728 723 710 704 701
    697 691 688 670 670 670 670 670 671 672 675 676 676 678 679 680 682
    683 686 687 687 688 690 691 693 694 696 697 700 701 703 707 708 708
    710 710 711 714 716 717 717 720 856 851 843 839 829 821 807 798 787
    781 776 769 759 754 736 734 728 723 711 704 703 698 691 687 670 670
    670 670 671 672 674 676 676 678 679 680 680 682 683 686 687 688 690
    690 691 694 696 697 698 701 703 703 707 708 708 710 710 713 716 717
    719 719 720 858 854 841 837 833 825 815 807 787 781 778 766 761 755
    736 734 730 723 719 706 704 698 691 666 666 670 671 671 672 674 675
    676 678 678 679 680 682 682 684 686 687 688 690 691 693 694 697 698
    698 701 703 704 707 708 710 710 711 714 717 719 720 719 719 860 854
    841 837 833 827 813 807 789 785 778 766 761 761 736 736 733 723 719
    708 704 698 691 666 666 670 671 671 672 675 675 676 678 679 680 680
    682 683 684 686 687 688 691 691 693 696 697 700 700 703 703 704 708
    708 710 711 713 714 717 719 720 719 719 862 856 843 837 833 827 813
    807 802 783 778 766 762 762 739 738 734 723 719 708 704 698 693 691
    670 670 672 672 674 675 676 676 676 679 680 682 682 683 684 686 688
    690 691 693 693 697 698 700 701 703 703 704 708 710 711 713 713 714
    717 719 720 720 720 858 854 843 837 833 823 815 807 803 783 778 766
    764 761 739 738 734 730 719 706 703 700 694 691 679 675 675 675 675
    675 676 676 676 680 680 682 683 684 686 687 690 691 693 693 694 697
    698 701 701 703 704 706 708 710 713 713 714 714 717 720 720 720 720
    858 854 849 841 833 823 817 807 803 783 780 766 766 761 741 738 734
    730 720 706 703 700 696 693 678 675 675 675 675 675 676 676 679 682
    682 684 684 686 687 688 690 691 693 694 694 697 698 701 701 703 704
    708 708 711 713 713 714 716 717 720 722 722 722 858 851 849 847 833
    825 817 807 800 785 781 774 766 761 741 738 736 731 722 710 703 700
    696 693 678 675 675 675 675 676 676 678 680 682 683 684 686 687 688
    690 691 693 694 696 697 698 700 701 703 703 704 708 710 711 713 713
    716 717 719 720 722 722 722 0 851 849 847 841 825 819 807 800 787
    781 774 766 761 761 738 734 731 727 713 704 700 697 693 676 675 675
    675 676 676 678 680 682 682 683 686 687 687 690 691 693 694 696 697
    698 698 701 703 703 704 706 708 710 711 713 714 716 717 720 722 722
    722 722 0 851 851 847 841 825 815 807 802 789 783 774 766 761 761
    739 734 731 719 714 704 700 697 694 676 675 675 676 676 676 678 680
    682 683 683 686 687 688 690 691 693 696 697 697 698 700 703 703 704
    704 708 710 711 713 713 716 717 719 720 722 723 723 723 0 854 849
    845 839 829 815 807 802 794 785 774 766 764 764 741 736 731 719 714
    707 700 697 696 676 675 675 676 676 678 680 682 682 684 684 686 687
    690 691 691 693 696 697 697 698 700 703 704 704 706 708 710 713 713
    714 717 719 720 720 722 723 725 725 0 860 849 845 837 829 817 811
    802 794 785 778 766 764 747 742 739 730 720 714 707 701 698 696 678
    676 676 676 676 678 682 682 683 684 686 686 688 691 693 693 694 696
    697 698 700 703 704 704 706 707 710 711 713 713 714 717 720 720 722
    723 725 727 728 0 860 851 847 837 831 819 813 807 792 785 778 771
    767 747 742 739 730 720 716 708 703 700 697 679 678 676 676 678 679
    680 682 684 686 686 687 688 691 693 693 694 697 697 698 701 703 704
    706 706 707 710 713 713 714 714 717 720 722 722 723 727 728 730 869
    860 851 847 845 833 819 815 809 792 785 780 780 780 747 744 741 733
    720 716 710 704 701 698 682 679 679 679 679 679 680 682 684 686 686
    687 690 693 693 694 696 697 697 701 703 703 704 706 708 710 711 713
    714 714 717 720 720 722 723 725 727 728 730 869 864 854 849 845 827
    821 817 811 794 790 785 785 785 747 744 741 725 720 717 713 706 703
    698 682 680 679 679 680 680 682 684 686 687 687 690 691 693 693 696
    697 698 700 701 703 704 704 706 708 710 713 713 714 714 720 720 722
    722 723 727 728 730 730 871 867 856 849 845 825 821 817 803 792 790
    785 776 776 747 744 741 725 720 717 714 706 703 698 680 680 680 680
    680 680 682 684 687 687 688 691 691 693 694 696 697 698 700 701 703
    704 704 706 708 713 713 714 714 714 720 720 722 723 725 727 728 730
    731 871 867 860 851 845 823 821 811 803 792 790 785 776 749 747 746
    742 727 722 717 714 706 703 698 680 680 680 680 680 680 682 684 687
    688 690 691 693 694 696 697 698 698 701 703 703 704 706 707 708 713
    713 714 714 716 720 722 722 723 725 728 730 731 731 871 867 860 854
    847 823 821 811 802 794 790 785 776 749 749 746 742 728 725 717 716
    710 701 697 682 680 680 680 680 682 683 686 687 688 691 691 693 694
    696 697 698 700 701 703 704 704 706 707 708 713 713 714 716 717 720
    722 723 725 727 728 730 731 731 0 867 860 856 851 825 823 817 802
    796 792 785 776 750 749 747 742 728 725 722 716 710 701 697 688 682
    680 680 680 682 684 687 688 690 691 691 694 696 697 698 698 700 703
    704 704 706 707 708 710 713 714 714 716 720 720 722 723 725 727 728
    731 731 0 0 867 862 858 856 827 823 817 803 798 794 789 778 773 752
    749 744 728 727 722 717 710 706 698 688 682 682 682 682 683 686 687
    690 691 691 693 694 696 697 698 700 701 703 704 704 706 708 710 711
    713 714 716 717 720 722 723 725 727 727 730 731 731 0 0 869 864 860
    854 829 825 817 803 800 794 789 778 773 754 750 746 736 727 722 717
    710 706 701 686 682 682 682 682 683 686 688 690 691 693 693 694 696
    697 698 700 703 704 704 706 707 708 710 713 714 716 717 719 722 723
    725 727 727 728 730 731 731 733 882 875 864 860 854 835 825 817 805
    800 794 789 776 773 754 750 746 739 728 722 717 711 706 703 686 683
    683 683 683 686 687 688 691 693 693 694 696 697 697 700 701 703 704
    704 707 708 710 710 713 714 716 717 720 722 723 725 727 728 728 731
    733 733 733 882 875 867 858 851 841 825 817 807 802 798 787 776 773
    754 752 747 739 728 723 717 711 706 703 688 686 684 684 686 686 687
    691 691 693 693 696 696 697 698 700 703 703 704 706 707 708 710 711
    714 714 717 719 720 722 725 727 727 728 728 731 733 733 734 880 875
    875 858 851 845 825 819 811 803 800 787 776 774 754 752 747 741 736
    723 716 711 706 703 688 686 686 686 686 687 688 691 693 693 694 696
    697 698 698 701 703 704 704 706 708 708 710 713 714 716 719 720 720
    723 727 727 728 728 730 733 734 734 734 880 878 875 858 849 845 825
    821 813 803 800 789 783 780 754 752 749 742 738 723 716 711 707 704
    688 687 686 686 687 687 690 691 693 694 694 696 697 698 700 703 704
    706 707 708 708 710 711 714 714 716 719 720 722 725 727 727 728 730
    731 733 734 734 736 880 878 875 875 849 845 827 821 815 805 800 790
    783 783 755 754 750 742 738 723 716 711 708 706 690 687 687 687 687
    688 690 691 693 694 696 697 697 698 700 703 704 707 708 710 710 713
    714 714 716 719 720 720 723 725 727 728 730 733 733 734 734 736 0
    880 875 875 871 851 843 827 823 815 803 798 792 783 783 759 754 752
    742 738 723 720 714 708 706 688 687 687 687 687 688 690 693 694 696
    697 697 698 698 701 703 706 707 708 710 711 713 714 716 717 719 720
    722 727 727 727 728 731 733 734 734 736 736 739 882 875 873 871 851
    843 827 823 815 803 798 794 781 781 761 755 752 744 738 727 720 714
    710 688 688 687 687 687 687 688 691 693 694 696 697 698 698 700 703
    704 707 708 708 710 711 714 714 717 719 720 720 722 727 727 728 730
    733 734 736 736 738 739 739 882 875 873 867 856 843 829 825 817 803
    798 794 781 781 761 755 752 747 739 727 722 716 711 688 688 688 687
    687 688 690 691 693 694 696 697 698 700 701 703 704 707 708 708 710
    711 714 714 717 719 720 722 722 728 728 730 730 733 734 736 738 739
    739 739 882 875 873 867 856 847 829 825 819 805 800 794 781 781 761
    755 752 747 741 727 720 716 711 710 688 688 688 688 690 691 693 694
    696 697 698 700 703 703 704 706 708 708 710 711 713 714 716 719 720
    720 722 727 728 730 730 730 733 734 736 739 739 741 741 882 878 873
    867 856 847 841 825 817 807 800 794 781 781 761 757 754 747 742 730
    720 716 711 710 690 690 690 690 691 691 693 694 696 697 700 701 703
    704 704 707 708 710 710 713 714 716 717 719 720 722 722 727 728 730
    730 731 734 734 738 739 741 741 0 880 875 873 867 858 849 841 825
    815 809 805 794 785 785 761 757 754 749 742 730 720 716 711 710 708
    691 691 691 691 693 693 696 697 698 700 701 703 704 706 707 708 710
    711 713 716 716 719 720 720 722 725 728 728 730 730 731 734 738 739
    739 741 741 0 880 875 873 871 860 849 843 825 815 809 803 796 789
    785 761 759 755 752 744 727 720 717 714 710 708 693 691 691 693 693
    694 697 698 698 700 703 704 706 707 708 710 710 711 714 716 717 719
    720 722 723 727 728 730 730 731 733 736 738 741 741 741 741 0 882
    880 875 869 862 849 837 829 815 809 803 798 789 785 761 759 757 754
    736 727 722 719 716 710 707 693 693 693 693 693 694 697 700 700 701
    703 704 706 708 708 710 711 713 714 716 719 719 720 722 725 727 730
    730 730 733 733 736 739 741 741 741 741 0 891 889 885 869 862 849
    837 829 817 809 803 798 790 785 761 759 757 754 736 728 722 719 716
    710 707 694 693 693 693 694 696 698 700 700 701 703 706 707 708 710
    710 713 714 716 717 719 720 722 723 727 727 730 730 731 733 734 738
    739 741 741 742 742 746 894 891 889 869 862 851 841 833 823 809 803
    798 789 785 785 757 757 754 738 728 722 720 716 713 707 694 693 693
    693 694 696 698 700 701 703 704 707 707 708 710 711 713 714 716 717
    720 720 722 723 727 728 730 730 731 733 734 738 739 741 742 744 746
    746 896 889 885 871 860 851 841 833 825 817 807 800 789 785 785 757
    755 754 738 731 723 719 716 713 707 694 694 694 694 696 697 698 700
    701 703 706 707 708 710 711 713 714 716 717 719 720 720 722 725 727
    730 730 731 733 734 736 738 739 741 744 746 746 746 0 889 885 873
    860 851 841 837 829 817 805 800 790 785 785 759 755 754 746 731 723
    719 716 713 708 698 694 694 696 697 697 698 700 701 703 706 708 708
    710 711 714 714 716 717 720 720 722 723 725 727 730 730 733 734 736
    738 739 741 742 746 746 747 747 0 891 880 873 860 851 843 837 829
    817 805 803 792 789 787 759 757 754 746 734 728 720 716 713 708 698
    696 696 697 697 698 700 701 703 704 707 708 708 710 713 714 716 716
    719 720 720 722 723 727 727 730 731 733 734 738 739 739 742 746 747
    747 747 747 0 891 875 871 864 851 843 837 829 815 807 803 798 790
    773 761 757 752 746 738 733 720 716 714 710 698 697 697 697 698 700
    701 703 703 704 707 708 708 710 713 714 716 717 719 720 722 723 725
    727 728 730 733 734 736 739 739 741 744 746 747 747 749 750 0 891
    875 871 864 860 847 839 831 815 807 803 800 789 773 764 759 752 744
    741 733 722 716 714 710 698 697 697 698 700 701 703 703 704 704 707
    708 710 713 713 714 716 717 719 720 722 723 725 728 728 731 733 734
    736 739 741 742 746 747 747 749 750 752 0 894 878 871 867 862 847
    835 827 817 809 803 800 789 774 767 762 752 744 741 734 727 719 714
    710 698 697 697 698 701 701 703 703 704 706 708 708 711 713 714 716
    719 720 720 722 723 725 727 728 730 733 733 734 736 739 741 744 746
    747 747 750 752 752 901 896 882 873 867 864 847 835 827 819 813 803
    798 789 776 767 762 754 744 741 734 727 719 716 710 698 698 698 700
    701 703 704 704 706 706 708 710 711 714 714 716 719 720 722 722 725
    727 728 730 731 733 734 736 738 739 741 744 746 747 749 749 750 752
    901 898 887 878 869 864 845 839 831 819 813 803 798 789 776 769 762
    755 744 741 734 727 722 717 710 700 698 698 700 701 703 704 704 707
    708 710 711 713 714 716 717 719 720 722 723 725 728 728 730 731 734
    736 738 739 741 742 746 747 747 749 749 750 752 901 898 887 882 875
    851 845 839 829 821 815 809 800 789 776 769 764 757 744 741 734 728
    722 720 703 700 698 698 700 701 703 704 707 708 708 710 711 713 714
    716 719 720 720 722 723 727 728 730 731 733 734 736 738 741 742 744
    746 747 750 750 750 752 0 901 898 889 885 878 851 845 841 829 821
    815 811 800 789 776 771 766 759 744 739 734 728 723 720 701 700 700
    700 701 703 704 706 707 708 710 710 711 713 716 716 719 720 722 722
    725 727 728 730 731 734 734 738 739 741 744 746 747 747 750 752 752
    0 0 903 898 891 885 875 864 847 843 837 821 815 811 800 790 776 773
    769 762 744 739 734 728 723 722 701 701 701 701 701 703 704 706 708
    710 710 711 713 714 716 717 719 720 722 723 725 727 728 730 733 734
    736 738 739 742 744 746 747 750 752 752 752 0 0 906 901 894 885 875
    867 849 845 837 821 815 811 798 792 785 773 769 762 746 741 734 728
    725 722 704 703 703 703 703 704 706 707 710 710 710 711 713 714 716
    717 720 722 723 725 727 727 728 731 733 734 738 739 739 742 746 747
    747 750 752 752 754 0 0 906 901 896 885 878 871 849 845 839 821 815
    811 798 792 785 773 769 766 746 741 734 730 727 723 704 704 703 703
    704 704 706 707 710 710 711 713 714 716 717 719 720 722 723 725 727
    728 730 731 733 736 738 739 741 744 746 747 747 750 752 752 754 0 0
    903 898 896 887 880 873 849 845 839 825 821 811 798 794 789 773 769
    766 759 741 736 730 727 723 706 704 703 703 704 704 707 708 710 710
    711 714 714 716 717 720 722 723 725 727 728 728 731 733 734 736 739
    741 744 746 746 747 747 752 752 754 755 0 0 903 896 891 889 882 851
    849 845 839 827 823 813 798 794 789 774 769 766 761 742 738 731 728
    723 706 704 704 704 704 704 707 708 710 710 713 714 716 716 719 720
    722 725 727 728 728 730 731 733 736 738 739 741 744 746 747 747 747
    752 754 755 755 759 0 896 896 891 889 885 851 849 845 839 829 821
    815 800 794 781 774 769 766 761 742 739 734 730 723 706 704 704 704
    704 706 708 710 710 711 713 714 716 717 720 722 723 725 727 728 728
    730 733 734 738 739 741 741 744 746 747 747 749 754 755 757 757 759
    0 896 896 891 889 885 880 851 845 841 831 821 813 802 796 781 776
    771 766 761 742 739 734 730 723 707 706 704 704 706 707 708 710 711
    713 714 716 716 719 720 722 723 725 727 728 730 730 733 736 739 739
    741 742 746 747 747 749 752 754 755 757 759 759 0 0 896 891 889 885
    880 851 847 845 839 821 807 807 798 781 776 773 769 764 742 739 734
    731 725 707 706 706 706 707 708 708 710 713 713 714 716 717 719 720
    722 723 727 727 728 730 731 734 736 739 741 741 744 747 747 747 750
    754 755 757 759 759 759 0 0 903 894 889 887 880 851 847 845 835 825
    807 807 802 781 778 774 771 764 746 738 734 733 728 707 706 706 706
    707 708 710 711 713 714 714 716 719 720 722 722 723 727 728 730 731
    733 734 738 739 741 742 746 747 747 749 750 754 755 759 761 761 761
    762 0 903 896 891 889 882 867 849 847 835 823 817 807 802 783 778
    774 771 764 746 738 736 733 730 710 707 707 707 708 708 710 711 714
    714 716 717 720 720 722 723 725 727 728 730 733 734 734 738 739 741
    742 746 747 747 749 750 754 757 759 761 762 762 762 0 903 896 894
    891 882 862 851 849 831 823 817 813 802 783 778 774 771 757 744 739
    738 734 730 725 710 710 710 710 710 710 711 714 714 717 719 720 722
    722 723 727 727 730 731 733 734 736 738 739 742 744 747 747 749 749
    752 755 759 759 761 762 764 764 915 910 898 894 891 882 862 854 849
    831 821 817 815 809 785 780 778 773 757 744 741 738 734 731 725 711
    710 710 710 710 711 714 714 716 719 720 722 722 723 725 727 728 731
    733 734 736 738 739 741 742 744 747 747 749 750 752 755 759 761 762
    764 764 766 915 910 901 896 891 880 862 854 849 845 821 817 815 803
    785 780 778 771 759 747 741 739 734 731 725 711 710 710 710 711 713
    714 716 717 720 720 722 723 725 727 728 730 733 733 734 736 738 739
    741 742 746 747 747 749 750 755 757 759 761 762 764 766 0 918 913
    903 898 891 880 862 851 847 837 825 821 805 803 789 781 780 771 759
    747 742 739 734 731 727 711 710 710 710 711 713 714 716 717 720 720
    722 723 727 728 728 730 733 734 736 739 739 741 741 744 746 747 747
    749 752 755 759 761 761 762 764 766 0 918 910 906 898 891 878 862
    851 845 835 829 823 805 803 798 783 781 773 759 754 744 741 734 731
    727 711 711 711 711 713 714 716 717 719 720 722 722 725 727 728 730
    731 733 734 738 739 741 741 742 746 747 747 750 752 755 757 759 761
    762 764 766 769 0 0 910 906 898 891 875 864 851 845 835 831 827 807
    803 803 783 781 773 759 755 747 741 734 731 727 711 711 711 711 713
    714 716 719 720 720 722 723 725 727 728 730 731 733 734 738 739 741
    741 742 747 749 750 752 754 755 759 761 762 764 766 766 769 0 0 0
    906 898 894 875 871 856 847 837 833 827 819 803 803 785 781 764 759
    755 749 742 734 731 727 716 713 713 713 714 716 717 719 720 722 723
    725 727 727 728 731 733 734 736 738 739 741 741 744 747 750 750 752
    754 759 759 761 764 766 766 766 0 0 0 913 906 898 894 875 871 858
    847 837 833 827 817 805 805 783 781 764 759 755 749 742 734 731 727
    714 714 714 714 716 716 719 720 722 723 725 727 727 728 730 733 733
    734 736 739 741 742 742 746 749 750 752 754 755 759 761 761 764 766
    766 766 0 0 0 913 908 901 894 875 869 860 849 841 837 829 817 811
    811 783 781 766 761 755 749 741 734 731 728 714 714 714 714 716 717
    719 720 722 725 725 727 727 728 731 733 734 734 738 739 741 742 744
    747 750 752 754 754 757 759 761 762 764 766 766 766 0 0 0 918 910
    903 894 875 869 860 847 841 837 831 817 811 807 807 781 766 761 757
    750 741 734 731 728 716 714 714 716 717 719 720 722 723 725 727 727
    728 730 731 734 734 736 739 741 741 744 746 749 750 752 754 755 757
    759 761 762 764 766 766 767 771 0 0 918 910 903 896 875 869 862 847
    841 837 831 817 811 807 807 781 774 764 759 755 741 734 733 728 716
    716 716 716 717 719 720 722 723 723 727 727 728 731 733 734 734 738
    739 741 742 746 747 749 750 752 754 755 757 761 762 764 766 767 767
    769 771 0 0 920 910 903 896 875 869 862 847 841 837 831 819 809 802
    792 781 774 764 761 755 755 736 734 730 717 716 716 716 717 720 722
    722 723 723 727 728 730 731 733 734 736 738 739 741 742 746 747 749
    750 752 754 755 759 761 762 766 767 769 771 771 0 0 0 920 910 903
    894 875 869 862 851 843 837 831 819 809 802 790 785 776 766 761 757
    757 736 734 733 717 716 716 717 717 720 722 723 725 727 727 728 730
    731 733 734 738 738 739 742 746 746 747 749 750 752 754 757 761 761
    764 766 767 771 773 773 0 0 0 0 913 906 894 878 871 862 854 843 839
    831 813 809 800 790 785 778 764 761 757 752 738 734 725 719 717 717
    717 719 720 722 723 727 727 728 730 731 733 733 736 738 739 741 744
    746 747 747 749 752 754 754 757 761 762 766 767 767 773 773 773 0 0
    0 0 910 906 898 887 869 864 858 845 839 831 813 809 800 792 787 780
    764 761 757 752 739 736 725 720 719 719 719 719 720 723 725 727 728
    730 731 733 733 734 736 739 741 742 744 746 747 749 749 752 754 755
    757 762 762 766 767 769 773 773 774 0 0 0 0 910 906 901 887 869 864
    860 854 841 833 815 811 807 792 787 780 766 761 757 750 741 736 723
    720 720 720 720 720 722 725 727 728 728 730 731 733 734 734 738 739
    741 742 746 747 747 749 750 754 755 757 759 764 766 767 767 769 773
    774 774 0 0 0 0 913 908 903 887 871 867 860 854 841 833 817 813 807
    794 790 781 774 764 757 750 744 739 723 720 720 720 720 722 723 725
    727 728 728 731 733 734 734 736 739 739 741 744 746 747 749 750 752
    754 755 757 761 766 766 767 767 773 774 774 774 0 0 0 0 0 908 901
    887 873 867 860 854 845 827 817 813 807 794 789 781 774 766 757 750
    747 742 723 722 720 720 720 722 723 725 727 728 730 731 733 734 736
    738 739 741 742 744 746 747 749 752 754 755 757 761 762 766 767 767
    767 773 774 774 774 0 0 0 0 0 910 901 889 875 869 860 851 847 827
    817 811 807 794 789 783 778 764 759 752 747 742 725 722 722 722 722
    722 723 725 728 730 731 733 733 734 736 739 739 741 742 746 747 747
    750 754 754 755 759 761 764 766 767 767 767 773 774 776 776 0 0 0 0
    0 0 901 889 875 871 862 851 845 839 817 811 811 796 790 785 780 762
    759 754 749 742 725 723 722 722 722 723 725 727 728 731 733 734 734
    734 738 739 741 742 744 746 747 749 750 754 755 757 759 762 766 767
    767 767 769 773 774 776 0 0 0 0 0 0 0 901 891 878 871 864 849 843
    839 821 815 807 796 789 785 780 762 759 754 749 742 728 723 723 723
    723 723 725 727 730 733 733 734 736 738 739 739 742 746 747 747 749
    750 752 754 755 759 761 762 766 767 767 767 769 774 776 778 0 0 0 0
    0 0 0 0 896 878 873 869 847 841 839 827 817 805 796 789 785 781 764
    759 754 749 744 728 723 723 723 723 725 727 728 730 733 734 734 738
    738 739 741 742 746 747 749 750 752 752 754 757 759 761 762 767 767
    767 769 773 776 776 780 780 0 0 0 0 0 0 0 0 885 875 869 847 841 839
    825 817 805 798 792 787 781 764 759 754 749 746 728 723 723 723 725
    727 727 728 731 733 734 736 738 739 741 742 744 746 747 749 750 752
    754 755 757 759 761 764 767 767 767 771 774 776 778 780 780 0 0 0 0
    0 0 0 0 880 875 867 858 841 839 825 817 809 798 794 789 781 766 761
    754 749 746 741 727 725 725 727 727 728 730 733 734 734 736 738 739
    741 742 744 746 747 749 752 754 754 757 759 761 762 766 767 767 769
    773 776 780 780 780 0 0 1134 0 0 0 0 0 0 880 875 867 858 841 839 823
    817 811 800 794 789 773 766 761 754 749 746 741 728 727 727 727 728
    728 733 733 734 734 736 738 739 742 744 744 747 749 750 752 754 755
    759 761 762 764 767 767 767 769 773 778 780 780 780 0 0 1134 0 0 0 0
    0 0 880 878 869 860 858 827 823 819 815 802 794 789 773 766 761 755
    749 746 741 733 728 728 728 728 730 733 734 734 734 738 739 741 742
    744 746 747 749 752 752 754 757 759 761 764 766 767 767 767 771 774
    778 780 781 781 781 1134 1134 0 0 0 0 0 875 875 871 867 862 858 827
    823 821 817 802 794 789 780 767 762 755 750 746 741 733 728 728 728
    728 731 733 734 734 736 738 739 741 742 744 746 749 750 752 754 755
    759 761 762 766 766 767 767 769 773 778 780 781 781 781 781 1130
    1130 0 0 0 0 0 875 875 871 867 862 851 851 825 823 817 817 794 790
    783 771 764 755 749 746 744 734 728 728 728 730 731 733 734 736 738
    739 741 741 744 746 747 750 752 754 754 755 759 761 762 766 766 767
    769 771 773 780 780 781 781 781 781 1123 1123 2005 0 0 0 0 0 0 869
    867 860 851 845 827 823 819 813 798 792 785 771 764 762 749 746 744
    741 728 728 728 730 733 734 736 738 739 739 741 744 746 747 747 750
    752 754 755 757 759 762 764 766 767 767 769 771 774 780 780 781 783
    783 783 1115 1115 1981 1981 0 0 0 0 0 869 867 860 860 843 827 821
    819 811 800 794 785 774 766 761 752 747 746 741 730 728 728 731 733
    736 738 738 739 741 742 746 747 747 749 752 752 754 755 757 761 762
    766 766 767 769 771 773 774 780 781 783 785 787 787 1115 1115 1959
    1959 0 0 0 0 0 0 0 0 0 841 827 821 817 809 800 794 792 774 766 761
    752 747 746 739 731 730 730 733 733 736 738 739 741 741 744 746 747
    749 750 752 754 754 755 759 761 764 766 766 767 769 773 773 774 780
    781 783 787 787 787 1115 1115 1947 1947 0 0 0 0 0 0 0 0 0 841 835
    821 817 807 802 796 790 776 766 759 754 750 747 733 731 731 731 733
    734 736 738 739 741 742 746 746 747 749 750 752 754 755 757 759 762
    764 766 767 767 771 773 774 776 780 781 783 787 787 787 1115 1115
    1915 1926 1926 0 0 0 0 0 0 0 0 0 837 821 813 805 802 796 790 778 767
    759 754 752 747 733 733 731 731 733 734 738 739 741 742 744 746 746
    747 749 750 752 755 757 759 761 762 764 766 767 771 773 774 774 778
    780 783 785 787 787 787 1115 1115 1915 1915 1926 1926 0 0 0 0 0 0 0
    0 839 825 813 805 802 796 785 780 771 759 755 752 750 733 733 733
    733 733 734 739 739 741 742 744 746 747 747 750 752 754 757 759 761
    761 764 766 767 769 773 774 774 776 780 781 785 787 787 787 787 1108
    1108 1915 1915 1926 1926 0 0 0 0 0 0 0 0 839 827 819 813 802 796 783
    780 773 766 755 752 749 734 734 734 734 734 736 739 741 741 744 746
    747 747 749 750 752 754 757 759 761 762 766 767 769 771 773 774 776
    778 780 783 787 787 787 789 789 1097 1097 1904 1915 1915 1926 0 0 0
    0 0 0 0 0 831 827 821 815 805 796 783 780 776 771 759 752 742 734
    734 734 734 734 738 741 741 742 744 746 747 749 750 752 754 755 759
    759 761 762 766 767 769 771 773 774 776 778 781 785 789 789 789 789
    789 1094 1094 1894 1904 1904 1883 1883 0 0 0 0 0 0 0 831 827 821 811
    809 803 783 780 774 769 759 754 742 739 736 736 736 736 738 741 742
    744 746 747 749 750 752 754 755 757 759 759 762 764 766 767 771 773
    774 774 776 780 781 785 787 789 790 790 790 1094 1094 1873 1883 1894
    1873 1873 0 0 0 0 0 0 0 833 827 821 811 809 807 783 780 774 769 761
    755 742 739 738 738 738 738 739 741 744 746 746 747 749 750 752 754
    755 757 759 761 762 764 767 769 771 773 774 776 778 780 781 785 787
    789 790 792 792 1094 1094 1873 1873 1883 1863 1853 1853 0 0 0 0 0 0
    0 811 811 811 807 805 785 780 771 767 761 757 746 741 739 738 738
    739 741 742 746 746 747 747 750 752 754 755 759 761 761 761 764 766
    767 771 773 774 774 778 780 781 781 785 787 789 790 792 792 1094
    1094 1863 1873 1873 1863 1853 1853 0 0 0 0 0 0 0 0 805 805 805 803
    800 780 771 766 762 759 754 741 739 739 739 739 741 744 746 747 747
    749 750 752 754 757 759 761 761 762 764 766 769 771 773 774 776 780
    780 781 783 787 787 789 792 792 792 1101 1101 1863 1863 1863 1863
    1863 1863 0 0 0 0 0 0 0 903 903 805 805 803 800 781 771 766 762 759
    755 741 741 739 739 741 741 744 747 747 749 750 752 754 755 757 759
    761 761 764 766 767 769 773 773 774 776 780 780 783 785 787 787 790
    792 794 794 1105 1105 1833 1843 1853 1853 1853 1863 0 0 0 0 908 908
    903 903 903 898 805 803 800 783 773 766 762 759 746 741 741 739 739
    741 742 746 747 749 750 750 752 754 755 757 759 761 761 764 766 767
    771 773 774 776 778 780 781 787 787 789 790 794 794 794 794 1112
    1105 1833 1843 1853 1853 1853 1863 0 913 913 910 908 908 903 903 903
    898 894 803 798 783 773 766 762 759 744 741 741 741 741 742 744 746
    747 749 750 750 752 754 757 759 761 761 762 766 767 769 771 773 774
    776 780 781 785 787 787 789 790 794 794 794 1112 1112 1112 1833 1843
    1843 1843 1853 1853 908 908 908 908 908 908 906 906 903 901 894 803
    796 787 778 767 762 757 744 741 741 741 741 742 744 746 747 749 750
    752 754 755 757 759 761 762 766 767 769 771 773 774 774 776 780 781
    785 787 789 789 790 796 796 796 1112 1112 1112 1833 1843 1843 1843
    1843 903 903 903 906 908 908 908 903 903 903 901 901 894 796 787 781
    773 762 755 746 742 742 741 741 744 746 747 747 749 750 752 754 757
    759 761 761 764 766 767 769 773 774 774 778 780 781 783 787 787 789
    789 790 796 796 1112 1112 1112 1112 1823 1823 903 0 903 896 896 898
    898 901 903 901 898 898 898 898 898 898 787 787 781 776 776 755 752
    744 742 742 742 744 746 747 749 750 752 754 755 757 759 761 761 764
    766 767 769 773 774 776 780 780 781 783 787 787 789 789 790 790 1112
    1108 1108 1112 1112 1804 0 0 0 901 894 891 891 891 891 894 894 894
    894 894 894 894 894 787 787 785 785 759 755 752 746 746 744 744 746
    747 749 750 752 755 755 757 759 759 761 762 764 766 767 769 773 776
    778 780 781 781 783 787 787 787 789 1112 1112 1112 1108 1108 1112
    1112 0 0 0 0 898 891 887 887 885 885 887 891 891 891 891 891 891 891
    787 787 787 787 759 755 754 749 746 746 746 746 747 749 752 754 755
    757 759 759 761 762 762 766 767 767 769 773 776 778 778 780 781 783
    787 787 787 1105 1108 1108 1108 1108 1108 1112 1112 0 0 901 0 896
    891 885 885 885 885 885 887 889 889 889 889 887 887 901 901 764 764
    761 757 755 750 747 746 746 747 749 750 752 754 755 757 759 759 761
    762 764 766 767 769 771 774 776 776 776 778 781 1097 1097 1101 1101
    1105 1105 1105 1105 1108 1108 1112 1112 0 0 0 901 896 887 885 882
    882 882 882 882 882 882 885 885 887 887 889 889 867 764 762 759 755
    752 747 747 747 747 749 750 752 754 755 757 759 761 762 764 766 767
    769 771 773 774 774 776 776 778 1105 1097 1097 1101 1101 1105 1105
    1105 1105 1105 1108 1112 1112 0 0 0 901 901 887 880 878 875 873 873
    875 878 878 880 882 882 885 869 869 867 766 762 761 755 752 747 747
    747 747 750 752 752 754 755 757 759 761 761 764 766 767 771 773 773
    774 774 885 885 885 1105 1101 1101 1101 1105 1105 1105 1105 1105
    1105 1108 1108 1108 0 0 0 0 0 891 880 878 873 869 867 867 864 864
    867 867 873 878 869 869 867 766 761 761 757 752 749 747 747 749 750
    752 752 755 757 759 759 759 759 764 767 771 887 880 880 882 882 882
    882 880 880 1105 1101 1101 1101 1105 1105 1105 1105 1105 1108 1108
    1108 0 0 0 0 898 891 882 878 871 867 864 862 862 862 864 867 867 867
    867 867 864 864 761 761 757 752 749 749 749 749 750 752 752 755 759
    759 759 759 759 873 873 873 871 871 878 878 882 882 880 878 878 1105
    1101 1101 1101 1101 1105 1105 1105 1105 1108 1108 1108 0 0 0 0 896
    891 885 878 871 864 860 860 858 858 862 862 864 862 862 862 864 843
    843 841 755 752 749 749 749 750 750 750 752 755 759 867 867 869 869
    873 871 871 867 867 869 869 875 875 875 873 873 873 1097 1097 1101
    1101 1105 1105 1105 1105 1108 1108 1255 0 0 0 0 894 891 885 880 873
    862 858 856 854 854 854 854 854 854 856 854 849 843 843 841 755 752
    750 750 750 749 749 750 752 860 862 862 864 867 867 869 869 867 864
    864 862 862 862 867 867 867 867 867 1097 1097 1101 1101 1101 1105
    1105 1108 1264 1264 1255 0 0 0 0 894 889 885 882 873 851 849 847 847
    847 849 849 851 851 851 849 847 845 843 843 845 847 750 750 750 749
    749 854 854 854 854 851 851 854 856 860 860 860 862 860 860 860 860
    860 862 864 867 867 867 1101 1101 1101 1101 1105 1105 1264 1264 1264
    1259 1227 1227 1227 0 0 887 882 880 875 849 847 845 845 847 847 847
    847 845 845 847 847 845 843 843 845 845 849 849 849 849 849 849 851
    851 851 849 849 851 851 851 851 851 854 856 858 858 858 858 860 860
    862 867 869 1105 1105 1101 1101 1105 1273 1264 1264 1264 1264 1223
    1219 1219 0 0 887 882 880 875 849 847 843 843 843 843 843 843 843
    841 841 841 843 843 843 843 843 845 847 845 845 843 843 845 845 847
    847 847 847 847 847 847 849 851 851 854 856 856 858 858 860 862 867
    864 864 1105 1101 1101 1259 1268 1264 1264 1264 1264 1223 1219 1219
    0 0 882 882 880 875 849 847 843 841 837 837 837 837 839 837 837 837
    837 839 841 841 841 841 841 841 839 839 841 841 841 843 843 843 845
    845 845 847 847 849 849 851 854 856 858 858 860 862 867 864 864 864
    1255 1255 1255 1259 1264 1264 1259 1259 1214 1219 1210 1210 1210
    1210 1197 849 849 849 847 843 839 833 833 833 833 833 831 829 829
    829 829 835 835 835 835 835 835 835 835 837 837 839 839 839 841 841
    843 843 843 845 849 849 851 854 856 858 858 860 867 867 864 864 864
    1245 1245 1236 1236 1245 1245 1245 1250 1206 1206 1206 1206 1206
    1197 0 0 849 849 849 841 837 833 833 831 829 829 827 827 827 827 827
    829 831 829 829 831 831 831 833 833 835 835 835 837 839 841 843 843
    843 845 849 849 851 854 856 858 860 862 869 867 864 864 864 1232
    1232 1232 1232 1232 1236 1241 1241 1202 1202 1197 1197 1197 1197
    1206 867 864 864 849 841 835 831 829 825 825 823 823 823 823 823 825
    825 827 827 827 827 829 829 831 833 833 835 835 835 839 841 843 843
    843 845 849 851 851 854 856 858 860 864 869 869 867 867 867 1227
    1227 1227 1227 1232 1232 1232 1232 1193 1193 1193 1197 1197 1206
    1206 867 867 864 849 841 835 829 825 821 819 819 819 819 819 819 821
    821 823 823 825 825 827 827 829 831 833 835 835 835 839 841 843 843
    845 847 851 851 854 856 858 860 860 864 869 869 869 869 1219 1219
    1219 1219 1219 1223 1227 1227 1223 1189 1189 1193 1193 1197 1206 0 0
    867 864 856 847 835 829 825 819 815 815 815 813 813 815 819 819 821
    823 823 825 827 827 829 831 833 835 835 835 839 843 843 843 845 849
    851 854 856 856 858 860 862 869 869 869 869 1210 1210 1210 1214 1214
    1214 1214 1219 1219 1219 1189 1189 1193 1193 1197 1206 0 0 867 862
    854 847 833 825 821 817 813 811 811 811 811 813 817 817 819 821 823
    825 827 827 829 831 833 835 835 839 843 845 845 845 849 851 851 854
    858 858 860 860 864 869 869 871 871 1214 1206 1206 1206 1206 1206
    1206 1210 1210 1210 1185 1189 1197 1197 1202 1210 0 0 0 851 849 845
    833 823 819 817 811 811 811 811 811 813 817 817 819 821 823 825 827
    827 829 831 835 835 839 843 843 845 845 847 849 851 851 854 858 860
    860 860 864 869 871 0 1197 1197 1197 1202 1202 1202 1197 1197 1202
    1202 1202</data></Depth16655>
</opencv_storage>
