<?xml version="1.0"?>
<opencv_storage>
<Depth11567 type_id="opencv-matrix">
  <rows>143</rows>
  <cols>89</cols>
  <dt>w</dt>
  <data>
    3300 3300 3300 3300 3300 3333 3333 3333 736 734 734 738 739 741 741
    741 741 3333 3333 3300 3269 3269 3300 3269 3269 3300 3300 3300 3333
    3333 3300 3300 3300 3300 3333 3300 3300 3333 3333 3333 3300 3300
    3333 3333 3333 3333 3333 3333 3333 3333 3333 3333 3333 3300 3300
    3300 3300 3300 3300 3300 3300 3333 3333 3333 3333 3333 3333 3333
    3365 3365 3365 3365 3365 3365 1883 1873 1873 1873 1863 1863 1863
    2103 2103 2103 2103 2103 2103 2090 2090 3300 3300 3300 3300 3300
    3333 3333 736 736 734 734 738 738 741 741 741 741 764 766 766 766
    764 764 767 767 767 766 766 767 767 767 767 3300 3300 3333 3300 3300
    3333 3333 3333 3300 3300 3333 3333 3333 3333 3300 3300 3300 3300
    3333 3333 3333 3333 3333 3333 3300 3300 3300 3333 3333 3333 3333
    3333 3333 3333 3333 3333 3365 3365 3365 3365 3365 3365 3365 3365
    3399 3399 2116 2116 2103 2103 2103 2103 2103 2103 2103 2090 2090
    3300 3300 3300 3300 3300 3300 739 736 736 736 736 738 738 741 741
    742 742 764 761 759 759 759 759 761 759 759 761 761 762 762 762 755
    755 0 0 0 0 0 3333 3333 3333 3333 3333 0 0 0 3300 3300 3300 3300
    3333 3333 3333 3333 3333 3300 3300 3333 3333 3333 3333 3333 3333
    3333 3333 3333 3333 3333 3365 3365 3365 3365 3365 3365 3365 3333
    3333 0 0 2103 2103 2103 2103 2103 2103 2103 2103 2103 2090 3300 3300
    3300 3269 3269 3300 739 738 736 736 738 738 739 741 741 750 752 752
    754 755 755 757 754 754 755 754 754 755 757 759 762 755 755 0 0 0 0
    0 0 0 0 0 0 0 0 0 0 3300 3300 3300 3333 3333 3333 3333 3333 3300
    3300 3300 3300 3333 3333 3333 3333 3333 3333 3333 3333 3333 3333
    3333 3365 3365 3365 3365 3365 3333 3333 0 0 2116 0 2116 2103 2103
    2103 2103 2103 2103 2090 744 3300 3300 742 742 744 741 738 738 738
    738 738 739 742 747 750 749 749 749 750 750 755 750 750 752 749 746
    746 757 759 762 764 0 0 0 0 0 0 0 0 0 0 0 0 0 0 0 0 0 0 0 3333 3333
    3333 3333 3333 3333 3300 3300 3333 3333 3333 3333 3333 3333 3333
    3333 3333 641 640 640 640 641 642 642 3365 3365 0 0 0 0 0 2116 2116
    2116 2103 2103 2103 2090 744 744 742 742 742 744 747 739 738 738 739
    741 742 744 750 750 749 749 749 750 750 755 750 744 744 744 744 744
    0 0 0 0 0 0 0 0 0 0 0 0 0 0 0 0 0 0 0 0 0 0 0 0 0 0 0 0 0 0 3333
    3333 3333 3333 682 679 678 675 674 641 641 638 638 640 641 642 642
    3399 0 0 0 0 0 0 2116 2116 2116 2103 2103 2103 2103 744 742 739 738
    738 738 738 738 738 738 739 717 710 708 708 750 749 749 749 693 686
    744 744 744 744 744 744 744 0 0 0 0 0 0 0 0 0 0 0 0 0 0 0 0 0 0 0 0
    0 0 0 0 0 0 0 0 0 0 0 0 682 682 680 679 676 642 642 641 641 638 638
    640 641 642 642 643 0 0 0 0 0 0 0 2116 2116 2103 2103 2103 2103 742
    741 739 736 734 731 731 731 713 716 716 716 710 708 708 708 694 693
    693 693 686 686 686 679 675 0 0 0 0 0 0 0 0 0 0 0 0 0 0 0 0 0 0 0 0
    0 0 0 0 0 0 0 0 0 0 0 0 0 0 0 0 679 679 676 674 642 642 641 641 641
    641 641 641 642 642 643 0 0 0 0 0 0 0 2116 2116 2116 2116 2103 2103
    741 739 738 734 734 731 730 730 713 713 711 711 714 714 708 708 694
    693 693 688 686 686 686 679 675 0 0 0 0 0 0 0 0 0 0 0 0 0 0 0 0 0 0
    0 0 0 0 0 0 0 0 0 0 0 0 0 0 0 0 0 663 663 661 657 655 652 641 641
    640 640 641 641 641 642 642 643 0 0 0 647 0 0 0 2116 2116 2116 2116
    2116 2116 741 739 738 734 733 725 719 716 713 711 710 693 693 693
    691 691 693 693 691 688 684 683 680 679 675 675 675 0 0 0 0 0 0 0 0
    0 0 0 0 0 0 0 0 0 0 0 0 0 0 0 0 0 0 0 0 0 0 0 0 655 655 657 657 655
    654 652 641 641 640 640 642 642 642 642 642 642 646 646 646 647 647
    647 0 0 0 2129 2116 2116 2116 0 741 739 736 733 725 719 716 713 711
    710 691 691 691 688 686 686 687 688 686 684 683 680 675 674 674 674
    0 0 0 0 0 0 0 0 0 0 0 0 0 0 627 627 0 0 0 0 0 0 0 0 0 0 0 0 0 0 0 0
    655 653 652 652 652 650 650 641 641 641 641 643 643 638 638 638 640
    641 642 644 646 646 647 0 0 0 0 0 0 0 744 744 742 738 734 727 719
    716 714 711 708 691 691 690 686 684 682 679 679 680 684 683 683 672
    672 672 674 0 0 0 0 0 0 0 0 629 629 0 0 0 624 624 627 611 611 0 0 0
    0 0 0 597 597 596 596 0 0 0 0 653 653 649 616 616 649 649 649 648
    648 648 634 634 636 637 638 640 641 642 643 644 646 647 0 0 0 0 0 0
    0 744 744 742 741 736 728 723 719 716 711 707 693 691 690 686 683
    680 678 675 675 662 662 662 672 644 642 640 640 0 0 0 0 0 0 0 629
    629 628 627 623 623 623 624 608 608 611 0 0 0 0 595 595 597 596 596
    0 0 638 638 612 612 616 616 616 618 620 622 624 627 629 631 634 636
    637 637 640 641 642 643 644 646 647 0 0 0 0 0 0 0 744 744 744 742
    738 733 728 723 717 710 707 704 691 690 686 683 680 678 674 668 662
    659 657 649 644 642 640 636 636 0 0 0 0 0 0 631 629 628 625 623 622
    621 618 608 608 611 615 616 620 621 594 594 595 597 597 597 638 638
    638 612 612 613 615 616 618 620 622 624 627 628 630 634 636 637 637
    640 641 643 644 646 647 648 649 0 0 0 0 0 0 744 744 746 744 739 733
    730 727 722 710 706 706 701 690 686 683 680 678 674 668 662 658 655
    649 644 642 641 635 630 627 624 624 0 0 0 631 629 628 625 623 622
    621 618 609 609 611 615 616 620 621 594 594 595 598 598 600 602 608
    611 611 612 613 615 616 618 620 623 625 627 628 630 634 636 637 637
    640 642 643 646 646 648 649 649 0 0 0 0 0 0 744 744 747 746 741 733
    728 725 722 716 706 706 703 693 687 684 680 678 675 668 662 658 655
    652 646 643 641 635 630 627 624 621 616 614 612 612 612 599 622 622
    621 620 618 616 615 615 618 618 619 594 594 594 595 598 599 600 602
    608 610 611 613 614 615 616 619 621 623 624 627 628 630 632 636 637
    640 641 643 644 646 647 649 649 0 0 0 0 0 0 0 0 749 749 747 739 733
    728 725 722 716 708 707 704 703 693 684 682 680 676 668 662 658 657
    653 648 643 640 635 630 628 624 621 616 614 612 610 602 599 598 595
    595 620 618 587 587 587 587 588 591 593 594 594 595 598 599 600 603
    608 609 611 613 614 615 616 619 622 623 624 627 628 630 632 636 638
    640 642 643 646 647 648 649 649 649 0 0 0 0 0 0 0 750 749 747 739
    733 730 725 722 716 711 707 706 704 700 691 680 680 679 676 662 658
    657 653 652 643 640 635 631 628 625 622 619 616 613 610 600 598 597
    595 594 590 588 587 587 587 587 588 591 593 594 595 596 598 599 601
    603 608 609 611 613 614 615 616 619 622 623 624 627 629 630 631 636
    640 641 642 644 646 647 649 650 649 649 0 0 0 0 0 0 0 750 749 747
    741 736 731 727 722 719 714 708 706 704 701 701 680 680 679 676 670
    659 657 654 653 644 640 636 632 629 627 622 620 618 613 610 599 597
    596 594 593 590 588 587 587 587 587 588 590 593 594 595 596 598 600
    602 606 608 610 612 613 615 616 618 620 622 625 627 628 630 631 631
    636 640 641 642 644 646 648 650 652 652 652 0 0 0 0 0 0 0 0 749 747
    742 736 733 728 723 720 716 711 706 703 701 701 682 680 679 676 672
    663 659 655 654 646 641 636 632 630 628 623 620 618 613 612 599 597
    596 594 593 590 587 587 587 587 587 588 590 593 595 595 597 599 601
    603 606 608 610 612 613 615 618 619 620 622 627 629 630 630 631 632
    637 640 642 642 644 647 649 650 652 653 653 0 0 0 0 0 0 0 0 749 747
    744 738 734 730 725 722 717 713 707 703 703 701 683 680 679 676 672
    670 663 661 659 658 644 636 634 630 629 627 621 619 614 612 599 598
    595 594 592 590 587 587 587 587 587 589 590 594 595 596 598 599 601
    603 607 609 611 612 615 616 618 619 621 625 630 630 630 630 631 634
    637 640 641 642 646 647 649 650 653 653 654 0 0 0 0 0 0 0 0 750 749
    742 738 734 730 725 723 719 713 707 703 703 700 691 682 680 676 672
    667 663 661 659 658 658 640 636 634 631 628 621 618 615 613 612 612
    595 593 592 590 589 588 587 587 588 589 590 594 595 596 598 600 602
    604 608 610 612 612 615 616 619 620 621 625 629 630 630 631 634 635
    637 640 641 642 644 647 649 650 653 654 654 0 0 0 0 0 0 0 0 750 750
    742 739 733 730 725 723 719 713 710 704 703 700 691 686 682 678 672
    667 664 661 659 658 658 642 638 635 632 628 624 618 616 614 612 612
    612 593 592 591 589 588 587 587 588 590 591 594 596 597 598 600 602
    604 608 611 612 613 615 616 620 621 622 627 629 630 630 632 634 635
    638 640 642 642 644 647 649 652 654 654 655 0 0 0 0 0 0 0 0 752 752
    744 741 733 731 728 725 719 714 710 704 703 700 691 687 683 680 675
    667 666 662 661 658 658 642 640 636 632 628 625 621 618 615 613 609
    609 609 593 592 590 589 588 588 588 590 593 594 596 598 598 601 603
    607 608 611 613 614 615 618 620 621 622 627 628 630 631 632 635 636
    638 640 642 642 644 646 647 652 654 655 655 0 0 0 0 0 0 0 0 752 752
    744 741 734 733 730 727 720 716 710 704 703 698 691 687 684 682 676
    668 667 664 662 659 648 643 641 637 635 630 625 622 619 615 613 609
    607 604 595 592 590 590 590 590 590 591 594 595 596 598 598 603 604
    607 608 611 613 614 615 619 620 622 624 627 628 630 631 634 635 636
    638 640 642 643 644 646 647 653 654 657 657 0 0 0 0 0 0 0 0 752 752
    746 742 739 734 731 728 720 716 710 707 703 698 691 687 684 682 678
    670 667 664 663 661 648 644 642 638 635 631 627 624 621 618 615 609
    607 604 598 594 591 590 590 590 590 591 594 596 598 598 602 603 606
    608 608 612 613 615 616 620 621 622 624 627 628 630 631 634 636 637
    638 641 642 644 646 646 647 654 655 657 658 0 0 0 0 0 0 0 0 752 752
    750 742 739 736 733 730 722 717 710 707 704 698 693 688 686 683 679
    671 667 664 663 662 662 644 643 638 635 631 627 624 622 618 615 609
    607 606 600 595 591 590 590 590 591 591 595 596 598 598 603 603 606
    608 610 612 613 615 618 621 622 623 624 627 628 630 632 635 636 638
    640 641 643 644 646 647 648 654 655 658 658 0 0 0 0 0 0 0 0 754 752
    746 744 741 738 733 730 727 717 710 707 706 700 694 690 686 683 676
    672 667 666 664 663 655 646 643 638 635 631 629 627 623 620 615 610
    608 607 603 596 592 591 590 590 591 593 595 597 599 599 603 604 606
    608 610 612 614 615 618 620 623 624 625 627 630 631 632 635 637 638
    640 642 644 646 646 647 649 654 655 658 659 0 0 0 0 0 0 0 0 0 752
    746 744 742 738 733 730 727 719 710 708 706 701 696 691 687 683 676
    672 668 666 664 662 654 648 644 641 637 630 629 627 623 620 618 611
    608 607 603 597 593 592 591 591 591 593 595 596 600 600 603 604 606
    608 611 613 614 615 618 620 623 624 625 627 630 631 634 636 637 640
    641 643 644 646 647 649 652 655 657 658 659 659 661 0 0 0 0 0 0 0
    754 746 744 742 739 734 731 728 720 711 708 706 703 697 693 688 684
    679 672 668 666 664 662 653 649 646 642 640 630 629 628 623 620 618
    611 609 608 606 599 594 593 592 592 592 594 595 596 601 601 603 604
    607 608 611 613 614 616 618 621 623 624 625 628 630 631 634 636 640
    640 642 644 646 648 649 650 652 655 658 658 659 659 661 0 0 0 0 0 0
    0 755 752 746 744 741 736 731 728 720 716 710 708 704 700 693 688
    686 679 675 670 667 664 662 653 649 646 643 642 630 629 628 624 623
    616 612 610 608 607 603 595 594 592 592 593 594 595 596 602 602 603
    606 607 609 611 613 615 618 619 621 623 624 625 629 631 632 635 636
    640 641 643 644 646 648 649 650 652 655 659 659 661 661 661 0 0 0 0
    0 0 0 757 754 750 744 741 736 731 730 723 720 716 708 706 701 694
    690 686 683 676 670 668 666 663 652 649 646 643 642 641 629 628 625
    623 616 612 611 609 607 603 595 594 593 593 593 594 595 596 600 603
    604 606 608 610 611 614 616 618 619 622 623 624 627 630 631 632 635
    636 640 642 644 646 647 649 649 650 652 658 661 661 661 662 663 0 0
    0 0 0 0 0 761 759 754 749 742 738 733 730 725 722 719 710 706 701
    696 691 688 684 676 672 668 666 663 652 650 647 643 642 640 630 628
    625 624 616 611 611 609 607 603 597 595 594 594 594 595 595 600 600
    603 604 607 608 610 611 615 616 618 621 622 623 624 628 630 631 634
    636 637 640 642 644 646 647 649 650 650 652 659 661 661 661 662 0 0
    0 0 0 0 0 0 762 762 755 750 744 739 734 730 725 722 720 711 707 703
    697 693 690 686 678 674 670 668 664 662 652 647 644 642 640 631 628
    627 624 616 611 611 610 607 603 599 596 594 594 594 595 597 599 601
    603 606 607 608 610 612 615 618 619 621 622 624 625 628 630 632 635
    636 637 640 643 644 646 647 649 650 653 654 659 661 662 662 662 0 0
    0 0 0 0 0 0 764 762 759 755 746 742 738 731 727 723 723 716 708 704
    698 694 691 687 679 675 671 668 666 659 654 647 644 642 638 634 630
    628 625 619 613 611 610 608 603 599 596 595 595 595 597 599 599 601
    604 607 608 609 611 613 616 618 619 621 623 624 627 629 631 632 635
    636 637 641 643 644 646 648 650 652 653 657 659 661 661 662 663 0 0
    0 0 0 0 0 0 764 762 761 754 746 744 739 736 730 727 723 717 711 707
    698 694 691 688 679 675 674 671 666 659 654 649 647 643 638 634 630
    629 625 620 615 612 611 608 607 600 597 596 596 596 597 598 599 602
    606 607 608 609 612 613 616 619 620 622 623 625 627 629 631 634 636
    637 640 642 643 644 647 649 650 653 654 657 659 661 661 662 663 0 0
    0 0 0 0 0 0 764 762 761 754 749 744 741 738 733 728 725 720 713 710
    701 697 694 690 687 676 675 674 672 662 655 649 648 646 638 635 631
    629 625 620 616 613 611 608 607 602 599 597 597 597 598 598 599 604
    606 607 608 610 612 613 616 618 621 622 624 627 628 629 631 634 636
    638 641 643 644 646 647 649 650 653 654 658 661 662 662 663 664 0 0
    0 0 0 0 0 0 0 762 762 754 749 746 742 738 734 728 725 722 714 711
    701 697 696 691 688 679 675 674 672 672 655 653 649 647 641 636 632
    630 627 620 616 614 612 610 608 606 599 597 597 597 598 598 599 606
    607 608 609 611 612 613 616 618 621 622 624 627 628 629 631 634 637
    640 641 643 644 646 648 649 650 653 655 658 661 663 663 664 664 667
    0 0 0 0 0 0 0 0 762 762 755 750 746 742 739 736 728 725 720 716 713
    703 698 697 694 690 679 676 674 672 672 659 654 653 647 643 640 635
    630 629 620 616 615 613 611 609 607 600 598 598 598 598 598 599 607
    607 608 609 612 613 614 616 618 622 623 625 627 628 630 632 635 637
    640 642 644 646 647 648 649 652 654 655 657 661 663 664 664 666 667
    0 0 0 0 0 0 0 0 764 762 757 754 749 744 739 736 730 727 720 716 713
    703 698 697 694 690 684 676 675 674 672 668 655 653 647 644 641 640
    635 630 628 618 616 614 612 610 607 601 599 598 598 598 598 599 607
    607 608 609 612 613 614 616 619 622 623 625 627 629 631 634 635 637
    640 642 644 646 647 649 650 653 654 655 657 662 664 666 666 667 667
    0 0 0 0 0 0 0 0 764 761 759 754 749 746 741 738 730 727 720 717 714
    711 698 697 694 691 682 678 675 674 672 668 655 654 647 644 642 640
    636 631 629 620 616 615 613 611 609 606 600 598 598 598 599 599 607
    608 608 609 612 614 615 618 619 622 624 627 627 629 631 634 636 638
    640 642 644 646 648 649 652 654 655 655 657 663 664 666 667 667 668
    0 0 0 0 0 0 0 0 764 761 759 755 750 747 742 739 733 728 720 717 714
    713 698 697 696 693 682 679 676 675 672 672 657 654 649 646 642 640
    636 631 629 621 618 616 613 611 609 604 600 599 599 599 599 602 607
    608 609 610 613 614 616 618 620 622 624 627 628 629 632 635 636 638
    640 643 644 646 647 649 652 654 655 657 657 663 666 667 668 668 668
    0 0 0 0 0 0 0 0 0 762 759 755 752 749 746 741 736 731 723 719 716
    714 698 696 694 693 683 680 679 676 674 674 658 655 650 648 643 641
    636 634 630 622 620 618 615 612 609 604 601 599 599 599 600 603 607
    608 610 611 614 615 616 619 621 623 625 627 629 630 631 635 637 640
    641 643 644 646 647 650 653 655 657 657 657 663 666 667 668 668 668
    0 0 0 0 0 0 0 0 0 762 761 755 752 749 746 741 736 733 725 720 717
    716 713 696 694 693 686 683 679 676 674 672 658 657 650 649 646 642
    636 634 631 628 621 619 618 614 609 604 602 600 600 600 600 604 607
    608 610 612 615 615 616 620 622 624 625 628 630 631 631 635 637 640
    641 643 644 646 648 652 654 655 657 658 658 662 666 668 670 670 671
    0 0 0 0 0 0 0 0 0 764 761 757 754 750 746 742 738 734 725 722 719
    717 713 696 696 693 686 683 680 678 675 672 659 658 652 649 647 643
    637 635 631 629 622 620 619 618 611 604 602 601 601 601 602 604 607
    608 611 614 615 616 618 621 622 625 625 629 631 632 632 636 640 641
    642 644 644 646 649 653 654 655 657 658 658 662 668 670 670 670 671
    0 0 0 0 0 0 0 0 0 767 761 757 754 750 747 744 739 736 727 722 719
    719 716 716 696 691 687 683 680 678 675 672 662 659 653 649 648 646
    640 635 631 629 622 621 620 619 611 604 603 602 602 602 602 606 608
    609 612 614 615 616 619 621 623 625 627 630 631 632 634 636 640 641
    643 644 646 648 650 653 654 657 658 659 659 663 668 670 670 671 672
    0 0 0 0 0 0 0 0 0 769 764 761 755 752 749 744 739 738 728 723 720
    719 716 713 697 691 687 684 680 678 675 670 663 661 654 649 648 646
    642 635 631 629 623 621 620 619 612 606 604 603 602 602 604 606 608
    609 613 615 615 616 619 621 623 625 627 630 631 632 635 637 640 642
    643 646 646 649 650 653 654 657 659 661 661 664 667 671 671 671 672
    0 0 0 0 0 0 0 0 0 0 766 762 757 752 750 746 739 738 734 725 720 719
    716 711 701 694 691 687 683 679 676 670 663 659 655 650 649 647 643
    636 631 629 624 622 620 618 614 608 604 603 602 602 604 606 608 610
    611 615 615 616 619 621 623 625 628 630 631 632 635 637 640 642 644
    646 647 649 650 653 655 658 659 661 661 664 667 671 672 674 674 0 0
    0 0 0 0 0 0 0 0 766 764 761 755 752 747 742 739 734 727 722 720 717
    708 703 700 693 688 684 683 679 672 664 659 655 652 649 648 644 638
    634 630 625 622 620 618 615 609 606 604 603 603 604 606 608 611 611
    615 615 616 619 621 624 627 628 630 631 634 635 637 640 642 644 647
    649 650 652 654 655 658 659 661 662 664 667 674 674 675 675 0 0 0 0
    0 0 0 0 0 766 766 764 761 757 752 749 744 741 734 727 725 722 717
    708 703 701 694 688 687 684 680 678 664 661 655 653 650 648 644 640
    636 630 625 623 621 618 616 614 607 604 604 604 606 606 608 612 612
    615 616 618 619 621 625 628 629 630 632 634 635 638 641 642 644 647
    649 650 652 654 657 659 661 661 662 667 670 674 674 675 675 0 0 0 0
    0 0 0 0 0 766 766 764 762 759 752 750 747 742 736 728 725 723 719
    708 704 703 700 688 687 684 682 678 666 662 655 654 652 649 646 640
    637 630 627 624 621 618 616 614 608 606 604 604 606 607 608 612 614
    616 618 619 620 623 625 628 629 631 632 634 636 638 641 642 646 647
    649 650 653 655 657 659 661 662 663 667 671 674 675 675 676 678 0 0
    0 0 0 0 0 0 0 776 766 764 761 755 752 747 746 741 728 727 723 719
    708 706 704 700 690 687 684 682 678 668 663 657 654 653 650 646 640
    637 631 629 624 622 619 616 614 608 607 606 606 606 607 610 613 615
    616 618 619 621 624 625 628 630 631 632 635 636 638 641 643 646 647
    649 652 653 655 658 659 661 662 663 670 674 675 675 676 676 678 0 0
    0 0 0 0 0 0 780 778 773 764 761 757 754 749 747 744 739 727 723 719
    710 707 704 701 691 690 684 683 679 670 663 659 654 653 650 647 642
    638 632 629 624 622 620 619 615 610 607 607 607 607 608 610 611 615
    618 619 620 621 624 625 628 630 632 634 636 637 640 641 644 646 647
    649 653 654 655 658 659 661 662 663 671 674 675 675 676 676 678 0 0
    0 0 0 0 0 0 780 778 771 766 761 757 755 750 749 744 739 728 725 720
    714 708 706 701 694 690 686 684 682 671 666 662 657 654 650 648 643
    640 632 630 625 622 621 619 616 611 608 607 607 608 608 610 611 615
    618 618 620 621 624 625 628 630 632 635 636 638 641 642 644 646 647
    650 653 654 655 658 659 662 663 664 671 674 675 676 676 678 678 0 0
    0 0 0 0 0 0 783 778 771 767 762 759 757 752 749 744 739 731 727 720
    714 710 707 703 701 691 687 686 684 680 666 662 658 655 650 648 646
    640 632 630 627 623 621 620 618 612 608 608 608 608 609 610 613 615
    618 618 620 621 625 627 628 630 634 635 637 638 641 643 644 646 647
    652 654 655 657 659 661 662 664 666 671 672 675 676 678 678 678 0 0
    0 0 0 0 0 0 785 778 771 769 766 761 757 754 749 744 741 733 728 722
    714 711 707 704 701 691 688 686 684 683 666 663 661 658 650 648 646
    642 635 631 628 624 622 620 618 613 608 608 608 608 609 611 613 616
    618 619 621 622 625 627 629 631 634 636 638 640 642 643 646 646 648
    653 654 655 657 659 661 663 664 666 671 672 675 678 679 678 678 0 0
    0 0 0 0 0 0 785 778 773 769 767 762 759 754 752 747 738 733 730 725
    716 713 708 706 701 693 690 687 686 683 672 666 662 658 655 652 648
    643 640 634 629 625 624 621 619 613 609 608 608 609 609 611 614 616
    619 620 621 623 627 627 630 631 634 636 638 640 642 643 646 647 649
    654 655 657 659 661 663 664 666 667 671 672 675 679 679 679 679 0 0
    0 0 0 0 0 0 0 781 773 771 769 764 759 754 752 749 738 734 730 725
    716 713 710 707 703 694 691 688 687 684 672 667 663 659 657 652 648
    644 641 635 630 628 625 623 621 616 610 609 609 609 610 611 615 618
    619 620 622 624 627 628 630 631 634 636 638 640 642 644 646 648 650
    654 655 657 659 662 663 664 666 668 671 672 676 679 679 679 679 0 0
    0 0 0 0 0 0 0 781 774 771 771 767 761 755 754 749 739 736 730 725
    717 713 710 708 703 696 691 690 687 684 672 668 663 661 657 654 652
    647 642 635 631 628 625 623 621 618 612 610 610 611 611 611 615 618
    620 621 622 624 628 629 630 631 635 636 640 641 642 644 646 648 650
    654 657 657 659 662 664 664 667 670 671 674 676 679 680 680 680 0 0
    0 0 0 0 0 0 0 781 776 773 771 767 762 757 754 750 742 738 731 727
    719 714 711 708 703 697 694 691 688 684 672 670 663 662 658 654 652
    649 644 636 632 629 625 624 622 619 613 612 611 611 612 612 615 619
    620 622 622 625 629 630 631 632 635 637 640 641 642 644 647 648 650
    654 657 657 659 663 664 666 667 670 671 674 676 679 680 680 680 0 0
    0 0 0 0 0 0 0 783 781 774 771 769 764 759 755 752 744 739 734 730
    720 714 711 708 706 698 696 693 690 686 672 670 668 662 658 654 652
    649 646 641 635 630 627 624 622 620 614 612 612 612 612 614 615 619
    621 623 623 625 629 630 631 634 636 638 640 642 642 646 647 649 652
    654 657 658 659 663 664 667 668 671 671 675 678 680 680 682 682 0 0
    0 0 0 0 0 0 0 783 783 776 771 769 764 759 757 752 746 741 736 733
    728 714 713 710 706 698 697 694 690 686 672 670 668 663 659 655 653
    650 646 642 638 632 627 625 623 620 616 613 612 612 613 614 615 620
    622 623 624 625 630 631 632 635 636 638 641 642 644 646 648 649 653
    654 657 658 661 664 666 667 668 671 672 675 678 680 682 683 684 0 0
    0 0 0 0 0 0 0 785 783 778 773 771 764 759 757 754 746 742 738 734
    731 716 713 711 706 698 697 694 691 688 688 671 668 664 662 657 653
    650 647 643 637 634 630 627 624 622 618 614 613 613 613 615 615 619
    623 623 624 625 630 631 632 635 636 638 641 643 646 646 648 650 653
    654 657 659 662 664 667 670 670 671 672 676 679 682 682 684 684 0 0
    0 0 0 0 0 0 0 785 783 780 774 774 767 759 757 754 752 742 739 738
    733 716 714 713 706 698 697 694 693 690 690 674 670 666 663 658 654
    650 647 643 637 634 631 628 625 623 618 614 613 613 613 615 616 619
    623 624 624 625 630 631 634 635 636 638 642 644 646 647 648 650 653
    654 657 661 662 664 667 670 670 671 672 679 680 683 683 684 684 0 0
    0 0 0 0 0 0 0 785 783 780 776 774 769 762 759 755 752 742 739 738
    734 717 716 714 707 700 697 694 693 690 690 674 670 667 663 659 655
    652 648 644 637 635 631 629 625 624 619 615 613 613 613 615 618 620
    623 624 625 627 630 632 634 635 637 640 642 644 646 648 649 652 654
    655 658 661 663 666 667 670 671 671 672 679 682 683 684 686 686 0 0
    0 0 0 0 0 0 0 0 783 780 778 776 773 764 761 757 754 742 739 738 736
    720 717 714 708 703 697 696 694 693 690 675 670 667 664 661 655 653
    649 646 637 635 632 630 627 624 620 615 613 613 614 616 619 621 623
    624 625 627 630 632 635 636 638 641 643 644 647 649 650 653 654 655
    658 661 663 666 668 670 671 672 674 678 682 683 684 686 686 0 0 0 0
    0 0 0 0 0 0 785 780 778 776 773 767 762 761 757 742 741 739 738 722
    719 717 710 703 698 697 694 693 690 672 670 667 666 663 657 654 650
    646 637 635 634 631 628 624 620 616 615 615 615 616 619 622 623 624
    625 628 631 632 635 637 640 641 643 646 647 649 650 653 655 657 658
    661 664 666 668 670 671 674 675 678 682 684 686 687 687 0 0 0 0 0 0
    0 0 0 0 785 780 778 776 774 767 764 764 759 744 741 739 738 727 720
    719 711 706 701 697 696 693 690 672 670 667 666 663 659 655 649 647
    638 636 634 631 629 627 623 619 616 616 616 618 621 623 623 625 627
    629 631 632 635 638 640 641 643 646 647 649 652 654 655 657 659 662
    664 666 668 670 671 672 676 679 682 684 686 687 687 0 0 0 0 0 0 0 0
    0 0 0 781 780 778 774 769 766 764 761 746 741 739 738 730 722 719
    716 708 703 698 697 694 691 674 671 668 666 664 661 657 649 644 640
    636 635 632 629 627 624 621 616 616 616 619 621 624 624 627 628 630
    631 634 636 638 640 642 644 646 647 650 653 654 655 657 659 662 664
    667 670 671 671 672 676 679 683 684 687 687 687 0 0 0 0 0 0 0 0 0 0
    0 785 783 781 778 773 767 766 762 755 744 739 738 733 722 719 716
    708 704 701 697 694 691 676 672 670 667 664 662 658 652 644 641 638
    636 632 630 627 624 619 616 616 618 619 621 624 625 628 629 630 632
    634 636 637 641 643 646 647 648 650 653 654 657 658 661 663 666 667
    670 671 672 674 678 680 684 686 687 687 687 687 0 0 0 0 0 0 0 0 0 0
    785 783 781 780 774 771 766 762 757 747 742 739 738 731 719 716 710
    706 701 698 696 694 676 674 671 668 664 662 658 654 646 642 640 636
    634 631 628 623 619 618 618 618 619 621 624 627 629 629 630 634 635
    636 637 641 644 646 647 649 650 653 654 657 659 662 663 666 668 670
    671 674 675 678 680 684 686 687 687 687 687 698 0 0 0 0 0 0 0 0 0
    790 785 783 780 774 771 767 762 757 747 744 741 739 736 722 716 711
    707 701 698 697 696 678 675 672 670 666 662 659 657 646 643 640 637
    635 634 628 623 619 618 618 618 619 621 624 627 629 630 631 634 635
    636 638 642 644 647 647 650 652 653 655 658 661 662 663 667 670 671
    672 675 676 678 682 684 687 688 690 691 694 698 0 0 0 0 0 0 0 0 0
    790 789 783 780 776 773 767 764 759 749 746 742 739 736 722 719 717
    708 703 700 698 697 697 676 674 670 666 663 661 657 648 644 640 637
    636 634 630 623 619 619 619 619 620 622 624 628 629 630 631 634 635
    637 640 642 644 647 648 650 652 654 655 659 661 662 664 668 670 671
    674 675 676 679 682 686 688 690 691 693 693 694 0 0 0 0 0 0 0 0 0
    794 790 783 780 776 774 769 766 759 749 746 744 742 738 722 720 719
    713 704 701 700 697 687 679 675 671 667 666 662 658 649 646 641 637
    636 635 631 625 620 620 620 620 621 622 625 628 630 630 631 635 636
    637 640 642 644 647 648 650 653 654 655 659 661 663 664 668 671 672
    674 676 678 679 682 686 690 690 691 691 691 694 0 0 0 0 0 0 0 0 0
    794 792 785 781 778 776 771 769 759 750 747 746 744 739 722 720 719
    713 710 704 701 698 687 682 678 671 668 667 663 658 655 649 643 640
    636 635 631 628 621 620 620 620 621 623 625 628 630 631 632 635 636
    638 641 643 646 647 649 650 653 655 655 659 661 663 664 668 671 674
    675 676 678 680 683 687 690 691 691 691 691 0 0 0 0 0 0 0 0 0 0 796
    792 787 783 780 776 773 771 759 752 747 746 744 739 725 722 719 713
    711 704 701 700 694 684 679 674 670 668 664 659 655 654 644 641 638
    636 632 629 622 621 621 621 621 623 625 628 630 631 632 636 636 638
    641 643 646 647 649 650 653 655 655 659 662 664 666 668 671 674 675
    676 678 680 683 686 690 691 693 691 691 0 0 0 0 0 0 0 0 0 798 798
    794 789 785 781 778 774 769 761 754 750 747 744 741 728 722 717 713
    711 707 703 701 701 684 679 675 672 670 664 659 657 654 644 643 642
    638 635 629 622 622 621 621 622 623 625 628 630 631 635 637 638 640
    641 644 646 648 649 650 653 655 658 661 663 664 666 668 671 675 675
    678 679 682 683 686 690 691 693 693 0 0 0 0 0 0 0 0 0 0 798 798 794
    790 785 783 780 774 769 761 755 750 749 746 742 728 723 717 713 711
    707 703 701 700 684 679 676 672 670 664 661 657 654 646 643 643 641
    638 637 625 622 622 622 623 623 625 628 630 632 636 637 640 640 642
    646 647 649 649 652 653 655 658 661 664 666 667 670 672 675 676 678
    680 682 684 687 690 693 693 693 0 0 0 3010 0 0 0 0 0 0 0 798 794 792
    787 785 783 778 769 761 757 752 749 747 744 730 723 719 714 713 708
    704 701 700 686 683 678 674 671 666 662 658 655 646 644 643 642 640
    637 627 623 622 622 623 624 625 628 630 632 636 637 640 641 643 646
    648 649 650 653 654 657 659 662 664 666 668 670 672 675 676 679 680
    682 684 688 691 693 694 694 697 0 0 3010 0 0 0 0 0 0 0 798 794 792
    787 785 785 780 773 762 759 752 749 747 746 742 725 720 717 714 710
    707 703 701 686 682 679 675 672 667 662 658 655 648 644 643 642 638
    636 631 625 622 622 623 624 627 628 630 632 636 637 640 641 643 646
    648 649 652 654 655 658 659 662 664 666 668 672 674 675 676 679 682
    683 684 688 691 693 694 694 697 0 0 2286 2286 0 0 0 0 0 0 798 796
    792 787 785 785 781 776 766 762 752 750 747 746 742 730 720 719 717
    710 707 704 701 687 682 680 678 674 670 664 659 655 649 646 644 642
    638 636 631 628 624 623 623 625 628 628 631 634 636 638 641 641 644
    646 648 649 652 654 657 658 659 661 664 667 670 672 674 675 678 680
    683 684 686 688 691 694 696 697 697 698 0 2271 2271 0 0 0 0 0 0 798
    798 796 790 787 785 781 778 769 764 754 750 747 746 739 733 722 720
    719 711 708 706 701 694 683 680 679 675 672 667 662 655 650 648 644
    642 640 636 631 628 625 623 623 625 628 629 631 635 637 640 641 642
    644 646 649 650 652 654 657 659 661 661 664 667 670 672 674 676 679
    680 683 686 686 688 691 696 697 698 698 698 0 2226 2271 0 0 0 0 0 0
    798 798 796 792 787 785 781 778 773 764 755 750 747 746 739 733 725
    720 719 711 708 707 703 701 683 680 679 676 674 668 663 658 650 648
    646 642 640 637 632 629 625 624 624 627 629 629 632 636 637 640 641
    642 644 647 649 650 653 655 657 659 661 662 666 668 671 672 674 676
    679 680 683 686 687 688 693 697 698 698 698 700 0 2170 2170 0 0 0 0
    0 0 798 798 798 796 787 785 781 780 776 766 761 752 749 746 739 733
    727 722 719 713 708 707 704 701 684 682 679 676 674 670 664 659 652
    649 646 643 641 638 635 629 625 625 625 627 629 629 634 636 638 640
    641 643 646 647 649 652 654 655 658 659 662 664 667 668 671 672 675
    676 679 680 683 686 687 688 694 697 698 698 700 700 0 2170 2170 0 0
    0 0 0 0 800 800 800 798 792 787 781 780 776 766 762 754 750 747 742
    733 727 723 719 713 708 707 706 686 686 683 679 676 674 671 666 661
    653 649 646 644 642 640 637 629 625 625 625 628 629 630 634 636 638
    640 641 643 646 648 650 653 654 655 658 659 663 664 667 668 670 672
    676 678 679 682 683 686 687 691 696 697 698 700 701 0 0 2198 2198
    2212 0 0 0 0 0 800 800 800 800 792 787 783 780 778 766 764 757 752
    747 744 733 728 725 720 713 708 707 706 684 684 683 680 678 675 671
    667 662 654 650 647 644 642 640 637 631 627 627 627 628 629 630 635
    637 638 640 641 644 646 648 650 653 654 655 658 661 664 666 667 668
    670 674 676 678 680 682 683 686 687 693 697 698 700 701 701 0 0 2212
    2212 2212 0 0 0 0 0 0 805 803 798 794 790 785 781 778 771 764 759
    754 749 747 734 728 725 722 716 710 708 707 684 684 684 683 679 675
    672 668 659 654 653 649 646 643 641 638 634 628 627 627 628 629 631
    636 637 638 640 642 644 647 648 652 653 655 657 659 661 664 666 667
    670 671 674 678 679 682 683 684 686 687 693 697 698 700 701 0 0 0
    2226 2226 2226 2226 0 0 0 0 0 0 0 798 794 792 790 787 778 771 764
    761 754 750 749 742 733 727 723 717 711 708 707 704 686 686 684 680
    676 672 670 659 654 653 650 647 644 642 638 634 629 628 628 629 630
    632 636 637 638 641 642 646 647 649 652 654 655 657 659 662 664 666
    668 670 672 675 678 680 682 683 684 687 688 691 697 698 701 701 0 0
    0 2226 2226 2226 2226 0 0 0 0 0 0 0 798 794 794 790 789 780 774 769
    764 759 754 749 744 736 727 725 719 714 710 707 704 687 686 684 682
    678 674 670 662 657 653 650 647 644 642 638 631 630 629 629 630 630
    632 635 637 640 641 644 646 647 649 653 654 655 657 661 662 664 666
    670 671 674 675 678 680 682 684 686 687 688 691 697 698 701 703 0 0
    0 2226 2226 2241 2241 2241 0 0 0 0 0 807 800 796 794 792 790 781 778
    769 766 761 755 749 742 739 734 725 720 716 711 708 706 690 687 686
    683 679 675 671 663 658 654 650 647 644 643 640 631 630 629 629 630
    631 632 635 637 640 643 646 647 647 650 653 654 655 657 661 663 666
    667 670 671 674 675 678 680 682 684 687 688 691 693 696 698 701 703
    0 0 0 2226 2226 2226 2226 2241 0 0 0 0 0 807 802 800 796 794 790 781
    778 771 767 762 757 750 742 739 734 727 722 719 714 710 708 691 690
    687 684 680 675 671 668 661 655 650 648 646 643 641 632 630 630 630
    630 631 632 635 638 642 644 646 647 648 650 653 655 657 657 662 664
    666 667 670 672 674 676 679 682 683 686 688 690 691 693 696 700 703
    703 0 0 0 2226 2226 2226 2226 0 0 0 0 0 0 807 802 800 798 794 792
    783 778 771 767 764 761 754 744 739 734 728 723 720 714 711 710 691
    690 688 688 684 676 671 668 662 658 652 648 646 644 642 634 631 630
    630 630 631 632 635 642 643 644 646 647 648 650 654 655 657 658 663
    664 666 668 671 672 674 676 679 682 684 687 688 690 691 694 696 700
    703 703 0 0 0 2226 2226 2226 2226 2226 0 0 0 0 0 807 802 800 800 798
    792 785 778 773 769 764 761 755 752 741 734 730 727 722 717 713 710
    693 691 690 687 686 680 674 670 663 659 657 650 648 646 643 635 632
    631 631 631 632 634 635 641 643 644 646 648 649 652 654 655 658 659
    663 664 667 670 671 672 674 676 680 683 684 687 688 690 693 696 697
    701 703 704 0 0 0 2241 2241 2241 2226 2226 0 0 0 0 0 0 802 800 800
    798 794 787 778 773 769 766 761 757 754 750 734 730 727 723 719 714
    711 708 691 690 687 686 682 676 671 663 659 657 653 649 647 644 635
    634 634 634 632 632 634 636 641 643 644 646 648 649 652 654 657 659
    661 664 666 667 670 671 674 675 678 680 683 686 687 688 690 693 697
    700 703 704 704 0 0 0 2241 2241 2241 2241 2241 0 0 0 0 0 0 811 802
    800 798 794 790 780 776 771 766 761 757 755 750 734 731 728 725 720
    714 713 711 693 691 687 686 682 676 674 668 661 657 654 650 648 647
    636 635 634 634 634 634 635 637 641 644 647 648 648 650 652 654 657
    659 661 664 666 668 670 672 674 676 679 682 683 686 687 690 690 693
    698 701 703 704 707 710 0 0 2241 2241 2241 2241 0 0 0 0 0 0 0 811
    805 802 800 796 792 781 778 773 767 761 757 757 752 734 731 728 725
    722 716 713 711 701 691 688 687 682 678 674 670 662 658 654 652 649
    647 642 635 634 634 634 635 636 638 641 644 648 649 649 652 654 655
    658 659 661 664 666 668 670 672 675 676 679 682 683 686 688 691 691
    694 698 701 703 706 708 710 0 0 2226 2226 2226 2256 0 0 0 0 0 0 815
    815 809 803 800 798 794 783 778 773 769 761 757 757 755 734 731 728
    725 722 717 714 711 701 693 690 688 683 678 675 671 662 658 654 652
    649 647 643 636 634 634 634 635 636 638 642 644 648 649 650 653 654
    655 658 659 661 664 667 670 671 675 675 676 679 682 683 687 690 691
    693 694 698 701 703 707 710 710 710 0 2198 2198 2226 0 0 0 0 0 0 0
    815 813 809 805 800 798 796 794 780 774 769 762 759 757 757 738 734
    730 727 723 719 716 713 697 696 693 688 683 680 676 672 663 659 655
    653 650 648 644 640 635 635 635 636 636 638 642 646 648 649 650 653
    654 655 658 661 662 664 668 671 672 675 676 678 680 682 686 688 691
    693 693 696 698 701 704 707 708 708 710 0 2198 2198 0 0 0 0 0 0 0 0
    815 813 809 803 802 800 796 794 781 774 769 762 759 759 757 739 736
    731 727 723 720 717 714 697 696 693 688 684 682 679 674 668 661 657
    653 652 648 644 642 640 636 636 637 637 640 643 646 649 649 650 653
    655 657 659 661 662 664 668 671 674 675 676 678 680 683 686 688 691
    693 694 696 700 704 706 707 708 708 710 0 2170 0 0 0 0 0 0 0 0 0 0
    819 815 803 802 800 798 794 785 776 771 766 762 759 746 741 738 734
    730 725 722 719 717 698 696 693 690 686 683 679 678 666 661 657 654
    652 649 646 642 640 637 637 637 637 640 644 647 649 649 650 653 655
    657 659 662 663 666 670 671 674 675 678 679 682 684 686 690 691 693
    694 697 700 704 707 708 708 708 710 0 2090 2103 2103 0 0 0 0 0 0 0 0
    819 815 813 805 802 800 794 785 778 773 767 766 762 746 741 738 734
    731 727 723 720 719 698 696 693 690 687 683 679 676 666 662 658 655
    653 650 647 643 641 638 638 638 638 641 644 647 649 650 650 653 655
    658 661 662 664 667 670 671 674 675 678 680 683 684 687 690 691 693
    696 697 703 707 708 708 710 710 711 713 2090 2103 2090 2090 0 0 0 0
    0 0 0 823 817 813 809 805 802 798 790 780 774 767 766 764 746 741
    739 736 733 728 725 720 719 701 696 694 690 687 684 679 676 668 663
    659 657 653 650 648 644 640 638 638 638 640 641 644 647 650 650 650
    654 658 659 661 663 666 668 670 671 674 676 678 682 683 686 687 690
    693 696 697 698 701 707 708 710 710 711 711 713 2078 2078 2028 2028
    0 0 0 0 0 0 0 821 817 813 809 805 803 800 792 781 776 767 766 764
    761 742 739 736 733 728 725 722 719 704 697 694 691 690 687 680 676
    668 663 659 657 654 652 649 644 640 638 638 638 640 641 644 646 650
    650 652 655 658 661 662 663 666 668 670 671 674 676 679 682 683 686
    688 691 693 697 697 700 701 707 708 710 711 711 711 714 2065 2065
    2028 2028 0 0 0 0 0 0 0 821 819 817 809 807 803 800 796 783 780 769
    766 764 761 744 741 738 733 730 727 723 719 704 698 696 693 691 687
    680 676 671 664 659 658 655 653 650 648 640 640 640 640 641 642 644
    646 650 652 654 657 659 661 662 663 666 668 670 671 674 676 680 682
    683 686 688 691 694 697 698 700 701 706 710 710 711 713 713 714 2065
    2065 2065 0 0 0 0 0 0 0 0 823 821 817 811 807 803 802 798 785 781
    776 767 764 762 752 744 739 734 730 727 723 719 704 700 697 696 693
    688 683 676 671 667 663 659 655 654 652 649 640 640 640 640 642 643
    644 647 653 653 655 657 659 661 662 664 667 670 671 672 675 678 680
    683 684 686 688 693 694 697 698 700 701 706 710 711 713 714 714 714
    2065 2065 2065 0 0 0 0 0 0 0 0 0 823 823 813 809 803 802 798 787 783
    778 771 766 762 754 746 741 734 730 727 723 720 704 701 698 696 693
    690 686 676 672 671 664 659 657 655 654 650 642 641 641 641 642 643
    644 648 654 654 655 657 659 661 663 666 667 670 672 674 675 678 682
    684 686 687 690 693 696 697 698 701 703 707 710 713 714 714 714 713
    2040 2065 0 0 0 0 0 0 0 0 0 0 825 825 819 815 807 803 800 789 785
    780 774 767 764 754 746 742 738 731 727 723 720 706 703 700 697 694
    690 687 676 674 671 668 662 658 655 654 646 642 642 641 641 643 644
    646 649 654 655 655 657 659 662 663 666 668 672 672 675 676 678 683
    686 687 688 691 693 696 697 700 701 703 707 710 713 714 716 714 713
    2016 0 0 0 0 0 0 0 0 0 0 0 825 825 819 815 813 803 800 790 785 780
    776 771 766 761 755 746 739 734 727 723 722 708 703 701 698 696 693
    690 676 674 671 668 664 659 658 655 644 643 642 642 642 643 644 646
    648 654 655 657 658 661 663 664 667 670 672 674 675 676 680 683 686
    687 690 691 693 696 698 700 703 704 707 710 714 714 716 716 716 1981
    1981 1993 0 0 0 0 0 0 0 0 0 0 823 819 815 813 803 800 792 787 781
    776 771 767 762 755 746 742 739 736 728 723 710 704 701 698 696 693
    690 679 675 672 668 664 661 658 657 644 643 643 643 643 644 644 647
    648 653 657 658 659 661 663 666 667 670 672 674 675 678 682 684 686
    687 690 693 694 697 698 701 703 706 707 710 714 716 717 717 717 1981
    1981 1981 0 0 0 0 0 0 0 0 0 0 823 819 817 813 807 796 792 787 783
    778 773 769 766 757 749 742 739 736 731 725 710 708 706 703 698 694
    691 688 676 674 670 666 662 659 658 647 644 643 643 643 644 646 648
    648 653 657 658 659 662 663 666 667 670 672 674 676 679 682 684 686
    687 690 693 696 697 700 703 704 706 708 711 714 717 719 719 719 1981
    1981 1981 0 0 0 0 0 0 0 0 0 0 825 823 817 813 809 796 794 790 785
    780 774 771 766 757 749 744 741 738 734 727 710 708 706 703 698 696
    691 688 686 675 670 666 663 661 658 649 644 644 644 644 644 646 648
    648 654 658 659 661 663 664 666 667 671 674 675 676 679 683 684 686
    687 690 693 698 698 701 703 704 706 708 713 716 719 720 720 720 1981
    1981 1981 0 0 0 0 0 0 0 0 0 0 829 827 819 815 811 796 794 790 789
    781 774 773 767 759 750 746 741 738 736 730 723 708 706 703 700 697
    693 690 686 676 671 668 666 663 661 658 646 644 644 644 646 647 648
    649 654 658 659 661 663 664 666 667 671 674 675 676 679 683 686 687
    688 690 694 698 700 701 703 706 707 710 714 717 719 720 720 720 1959
    1959 0 0 0 0 0 0 0 0 0 0 0 831 827 825 817 813 796 794 790 790 783
    776 774 769 755 752 749 741 738 736 731 727 708 706 703 701 698 694
    691 688 676 671 670 667 664 661 659 648 647 646 646 646 648 649 652
    655 658 659 662 663 664 666 668 671 675 676 678 680 683 686 687 688
    691 694 698 700 701 704 706 707 710 714 717 719 720 720 720 1959 0 0
    0 0 0 0 0 0 0 0 0 0 831 829 825 817 815 796 794 792 790 785 778 776
    771 755 752 747 744 739 736 731 730 710 706 704 701 700 696 691 690
    678 672 670 667 664 663 659 658 648 647 647 647 648 650 654 657 659
    661 663 664 666 668 670 672 675 678 678 680 683 686 688 691 693 696
    698 700 701 704 706 707 710 716 717 720 720 720 720 1936 1936 0 0 0
    0 0 0 0 0 0 0 0 831 827 825 823 817 803 794 790 789 785 778 776 773
    757 752 747 744 741 738 733 730 727 707 704 701 700 697 694 691 678
    674 671 668 666 663 659 658 649 648 648 648 648 650 654 658 659 661
    663 664 666 668 671 672 675 678 679 680 683 687 688 691 694 696 698
    700 703 704 706 707 710 716 717 720 722 722 1063 1936 1936 0 0 0 0 0
    0 0 0 0 0 0 0 827 825 823 821 819 794 790 789 785 780 778 774 761
    752 749 746 742 738 733 731 727 707 704 703 700 697 694 691 687 675
    672 668 666 664 662 658 649 648 648 648 649 650 654 659 661 661 663
    664 667 670 671 674 676 679 680 683 684 688 690 693 694 697 698 701
    703 704 706 707 711 716 719 722 722 722 1060 1904 1936 1915 1904
    1904 1894 1894 0 0 0 0 0 0 0 829 827 825 821 819 813 790 789 785 781
    776 773 766 754 749 746 744 739 734 731 723 710 706 704 701 698 694
    691 687 676 674 670 667 664 662 658 655 649 649 649 649 652 654 659
    661 662 664 666 668 670 672 675 676 679 682 684 686 688 691 693 696
    697 700 703 704 706 707 710 711 716 719 722 723 723 1054 1904 1936
    1915 1904 1894 1883 1873 1863 1863 0 0 0 0 0 831 823 821 821 817 813
    790 789 785 781 776 773 761 754 750 747 744 741 736 731 723 711 708
    706 703 701 696 693 683 678 675 672 667 664 663 659 655 650 649 649
    650 653 655 659 662 663 664 666 668 671 674 675 676 679 682 684 686
    688 691 693 696 698 700 703 704 707 708 711 713 717 720 722 723 723
    1054 1873 1883 1883 1883 1883 1873 1863 1853 1853 0 0 0 0 0 0 819
    819 817 815 811 807 790 785 781 778 773 761 754 752 749 746 742 738
    734 731 711 708 707 704 703 697 694 683 679 676 672 667 664 663 662
    658 652 650 650 652 653 655 659 662 663 664 666 668 671 674 675 678
    680 682 684 686 688 691 694 696 698 700 703 706 710 710 713 713 717
    720 723 723 723 1054 1873 1873 1863 1863 1873 1863 1853 1833 1833 0
    0 0 0 0 0 817 815 815 813 811 807 794 789 781 778 773 757 754 752
    749 746 744 739 734 731 714 710 708 706 704 698 696 684 682 679 674
    668 666 664 662 654 653 652 652 653 654 655 659 662 664 666 667 670
    671 675 676 678 680 683 684 687 688 691 694 697 700 700 703 706 710
    710 713 714 717 720 723 723 723 1057 1853 1853 1853 1853 1863 1853
    1853 1833 1833 1853 1853 0 0 0 0 817 815 815 813 811 807 807 794 787
    778 773 757 754 752 750 747 744 741 734 731 714 711 708 707 704 698
    696 687 683 679 674 670 666 664 663 654 653 653 653 653 654 655 659
    663 666 667 668 671 671 675 676 679 680 683 686 687 690 693 696 697
    700 701 704 707 710 711 714 716 717 722 723 723 723 1060 1843 1833
    1823 1823 1853 1843 1843 1833 1833 1833 1853 1853 1853 0 0 0 817 815
    815 813 805 802 794 787 780 778 774 754 752 750 747 744 739 734 733
    716 713 710 708 706 700 697 687 684 682 675 670 667 666 663 654 653
    653 653 653 654 657 659 663 666 668 670 671 671 675 678 680 682 683
    686 688 691 693 696 698 700 701 704 707 710 713 714 716 719 722 723
    725 725 1063 1804 1804 1804 1804 1823 1833 1843 1833 1833 1823 1823
    1833 1833 0 0 0 0 0 0 0 805 802 794 792 780 778 776 774 752 750 749
    744 739 734 728 717 714 711 710 707 703 694 690 687 683 676 671 668
    667 663 654 653 653 653 654 655 658 661 664 666 668 670 671 672 675
    678 680 682 684 686 690 691 693 696 698 700 703 706 707 710 713 716
    717 720 722 725 727 728 728 1794 1804 1804 1804 1813 1823 1823 1823
    1823 1813 1813 1823 1823 1823 1833 0 0 0 0 0 0 0 794 794 780 778 776
    773 771 750 749 744 739 734 727 719 716 713 710 707 706 694 691 688
    684 676 671 670 667 663 658 654 654 654 655 657 659 662 663 664 668
    671 672 674 676 679 680 683 686 688 691 693 693 696 698 700 703 707
    707 710 714 716 717 720 725 727 728 728 728 1785 1804 1794 1794 1804
    1823 1813 1813 1804 1785 1785 1804 1813 1823 1833 0 0 0 0 0 0 0 794
    794 780 778 774 773 771 754 750 746 741 736 727 719 717 714 711 708
    706 694 691 688 684 680 674 672 668 663 659 655 655 655 655 657 659
    662 663 664 668 672 675 675 676 679 682 684 687 690 691 693 694 697
    698 701 704 707 707 710 714 716 717 722 727 728 728 728 728 1776
    1785 1785 1785 1794 1794 1813 1804 1794 1785 1785 1794 1804 0 0 0 0
    0 0 0 0 0 0 0 0 778 774 773 767 759 752 746 742 736 725 720 719 716
    713 710 707 694 691 690 686 682 676 674 671 663 659 657 655 655 655
    658 659 662 663 666 671 674 675 675 678 680 682 684 687 690 691 693
    694 697 698 701 704 707 708 711 714 716 717 725 727 728 728 728 731
    1776 1776 1776 1785 1785 1785 1794 1794 1785 1785 1785 1785 1785 0 0
    0 0 0 0 0 0 0 0 0 0 0 774 773 767 766 764 764 744 739 725 720 719
    717 714 711 707 700 693 690 687 683 678 674 671 668 661 658 657 655
    655 658 659 663 664 666 671 674 675 675 678 680 682 684 687 690 691
    693 696 698 698 703 706 707 708 711 714 716 717 725 727 728 730 730
    731 1757 1766 1776 1776 1776 1776 1794 1776 1776 1776 1776 1776 1785
    0 0 0 0 0 0 0 0 0 0 0 0 0 0 773 764 764 764 759 746 742 725 720 719
    717 714 713 708 701 694 691 687 683 679 675 672 670 663 658 658 657
    657 658 659 663 664 667 671 674 675 676 678 682 683 684 687 690 691
    694 696 698 700 704 707 708 710 711 714 716 720 725 727 730 730 733
    733 1748 1757 1776 1766 1766 1766 1757 1757 1757 1766 1766 1757 1757
    0 0 0 0 0 0 0 0 0 0 0 0 0 0 0 764 764 762 757 752 749 746 722 720
    719 717 713 708 704 700 693 688 684 680 676 674 670 668 661 658 658
    658 658 661 664 666 668 672 674 675 676 679 682 683 686 688 691 693
    694 697 701 703 704 707 708 711 711 714 717 723 727 728 730 731 733
    733 1748 1748 1757 1757 1748 1748 1748 1748 1748 1748 1748 1748 1757
    0 0 0 0 0 0 0 0 0 0 0 0 0 0 0 0 0 762 757 752 749 746 738 728 722
    719 714 711 707 703 693 690 687 680 678 674 671 668 661 659 658 658
    659 661 666 667 670 672 675 676 678 680 682 683 684 687 691 693 694
    697 701 704 706 708 708 711 711 714 719 725 727 728 730 733 733 734
    1739 1739 1748 1748 1739 1739 1739 1748 1739 1722 1722 1722 1722 0 0
    0 0 0 0 0 0 0 0 0 0 0 0 0 0 0 0 0 752 749 744 738 731 727 719 714
    710 708 704 701 693 690 682 678 675 671 668 662 659 659 659 659 663
    666 668 671 672 675 676 679 680 682 683 684 687 691 696 697 698 701
    704 704 708 710 713 714 716 722 723 727 728 731 733 734 734 1722
    1739 1739 1739 1739 1739 1739 1731 1722 1713 1713 1713 0 0 0 0 0
    1739 1739 1739 1739 1748 0 0 0 0 0 0 0 0 0 0 0 0 744 736 731 730 728
    714 710 707 703 701 693 690 684 679 675 672 670 663 661 661 661 662
    663 667 668 671 674 675 676 679 680 682 683 684 687 693 696 696 698
    700 704 704 708 711 714 716 717 722 723 727 728 731 734 734 734 1713
    1713 1713 1722 1731 1731 1722 1722 1713 1713 1713 1713 1722 1722
    1722 1731 1731 1731 1731 1731 1731 1722 1722 0 0 0 0 0 0 0 0 0 0 0 0
    731 731 730 727 723 711 707 703 701 694 690 686 680 676 674 671 667
    663 663 663 663 663 667 670 672 674 675 676 679 682 682 684 686 688
    693 696 696 698 700 703 706 710 711 714 719 720 722 723 727 728 731
    734 736 736 1705 1705 1705 1722 1731 1722 1713 1705 1705 1705 1713
    1713 1713 1705 1705 1705 1713 1722 1722 1713 1713 1713 1713 0 0 0 0
    0 0 0 0 0 0 0 0 730 730 728 727 723 714 707 703 700 693 690 687 682
    676 675 672 668 664 663 663 663 663 668 671 674 675 676 678 680 682
    682 684 686 690 693 694 697 698 700 703 706 710 711 716 720 722 722
    723 727 728 730 734 736 736 1696 1696 1696 1705 1722 1705 1705 1696
    1688 1688 1705 1696 1696 1705 1696 1696 1696 1696 1705 1705 1705
    1696 1696 0 0 0 0 0 0 0 0 0 0 0 805 730 730 728 727 723 719 707 703
    696 693 690 687 684 680 676 674 670 664 663 663 663 664 668 671 674
    675 676 678 680 682 684 686 688 690 693 694 697 700 703 706 708 711
    711 716 719 722 723 725 727 728 728 734 738 0 1688 1688 1680 1680
    1688 1688 1688 1688 1680 1680 1688 1688 1688 1688 1696 1696 1696
    1688 1688 1696 1688 1688 1688 1688 0 0 0 0 0 0 0 0 0 805 803 802 731
    728 727 723 719 710 706 696 693 690 687 684 682 678 675 672 666 664
    663 663 664 668 671 674 675 678 678 680 682 684 686 688 690 693 696
    698 701 704 707 708 711 713 716 719 722 723 723 727 728 728 0 0 0
    1663 1671 1671 1680 1688 1680 1680 1680 1680 1680 1680 1688 1688
    1688 1680 1671 1671 1680 1680 1688 1688 1688 1688 1688 0 0 0 0 0 0 0
    0 0 805 802 802 731 728 727 723 719 714 707 703 693 690 687 684 682
    679 675 672 667 664 664 664 664 668 672 674 676 678 679 682 684 686
    687 690 691 694 697 698 701 704 707 708 711 714 717 719 722 723 723
    728 0 0 0 0 0 1663 1663 1663 1663 1671 1671 1671 1680 1680 1671 1671
    1688 1680 1680 1680 1671 1671 1671 1671 1680 1671 1671 1671 1671 0 0
    0 0 0 0 0 0 0 807 802 802 802 730 727 723 720 716 708 703 703 690
    687 684 682 679 676 671 668 666 664 664 666 668 672 675 676 678 679
    682 684 686 687 691 693 696 697 700 703 704 707 708 711 714 717 719
    0 0 0 0 0 0 0 0 0 1663 1655 1655 1655 1655 1663 1671 1671 1671 1671
    1671 1688 1680 1655 1655 1647 1647 1663 1663 1671 1671 1671 1671
    1671 0 0 0 0 0 0 0 0 0 807 803 802 802 802 728 723 720 716 713 704
    703 700 687 684 682 679 676 671 668 667 666 666 667 671 672 675 676
    679 680 682 684 687 688 691 694 696 698 700 703 706 707 708 711 714
    717 0 0 0 0 0 0 0 0 0 0 1663 1647 1647 1647 1647 1647 1647 1655 1655
    1680 1680 1639 1639 1639 1639 1647 1647 1647 1647 1671 1671 1671
    1671 1680 0 0 0 0 0 0 0 0 0 815 807 803 802 802 807 723 720 716 711
    706 704 700 693 691 683 679 676 671 668 667 667 667 668 671 672 675
    676 678 680 683 686 687 690 693 694 697 698 700 703 706 707 708 0 0
    0 0 0 0 0 0 0 0 0 0 0 1655 1647 1639 1639 1639 1639 1639 1647 1647
    1647 1647 1639 1639 1639 1639 1639 1639 1639 1647 0 0 0 0 0 0 0 0 0
    0 0 0 819 817 815 805 803 803 805 807 815 722 716 711 707 704 700
    693 691 684 680 676 671 668 668 667 667 668 672 674 675 676 678 680
    684 686 687 690 693 696 697 698 698 703 706 708 0 0 0 0 0 0 0 0 0 0
    0 0 0 0 1639 1624 1624 1624 1624 1624 1639 1632 1632 1632 1624 1624
    1639 1616 1616 1639 1639 1639 1647 0 0 0 0 0 0 0 0 0 0 0 0 817 815
    813 805 803 803 805 809 813 815 716 714 708 703 700 697 693 688 682
    679 674 670 668 668 668 670 672 675 675 676 678 682 684 686 687 688
    694 696 697 698 698 703 0 0 0 0 0 0 0 0 0 0 0 0 1094 1073 1073 1077
    1639 1624 1624 1624 1624 1624 1624 1624 1624 1624 1616 1616 1616
    1616 1616 0 0 0 0 0 0 0 0 0 0 0 0 0 0 0 0 813 811 811 807 805 805
    807 809 813 813 813 714 708 703 700 697 693 690 683 679 675 671 670
    668 668 670 674 675 675 676 678 682 684 686 687 688 694 696 697 698
    701 704 0 0 0 0 0 0 0 0 0 0 0 1101 1094 1070 1070 1070</data></Depth11567>
</opencv_storage>
