<?xml version="1.0"?>
<opencv_storage>
<Depth5375 type_id="opencv-matrix">
  <rows>63</rows>
  <cols>56</cols>
  <dt>w</dt>
  <data>
    4708 4774 4774 4774 4774 4842 4774 4774 4774 1572 1550 1550 1543
    1543 1550 1550 1550 1557 1579 1594 1601 1609 1616 1624 1632 1639
    1647 1655 1663 1663 1671 1680 1696 1705 1713 1722 1731 1739 1757
    1757 1757 5210 5210 5210 5210 5210 5210 5132 5132 5132 5132 5132
    5056 5056 4983 4983 4708 4774 4774 4774 4774 4774 4842 1564 1564
    1564 1557 1550 1543 1543 1550 1550 1557 1557 1579 1594 1594 1609
    1616 1624 1632 1639 1639 1655 1655 1663 1671 1680 1688 1705 1713
    1722 1731 1748 1757 1757 1757 1757 5210 5210 5210 5210 5210 5132
    5132 5132 5132 5132 5056 4983 4983 4911 4708 4708 4708 4708 4708
    4774 1564 1564 1564 1564 1557 1550 1550 1550 1550 1557 1557 1564
    1572 1579 1586 1594 1601 1609 1624 1632 1639 1647 1655 1655 1663
    1671 1680 1696 1713 1731 1739 1739 1757 1757 1757 1757 5291 5291
    5291 5210 5210 5132 5132 5132 5132 5132 5056 4983 4983 4911 4522
    4522 4708 4645 1557 1557 1564 1564 1557 1557 1550 1550 1550 1550
    1550 1550 1557 1557 1564 1579 1586 1594 1601 1609 1616 1624 1632
    1639 1655 1655 1663 1663 1680 1696 1705 1722 1731 1731 1739 1739
    1739 1748 1748 5374 5374 5210 5210 5210 5132 5132 5132 5132 5056
    4983 4911 4911 4522 4522 4522 4645 1557 1557 1564 1564 1557 1557
    1550 1550 1550 1550 1550 1550 1550 1557 1557 1572 1579 1594 1601
    1609 1616 1624 1632 1639 1647 1655 1655 1655 1688 1696 1705 1713
    1722 1731 1731 1739 1731 1731 1731 5210 5210 5210 5210 5210 5132
    5132 5132 5132 5056 4983 4911 4911 4522 1594 1594 1586 1579 1564
    1564 1564 1557 1557 1550 1543 1536 1536 1543 1543 1550 1550 1557
    1572 1579 1586 1594 1601 1609 1616 1624 1639 1647 1655 1655 1655
    1688 1696 1696 1705 1713 1731 1731 1739 1731 1731 1731 5210 5210
    5210 5210 5210 5132 5132 5132 5132 5132 5056 4911 4911 1586 1586
    1586 1579 1579 1572 1564 1564 1557 1557 1550 1543 1536 1536 1536
    1536 1543 1543 1550 1572 1579 1586 1594 1601 1601 1616 1624 1639
    1647 1655 1655 1655 1688 1688 1696 1696 1696 1722 1731 1731 1731
    1731 1731 5291 5291 5210 5210 5210 5132 5132 5132 5132 5132 5056
    4983 4983 1594 1586 1586 1579 1564 1564 1572 1564 1557 1557 1550
    1543 1543 1536 1536 1536 1536 1543 1550 1572 1579 1586 1594 1601
    1601 1624 1624 1632 1639 1655 1655 1655 1680 1680 1688 1688 1696
    1722 1731 1731 1731 1731 1731 1731 5210 5210 5210 5210 5132 5132
    5132 5132 5132 5056 4983 4983 1594 1586 1586 1579 1564 1564 1572
    1564 1557 1557 1550 1543 1543 1536 1536 1536 1536 1543 1550 1564
    1572 1572 1586 1594 1594 1601 1624 1632 1632 1647 1655 1655 1680
    1680 1688 1688 1696 1705 1722 1722 1731 1731 1731 1731 5210 5210
    5210 5210 5132 5132 5132 5132 5056 5056 4983 4983 1586 1586 1579
    1572 1564 1564 1564 1564 1564 1557 1550 1543 1543 1536 1536 1536
    1536 1543 1550 1564 1572 1572 1579 1579 1594 1594 1601 1632 1632
    1632 1647 1655 1671 1680 1688 1688 1696 1705 1722 1722 1722 1731
    1731 1731 5210 5210 5210 5210 5132 5132 5132 5056 5056 5056 4983
    4983 1586 1586 1579 1572 1564 1564 1564 1564 1564 1557 1557 1550
    1543 1536 1536 1536 1536 1536 1557 1564 1564 1572 1572 1579 1594
    1594 1601 1624 1632 1632 1639 1647 1663 1663 1680 1688 1696 1705
    1722 1722 1722 1731 1731 1739 1739 5210 5210 5210 5210 5132 5132
    5056 5056 5056 4983 4983 1586 1586 1586 1579 1564 1564 1564 1564
    1564 1557 1557 1550 1543 1536 1536 1536 1536 1536 1543 1557 1564
    1564 1572 1579 1586 1594 1601 1616 1624 1632 1639 1647 1655 1663
    1671 1680 1688 1696 1713 1713 1722 1722 1731 1739 1739 5210 5210
    5210 5210 5132 5132 5132 5056 5056 5056 4983 0 1586 1586 1586 1579
    1572 1564 1564 1564 1557 1557 1550 1543 1536 1536 1529 1529 1536
    1536 1557 1564 1564 1572 1579 1586 1594 1601 1616 1624 1632 1632
    1647 1647 1647 1663 1680 1688 1696 1705 1705 1722 1722 1731 1739
    1739 1739 5291 5210 5210 5132 5132 5132 5132 5056 5056 4983 0 0 1594
    1586 1579 1572 1564 1564 1564 1557 1557 1550 1550 1543 1536 1529
    1529 1529 1536 1550 1550 1572 1572 1579 1579 1594 1601 1609 1616
    1624 1632 1639 1647 1647 1663 1680 1688 1696 1696 1705 1713 1722
    1722 1731 1739 1739 5210 5210 5210 5132 5132 5132 5132 5132 5056
    4983 0 1586 0 1586 1572 1572 1564 1564 1564 1557 1557 1550 1550 1543
    1536 1529 1529 1529 1536 1550 1550 1572 1572 1572 1579 1586 1601
    1601 1609 1616 1632 1639 1639 1647 1655 1671 1688 1696 1696 1696
    1705 1722 1722 1731 1731 1731 5210 5210 5210 5210 5132 5132 5132
    5132 5056 5056 0 0 0 1586 1572 1572 1564 1564 1557 1557 1557 1557
    1557 1543 1536 1536 1536 1536 1536 1550 1550 1564 1572 1572 1579
    1586 1594 1601 1601 1616 1632 1639 1639 1647 1655 1671 1688 1688
    1696 1696 1705 1722 1722 1731 1731 1731 5210 5210 5210 5210 5210
    5132 5132 5132 5132 5056 0 4522 0 1586 1586 1572 1564 1564 1557 1557
    1550 1550 1550 1536 1529 1529 1529 1536 1536 1543 1543 1564 1564
    1572 1572 1586 1594 1601 1601 1609 1632 1639 1639 1647 1655 1663
    1688 1688 1696 1696 1696 1713 1722 1731 1731 1731 1731 5291 5210
    5210 5210 5132 5132 5132 5056 5056 4522 4522 4463 0 0 1579 1564 1564
    1557 1557 1550 1550 1550 1536 1529 1529 1529 1529 1529 1536 1543
    1557 1564 1572 1572 1586 1594 1594 1594 1601 1624 1632 1639 1647
    1655 1655 1655 1671 1688 1696 1696 1705 1722 1722 1731 1731 1731
    5374 5374 5210 5210 5132 5132 5132 5056 5056 4463 4463 4463 0 1579
    1579 1572 1572 1564 1557 1557 1550 1550 1543 1536 1529 1529 1529
    1529 1536 1543 1550 1564 1564 1572 1572 1586 1586 1586 1601 1616
    1632 1639 1639 1647 1655 1655 1671 1688 1688 1688 1696 1713 1722
    1731 1731 1731 1731 5291 5291 5210 5210 5132 5132 5056 4983 4463
    4463 4463 0 1586 1586 1572 1572 1564 1557 1557 1557 1550 1543 1536
    1529 1529 1529 1529 1536 1536 1543 1564 1564 1564 1572 1579 1579
    1579 1586 1616 1624 1624 1632 1639 1639 1655 1671 1680 1688 1688
    1696 1705 1722 1722 1722 1731 1731 5291 5291 5210 5210 5132 5132
    5056 4983 4463 4463 4463 0 1586 1586 1572 1572 1564 1557 1557 1557
    1550 1543 1536 1536 1536 1536 1536 1536 1536 1543 1557 1557 1564
    1572 1579 1579 1579 1586 1609 1624 1624 1632 1632 1639 1655 1663
    1671 1680 1688 1688 1696 1722 1722 1722 1731 1731 5374 5210 5210
    5210 5132 5132 5056 5056 4463 4463 4463 4463 1572 1572 1572 1564
    1564 1557 1557 1557 1543 1536 1536 1536 1536 1536 1536 1536 1536
    1543 1550 1557 1564 1572 1572 1579 1586 1594 1601 1616 1624 1624
    1632 1632 1647 1655 1671 1680 1688 1688 1696 1713 1722 1731 1731
    1731 5210 5210 5210 5132 5132 5132 5132 5056 4522 4463 4463 4463
    1572 1572 1572 1564 1564 1557 1557 1557 1543 1536 1536 1536 1536
    1536 1536 1536 1536 1543 1550 1557 1564 1572 1572 1579 1579 1586
    1586 1601 1624 1624 1632 1632 1639 1655 1671 1680 1688 1688 1688
    1696 1722 1731 1731 1731 5210 5210 5210 5132 5132 5132 5132 5056
    4522 4463 4463 4463 1572 1572 1572 1572 1564 1564 1557 1557 1557
    1536 1536 1536 1536 1536 1536 1536 1536 1543 1550 1557 1564 1564
    1572 1572 1579 1586 1586 1594 1601 1624 1632 1632 1639 1655 1663
    1671 1680 1680 1688 1696 1713 1722 1731 1731 1731 5210 5210 5132
    5132 5132 5132 5132 4522 4522 4522 4522 1564 1564 1564 1564 1564
    1564 1564 1564 1557 1543 1536 1536 1536 1536 1536 1529 1529 1536
    1543 1550 1557 1564 1564 1572 1579 1579 1586 1594 1594 1616 1632
    1632 1639 1647 1655 1663 1680 1680 1688 1696 1696 1705 1722 1722
    1722 1722 5210 5210 5210 5210 5210 5132 4522 4522 4522 4522 1564
    1564 1564 1564 1564 1564 1564 1564 1557 1550 1536 1536 1536 1536
    1536 1529 1529 1536 1536 1543 1557 1564 1564 1564 1579 1579 1586
    1594 1594 1609 1624 1632 1632 1639 1647 1655 1663 1671 1688 1688
    1696 1705 1722 1722 1722 1722 5210 5210 5210 5210 5210 5132 4522
    4522 4522 4522 4522 1550 1550 1550 1564 1572 1564 1564 1557 1550
    1536 1536 1536 1529 1529 1523 1523 1529 1536 1543 1550 1557 1564
    1564 1579 1579 1586 1594 1594 1609 1616 1624 1632 1632 1647 1655
    1663 1671 1680 1688 1696 1696 1713 1722 1731 1731 5132 5132 5132
    5210 5132 5132 4522 4522 4522 4522 4522 1550 1550 1550 1572 1557
    1557 1557 1557 1550 1543 1536 1536 1529 1529 1523 1523 1529 1529
    1536 1543 1557 1564 1564 1572 1579 1586 1594 1601 1601 1616 1624
    1624 1632 1639 1655 1663 1671 1680 1688 1696 1696 1713 1722 1722
    1722 5132 5132 5132 5210 5132 5132 4522 4522 4522 4522 4522 4522
    1579 1579 1579 1557 1557 1557 1557 1550 1543 1536 1536 1536 1536
    1529 1529 1529 1529 1536 1543 1557 1557 1564 1572 1572 1586 1586
    1586 1594 1609 1616 1624 1632 1639 1647 1663 1663 1680 1688 1688
    1696 1713 1722 1722 1722 5132 5132 5132 5210 5132 5132 4522 4522
    4522 4522 4522 4522 4522 1586 1572 1564 1564 1557 1550 1550 1543
    1536 1536 1536 1536 1529 1529 1529 1529 1536 1536 1543 1543 1564
    1564 1572 1572 1579 1579 1594 1601 1616 1624 1624 1632 1639 1663
    1663 1671 1680 1688 1696 1713 1713 1722 1722 5210 5210 5210 5210
    5132 5132 4522 4522 4522 4522 4522 4522 4522 1572 1572 1564 1564
    1557 1550 1550 1543 1536 1536 1536 1536 1529 1529 1529 1529 1529
    1536 1536 1543 1550 1564 1564 1572 1579 1579 1586 1601 1616 1624
    1624 1632 1632 1655 1655 1671 1671 1680 1696 1713 1713 1722 1731
    1731 5291 5291 5210 5132 5132 4522 4522 4522 4522 4522 4295 4295
    4295 1564 1564 1564 1557 1550 1543 1536 1536 1536 1536 1529 1529
    1523 1523 1529 1529 1536 1536 1536 1543 1564 1564 1572 1572 1579
    1586 1601 1609 1624 1624 1632 1632 1655 1655 1663 1671 1680 1696
    1696 1705 1705 1731 1731 5210 5210 5210 5132 5132 4522 4522 4522
    4522 4522 4295 4295 4295 1564 1557 1557 1557 1550 1543 1536 1536
    1536 1536 1529 1529 1523 1523 1529 1529 1536 1536 1536 1543 1557
    1564 1572 1572 1579 1586 1594 1609 1616 1624 1624 1632 1647 1655
    1655 1663 1680 1696 1696 1705 1696 1696 1696 5210 5210 5132 5132
    5132 4522 4522 4522 4522 4522 4522 4522 4522 1550 1550 1550 1557
    1550 1550 1543 1536 1536 1536 1536 1529 1529 1529 1536 1536 1536
    1536 1543 1543 1543 1564 1572 1572 1579 1586 1594 1601 1616 1624
    1624 1632 1639 1655 1655 1663 1680 1688 1688 1696 1696 1696 1731
    1731 5210 5132 5132 5132 4522 4522 4522 4522 4463 4463 4522 4522
    1550 1550 1550 1557 1550 1550 1543 1536 1536 1536 1536 1529 1529
    1529 1529 1529 1536 1536 1543 1543 1543 1557 1564 1572 1572 1579
    1586 1594 1609 1624 1624 1632 1639 1647 1655 1663 1680 1680 1688
    1696 1696 1713 1722 1722 5132 5132 5132 5132 4463 4522 4522 4522
    4463 4463 4522 4522 1557 1557 1557 1564 1557 1557 1550 1536 1536
    1536 1536 1536 1529 1529 1516 1516 1516 1523 1529 1536 1543 1543
    1557 1564 1564 1572 1579 1586 1601 1616 1624 1632 1632 1647 1663
    1663 1680 1680 1688 1696 1696 1713 1722 1722 5132 5132 5132 5132
    4463 4522 4522 4522 4463 4463 4522 4522 4522 1564 1564 1564 1557
    1550 1550 1536 1536 1536 1536 1536 1529 1529 1516 1516 1516 1523
    1523 1529 1543 1543 1550 1550 1557 1572 1572 1579 1586 1601 1616
    1616 1624 1632 1663 1663 1671 1671 1688 1696 1696 1713 1713 1722
    1722 5132 5132 5132 4522 4522 4522 4522 4522 4522 4522 4522 0 1564
    1564 1564 1557 1550 1543 1543 1536 1536 1543 1543 1529 1529 1516
    1516 1516 1516 1516 1523 1536 1543 1543 1550 1557 1572 1572 1572
    1579 1594 1601 1616 1624 1624 1655 1655 1663 1663 1688 1696 1696
    1713 1713 1722 1722 1722 5210 5132 4522 4522 4522 4522 4522 4522
    4582 4582 0 1572 1572 1557 1557 1550 1543 1543 1536 1536 1543 1536
    1536 1529 1529 1516 1516 1516 1516 1516 1536 1536 1543 1550 1557
    1564 1572 1572 1579 1586 1594 1616 1624 1624 1632 1647 1663 1663
    1680 1688 1696 1705 1713 1722 1722 1722 5132 5132 4522 4522 4522
    4522 4522 4582 4582 4582 4522 1557 1557 1557 1557 1550 1543 1543
    1536 1536 1543 1536 1536 1529 1529 1516 1516 1516 1516 1516 1536
    1536 1543 1543 1543 1564 1572 1572 1579 1579 1594 1616 1624 1632
    1632 1647 1655 1663 1663 1688 1696 1696 1696 1705 1705 1722 1722
    5132 4405 4522 4522 4522 4522 4522 4522 4522 4522 0 1564 1564 1557
    1557 1550 1536 1536 1536 1543 1536 1536 1529 1529 1523 1516 1516
    1516 1516 1523 1529 1536 1536 1543 1557 1572 1572 1579 1579 1601
    1616 1616 1624 1632 1632 1647 1655 1655 1663 1688 1688 1696 1696
    1696 1696 1696 5210 4405 4463 4522 4522 4522 4522 4463 4463 0 0 0
    1564 1564 1557 1550 1536 1536 1536 1536 1536 1536 1529 1529 1529
    1516 1516 1516 1516 1516 1523 1536 1536 1543 1557 1572 1572 1572
    1572 1594 1601 1609 1616 1624 1632 1639 1647 1655 1655 1688 1688
    1696 1688 1688 1696 1696 5210 4463 4463 4463 4522 4522 4522 4463
    4463 0 0 0 1564 1564 1557 1557 1536 1536 1536 1536 1536 1536 1529
    1529 1529 1516 1516 1516 1516 1516 1523 1536 1536 1543 1557 1572
    1572 1572 1572 1594 1601 1609 1616 1616 1624 1632 1639 1655 1655
    1671 1680 1688 1688 1688 1696 1696 1696 4463 4463 4463 4522 4522
    4522 4522 4522 0 0 0 0 1564 1557 1557 1550 1543 1543 1536 1536 1536
    1536 1523 1523 1516 1516 1516 1516 1516 1523 1529 1536 1543 1557
    1564 1564 1564 1572 1586 1601 1609 1616 1616 1624 1632 1639 1647
    1655 1663 1680 1688 1688 1696 1696 1696 1696 4405 4405 4405 4463
    4522 4522 4522 4522 0 0 0 1564 1564 1557 1557 1557 1550 1543 1536
    1536 1536 1536 1523 1523 1516 1516 1516 1516 1516 1516 1529 1536
    1543 1550 1564 1564 1564 1572 1572 1601 1616 1616 1616 1624 1624
    1632 1647 1655 1663 1671 1688 1688 1688 1696 1696 1696 4349 4405
    4405 4463 4522 4522 4522 4522 0 0 0 1557 0 1557 1557 1550 1550 1543
    1536 1536 1536 1536 1523 1516 1516 1516 1516 1509 1509 1509 1523
    1536 1536 1550 1557 1564 1564 1572 1572 1601 1609 1616 1616 1624
    1624 1632 1647 1655 1663 1671 1680 1688 1688 1688 1696 1705 4349
    4405 4405 4463 4522 4522 4582 4582 4582 0 0 1564 0 1557 1557 1543
    1543 1543 1543 1536 1529 1529 1523 1516 1516 1516 1509 1509 1509
    1509 1516 1536 1536 1543 1550 1564 1564 1564 1572 1594 1601 1609
    1616 1624 1624 1632 1639 1639 1655 1663 1680 1680 1688 1688 1688
    1696 4349 4349 4405 4405 4522 4522 4522 4522 0 4463 0 1564 1564 1557
    1557 1543 1543 1543 1543 1536 1529 1523 1523 1516 1516 1516 1509
    1509 1509 1509 1516 1516 1536 1543 1543 1557 1564 1564 1572 1579
    1594 1601 1609 1616 1624 1632 1639 1639 1655 1663 1671 1680 1680
    1688 1688 1696 4349 4349 4405 4405 4463 4522 4522 4463 4463 4463
    4405 1564 1564 1557 1550 1543 1536 1536 1543 1536 1529 1523 1523
    1523 1523 1516 1509 1509 1509 1509 1516 1516 1536 1536 1543 1550
    1557 1564 1572 1579 1594 1601 1609 1616 1624 1632 1632 1632 1647
    1655 1655 1671 1680 1680 1688 1696 4349 4349 4405 4405 4463 4522
    4522 4463 4405 4405 0 1564 1564 1557 1550 1543 1536 1536 1543 1536
    1536 1529 1523 1523 1523 1516 1516 1509 1509 1509 1516 1516 1536
    1536 1543 1543 1557 1564 1572 1579 1594 1601 1601 1609 1624 1624
    1632 1632 1639 1647 1655 1671 1680 1680 1688 1696 4405 4463 4463
    4463 4463 4463 4463 4463 4405 4405 4463 0 1564 1557 1550 1543 1543
    1543 1543 1543 1536 1529 1529 1523 1516 1516 1516 1509 1509 1509
    1516 1516 1529 1536 1543 1543 1557 1564 1572 1572 1594 1601 1601
    1601 1609 1616 1624 1632 1639 1647 1655 1671 1680 1688 1696 1705
    4405 4405 4463 4463 4463 4463 4463 4463 4463 4463 4463 0 1557 1557
    1550 1543 1543 1543 1543 1543 1536 1529 1529 1523 1516 1516 1516
    1509 1509 1509 1516 1516 1523 1529 1536 1543 1550 1557 1564 1572
    1572 1594 1594 1601 1601 1609 1624 1624 1632 1639 1655 1663 1688
    1696 1705 1713 4349 4405 4405 4405 4405 4405 4405 4463 4463 4522
    4522 4522 4405 1557 1557 1543 1543 1543 1543 1536 1536 1536 1529
    1529 1516 1516 1516 1509 1509 1509 1516 1516 1516 1523 1536 1543
    1550 1550 1557 1564 1572 1594 1594 1601 1601 1609 1624 1624 1632
    1639 1655 1663 1688 5210 5210 5210 4349 4349 4405 4405 4405 4405
    4405 4463 4463 4463 4405 4405 4405 4405 1550 1550 1550 1550 1550
    1536 1536 1536 1536 1529 1523 1516 1516 1509 1509 1509 1509 1516
    1516 1516 1523 1536 1543 1550 1557 1564 1572 1579 1594 1601 1601
    1609 1616 1632 1632 1639 1663 1663 5291 5210 5210 5210 4349 4349
    4405 4405 4405 4405 4405 4463 4463 4463 4405 4405 4405 4405 1557
    1557 1557 1550 1543 1543 1543 1536 1536 1529 1523 1516 1516 1509
    1509 1509 1509 1516 1516 1516 1516 1529 1536 1543 1543 1564 1572
    1579 1594 1601 1601 1609 1616 1632 1639 1671 5210 5210 5210 5210
    5210 5210 4349 4349 4349 4349 4405 4405 4405 4463 4463 4463 4405
    4405 4405 4405 4349 1564 1564 1557 1543 1543 1543 1536 1536 1536
    1529 1523 1523 1509 1509 1509 1509 1509 1509 1509 1509 1529 1536
    1543 1543 1564 1579 1586 1594 1601 1601 5132 5132 5132 5291 5291
    5210 5210 5210 5210 5210 5210 4349 4349 4349 4349 4349 4405 4405
    4463 4463 4463 4405 4405 4349 4349 4349 4405 1550 1550 1543 1543
    1543 1536 1536 1529 1529 1523 1516 1509 1509 1509 1509 1509 1509
    1509 1509 1509 1543 1543 1543 1543 5056 5056 5056 5132 5132 5132
    5132 5132 5132 5210 5210 5210 5210 5210 5210 5210 4295 4295 4295
    4295 4349 4349 4405 4405 4405 4463 4463 4463 4349 4349 4405 4405
    1543 1543 1543 1536 1536 1536 1529 1529 1529 1523 1516 1516 1516
    1509 1509 0 0 0 0 0 0 4911 4911 4911 5056 5056 5056 0 5132 5132 5132
    5056 5056 5132 5210 5210 5210 5210 5210 5210 4295 4295 4295 4295
    4349 4349 4349 4405 4405 4463 4463 4463 4349 4349 4405 4405 1543
    1543 1543 1536 1536 1536 1529 1529 1529 1529 1529 1529 1516 1516 0 0
    0 0 0 0 4911 4911 4911 4911 5056 5056 5056 0 5132 5132 5132 5056
    5056 5132 5210 5291 5210 5210 5210 5210 4295 4295 4295 4349 4349
    4349 4349 4349 4349 4405 4405 4463 4405 4295 4295 4295 1543 1543
    1543 1543 1536 1536 1536 1529 1529 1529 1529 1536 1529 1529 0 0 0 0
    0 0 4911 4911 4911 4983 4911 4911 4911 0 5132 5132 5132 5056 5056
    5132 5210 5291 5210 5210 5210 5210 4295 4295 4295 4349 4349 4349
    4349 4349 4349 4349 4405 4405 4405 4295 4295 4463 4582 1536 1536
    1536 1536 1536 1529 1529 1529 1536 1536 1536 1543 0 0 0 0 0 0 0 4911
    4911 4911 4983 4911 4911 4911 1564 1564 5056 5056 5056 5056 5132
    5210 5210 5210 5210 5210 5132 4295 4295 4295 4349 4349 4349 4349
    4349 4349 4349 4405 4405 4405 4463 4349 4349 4522 1536 1536 1536
    1536 1536 1529 1529 1529 1543 0 0 0 0 0 0 0 0 0 0 0 4911 4911 4983
    1516 1516 1564 1564 1564 5056 5056 5056 5132 5132 5132 5132 1647
    1647 1655 1655 4295 4295 4295 4349 4349 4349 4405 4349 4349 4405
    4405 4405 4405 4405 4349 4349 4522 4522 1536 1536 1536 1536 1536
    1523 1523 0 0 0 0 0 0 0 0 0 0 0 0 5056 4983 1523 1516 1516 1564 1564
    1564 1536 1536 5132 5056 5056 5132 1632 1632 1639 1639 1639</data></Depth5375>
</opencv_storage>
