<?xml version="1.0"?>
<opencv_storage>
<Depth16012 type_id="opencv-matrix">
  <rows>34</rows>
  <cols>36</cols>
  <dt>w</dt>
  <data>
    6622 6622 6753 6753 6622 2317 2286 2286 2286 2271 2271 2226 2226
    2226 2226 2271 2286 2286 2286 2301 2301 2301 2317 2301 2301 6622
    6753 6753 2333 2333 2349 2349 2349 6889 6889 6889 6497 6622 6622
    6622 6622 2301 2301 2286 2271 2271 2256 2226 2226 2226 2226 2271
    2271 2286 2286 2301 2301 2301 2301 2301 2301 2301 2301 2301 2317
    2333 2333 2349 2349 2349 2349 6889 6497 6622 6622 6622 6622 2301
    2286 2286 2271 2256 2256 2241 2241 2241 2256 2256 2256 2256 2271
    2271 2286 2286 2286 2286 2301 2301 2301 2301 2317 2317 2333 2349
    2349 2349 2333 2333 6497 6622 6622 6622 2301 2286 2286 2271 2271
    2256 2241 2241 2241 2241 2241 2241 2256 2256 2271 2271 2286 2286
    2286 2286 2301 2301 2301 2317 2317 2317 2333 2333 2349 2333 2333
    2333 6497 6622 6622 6622 2301 2286 2286 2271 2271 2241 2241 2241
    2241 2241 2241 2241 2241 2256 2271 2271 2271 2286 2286 2286 2301
    2301 2301 2317 2317 2317 2333 2333 2333 2333 2333 2333 6622 6622
    2381 2381 2301 2286 2286 2271 2256 2241 2241 2241 2241 2241 2241
    2241 2241 2256 2256 2271 2271 2286 2286 2286 2286 2286 2301 2317
    2317 2317 2333 2333 2333 2333 2333 2333 6497 6497 2381 2381 2301
    2286 2271 2271 2256 2241 2241 2241 2226 2226 2241 2241 2241 2256
    2256 2271 2271 2271 2286 2286 2286 2286 2286 2301 2317 2317 2317
    2317 2333 2333 2317 2317 6375 6375 2398 2381 2301 2286 2271 2256
    2241 2226 2226 2226 2226 2226 2226 2241 2241 2256 2256 2271 2271
    2271 2271 2271 2286 2286 2286 2301 2317 2317 2317 2317 2333 2333
    2317 2317 6375 6375 6375 2286 2286 2286 2271 2256 2241 2226 2226
    2226 2226 2226 2226 2241 2241 2256 2256 2271 2271 2271 2271 2271
    2286 2286 2286 2301 2317 2317 2317 2317 2333 2333 2317 2317 6497
    6497 6497 2256 2256 2286 2271 2256 2226 2226 2226 2226 2226 2226
    2226 2241 2241 2256 2256 2271 2271 2271 2271 2286 2286 2286 2286
    2301 2317 2317 2317 2317 2333 2333 2333 2333 6375 6259 6259 2256
    2256 2286 2271 2241 2226 2226 2226 2226 2226 2226 2226 2226 2241
    2241 2256 2271 2271 2271 2286 2286 2286 2286 2286 2301 2317 2317
    2317 2333 2333 2333 2333 2333 6375 6259 6259 2271 2271 2271 2256
    2241 2226 2226 2226 2226 2226 2226 2226 2226 2226 2226 2256 2256
    2271 2271 2286 2286 2286 2286 2286 2301 2317 2317 2317 2333 2333
    2333 2333 2333 6497 6497 6497 2271 2271 2271 2256 2241 2226 2226
    2226 2226 2226 2226 2226 2226 2226 2226 2256 2256 2271 2271 2286
    2286 2286 2286 2286 2301 2301 2317 2317 2317 2333 2333 2333 2333
    6375 6375 2271 2271 2271 2271 2256 2241 2241 2226 2226 2226 2226
    2226 2226 2226 2226 2226 2241 2256 2271 2271 2271 2271 2286 2286
    2301 2301 2301 2317 2317 2317 2333 2333 2333 2333 6375 6375 2271
    2271 2271 2271 2241 2226 2226 2226 2226 2226 2226 2226 2226 2226
    2226 2226 2241 2256 2256 2271 2271 2271 2286 2286 2301 2301 2301
    2317 2317 2317 2333 2333 2349 2349 6497 6497 2271 2271 2271 2271
    2241 2226 2226 2226 2226 2226 2226 2226 2226 2226 2226 2241 2241
    2256 2256 2271 2271 2271 2271 2271 2286 2301 2301 2317 2317 2317
    2333 2333 2349 2349 6497 6497 2271 2271 2271 2271 2241 2226 2212
    2212 2212 2212 2212 2226 2226 2226 2226 2226 2241 2256 2256 2271
    2271 2271 2271 2271 2286 2286 2301 2317 2317 2317 2317 2333 2349
    2349 6497 6497 2271 2271 2271 2256 2226 2212 2212 2212 2212 2212
    2212 2226 2226 2226 2226 2226 2241 2256 2271 2271 2271 2271 2271
    2271 2286 2286 2301 2301 2301 2317 2317 2333 2349 2349 6497 6497
    2286 2286 2271 2256 2226 2212 2212 2212 2212 2212 2226 2226 2226
    2226 2226 2226 2241 2256 2271 2271 2271 2271 2271 2271 2271 2286
    2286 2301 2301 2317 2317 2333 2349 6753 6146 6146 2286 2271 2256
    2241 2226 2212 2212 2212 2212 2212 2226 2226 2226 2226 2226 2226
    2241 2256 2271 2271 2271 2271 2271 2271 2271 2286 2286 2286 2301
    2301 2301 2317 2317 6753 6146 6146 2286 2271 2256 2241 2226 2212
    2212 2212 2212 2212 2226 2226 2226 2226 2226 2226 2241 2256 2271
    2271 2271 2271 2271 2286 2286 2286 2286 2286 2286 2301 2301 2301
    2301 6753 6259 2226 2226 2256 2241 2241 2226 2212 2212 2212 2212
    2212 2212 2226 2226 2226 2226 2226 2241 2256 2256 2271 2271 2271
    2271 2286 2286 2286 2286 2286 2286 2301 2301 2301 6753 6753 6259
    2226 2226 2256 2241 2226 2212 2212 2212 2212 2212 2212 2212 2212
    2226 2226 2226 2226 2226 2241 2256 2256 2256 2271 2271 2286 2286
    2286 2286 2286 2286 2301 2301 2301 6753 6753 2241 2256 2256 2271
    2241 2226 2212 2212 2198 2198 2212 2212 2212 2212 2212 2212 2226
    2226 2226 2241 2256 2256 2256 2271 2271 2286 2286 2286 2286 2286
    2286 2301 2301 2301 2301 6753 2241 2256 2271 2271 2241 2226 2212
    2212 2198 2198 2212 2212 2212 2212 2212 2212 2226 2226 2226 2241
    2241 2241 2256 2271 2271 2286 2286 2286 2286 2286 2286 2301 2301
    2301 2301 6753 2256 2271 2256 2256 2241 2212 2212 2198 2198 2198
    2198 2212 2212 2212 2212 2212 2226 2226 2226 2241 2241 2241 2241
    2256 2271 2271 2286 2286 2286 2301 2301 2301 2301 2301 2301 6753
    2271 2256 2256 2241 2226 2212 2198 2184 2184 2198 2198 2198 2212
    2212 2212 2212 2226 2226 2241 2241 2241 2241 2241 2256 2271 2271
    2271 2286 2286 2286 2286 2286 2286 2301 6889 6753 2271 2256 2241
    2226 2226 2212 2198 2184 2184 2198 2198 2198 2212 2212 2212 2212
    2226 2226 2226 2241 2241 2256 2256 2256 2256 2271 2271 2286 2286
    2286 2286 2286 2286 2286 6497 6497 2241 2241 2241 2226 2212 2198
    2184 2184 2184 2184 2198 2198 2212 2212 2212 2212 2226 2226 2226
    2241 2241 2256 2256 2256 2256 2271 2271 2286 2286 2286 2286 2301
    2301 2317 6497 6375 2241 2241 2241 2226 2212 2198 2184 2184 2184
    2184 2184 2198 2198 2198 2212 2212 2226 2226 2226 2226 2226 2241
    2256 2271 2271 2271 2271 2271 2286 2286 2286 2301 2301 2317 2317
    6375 2271 2256 2241 2212 2212 2170 2170 2184 2170 2170 2184 2198
    2198 2198 2212 2212 2226 2226 2226 2226 2226 2241 2256 2256 2271
    2271 2271 2271 2286 2286 2286 2286 2286 2333 2333 6375 2271 2256
    2226 2212 2212 2170 2170 2184 2170 2170 2184 2184 2198 2198 2212
    2212 2226 2226 2226 2226 2226 2241 2256 2256 2271 2271 2271 2271
    2286 2286 2271 2271 2286 0 6375 6375 2271 2256 2226 2212 2212 2198
    2184 2184 2184 2184 2184 2184 2198 2198 2212 2212 2226 2226 2226
    2226 2226 2241 2256 2256 2271 2271 2271 2271 2286 2286 2271 2271 0 0
    0 0 2256 2241 2226 2212 2212 2198 2184 2184 2184 2184 2184 2184 2198
    2198 2212 2212 2226 2226 2226 2241 2241 2241 2256 2256 2271 2271
    2271 2271 2271 2271 2271 2271 0 0 0 0</data></Depth16012>
</opencv_storage>
