<?xml version="1.0"?>
<opencv_storage>
<Depth16550 type_id="opencv-matrix">
  <rows>24</rows>
  <cols>44</cols>
  <dt>w</dt>
  <data>
    3859 3859 2541 2541 2541 2541 2541 2541 2541 2522 2522 4463 4463
    4463 4463 4463 4463 4463 4463 4463 4463 4463 4463 4463 4405 4405
    4405 4463 4463 4463 4463 4405 4405 4405 4405 4405 4405 4463 4463
    4463 4463 4463 4463 4463 3859 3859 2541 2541 2522 2522 2503 2503
    2522 2503 2503 2503 2541 2560 2560 4463 4463 4463 4463 4463 4463
    4463 4463 4463 4405 4405 4405 4405 4405 4405 4405 4405 4405 4405
    4349 4349 4405 4463 4463 4463 4463 4463 4463 4463 3859 3859 2522
    2522 2503 2485 2485 2485 2485 2503 2503 2503 2522 2541 2560 2560
    4463 4463 4463 4405 4405 4405 4405 4405 4405 4405 4405 4405 4405
    4405 4405 4405 4405 4405 4349 4349 4405 4463 4463 4463 4463 4522
    4463 4463 3859 3859 2522 2522 2485 2450 2432 2432 2450 2467 2467
    2467 2485 2485 2503 2522 2522 2503 2503 2522 4405 4405 4405 4405
    4405 4405 4405 4405 4405 4405 4405 4405 4405 4405 4349 4349 4405
    4463 4463 4463 4463 4463 4463 4463 3859 3859 2503 2467 2432 2432
    2415 2415 2415 2432 2432 2432 2450 2467 2467 2485 2503 2485 2485
    2503 2522 4405 4405 4349 4349 4349 4405 4405 4349 4349 4349 4405
    4405 4349 4349 4349 4405 4463 4463 4463 4463 4463 4463 4463 3859
    2450 2450 2432 2415 2398 2381 2381 2398 2398 2415 2415 2415 2432
    2432 2450 2450 2450 2450 2467 2503 2503 2522 2522 4349 4349 4349
    4349 4349 4349 4349 4405 4405 4349 4349 4349 4405 4463 4463 4463
    4463 4463 4463 4463 3859 2467 2450 2432 2415 2398 2381 2381 2381
    2381 2381 2381 2398 2398 2415 2432 2432 2432 2432 2450 2467 2503
    2503 2522 2522 2522 4349 4349 4349 4349 4349 4349 4405 4405 4405
    4405 4405 4463 4463 4463 4463 4463 4463 4405 2579 2467 2450 2432
    2415 2398 2381 2381 2381 2381 2381 2365 2365 2381 2381 2398 2398
    2398 2415 2415 2432 2450 2467 2485 2503 2485 2467 2467 4349 4349
    4349 4349 4405 4405 4405 4405 4405 4405 4463 4463 4463 4405 4405
    4405 2560 2467 2450 2432 2415 2398 2381 2381 2381 2381 2381 2365
    2365 2381 2381 2381 2381 2381 2381 2381 2398 2398 2415 2450 2467
    2467 2450 2450 2450 2450 2467 2485 4463 4295 4295 4349 4349 4405
    4463 4463 4463 4405 4405 4405 2560 2467 2432 2415 2415 2398 2381
    2381 2381 2381 2381 2365 2365 2381 2365 2365 2365 2365 2365 2365
    2381 2381 2381 2381 2398 2432 2450 2450 2450 2450 2467 2467 2467
    2467 4295 4349 4349 4405 4463 4463 4405 4405 4405 4349 3692 2450
    2432 2415 2398 2398 2381 2381 2381 2381 2381 2365 2365 2381 2365
    2365 2349 2349 2349 2349 2365 2381 2381 2381 2381 2381 2398 2432
    2432 2450 2467 2450 2450 2450 2450 4349 4349 4405 4405 4405 4405
    4405 4405 4349 2450 2432 2432 2415 2398 2398 2381 2381 2381 2381
    2381 2365 2365 2381 2365 2365 2349 2349 2349 2349 2365 2365 2365
    2365 2365 2365 2381 2398 2398 2415 2415 2432 2432 2432 2450 2450
    2467 2485 4349 4349 4405 4463 4405 4405 2432 2415 2415 2398 2381
    2381 2381 2381 2381 2381 2381 2381 2365 2365 2365 2365 2349 2349
    2349 2349 2365 2349 2349 2349 2349 2365 2365 2365 2365 2365 2381
    2381 2415 2415 2432 2432 2450 2467 2467 2485 2485 4463 4405 4405
    2432 2415 2415 2398 2381 2381 2381 2381 2381 2365 2365 2365 2365
    2365 2365 2365 2349 2349 2349 2349 2365 2349 2349 2349 2349 2349
    2349 2365 2349 2349 2349 2349 2349 2381 2398 2415 2432 2432 2450
    2432 2432 4463 4405 4405 2415 2398 2398 2381 2381 2381 2381 2381
    2381 2365 2365 2365 2365 2365 2365 2365 2365 2349 2349 2349 2365
    2365 2349 2349 2349 2333 2333 2349 2349 2349 2349 2333 2333 2365
    2381 2381 2415 2415 2432 2415 2415 2415 4405 4405 2415 2381 2381
    2381 2381 2381 2381 2381 2365 2365 2365 2365 2365 2365 2365 2365
    2365 2365 2365 2365 2365 2365 2349 2349 2333 2333 2333 2349 2349
    2349 2333 2333 2333 2349 2349 2349 2381 2398 2398 2398 2398 2415
    2415 4405 3614 2381 2381 2381 2381 2381 2381 2381 2365 2365 2365
    2365 2365 2365 2365 2365 2365 2365 2365 2365 2365 2365 2349 2349
    2333 2333 2349 2349 2349 2349 2333 2333 2333 2333 2333 2333 2349
    2365 2381 2381 2381 2381 2381 2381 3614 3614 3653 3653 2381 2381
    2381 2381 2365 2365 2365 2365 2365 2365 2365 2365 2365 2365 2365
    2365 2365 2365 2365 2349 2349 2349 2349 2349 2349 2349 2333 2333
    2333 2333 2333 2333 2333 2349 2349 2349 2365 2365 2365 2349 3614
    3614 3614 3576 3576 2432 2398 2381 2349 2349 2365 2365 2365 2365
    2365 2365 2365 2365 2365 2365 2365 2365 2365 2365 2349 2349 2349
    2349 2349 2333 2333 2333 2333 2333 2333 2333 2333 2333 2333 2349
    2349 2349 2349 2349 3614 3614 3614 3576 3576 3576 2398 2381 2349
    2349 2365 2365 2381 2381 2365 2365 2365 2365 2365 2365 2365 2365
    2365 2365 2365 2365 2349 2349 2333 2333 2333 2333 2333 2333 2333
    2333 2349 2333 2333 2333 2349 2333 2333 2349 3576 3576 3614 3576
    3576 3614 3576 3576 3576 3576 2365 2365 2381 2381 2365 2365 2365
    2365 2365 2365 2365 2365 2365 2365 2365 2365 2349 2349 2333 2333
    2333 2333 2333 2333 2333 2349 2349 2333 2333 2333 2333 2333 2333
    2349 3576 3576 3614 3576 3576 3614 3614 3614 3576 3576 3576 2381
    2381 2365 2365 2365 2365 2365 2365 2365 2365 2349 2349 2365 2365
    2365 2365 2349 2349 2349 2349 2333 2333 2333 2333 2349 2349 2349
    2333 2333 2333 2333 2333 2349 3576 3576 3576 3576 3614 3653 3614
    3614 3576 3576 3614 3614 3614 2365 2365 2349 2349 2365 2365 2365
    2365 2349 2349 2365 2365 2365 2365 2365 2349 2349 2349 2349 2349
    2333 2333 2349 2349 2349 2349 2349 2349 2333 2333 2349 3576 3576
    3576 3576 3614 3653 3653 3614 3614 3614 3614 3614 3614 3614 3614
    2349 2349 2365 2365 2365 2349 2349 2349 2349 2365 2365 2365 2365
    2365 2365 2349 2349 2349 2333 2333 2349 2349 2365 2365 2365 2349
    2333 2333 2349</data></Depth16550>
</opencv_storage>
