<?xml version="1.0"?>
<opencv_storage>
<Depth5183 type_id="opencv-matrix">
  <rows>70</rows>
  <cols>42</cols>
  <dt>w</dt>
  <data>
    4405 4463 4463 1663 1663 1663 1671 1680 1688 1632 1616 1609 1609
    1609 1609 1609 1609 1609 1680 1680 1680 1639 1639 1639 1647 1663
    1671 1671 1680 1696 1713 1713 1713 1713 1722 1731 1739 1731 1731
    4522 4522 4522 4405 4463 1671 1663 1663 1663 1663 1655 1632 1632
    1609 1609 1609 1601 1601 1609 1609 1609 1632 1639 1647 1639 1639
    1647 1647 1663 1663 1671 1680 1688 1696 1705 1705 1705 1722 1731
    1739 1731 1731 1731 4522 4522 1680 1671 1671 1663 1663 1655 1647
    1639 1624 1616 1609 1609 1609 1601 1601 1609 1609 1609 1616 1639
    1639 1647 1647 1647 1663 1663 1663 1671 1671 1680 1696 1696 1696
    1705 1713 1722 1731 1731 1731 1731 4522 4522 1671 1671 1663 1663
    1647 1647 1639 1632 1616 1609 1609 1601 1601 1601 1601 1609 1609
    1609 1616 1632 1639 1639 1647 1647 1655 1663 1663 1671 1671 1680
    1688 1696 1696 1705 1713 1713 1731 1722 1722 1722 4522 4522 1671
    1671 1663 1647 1639 1639 1632 1632 1616 1609 1609 1601 1601 1601
    1601 1601 1609 1609 1616 1632 1639 1639 1639 1647 1655 1663 1663
    1671 1671 1680 1688 1696 1696 1705 1713 1713 1722 1722 1722 1722
    4522 4522 1671 1671 1663 1647 1639 1639 1632 1624 1616 1609 1609
    1601 1601 1601 1601 1601 1609 1609 1616 1632 1639 1639 1639 1647
    1655 1663 1663 1671 1671 1680 1688 1696 1696 1696 1713 1713 1722
    1722 1722 1722 4522 4522 1671 1671 1663 1647 1639 1639 1632 1624
    1616 1609 1609 1601 1601 1601 1601 1609 1609 1609 1624 1632 1639
    1639 1639 1639 1655 1663 1663 1671 1671 1680 1688 1696 1696 1696
    1713 1713 1722 1722 1722 1722 4522 4522 1671 1671 1663 1647 1639
    1632 1632 1632 1616 1609 1609 1601 1601 1601 1601 1609 1609 1616
    1624 1632 1632 1639 1639 1639 1655 1663 1663 1671 1671 1680 1688
    1696 1696 1705 1713 1713 1722 1722 1731 1731 4522 4522 1671 1671
    1663 1647 1639 1632 1632 1624 1616 1609 1601 1601 1601 1601 1601
    1609 1609 1616 1616 1632 1632 1639 1639 1639 1655 1663 1663 1663
    1671 1680 1688 1696 1696 1705 1713 1722 1722 1722 1722 1722 4522
    4522 1671 1671 1663 1647 1639 1639 1632 1624 1616 1609 1601 1601
    1601 1601 1601 1609 1609 1616 1616 1624 1632 1632 1639 1647 1655
    1663 1663 1663 1671 1680 1688 1696 1696 1705 1722 1722 1722 1713
    1713 1713 4522 4522 1671 1671 1663 1655 1647 1639 1632 1632 1624
    1609 1609 1601 1601 1601 1601 1609 1609 1609 1624 1624 1632 1632
    1639 1647 1647 1655 1663 1663 1671 1680 1688 1696 1696 1705 1713
    1722 1722 1713 1713 1713 4522 4522 1671 1671 1663 1655 1647 1639
    1632 1632 1624 1609 1601 1601 1601 1601 1601 1609 1609 1609 1616
    1624 1632 1632 1639 1647 1647 1655 1655 1663 1671 1680 1688 1696
    1696 1696 1713 1713 1722 1713 1713 1713 4522 4522 1671 1671 1663
    1655 1647 1639 1632 1632 1624 1609 1601 1601 1601 1601 1601 1609
    1609 1609 1616 1624 1632 1632 1639 1639 1647 1655 1655 1663 1671
    1671 1680 1696 1696 1696 1713 1713 1713 1713 1713 1722 4582 4582
    1671 1671 1663 1647 1639 1639 1632 1632 1624 1609 1601 1601 1601
    1601 1601 1601 1601 1609 1624 1624 1632 1632 1639 1639 1647 1647
    1655 1663 1671 1671 1680 1688 1688 1696 1705 1713 1713 1713 1713
    1722 1722 4582 1671 1671 1663 1647 1639 1632 1624 1624 1616 1609
    1601 1601 1594 1594 1594 1601 1601 1609 1616 1624 1632 1632 1632
    1639 1639 1647 1655 1663 1671 1671 1680 1688 1688 1696 1705 1713
    1713 1722 1722 1722 1722 4582 1663 1663 1655 1647 1639 1632 1624
    1616 1616 1609 1601 1601 1594 1594 1594 1601 1601 1609 1616 1624
    1632 1632 1632 1639 1639 1647 1655 1663 1663 1671 1680 1688 1688
    1696 1705 1713 1713 1713 1713 1713 1713 4463 1663 1663 1655 1647
    1639 1632 1624 1616 1609 1609 1601 1601 1594 1594 1594 1601 1601
    1609 1609 1624 1632 1632 1632 1639 1639 1647 1655 1663 1663 1671
    1671 1680 1688 1696 1705 1713 1713 1713 1713 1713 1713 4463 1663
    1663 1647 1647 1639 1632 1624 1616 1609 1609 1601 1601 1601 1601
    1601 1601 1601 1609 1609 1616 1624 1632 1632 1639 1639 1647 1655
    1655 1663 1671 1671 1680 1688 1696 1705 1705 1705 1713 1713 1713
    1713 4463 1663 1663 1647 1639 1639 1632 1624 1624 1616 1609 1609
    1601 1601 1601 1601 1601 1601 1609 1609 1616 1624 1624 1632 1639
    1639 1647 1655 1655 1663 1671 1671 1680 1688 1688 1705 1705 1705
    1713 1713 1722 1722 4463 1663 1663 1647 1639 1639 1632 1632 1624
    1616 1609 1601 1601 1601 1601 1601 1601 1601 1601 1609 1616 1624
    1624 1632 1632 1639 1639 1655 1655 1663 1671 1671 1671 1680 1688
    1705 1705 1705 1713 1713 1713 4522 4522 1663 1663 1647 1639 1639
    1632 1632 1624 1616 1609 1601 1601 1594 1594 1601 1601 1601 1601
    1609 1616 1624 1624 1632 1632 1639 1639 1655 1655 1663 1671 1671
    1671 1680 1688 1705 1705 1705 1713 1713 1713 4522 4522 1663 1655
    1647 1639 1639 1632 1632 1616 1609 1609 1601 1601 1594 1594 1594
    1601 1601 1609 1609 1616 1624 1624 1632 1639 1639 1647 1655 1655
    1663 1663 1671 1671 1680 1688 1705 1705 1705 1713 1713 1713 4522
    4522 1671 1655 1647 1639 1639 1632 1624 1616 1609 1609 1601 1601
    1594 1594 1594 1601 1601 1609 1609 1616 1624 1624 1632 1632 1639
    1639 1655 1655 1663 1663 1671 1671 1680 1688 1705 1705 1705 1713
    1713 1713 4522 4522 1663 1663 1655 1639 1639 1632 1624 1616 1609
    1609 1601 1601 1594 1594 1594 1601 1601 1609 1609 1616 1616 1624
    1624 1632 1639 1639 1647 1655 1663 1663 1671 1680 1680 1688 1705
    1705 1705 1713 1713 1713 4522 4522 1663 1663 1655 1647 1639 1632
    1624 1616 1609 1609 1601 1601 1594 1594 1594 1601 1601 1609 1609
    1609 1616 1616 1624 1632 1632 1639 1647 1655 1655 1663 1671 1680
    1680 1688 1705 1705 1705 1713 1713 1713 4463 4463 1663 1655 1655
    1639 1639 1632 1624 1616 1609 1609 1601 1594 1594 1594 1594 1601
    1601 1609 1609 1609 1616 1616 1624 1632 1632 1639 1647 1655 1655
    1663 1671 1671 1680 1688 1705 1705 1705 1713 1713 1713 4463 4463
    1663 1655 1647 1639 1632 1632 1624 1616 1609 1609 1601 1594 1594
    1594 1594 1601 1601 1609 1609 1609 1616 1616 1624 1632 1632 1639
    1647 1655 1655 1663 1663 1671 1671 1688 1696 1705 1705 1713 1713
    1713 4522 4522 1663 1655 1647 1639 1632 1632 1624 1616 1616 1609
    1601 1601 1594 1594 1594 1601 1601 1609 1609 1609 1616 1624 1624
    1632 1632 1639 1647 1655 1655 1663 1663 1671 1671 1680 1696 1705
    1705 1705 1705 1705 1705 4522 1663 1655 1647 1639 1632 1632 1632
    1616 1616 1609 1601 1601 1594 1594 1594 1601 1601 1609 1609 1609
    1616 1624 1624 1632 1632 1639 1647 1655 1663 1663 1671 1671 1671
    1680 1696 1705 1705 1705 1696 1696 1696 4522 1663 1655 1647 1639
    1639 1632 1632 1616 1616 1609 1601 1601 1594 1594 1594 1601 1601
    1609 1609 1609 1616 1624 1624 1632 1632 1639 1647 1655 1663 1663
    1671 1671 1671 1680 1696 1705 1705 1705 1696 1696 1696 4522 1663
    1663 1647 1639 1639 1632 1632 1616 1609 1609 1601 1601 1594 1594
    1594 1601 1601 1601 1609 1609 1609 1616 1624 1632 1632 1639 1639
    1655 1663 1663 1671 1671 1671 1680 1696 1705 1705 1696 1696 1696
    1696 4522 1663 1663 1647 1639 1639 1632 1632 1609 1609 1609 1601
    1601 1594 1594 1594 1601 1601 1601 1601 1609 1609 1616 1624 1632
    1632 1639 1639 1647 1663 1663 1671 1671 1671 1680 1696 1705 1705
    1696 1696 1696 1696 4522 1663 1663 1647 1639 1632 1632 1624 1609
    1609 1609 1601 1601 1594 1586 1586 1594 1601 1601 1601 1609 1609
    1609 1624 1632 1632 1639 1639 1647 1655 1663 1663 1671 1671 1680
    1688 1705 1705 1696 1696 1696 1696 4522 1663 1663 1647 1639 1632
    1632 1624 1616 1609 1609 1601 1594 1586 1586 1586 1594 1601 1601
    1601 1609 1609 1609 1624 1632 1632 1639 1647 1647 1655 1663 1663
    1671 1671 1680 1688 1705 1705 1705 1696 1696 1696 4522 1663 1655
    1639 1639 1632 1632 1624 1616 1609 1609 1601 1594 1586 1586 1586
    1586 1594 1594 1601 1609 1609 1609 1624 1632 1632 1639 1639 1647
    1655 1663 1663 1671 1671 1671 1688 1696 1705 1705 1705 1705 1705
    4522 1655 1655 1639 1639 1632 1632 1624 1616 1609 1609 1601 1594
    1586 1586 1586 1586 1594 1594 1601 1609 1609 1609 1616 1624 1632
    1639 1639 1647 1655 1663 1663 1663 1671 1671 1688 1696 1705 1705
    1713 1713 1713 4522 1655 1647 1639 1639 1639 1632 1624 1616 1609
    1601 1601 1594 1586 1586 1586 1586 1594 1601 1601 1609 1609 1609
    1616 1616 1632 1632 1639 1639 1655 1663 1663 1663 1671 1671 1688
    1696 1705 1705 1713 1713 1713 4522 1655 1647 1639 1639 1632 1632
    1624 1616 1609 1601 1601 1594 1586 1586 1586 1586 1594 1601 1601
    1609 1609 1609 1609 1616 1632 1632 1639 1639 1647 1655 1663 1671
    1671 1680 1688 1696 1705 1705 1713 1713 1713 4522 1655 1647 1639
    1639 1632 1632 1624 1616 1609 1601 1601 1594 1586 1586 1586 1594
    1601 1601 1601 1609 1609 1609 1609 1616 1632 1639 1639 1639 1639
    1647 1663 1671 1671 1680 1688 1696 1705 1705 1705 1705 1713 1713
    1655 1655 1647 1639 1632 1624 1616 1616 1609 1601 1601 1586 1586
    1586 1586 1594 1594 1601 1601 1609 1609 1609 1616 1624 1624 1632
    1639 1639 1639 1647 1655 1663 1671 1671 1688 1696 1705 1705 1705
    1705 1705 1705 1655 1655 1647 1639 1632 1624 1616 1609 1609 1609
    1601 1586 1586 1586 1586 1594 1594 1594 1601 1601 1609 1609 1616
    1624 1624 1632 1632 1639 1639 1647 1655 1655 1663 1671 1688 1688
    1696 1696 1696 1696 1705 1705 1655 1655 1647 1639 1632 1624 1616
    1609 1609 1609 1601 1586 1579 1579 1579 1586 1586 1594 1601 1601
    1609 1609 1616 1616 1624 1632 1632 1639 1639 1639 1647 1655 1663
    1671 1680 1688 1696 1696 1696 1696 1705 1705 1655 1655 1639 1639
    1632 1624 1616 1609 1609 1601 1601 1586 1579 1579 1579 1579 1579
    1586 1601 1601 1609 1609 1609 1616 1624 1632 1632 1639 1639 1639
    1647 1655 1663 1663 1680 1688 1696 1696 1696 1696 1705 1705 1647
    1647 1639 1639 1632 1632 1616 1609 1609 1601 1601 1594 1586 1579
    1579 1579 1579 1586 1601 1601 1609 1609 1609 1616 1624 1632 1639
    1639 1639 1639 1647 1655 1663 1663 1680 1696 1696 1705 1705 1705
    1705 1705 1639 1639 1639 1639 1632 1632 1616 1609 1609 1601 1601
    1594 1586 1579 1579 1579 1579 1586 1594 1601 1609 1609 1609 1616
    1624 1632 1632 1639 1639 1639 1655 1663 1663 1671 1680 1696 1696
    1705 1705 1705 1705 1705 1639 1639 1639 1639 1632 1632 1616 1609
    1609 1601 1594 1594 1579 1579 1579 1579 1579 1586 1594 1601 1609
    1609 1609 1616 1624 1632 1632 1632 1639 1639 1655 1663 1663 1671
    1680 1688 1696 1705 1705 1705 1705 1705 1639 1639 1639 1632 1632
    1624 1616 1609 1609 1601 1586 1586 1579 1579 1579 1579 1586 1586
    1594 1601 1609 1609 1609 1609 1616 1632 1632 1632 1639 1639 1655
    1655 1663 1671 1680 1688 1688 1696 1705 1705 1705 1705 1647 1639
    1639 1632 1632 1624 1616 1609 1601 1601 1586 1579 1579 1579 1579
    1579 1579 1586 1594 1601 1609 1609 1609 1609 1616 1632 1632 1632
    1639 1639 1655 1655 1663 1671 1680 1688 1688 1696 1696 1705 1705
    1705 1647 1647 1639 1639 1632 1624 1616 1609 1601 1601 1579 1579
    1579 1579 1579 1579 1579 1586 1594 1601 1601 1609 1609 1609 1616
    1624 1632 1632 1639 1639 1647 1655 1655 1663 1680 1688 1688 1696
    1696 1705 1705 1705 1647 1647 1639 1639 1632 1624 1616 1609 1601
    1601 1579 1579 1579 1579 1579 1579 1579 1586 1594 1601 1601 1609
    1609 1609 1616 1624 1632 1632 1639 1639 1647 1655 1655 1663 1680
    1688 1688 1696 1696 1696 1696 1696 1639 1639 1639 1639 1632 1624
    1616 1609 1601 1601 1586 1579 1579 1579 1579 1579 1579 1586 1586
    1601 1601 1601 1609 1609 1616 1624 1632 1632 1632 1639 1647 1655
    1655 1663 1680 1688 1688 1696 1696 1696 1696 1696 1639 1639 1639
    1639 1632 1624 1616 1609 1601 1594 1586 1579 1579 1579 1579 1579
    1579 1586 1586 1594 1601 1601 1609 1609 1609 1616 1624 1632 1632
    1639 1647 1655 1655 1663 1680 1688 1688 1696 1705 1705 1696 1696
    1639 1639 1639 1639 1632 1624 1616 1609 1601 1594 1586 1579 1572
    1572 1579 1579 1579 1579 1579 1586 1594 1601 1601 1609 1609 1616
    1624 1624 1632 1639 1647 1655 1655 1663 1680 1688 1688 1696 1705
    1705 1705 1705 1647 1639 1639 1632 1624 1624 1616 1609 1601 1594
    1579 1579 1572 1572 1572 1579 1579 1579 1579 1586 1594 1601 1601
    1609 1609 1616 1624 1624 1632 1639 1647 1655 1655 1663 1680 1680
    1688 1696 1705 1705 1705 1705 1639 1639 1639 1632 1624 1616 1609
    1609 1601 1586 1579 1579 1572 1572 1572 1572 1579 1579 1579 1586
    1594 1601 1601 1609 1609 1609 1616 1616 1624 1639 1647 1655 1655
    1655 1671 1680 1688 1696 1696 1696 1696 1696 1639 1639 1639 1632
    1624 1616 1609 1609 1601 1586 1579 1579 1572 1572 1572 1572 1579
    1579 1579 1586 1594 1601 1601 1601 1609 1609 1616 1616 1624 1639
    1647 1655 1655 1655 1671 1680 1688 1696 1696 1696 1696 1696 1639
    1639 1639 1632 1624 1616 1609 1609 1601 1586 1579 1579 1579 1572
    1572 1572 1572 1579 1586 1586 1594 1601 1601 1601 1609 1616 1616
    1616 1624 1639 1647 1647 1647 1655 1663 1671 1688 1688 1688 1688
    1696 1696 1639 1639 1639 1632 1624 1624 1616 1609 1601 1594 1579
    1579 1579 1572 1572 1572 1572 1572 1579 1586 1594 1601 1601 1609
    1609 1616 1616 1616 1624 1632 1632 1632 1639 1655 1663 1671 1688
    1688 1688 1688 4522 4463 1639 1639 1632 1632 1632 1632 1624 1609
    1601 1594 1579 1579 1572 1572 1572 1572 1572 1572 1579 1586 1586
    1594 1601 1609 1609 1609 1616 1616 1632 1632 1632 1632 1639 1647
    1663 1671 1688 4349 4295 4295 4405 4405 4041 1632 1632 1632 1632
    1632 1624 1609 1594 1586 1579 1572 1572 1564 1564 1564 1572 1572
    1579 1586 1586 1594 1601 1609 1609 1609 1616 1616 1632 1639 1639
    1639 1647 1647 4241 4295 4295 4295 4295 4295 4349 4295 4139 1632
    1632 1616 1616 1624 1616 1601 1586 1579 1579 1572 1572 1564 1564
    1564 1572 1572 1579 1586 1586 1594 1601 1609 1609 1609 1616 1624
    1647 1655 1655 1655 4190 4190 4241 4241 4295 4295 4295 4295 4295
    4295 4190 4190 1632 1616 1616 1616 1609 1601 1586 1579 1572 1572
    1572 1572 1564 1564 1572 1572 1572 1579 1586 1594 1601 1609 1616
    1616 1647 1647 1655 1655 1655 1655 4241 4190 4190 4190 4241 4295
    4295 4295 4241 4241 4190 4190 4190 4190 1624 1616 1609 1609 1586
    1579 1572 1572 1572 1572 1572 1572 1564 1564 1564 1579 1586 1601
    1601 1609 1609 4139 4139 1647 1647 1647 1655 1655 4241 4190 4190
    4190 4241 4241 4241 4241 4241 4241 4241 4241 4241 4241 4241 4241
    4241 4190 4190 4190 4190 1572 1572 1572 1572 1572 1564 1564 1564
    1579 1586 1609 1609 1616 1616 4139 4139 1647 1647 1647 4241 4241
    4241 4190 4139 4139 4190 4241 4241 4241 4190 4190 4241 4241 4241
    4241 4241 4241 4241 4190 4190 4190 4190 4241 4241 1586 1586 1609
    1572 1572 1572 1624 1624 1624 1624 1624 1624 4139 4139 1647 1647
    1647 1655 1655 4241 4139 4041 4041 4089 4190 4190 4190 4190 4190
    4190 4241 4241 4241 4241 4241 4190 4190 4190 4190 4190 4241 1663
    1655 1655 1655 1655 1655 1624 1624 1624 1624 1624 1624 1624 4089
    4089 4190 1655 1655 1655 1655 1655 4041 3948 3948 4041 4089 4139
    4190 4190 4139 4190 4241 4241 4241 4190 4190 4190 4190 4190 4190
    4190 4241 1663 1663 1663 1671 1671 1680 1696 1632 1624 1624 1624
    1624 1624 4089 1696 1688 1663 1655 1655 1655 1655 3948 3903 3903
    4041 4089 4139 4190 4190 4089 4139 4190 4190 4190 4190 4190 4190
    4190 4139 4139 4190 4241 1663 1663 1671 1671 1680 1680 1696 1655
    1639 1632 1632 1632 1632 1647 1696 1688 1671 1663 1663 1663 1663
    3903 3859 3859 3903 4041 4139 4190 4190 4089 4089 4139 4139 4139
    4139 4139 4139 4190 4139 1671 1671 1663 1663 1663 1671 1671 1680
    1680 1671 1663 1639 1639 1624 1624 1632 1647 1680 1671 1671 1663
    1655 1655 1655 1647 1632 1632 1632 4041 4139 4241 4241 3064 4041
    4089 4089 4089 4089 4089 4139 4190 1671 1671 1671 1663 1655 1655
    1655 1663 1671 1680 1671 1655 1632 1632 1624 1624 1632 1639 1655
    1655 1655 1655 1655 1639 1639 1639 1632 1632 1632 1639 0 0 0 3064</data></Depth5183>
</opencv_storage>
