<?xml version="1.0"?>
<opencv_storage>
<Depth6458 type_id="opencv-matrix">
  <rows>71</rows>
  <cols>49</cols>
  <dt>w</dt>
  <data>
    3539 3539 3539 3539 3539 3539 3539 3576 3614 3614 3614 3576 3576
    1483 1470 1470 1470 1458 1458 1458 1458 1464 1458 1458 1458 1458
    3732 3732 1452 3774 3774 3774 3859 3859 2958 2958 2933 2908 2908
    2883 2883 2883 2883 2883 2883 2883 2883 2933 2958 3503 3503 3503
    3503 3503 3503 3539 3576 3614 1503 1496 1489 1483 1483 1470 1470
    1470 1458 1458 1458 1458 1458 1458 1458 1458 1458 1452 1452 1452
    1483 1483 1503 3010 2958 2958 2958 2933 2933 2908 2883 2883 2883
    2883 2883 2883 2883 2908 2933 2958 3468 3468 3503 3503 3503 3503
    3539 3576 1503 1503 1496 1483 1483 1477 1477 1470 1470 1464 1464
    1464 1464 1458 1458 1458 1452 1452 1452 1452 1477 1483 1483 1503
    3010 3010 2984 2958 2933 2908 2908 2908 2908 2908 2908 2908 2883
    2883 2908 2933 2984 3468 3468 3468 3503 3503 3503 3503 1496 1496
    1489 1483 1483 1483 1477 1477 1470 1470 1464 1464 1458 1458 1458
    1452 1452 1452 1452 1458 1458 1477 1483 1483 1503 1503 3010 2958
    2958 2933 2908 2908 2908 2908 2908 2908 2908 2908 2908 2933 2933
    2984 3468 3468 3468 3503 3539 3539 3539 1489 1489 1489 1483 1483
    1477 1477 1477 1470 1470 1464 1464 1458 1458 1458 1452 1452 1452
    1452 1452 1464 1470 1483 1483 1503 1516 1523 1529 2958 2933 2908
    2908 2883 2883 2883 2883 2883 2908 2908 2908 2933 2958 3468 3468
    3468 3503 3539 3539 0 1489 1489 1489 1483 1483 1477 1477 1477 1470
    1470 1458 1458 1458 1458 1458 1445 1445 1452 1452 1452 1464 1470
    1483 1489 1503 1509 1516 1529 1536 2933 2883 2883 2883 2883 2883
    2883 2883 2883 2908 2908 2933 2958 3468 3468 3468 3468 3503 3503 0
    1483 1483 1483 1483 1477 1477 1477 1470 1464 1464 1458 1458 1458
    1458 1452 1445 1445 1452 1452 1458 1464 1470 1483 1489 1503 1503
    1516 1529 1536 1557 1564 1564 2883 2883 2883 2883 2883 2883 2908
    2908 2933 2908 3468 3468 3468 3468 3468 3468 0 1483 1483 1483 1483
    1477 1477 1470 1470 1464 1458 1458 1458 1452 1452 1452 1445 1445
    1452 1452 1458 1464 1477 1483 1489 1496 1503 1509 1523 1543 1557
    1564 1564 1564 2883 2883 2883 2883 2883 2908 2908 2933 2908 3503
    3468 3433 3433 3433 3433 1489 1483 1483 1483 1477 1477 1470 1470
    1464 1464 1458 1452 1452 1452 1452 1452 1452 1452 1452 1452 1458
    1470 1477 1483 1489 1496 1503 1509 1523 1543 1557 1564 1564 1564
    1579 2883 2883 2908 2908 2908 2908 2958 2958 3503 3468 3433 3433
    3433 3433 1489 1489 1483 1477 1477 1470 1464 1464 1464 1458 1452
    1452 1452 1445 1445 1445 1445 1445 1452 1452 1458 1470 1477 1483
    1489 1503 1509 1509 1523 1543 1557 1557 1564 1572 1579 1579 2933
    2908 2908 2908 2933 2984 2984 3468 3468 3468 3468 3468 3468 1483
    1483 1477 1477 1470 1470 1464 1464 1464 1458 1452 1452 1452 1445
    1445 1445 1445 1445 1452 1452 1458 1470 1477 1483 1483 1496 1509
    1509 1523 1536 1550 1557 1557 1572 1579 1579 1616 1616 2933 2958
    2958 2984 2984 3468 3468 3468 3576 3576 1477 1477 1477 1477 1477
    1470 1470 1464 1464 1464 1458 1452 1452 1452 1445 1445 1439 1439
    1439 1445 1452 1458 1470 1477 1483 1483 1496 1509 1509 1523 1529
    1550 1557 1557 1572 1579 1594 1609 1616 1639 1639 2958 3010 3010
    3468 3468 3468 3503 3503 1477 1477 1477 1477 1477 1470 1470 1464
    1458 1458 1458 1458 1452 1452 1445 1445 1439 1439 1439 1445 1445
    1452 1470 1477 1483 1489 1496 1509 1516 1523 1529 1550 1557 1557
    1564 1586 1594 1609 1616 1639 1639 1647 1647 4041 3468 3468 3433
    3433 3433 1477 1477 1477 1477 1470 1470 1464 1464 1458 1458 1458
    1458 1452 1452 1445 1445 1433 1433 1433 1439 1445 1452 1470 1470
    1483 1483 1496 1503 1516 1523 1529 1543 1557 1557 1564 1586 1594
    1609 1616 1647 1647 1647 1655 1655 3468 3468 3433 3433 3433 1470
    1470 1470 1477 1470 1470 1464 1458 1458 1458 1458 1452 1452 1445
    1445 1445 1433 1433 1433 1439 1445 1458 1464 1470 1483 1483 1496
    1503 1516 1523 1529 1543 1550 1557 1572 1586 1594 1609 1616 1647
    1655 1655 1647 1647 3468 3433 3433 3433 0 1464 1464 1470 1470 1470
    1470 1464 1458 1458 1458 1452 1452 1445 1445 1439 1439 1439 1433
    1433 1439 1445 1452 1458 1470 1483 1489 1496 1509 1516 1529 1536
    1543 1550 1557 1572 1586 1594 1609 1616 1647 1655 1647 1639 1639
    3468 3433 3433 3433 3433 1464 1464 1470 1464 1464 1464 1458 1458
    1458 1452 1452 1445 1439 1439 1439 1439 1439 1433 1433 1439 1445
    1452 1458 1470 1483 1489 1496 1503 1509 1529 1536 1543 1550 1564
    1579 1586 1594 1601 1616 1647 1655 1647 1639 1639 3468 3468 3433
    3433 3433 1470 1470 1470 1464 1464 1458 1458 1458 1452 1452 1445
    1445 1439 1439 1439 1439 1439 1433 1433 1439 1439 1452 1458 1477
    1483 1489 1496 1503 1509 1529 1536 1543 1550 1564 1579 1586 1594
    1601 1616 1639 1647 1647 1655 3064 3468 3468 3468 3468 3468 1470
    1470 1458 1458 1458 1458 1452 1452 1452 1452 1445 1439 1439 1439
    1433 1433 1433 1433 1433 1439 1439 1452 1452 1477 1477 1483 1489
    1503 1509 1529 1536 1543 1550 1564 1579 1586 1594 1601 1624 1639
    1647 1647 1647 3064 3468 3468 3468 3468 3468 1458 1458 1458 1458
    1458 1458 1452 1452 1452 1445 1445 1439 1439 1433 1433 1433 1433
    1433 1439 1439 1439 1452 1452 1470 1477 1483 1489 1503 1516 1529
    1536 1543 1550 1564 1579 1594 1594 1601 1624 1639 1647 1647 1655
    3037 3433 3433 3433 3433 3433 1458 1452 1452 1458 1458 1452 1452
    1452 1445 1445 1439 1433 1433 1427 1427 1427 1433 1433 1433 1433
    1439 1452 1452 1470 1477 1483 1496 1503 1516 1529 1536 1543 1550
    1579 1579 1594 1601 1601 1624 1639 1647 1655 1655 3037 3433 3433
    3433 3433 3433 1445 1445 1445 1452 1452 1452 1452 1445 1445 1439
    1433 1433 1433 1427 1427 1427 1427 1427 1433 1433 1439 1445 1458
    1464 1477 1483 1489 1503 1516 1529 1536 1543 1550 1572 1572 1594
    1609 1609 1624 1639 1647 1655 3010 3010 3433 3433 3433 3433 3433
    1445 1445 1445 1452 1452 1452 1452 1445 1439 1433 1433 1433 1433
    1427 1427 1427 1427 1427 1433 1433 1439 1445 1452 1464 1477 1483
    1489 1503 1516 1529 1536 1543 1550 1572 1572 1594 1601 1609 1616
    1632 1639 1639 3010 2984 3433 3433 3433 3433 1452 1452 1452 1452
    1452 1452 1452 1445 1445 1433 1433 1433 1433 1433 1427 1427 1427
    1427 1427 1427 1433 1439 1445 1452 1458 1483 1483 1496 1509 1516
    1529 1536 1543 1550 1564 1572 1579 1594 1609 1616 1632 1639 1639
    2984 2984 3433 3433 3433 3433 1452 1452 1452 1452 1452 1452 1452
    1445 1439 1433 1433 1427 1427 1427 1427 1427 1427 1427 1427 1427
    1433 1439 1445 1452 1458 1483 1483 1496 1509 1516 1529 1536 1543
    1550 1564 1572 1579 1594 1609 1616 1632 1632 1632 2933 2933 3433
    3433 3433 3433 1464 1464 1458 1452 1452 1452 1445 1439 1439 1433
    1433 1427 1427 1427 1427 1427 1427 1421 1421 1427 1433 1445 1452
    1452 1458 1483 1483 1489 1503 1509 1523 1536 1543 1564 1572 1572
    1579 1594 1609 1616 1632 1632 1632 2933 2933 3433 3433 3433 3433
    1470 1470 1458 1458 1452 1445 1445 1433 1433 1433 1433 1427 1427
    1427 1421 1421 1421 1421 1421 1427 1433 1439 1452 1452 1458 1477
    1483 1489 1496 1503 1523 1536 1543 1564 1572 1572 1579 1594 1616
    1616 1639 1639 1639 2908 2908 3399 3399 3399 3399 1452 1452 1452
    1452 1445 1439 1439 1433 1433 1433 1427 1427 1421 1421 1421 1415
    1415 1415 1427 1427 1433 1433 1445 1452 1458 1477 1477 1489 1496
    1503 1509 1536 1543 1564 1572 1572 1579 1594 1616 1624 1639 1647
    1647 2908 2908 3399 3399 3399 0 1445 1445 1445 1452 1445 1439 1433
    1433 1433 1433 1427 1427 1421 1415 1415 1415 1410 1410 1410 1427
    1433 1433 1445 1452 1458 1470 1477 1489 1496 1503 1509 1529 1543
    1564 1572 1572 1579 1594 1616 1624 1639 1647 1647 2933 2908 3399
    3399 3399 0 1445 1445 1445 1452 1439 1433 1433 1433 1427 1427 1427
    1433 1427 1415 1410 1410 1410 1410 1410 1427 1427 1433 1445 1452
    1458 1470 1477 1489 1496 1503 1509 1523 1543 1557 1564 1572 1579
    1594 1609 1624 1639 1639 1639 2933 2908 3433 3433 3433 1439 1445
    1445 1445 1439 1439 1433 1433 1433 1427 1427 1427 1427 1427 1410
    1410 1410 1410 1410 1410 1415 1427 1433 1439 1452 1458 1470 1477
    1489 1503 1503 1509 1523 1543 1557 1564 1572 1586 1594 1609 1624
    1632 1632 1632 2933 2908 3433 3433 0 1439 1439 1439 1445 1439 1439
    1433 1433 1427 1421 1421 1421 1421 1421 1410 1410 1410 1410 1410
    1410 1415 1427 1433 1439 1452 1458 1470 1477 1503 1503 1509 1516
    1529 1543 1557 1564 1572 1586 1601 1609 1616 1632 1632 2908 2908
    2908 3433 3433 0 1439 1439 1439 1439 1439 1433 1433 1433 1427 1421
    1421 1421 1421 1415 1410 1410 1410 1410 1410 1410 1415 1427 1433
    1439 1452 1458 1470 1477 1503 1503 1509 1516 1529 1543 1557 1564
    1572 1579 1601 1609 1616 1632 1632 2908 2908 2908 3399 3399 0 1445
    1445 1439 1433 1433 1433 1433 1433 1427 1421 1421 1421 1421 1410
    1410 1410 1410 1410 1410 1410 1421 1433 1433 1439 1452 1458 1470
    1477 1503 1509 1509 1516 1536 1543 1557 1572 1572 1579 1601 1609
    1616 1632 2908 2883 2883 2883 3399 3399 0 1439 1439 1439 1433 1433
    1433 1427 1427 1421 1415 1415 1415 1415 1410 1410 1410 1404 1404
    1410 1410 1427 1433 1439 1439 1445 1458 1477 1477 1496 1503 1509
    1516 1529 1543 1557 1572 1572 1594 1601 1609 1616 1616 2908 2883
    2883 2883 3399 3399 0 1439 1439 1439 1433 1433 1427 1427 1427 1421
    1415 1415 1415 1415 1410 1410 1404 1404 1404 1404 1410 1427 1433
    1439 1439 1445 1458 1477 1477 1496 1503 1509 1516 1529 1543 1557
    1564 1572 1594 1601 1609 1616 1616 2908 2883 2883 2883 3399 0 1458
    1439 1439 1439 1433 1427 1427 1427 1427 1415 1415 1415 1410 1410
    1410 1404 1404 1404 1404 1404 1410 1421 1433 1433 1439 1445 1458
    1470 1477 1496 1496 1509 1523 1536 1543 1557 1564 1586 1594 1601
    1609 1616 1616 2908 2883 2883 2883 3365 0 1458 1458 1445 1433 1427
    1427 1427 1427 1421 1415 1410 1410 1410 1410 1410 1404 1404 1404
    1404 1404 1410 1415 1433 1433 1433 1445 1458 1470 1477 1496 1496
    1509 1523 1536 1550 1557 1564 1586 1586 1601 1609 1616 1616 2883
    2883 2883 2908 3333 3333 1458 1458 1445 1433 1427 1427 1427 1421
    1421 1415 1410 1410 1410 1410 1410 1404 1404 1404 1404 1404 1410
    1415 1427 1433 1433 1452 1458 1464 1483 1496 1496 1509 1516 1536
    1543 1557 1564 1586 1586 1601 1609 1609 1609 2859 2859 2883 2908
    3300 3300 0 1458 1445 1433 1427 1421 1421 1415 1415 1410 1410 1410
    1410 1410 1404 1404 1404 1404 1404 1404 1404 1415 1427 1433 1433
    1452 1458 1464 1483 1496 1496 1503 1516 1536 1543 1557 1564 1579
    1586 1594 1609 1609 1624 2859 2859 2883 2908 3300 3300 0 1458 1433
    1427 1427 1421 1415 1410 1410 1410 1410 1410 1410 1410 1404 1404
    1404 1404 1404 1404 1404 1410 1427 1433 1439 1452 1458 1464 1483
    1503 1503 1503 1516 1536 1550 1564 1564 1572 1594 1594 1609 1609
    1624 2859 2859 2883 2908 3300 3300 0 1433 1433 1427 1427 1421 1415
    1410 1410 1404 1404 1410 1410 1404 1404 1398 1398 1398 1404 1404
    1404 1410 1427 1433 1439 1445 1458 1464 1483 1503 1503 1503 1509
    1536 1550 1564 1564 1564 1594 1601 1609 1609 1609 2859 2859 2883
    2883 3333 3333 1421 1421 1421 1433 1427 1421 1415 1410 1410 1404
    1404 1404 1404 1404 1404 1398 1398 1398 1398 1404 1404 1410 1427
    1433 1439 1445 1452 1470 1483 1503 1503 1503 1509 1536 1550 1557
    1557 1564 1594 1601 1601 1609 1609 2859 2859 2883 2883 3333 0 1421
    1421 1421 1427 1427 1421 1415 1415 1410 1410 1404 1404 1404 1404
    1404 1392 1392 1392 1392 1404 1410 1415 1427 1433 1439 1445 1452
    1470 1483 1496 1496 1509 1516 1529 1543 1557 1557 1564 1586 1601
    1601 1601 1601 2835 2835 2859 2883 3365 0 1427 1427 1427 1427 1421
    1421 1415 1415 1410 1410 1404 1404 1398 1398 1404 1387 1387 1392
    1392 1404 1410 1421 1427 1433 1439 1445 1452 1470 1483 1496 1496
    1503 1516 1529 1543 1557 1557 1564 1586 1594 1601 1601 1601 2835
    2835 2859 2883 3333 0 1427 1427 1421 1421 1415 1410 1410 1410 1404
    1404 1404 1404 1398 1398 1404 1387 1387 1392 1392 1398 1410 1421
    1427 1433 1439 1445 1458 1477 1489 1496 1496 1503 1516 1529 1543
    1557 1557 1572 1586 1586 1594 1601 1601 2859 2859 2859 2883 3333
    1415 1415 1415 1421 1415 1410 1410 1410 1410 1404 1404 1404 1404
    1404 1404 1398 1387 1387 1392 1392 1398 1410 1415 1427 1433 1439
    1452 1458 1477 1483 1496 1496 1509 1516 1529 1543 1557 1557 1572
    1586 1586 1594 1601 1601 2883 2859 2859 2883 0 0 1415 1415 1421 1415
    1410 1410 1410 1410 1404 1404 1404 1404 1404 1404 1398 1387 1387
    1387 1392 1404 1410 1415 1427 1433 1439 1452 1458 1477 1483 1496
    1496 1509 1516 1529 1543 1557 1557 1572 1586 1594 1594 1594 1601
    2883 2859 2859 2883 0 1415 1415 1415 1415 1415 1415 1410 1410 1404
    1404 1404 1404 1404 1398 1398 1387 1381 1381 1381 1387 1398 1404
    1421 1427 1433 1439 1445 1458 1470 1477 1489 1496 1509 1516 1529
    1543 1550 1557 1572 1586 1594 1594 1594 1594 2883 2883 2883 2883 0
    1415 1415 1415 1415 1415 1415 1410 1410 1404 1398 1398 1398 1398
    1398 1398 1387 1381 1381 1381 1387 1398 1404 1415 1427 1433 1439
    1445 1458 1470 1477 1489 1503 1509 1516 1529 1536 1550 1557 1572
    1586 1594 1594 1601 1601 2859 2859 2883 2883 0 1421 1421 1410 1410
    1415 1415 1410 1404 1404 1398 1398 1398 1398 1398 1392 1387 1381
    1381 1381 1381 1392 1404 1415 1433 1433 1439 1445 1458 1470 1477
    1489 1503 1509 1523 1529 1536 1550 1557 1572 1586 1586 1594 1601
    2835 2835 2859 2883 2908 1410 1410 1410 1410 1410 1410 1410 1410
    1404 1398 1398 1404 1398 1398 1398 1392 1387 1381 1381 1381 1381
    1392 1404 1415 1433 1433 1439 1445 1458 1470 1477 1489 1503 1509
    1523 1529 1536 1550 1557 1572 1586 1586 1594 1594 2835 2835 2859
    2883 2908 1410 1410 1410 1410 1410 1404 1404 1404 1404 1392 1392
    1387 1387 1387 1392 1392 1387 1387 1381 1381 1387 1398 1404 1415
    1427 1427 1439 1445 1458 1470 1477 1489 1503 1509 1523 1529 1536
    1550 1557 1572 1579 1586 1594 1594 2812 2812 2859 2883 2908 1410
    1410 1410 1415 1410 1404 1404 1404 1404 1392 1392 1387 1387 1387
    1381 1381 1381 1381 1381 1381 1387 1398 1404 1415 1427 1427 1439
    1452 1464 1477 1483 1489 1503 1509 1523 1529 1543 1543 1557 1572
    1579 1586 1594 1594 2812 2812 2859 2883 2883 1410 1410 1410 1410
    1410 1404 1404 1404 1398 1398 1398 1392 1387 1387 1381 1381 1381
    1381 1381 1381 1387 1392 1404 1415 1421 1421 1439 1452 1458 1477
    1483 1489 1496 1509 1516 1536 1543 1543 1557 1572 1579 1586 1594
    1594 2812 2812 2859 2883 2883 1410 1410 1410 1410 1410 1404 1404
    1404 1398 1398 1392 1387 1387 1387 1381 1381 1381 1381 1381 1387
    1387 1392 1404 1415 1421 1421 1433 1445 1458 1477 1483 1489 1496
    1509 1516 1536 1536 1550 1557 1572 1579 1586 1594 1594 2835 2835
    2859 2859 2883 1410 1410 1410 1410 1410 1404 1398 1398 1398 1398
    1392 1387 1387 1387 1387 1381 1381 1381 1381 1387 1387 1392 1410
    1415 1427 1427 1433 1445 1458 1477 1483 1489 1496 1503 1509 1529
    1536 1543 1557 1564 1579 1586 1594 1594 2835 2835 2859 2859 2883
    1410 1410 1410 1410 1404 1404 1398 1398 1398 1398 1387 1387 1387
    1381 1381 1381 1381 1376 1376 1381 1387 1404 1410 1415 1427 1427
    1445 1452 1458 1470 1489 1489 1496 1503 1509 1529 1536 1536 1550
    1564 1572 1586 1586 1586 2835 2835 2859 2859 2859 1415 1410 1410
    1404 1404 1398 1398 1398 1392 1392 1387 1387 1387 1381 1381 1381
    1376 1376 1376 1381 1381 1404 1410 1415 1427 1427 1445 1452 1458
    1464 1496 1496 1496 1503 1509 1529 1536 1536 1550 1564 1572 1579
    1586 1586 2835 2835 2859 2859 2859 1415 1410 1410 1404 1404 1398
    1398 1398 1392 1392 1387 1387 1387 1381 1381 1381 1376 1376 1376
    1381 1381 1404 1410 1415 1421 1427 1445 1458 1458 1464 1489 1496
    1496 1509 1509 1529 1536 1543 1557 1564 1572 1579 1586 1586 2835
    2835 2859 2859 2859 1415 1410 1404 1398 1398 1398 1398 1398 1387
    1387 1387 1387 1381 1381 1381 1381 1376 1376 1376 1381 1381 1398
    1410 1421 1421 1427 1445 1458 1458 1464 1489 1496 1496 1509 1523
    1529 1536 1543 1557 1564 1572 1579 1586 0 2835 2835 2883 2883 2883
    1410 1404 1404 1398 1398 1392 1392 1392 1387 1387 1381 1381 1381
    1381 1381 1381 1376 1370 1370 1381 1381 1392 1410 1421 1421 1427
    1439 1458 1458 1470 1483 1489 1496 1503 1523 1529 1536 1543 1557
    1564 1564 1579 1594 0 2883 2883 2883 2883 2883 1410 1404 1404 1398
    1398 1392 1392 1392 1387 1387 1381 1381 1381 1381 1381 1381 1376
    1370 1370 1381 1381 1387 1404 1415 1421 1427 1439 1452 1464 1464
    1477 1489 1496 1503 1516 1529 1536 1543 1557 1564 1564 1564 1564
    1564 1564 2908 0 2908 2908 1404 1404 1410 1404 1404 1398 1398 1392
    1392 1387 1381 1381 1381 1381 1381 1381 1381 1381 1381 1381 1381
    1387 1404 1410 1421 1433 1439 1452 1458 1464 1477 1483 1496 1503
    1516 1523 1536 1550 1557 1564 1564 1564 1564 0 0 0 0 0 0 1381 1398
    1410 1410 1421 1410 1404 1404 1392 1387 1387 1387 1387 1387 1387
    1387 1387 1387 1387 1387 1387 1392 1392 1410 1421 1433 1439 1452
    1458 1464 1470 1483 1496 1503 1516 1523 1536 1550 1564 1564 1564
    1564 1564 2744 2744 2744 0 0 0 1381 1392 1415 1421 1421 1427 1427
    1433 1415 1415 1398 1398 1458 1387 1387 1387 1387 1387 1387 1387
    1387 1392 1392 1410 1427 1433 1445 1452 1458 1464 1470 1483 1489
    1503 1509 1523 1536 1550 1564 1564 1564 1564 1564 2744 2744 2744 0 0
    0 1392 1392 3365 3399 1427 1427 1427 1445 1439 1439 1445 1458 1458
    1452 1452 1452 1483 1483 1503 1503 1503 1503 1470 1427 1427 1439
    1452 1464 1470 1470 1477 1483 1489 1503 1509 1523 1529 1550 1557
    1564 1564 1564 1564 2744 2744 2744 2789 2789 0 3333 3333 3333 3365
    3399 1433 1433 1445 1452 1452 1452 2701 1470 1464 1464 1477 1483
    1483 1503 1503 1489 1483 1458 1445 1439 1439 1452 1470 1477 1477
    1483 1489 1496 1509 1516 1523 1529 1550 1557 1564 1557 1557 1557
    2744 2744 2767 2789 2789 2812 3333 3333 3333 3365 3365 3399 3399
    3399 3399 3399 2723 2680 1458 1458 1458 1477 1483 1483 1503 1503
    1489 1483 1458 1452 1452 1452 1483 1483 1483 1483 1483 1489 1496
    1523 1523 1529 1536 1550 1564 1564 1557 1557 1557 2767 2767 2767
    2789 2812 2812 3333 3333 3333 3365 3365 3399 3399 3399 3399 3399
    2701 2680 1458 1452 1452 1477 1477 0 0 1516 1509 1509 0 0 2701 2701
    2767 2767 1496 1496 1496 1496 2659 2680 2680 2680 1557 1557 1557
    1557 1557 1557 1557 2767 2767 2767 2789 2812 2812 3333 3333 3333
    3365 3365 3399 3365 3365 3399 3399 2680 2680 1470 1452 1452 1477
    1477 0 0 0 0 0 0 0 2701 2701 2701 2701 2680 2680 2680 2659 2659 2680
    2680 2680 1557 1557 1557 1557 1557 1557 2744 2767 2767 2767 2789
    2812 2812</data></Depth6458>
</opencv_storage>
