<?xml version="1.0"?>
<opencv_storage>
<Depth18126 type_id="opencv-matrix">
  <rows>99</rows>
  <cols>35</cols>
  <dt>w</dt>
  <data>
    4405 4349 4349 4295 4295 4295 0 0 0 0 0 0 0 0 0 1214 1214 1189 1189
    1189 1185 1185 1185 1185 1185 1185 3774 3774 3774 3859 3948 3994
    3948 3948 3948 4405 0 0 0 0 0 0 0 0 0 0 0 0 0 0 0 1214 1189 1189
    1189 1185 1185 1185 1185 1185 1185 1185 3948 0 3948 3948 3994 3994
    3994 3948 0 0 0 0 0 0 0 0 0 0 0 0 0 0 0 0 1214 1202 1189 1185 1185
    1185 1185 1185 1185 1185 1185 0 3948 3948 3948 3994 3994 3994 3948 0
    0 0 0 0 0 0 0 0 0 0 0 0 0 0 0 1214 1193 1185 1185 1185 1185 1181
    1181 1185 1185 1185 0 3948 3948 3948 3948 3948 3948 3948 0 0 0 1181
    1181 1181 1181 1181 1181 1181 1181 1185 1185 1181 1181 1181 1181
    1181 1181 1181 1181 1181 1181 1181 1181 1181 0 0 0 3948 3948 3948
    3948 3948 3903 0 1185 1181 1181 1181 1181 1181 1181 1177 1177 1181
    1181 1181 1181 1181 1177 1177 1177 1177 1177 1177 1177 1177 1173
    1173 1173 0 0 0 3948 3948 3948 3948 3903 3903 1181 1181 1181 1177
    1177 1177 1177 1177 1177 1177 1177 1181 1181 1177 1177 1177 1173
    1173 1177 1177 1177 1177 1177 1173 1173 1173 0 0 0 0 3948 3948 3903
    3903 3903 1181 1181 1177 1177 1177 1177 1177 1177 1177 1177 1177
    1181 1181 1177 1177 1177 1173 1173 1177 1177 1177 1177 1177 1177
    1173 1169 1169 1169 0 3948 3948 3948 3903 3903 3903 1177 1181 1177
    1177 1177 1177 1177 1177 1177 1177 1177 1181 1181 1177 1177 1177
    1173 1173 1177 1177 1177 1177 1177 1177 1173 1169 1169 1169 0 3994 0
    3994 3948 3948 3903 1177 1177 1177 1177 1177 1177 1177 1177 1177
    1177 1177 1181 1181 1181 1177 1177 1177 1177 1177 1177 1177 1177
    1177 1177 1173 1169 1169 0 0 0 0 3994 3948 3948 3948 1177 1177 1177
    1177 1177 1177 1177 1177 1177 1177 1177 1181 1181 1181 1177 1177
    1177 1177 1177 1177 1177 1177 1177 1177 1173 1169 1169 0 0 0 3994
    3994 3994 3948 3948 1177 1177 1177 1177 1177 1177 1177 1177 1177
    1177 1177 1181 1181 1181 1177 1177 1181 1181 1181 1177 1177 1177
    1177 1177 1177 1169 1169 0 0 0 3994 3994 3994 3948 3948 1177 1177
    1177 1181 1181 1181 1177 1177 1177 1177 1177 1181 1181 1181 1181
    1181 1181 1181 1181 1181 1181 1181 1181 1177 1177 1169 1169 0 0 0
    3994 3994 3994 3948 3948 0 1177 1177 1181 1181 1181 1177 1177 1177
    1177 1177 1181 1181 1181 1181 1181 1181 1181 1181 1181 1181 1181
    1181 1177 1177 1169 1169 0 0 0 3994 3994 3948 3948 3948 0 1181 1181
    1181 1181 1181 1177 1177 1177 1177 1177 1181 1181 1181 1181 1181
    1181 1181 1181 1181 1181 1181 1181 1181 1177 1173 1173 1173 0 3948
    3948 3948 3948 3948 3948 0 1181 1177 1177 1181 1177 1177 1177 1177
    1177 1177 1181 1181 1181 1181 1181 1181 1181 1181 1181 1181 1181
    1181 1181 1181 1181 0 0 0 0 3948 3948 3994 3994 3994 0 1181 1177
    1177 1181 1177 1177 1177 1177 1177 1177 1181 1181 1181 1181 1181
    1181 1181 1181 1181 1181 1181 1181 1181 1181 1181 1181 0 0 0 3994
    3994 3994 3994 3994 0 1185 1181 1181 1181 1177 1177 1177 1181 1177
    1177 1181 1181 1181 1181 1181 1181 1181 1181 1181 1181 1181 1181
    1181 1181 1181 1181 1181 0 3994 3994 3994 3994 3994 3994 0 1185 1181
    1181 1181 1181 1177 1177 1181 1181 1181 1181 1181 1181 1181 1181
    1181 1181 1181 1181 1181 1181 1181 1181 1181 1181 1177 1177 1177 0
    4041 4041 3994 3994 3994 0 1181 1181 1181 1181 1181 1181 1181 1181
    1181 1181 1181 1181 1181 1181 1181 1181 1181 1181 1181 1181 1181
    1181 1181 1181 1181 1177 1177 0 0 0 0 4041 3994 3948 0 1189 1181
    1181 1181 1181 1181 1181 1181 1181 1181 1181 1181 1181 1181 1181
    1181 1181 1181 1181 1181 1181 1181 1181 1181 1181 1177 1177 1177 0
    4041 0 3994 3994 3948 0 1189 1185 1181 1181 1181 1181 1181 1181 1181
    1181 1185 1181 1181 1181 1181 1181 1181 1181 1181 1181 1181 1181
    1181 1177 1177 1177 1177 0 0 0 4041 3994 3994 3948 0 1193 1185 1181
    1181 1181 1181 1181 1181 1181 1181 1185 1185 1185 1181 1181 1181
    1181 1181 1181 1181 1181 1181 1181 1177 1177 1177 1177 0 0 0 3994
    3994 3948 3948 0 1189 1185 1181 1181 1181 1181 1181 1181 1181 1181
    1185 1185 1185 1181 1181 1181 1181 1181 1181 1181 1181 1181 1181
    1181 1181 1181 1181 0 0 0 3994 3994 3948 3948 0 1189 1185 1181 1181
    1181 1181 1181 1181 1181 1181 1185 1185 1185 1181 1181 1181 1181
    1181 1181 1181 1181 1181 1181 1181 1181 1181 0 0 0 0 3994 3994 3994
    3948 0 1189 1185 1181 1181 1181 1181 1181 1181 1181 1181 1185 1185
    1181 1181 1181 1181 1181 1181 1181 1181 1181 1181 1181 1181 1181
    1181 1181 0 0 0 3994 3994 3948 3948 0 1193 1185 1181 1181 1181 1181
    1181 1181 1181 1181 1185 1185 1181 1181 1181 1181 1181 1181 1181
    1181 1181 1181 1181 1181 1181 1181 0 0 0 0 4041 3994 3948 3948 0
    1189 1189 1181 1181 1181 1181 1181 1181 1181 1181 1185 1185 1181
    1181 1181 1181 1181 1181 1181 1181 1181 1181 1181 1181 1181 1181
    1181 0 0 0 4041 3994 3948 3948 0 0 1181 1181 1181 1181 1181 1181
    1181 1181 1181 1185 1185 1181 1181 1181 1181 1181 1181 1181 1181
    1181 1181 1181 1181 1181 1181 1181 0 0 0 0 3994 3994 3994 0 0 1181
    1181 1181 1181 1181 1181 1181 1181 1181 1185 1185 1181 1181 1181
    1181 1185 1185 1181 1181 1181 1181 1181 1181 1181 1181 1181 0 0 0 0
    3994 3994 3994 0 0 1181 1181 1181 1181 1181 1181 1181 1181 1181 1185
    1185 1185 1185 1185 1185 1185 1185 1181 1181 1181 1181 1181 1181
    1181 1181 1181 0 0 0 0 3994 3994 3994 0 0 1181 1181 1181 1181 1181
    1181 1181 1181 1181 1185 1185 1185 1185 1185 1185 1185 1185 1185
    1181 1181 1181 1181 1181 1181 1181 1181 0 0 0 3948 3948 3948 3948 0
    0 1185 1181 1181 1181 1181 1181 1181 1181 1181 1185 1185 1185 1185
    1185 1185 1185 1185 1185 1181 1181 1181 1181 1185 1181 1181 1181 0 0
    0 0 3948 3948 3948 0 0 1185 1181 1181 1181 1181 1181 1181 1181 1181
    1185 1185 1189 1185 1185 1185 1185 1185 1185 1181 1181 1181 1185
    1185 1181 1181 1181 1181 0 0 0 3948 3948 3994 0 1185 1185 1185 1181
    1181 1181 1181 1181 1181 1181 1185 1185 1189 1185 1185 1185 1185
    1185 1185 1185 1185 1185 1185 1185 1181 1181 1181 1181 0 0 0 3948
    3948 3948 0 1185 1185 1185 1185 1181 1181 1181 1181 1181 1181 1185
    1189 1189 1185 1185 1185 1185 1185 1185 1185 1185 1185 1185 1185
    1181 1181 1181 1181 0 0 0 3948 3948 3948 0 1185 1185 1185 1185 1185
    1185 1185 1181 1181 1181 1185 1185 1185 1185 1185 1185 1185 1185
    1185 1185 1185 1185 1185 1185 1181 1181 1181 1181 0 0 0 3994 3994
    3994 0 1185 1185 1185 1185 1185 1185 1181 1181 1181 1181 1185 1185
    1185 1185 1185 1185 1185 1185 1185 1185 1185 1185 1185 1185 1185
    1181 1181 1181 0 0 0 4041 3994 3994 0 0 1181 1181 1185 1185 1185
    1181 1181 1181 1181 1185 1185 1185 1185 1185 1185 1185 1185 1185
    1185 1185 1185 1185 1185 1185 1181 1181 1181 0 0 0 4041 4041 3994 0
    0 1181 1181 1185 1185 1185 1185 1181 1181 1181 1185 1185 1185 1185
    1185 1185 1185 1185 1185 1185 1185 1185 1185 1185 1185 1181 1181
    1181 0 0 0 3994 3994 3994 0 0 1185 1185 1185 1185 1185 1185 1185
    1181 1181 1185 1185 1185 1185 1185 1185 1185 1185 1185 1185 1185
    1185 1185 1185 1185 1185 1181 1181 0 0 0 3994 3994 3994 0 0 1185
    1185 1185 1185 1185 1185 1185 1181 1181 1185 1185 1185 1185 1185
    1185 1185 1185 1185 1185 1185 1185 1185 1185 1185 1185 1181 1181
    1181 0 3948 3948 3948 3948 0 0 1189 1185 1185 1185 1185 1185 1185
    1181 1181 1185 1185 1185 1185 1185 1185 1185 1185 1185 1185 1185
    1185 1185 1185 1185 1185 1181 1181 1181 0 3903 3903 3903 3948 0 0
    1189 1185 1185 1185 1185 1185 1185 1185 1185 1185 1185 1185 1185
    1185 1185 1185 1185 1189 1185 1185 1185 1185 1185 1185 1185 1185
    1185 1185 0 3903 3903 3903 3903 0 0 0 1189 1185 1185 1185 1185 1189
    1185 1185 1185 1185 1185 1185 1185 1185 1185 1185 1189 1185 1185
    1185 1185 1185 1185 1185 1185 1185 1185 1189 3859 3859 3859 3903 0 0
    0 1189 1185 1185 1185 1185 1185 1185 1185 1185 1185 1185 1185 1185
    1185 1185 1185 1189 1185 1185 1185 1185 1185 1185 1185 1185 1185
    1189 1189 3859 3859 3859 3903 0 0 0 0 1189 1189 1189 1185 1185 1185
    1185 1185 1185 1185 1189 1185 1185 1185 1189 1189 1185 1185 1185
    1185 1185 1185 1185 1185 1185 1185 1185 0 3903 3903 3903 0 0 0 0
    1189 1189 1185 1185 1185 1181 1181 1185 1185 1189 1189 1189 1189
    1189 1189 1189 1185 1185 1185 1185 1185 1185 1185 1185 1181 1181
    1185 1185 3994 3994 3948 0 0 0 1193 1189 1189 1185 1185 1185 1181
    1181 1185 1185 1189 1189 1189 1189 1189 1189 1189 1185 1185 1185
    1185 1185 1189 1185 1185 1181 1181 1181 4041 3994 3994 3948 0 0 1181
    1181 1189 1185 1185 1185 1185 1185 1185 1189 1189 1189 1189 1189
    1189 1189 1189 1189 1185 1185 1185 1185 1185 1189 1185 1185 1181
    1181 1181 4041 4041 3994 3994 0 0 1181 1181 1189 1185 1185 1185 1185
    1185 1185 1189 1189 1189 1189 1189 1189 1189 1189 1189 1189 1189
    1185 1185 1185 1189 1189 1185 1185 1185 1181 4041 4041 4041 4041 0
    1189 1189 1189 1189 1189 1185 1185 1185 1185 1185 1189 1193 1193
    1189 1189 1189 1189 1189 1189 1189 1189 1185 1185 1185 1189 1189
    1185 1181 1181 1181 4041 4041 4041 4041 0 0 0 1189 1189 1189 1185
    1185 1185 1185 1185 1189 1193 1193 1189 1189 1189 1189 1189 1193
    1189 1189 1185 1185 1185 1189 1189 1185 1181 1181 1181 1181 4041
    4041 4041 3948 3948 0 1189 1189 1189 1185 1185 1185 1185 1185 1193
    1193 1193 1189 1189 1189 1189 1189 1193 1189 1189 1189 1185 1185
    1189 1189 1189 1181 1181 1181 0 4041 4041 3994 3948 3948 0 1185 1185
    1189 1189 1189 1185 1185 1189 1193 1193 1193 1189 1189 1189 1189
    1193 1193 1189 1189 1189 1185 1185 1189 1189 1189 1181 1181 1181 0
    3994 3994 3948 3948 3948 0 1185 1185 1189 1185 1185 1189 1189 1189
    1197 1193 1193 1189 1185 1185 1189 1189 1193 1189 1189 1189 1189
    1189 1189 1189 1189 1181 1181 1181 3732 3816 3816 3816 3948 3948 0
    1189 1189 1189 1185 1185 1189 1189 1193 1197 1197 1193 1189 1185
    1185 1189 1189 1193 1189 1189 1189 1189 1189 1189 1189 1189 1181
    1181 0 3732 3732 3732 3774 3994 3994 0 1189 1189 1189 1189 1189 1189
    1189 1193 1197 1197 1193 1193 1189 1189 1189 1193 1193 1189 1189
    1189 1189 1189 1189 1189 1189 1189 1189 0 3732 3732 3732 3774 3994
    1193 1193 1193 1189 1189 1189 1189 1189 1189 1193 1197 1197 1193
    1189 1189 1189 1193 1193 1193 1193 1189 1189 1189 1189 1189 1189
    1189 1189 1189 0 3774 3774 3774 3774 0 0 0 1193 1193 1193 1193 1193
    1193 1189 1189 1197 1197 1193 1189 1189 1193 1193 1193 1193 1193
    1193 1189 1189 1189 1189 1189 1189 1189 1193 0 3774 3774 3774 3774
    3576 0 1193 1193 1193 1193 1193 1193 1193 1189 1189 1197 1197 1193
    1193 1193 1193 1193 1193 1193 1193 1193 1193 1193 1193 1193 1189
    1189 1189 1193 1193 1193 3774 3774 3774 3576 0 1189 1189 1189 1193
    1193 1193 1193 1189 1189 1197 1197 1197 1193 1193 1193 1193 1193
    1193 1193 1193 1193 1193 1193 1193 1193 1189 1189 1189 1189 0 3816
    3816 3816 3576 0 0 1189 1189 1193 1193 1193 1193 1193 1193 1197 1197
    1197 1193 1193 1193 1193 1193 1197 1197 1197 1197 1197 1193 1193
    1193 1193 1189 1189 1189 0 3859 3859 3816 2908 2908 0 1193 1193 1193
    1193 1193 1193 1193 1193 1197 1197 1197 1193 1193 1193 1193 1193
    1197 1197 1197 1197 1197 1197 1193 1193 1193 1189 1189 1189 1202
    3994 3994 3816 2908 0 0 1193 1193 1193 1193 1193 1193 1193 1193 1197
    1197 1197 1193 1193 1193 1193 1193 1197 1197 1197 1197 1197 1197
    1193 1193 1193 1193 1193 1197 1202 1202 3994 3859 2908 2908 0 1197
    1193 1193 1193 1193 1193 1193 1193 1197 1197 1197 1197 1197 1197
    1193 1193 1193 1197 1197 1197 1197 1197 1197 1193 1193 1193 1193
    1197 1202 1202 2859 2859 2859 2859 1193 1193 1193 1193 1193 1193
    1193 1193 1193 1197 1197 1197 1197 1197 1197 1193 1193 1193 1197
    1197 1197 1197 1197 1197 1197 1193 1193 1193 1197 1197 2835 2835
    2835 2835 0 1193 1193 1193 1193 1193 1193 1193 1193 1193 1197 1197
    1197 1197 1197 1197 1197 1197 1197 1197 1197 1197 1197 1197 1197
    1197 1197 1197 1197 1197 1197 2835 2835 2812 2835 0 1193 1193 1193
    1193 1193 1193 1193 1193 1193 1197 1197 1197 1197 1197 1197 1197
    1197 1197 1197 1197 1197 1197 1197 1197 1197 1197 1197 1197 1193
    1193 1193 2835 2812 2835 2812 0 1197 1197 1197 1193 1193 1193 1193
    1193 1197 1197 1197 1197 1193 1193 1193 1197 1197 1197 1197 1197
    1197 1197 1197 1197 1197 1197 1197 1193 1193 1193 2767 2767 2812
    2812 2908 1202 1202 1197 1197 1197 1193 1193 1193 1197 1197 1197
    1193 1193 1193 1193 1197 1197 1197 1197 1197 1197 1197 1197 1197
    1197 1197 1197 1197 1197 1197 2744 2744 2812 2908 2908 1202 1202
    1197 1197 1197 1193 1193 1193 1197 1197 1197 1193 1193 1193 1193
    1197 1197 1197 1197 1197 1197 1197 1197 1197 1197 1197 1197 1202
    1202 1202 2744 2744 2812 2812 2812 0 1197 1197 1197 1197 1193 1193
    1193 1197 1197 1197 1197 1197 1197 1197 1197 1197 1197 1197 1197
    1197 1197 1197 1197 1197 1197 1197 1202 1202 2744 2744 2744 2812
    2812 2812 0 1193 1193 1197 1197 1193 1193 1193 1197 1197 1197 1197
    1197 1197 1197 1197 1197 1197 1197 1197 1197 1197 1197 1197 1197
    1197 1202 1206 1206 2744 2744 2744 2812 2812 2812 1193 1193 1193
    1197 1197 1197 1197 1197 1197 1197 1197 1197 1197 1197 1197 1197
    1197 1197 1197 1197 1197 1197 1197 1197 1197 1197 1202 1202 2744
    2744 2744 2744 2835 2835 2835 1197 1197 1197 1197 1197 1197 1197
    1197 1202 1202 1197 1197 1197 1197 1197 1197 1197 1197 1197 1197
    1197 1197 1197 1197 1197 1197 1202 1202 2744 2744 2744 2744 2835
    2835 2835 0 1193 1193 1197 1197 1197 1197 1197 1202 1202 1197 1197
    1197 1197 1197 1197 1197 1197 1197 1197 1197 1197 1197 1197 1197
    1197 1197 1197 1197 2744 2744 2744 2835 0 0 0 1193 1193 1197 1197
    1197 1197 1197 1202 1202 1197 1197 1197 1197 1197 1197 1197 1197
    1197 1197 1197 1197 1197 1197 1197 1197 1197 1197 1197 2744 2744
    2744 0 0 0 0 1202 1202 1197 1197 1197 1197 1197 1202 1197 1197 1197
    1197 1197 1197 1197 1197 1197 1197 1197 1197 1197 1197 1197 1197
    1197 1197 1197 1197 1197 2767 2744 0 0 0 0 1197 1197 1197 1197 1197
    1197 1197 1202 1197 1197 1197 1193 1193 1197 1197 1197 1197 1197
    1197 1197 1197 1197 1197 1197 1197 1197 1197 1197 1197 2744 2744 0 0
    0 0 1193 1193 1197 1197 1197 1197 1197 1197 1197 1197 1197 1193 1193
    1193 1193 1193 1197 1197 1197 1197 1197 1197 1197 1197 1197 1197
    1197 1197 1197 2744 2744 0 0 0 0 1193 1193 1193 1193 1193 1197 1197
    1197 1197 1197 1197 1193 1193 1193 1189 1189 1193 1197 1197 1197
    1197 1197 1197 1197 1197 1197 1197 1197 1354 1354 2744 0 0 0 0 0
    1189 1189 1189 1189 1193 1193 1193 1197 1197 1349 1197 1193 1193
    1189 1189 1193 1197 1338 1197 1197 1202 1202 1202 1202 1206 1343
    1343 1349 1349 1349 0 0 0 0 0 1189 1189 1189 1189 1193 1193 1193
    1292 1297 1349 1349 1343 1343 1343 1338 1338 1338 1338 1338 1292
    1292 1297 1333 1338 1338 1333 1333 1333 1333 1333 0 0 0 0 0 1328
    1328 1338 1333 1328 1292 1292 1292 1292 1333 1333 1333 1333 1333
    1333 1333 1333 1333 1312 1297 1297 1297 1322 1328 1328 1328 1328
    1328 1333 1333 0 0 0 0 0 1317 1317 1328 1322 1322 1312 1307 1292
    1292 1322 1322 1322 1322 1328 1328 1328 1328 1322 1312 1297 1297
    1302 1312 1317 1317 1322 1322 1322 1328 1328 0 0 0 0 0 1307 1307
    1317 1317 1312 1307 1307 1297 1297 1307 1307 1312 1312 1312 1317
    1322 1317 1317 1307 1292 1292 1302 1302 1307 1307 1312 1312 1317
    1322 1328 0 0 0 0 1307 1307 1307 1302 1302 1292 1292 1297 1292 1292
    1297 1297 1302 1297 1292 1292 1292 1302 1297 1292 1292 1292 1297
    1297 1302 1302 1302 1307 1317 1322 1322 0 0 0 0 1307 1297 1297 1292
    1292 1292 1292 1292 1292 1292 1292 1292 1292 1288 1288 1288 1288
    1288 1288 1283 1283 1283 1288 1292 1288 1288 1283 1278 1278 1322
    1322 0 0 0 0 1278 1278 1278 1283 1283 1283 1278 1278 1278 1278 1288
    1288 1288 1278 1278 1278 1278 1278 1278 1273 1273 1268 1268 1273
    1278 1278 1268 1268 1268 1264 1264 0 0 0 0 1264 1264 1268 1273 1268
    1268 1268 1273 1273 1273 1273 1273 1273 1273 1273 1273 1273 1273
    1273 1268 1264 1264 1264 1264 1264 1268 1264 1264 1264 1264 1264 0 0
    0 0 1264 1264 1264 1264 1264 1259 1259 1259 1259 1264 1264 1264 1264
    1268 1268 1268 1268 1268 1268 1268 1264 1259 1259 1259 1255 1255
    1259 1259 1259 1255 1255 0 0 0 1255 1255 1259 1259 1259 1259 1259
    1259 1259 1259 1259 1259 1259 1259 1259 1259 1259 1268 1268 1264
    1259 1259 1259 1259 1255 1255 1255 1255 1255 1255 1255 1255 0 0 0
    1255 1255 1259 1259 1259 1259 1255 1255 1255 1255 1255 1259 1259
    1259 1259 1259 1259 1268 1264 1264 1259 1255 1255 1259 1255 1255
    1255 1255 1255 1255 1255 1255 0 0 0 0 1259 1259 1259 1259 1259 1255
    1255 1255 1255 1255 1259 1259 1259 1259 1259 1259 1268 1264 1264
    1259 1255 1255 1259 1255 1255 1255 1255 1255 1255 1255 1255 0 0 0 0
    0 1264 1259 1259 1259 1255 1255 1255 1255 1255 1259 1259 1255 1255
    1259 1264 1268 1264 1264 1259 1255 1255 1259 1255 1255 1255 1255
    1255 1255 1255 1255 0 0 0 0 0 1264 1259 1259 1259 1259 1259 1255
    1255 1255 1259 1259 1255 1255 1259 1264 1264 1264 1264 1259 1259
    1259 1259 1255 1255 1255 1255 1255 1255 1255 1255 0 0 0 0 1264 1264
    1264 1259 1259 1259 1264 1259 1259 1259 1255 1255 1259 1259 1259
    1264 1264 1264 1264 1259 1259 1259 1255 1255 1255 1255 1255 1255
    1255 1259 0 0 0 0 0 1264 1264 1264 1264 1264 1264 1264 1264 1259
    1259 1255 1255 1259 1264 1264 1268 1268 1268 1264 1264 1259 1255
    1255 1255 1250 1250 1255 1255 1255 1259 0</data></Depth18126>
</opencv_storage>
