<?xml version="1.0"?>
<opencv_storage>
<Depth5448 type_id="opencv-matrix">
  <rows>83</rows>
  <cols>47</cols>
  <dt>w</dt>
  <data>
    2812 2835 2835 4089 4089 4089 4089 4089 1245 1245 4089 4139 4139
    4139 1250 1245 1245 1241 1236 1232 1232 1232 4349 4349 4405 1241
    1241 1241 1236 1232 1232 4463 4463 4645 4645 4645 4582 4582 4582
    4582 4645 4645 4645 4645 4645 4645 4708 2789 2789 2789 4089 4089
    4089 4041 4041 1236 1227 1227 1227 1232 1245 1245 1245 1241 1241
    1236 1232 1232 1232 1232 1232 1232 1236 1236 1236 1232 1232 1232
    1236 1236 1236 4645 4645 4582 4582 4582 4582 4645 4645 4645 4645
    4645 4645 4708 2767 2767 2789 4089 4089 4089 4041 4041 1236 1227
    1227 1227 1232 1241 1241 1241 1241 1241 1236 1236 1232 1232 1232
    1232 1232 1232 1232 1232 1232 1232 1232 1232 1236 1236 1245 4582
    4582 4582 4582 4582 4582 4645 4645 4645 4708 4708 4708 2767 2767
    2789 4089 4089 4089 1264 1264 1241 1236 1232 1232 1236 1236 1236
    1241 1236 1236 1232 1232 1232 1232 1232 1232 1232 1232 1232 1232
    1232 1227 1227 1232 1236 1245 1245 0 4582 4582 4582 4582 4582 4645
    4645 4708 4708 4708 4774 2767 2767 2767 2767 4089 0 1264 1264 1241
    1232 1227 1227 1232 1232 1236 1241 1236 1236 1232 1232 1232 1232
    1227 1227 1227 1227 1227 1232 1227 1227 1227 1232 1241 1245 1245
    1273 1273 4582 4582 4582 4582 4645 4645 4645 4708 4645 4645 2789
    2812 2812 4089 4089 0 1264 1264 1241 1232 1227 1227 1232 1232 1232
    1232 1232 1232 1232 1232 1232 1232 1227 1227 1227 1227 1227 1232
    1227 1227 1227 1232 1241 1250 1264 1273 1273 4582 4582 4582 4582
    4645 4645 4645 4645 4645 4645 2789 2812 4041 4089 4089 0 1241 0 1241
    1232 1227 1227 1232 1232 1232 1232 1232 1232 1232 1232 1232 1227
    1227 1227 1227 1227 1227 1227 1227 1227 1227 1232 1241 1255 1264
    1273 1302 1307 1307 4645 4645 4645 4645 4645 4645 4645 4645 2812
    3994 3994 4089 0 0 0 0 1236 1232 1227 1227 1232 1232 1232 1227 1227
    1227 1232 1232 1232 1227 1227 1227 1223 1223 1223 1227 1227 1227
    1232 1232 1241 1255 1264 1268 1302 1307 1322 1322 4645 4645 4582
    4582 4582 4645 4645 3994 3994 3994 3994 0 0 0 0 1236 1232 1227 1227
    1232 1227 1227 1227 1227 1227 1227 1227 1227 1227 1227 1227 1223
    1223 1223 1223 1227 1227 1227 1232 1241 1255 1264 1268 1288 1307
    1322 1328 1328 4582 4582 4582 4582 4645 4645 3948 3948 3994 3994 0 0
    0 0 1236 1232 1227 1227 1227 1227 1227 1227 1227 1227 1227 1227 1227
    1227 1227 1223 1223 1223 1219 1219 1223 1227 1227 1232 1241 1255
    1264 1268 1288 1302 1317 1328 1333 1333 4582 4582 4582 4645 4645
    3903 3903 3903 0 0 0 0 0 1223 1223 1223 1223 1227 1227 1223 1223
    1223 1227 1227 1227 1227 1227 1227 1223 1223 1219 1219 1219 1219
    1219 1227 1227 1241 1250 1264 1273 1283 1297 1317 1328 1333 1354
    1354 4645 4645 4645 4645 3903 3859 3859 0 0 0 0 0 1223 1223 1223
    1223 1227 1223 1223 1223 1223 1227 1227 1227 1227 1227 1223 1223
    1219 1219 1214 1214 1219 1219 1223 1227 1241 1250 1255 1278 1283
    1297 1312 1328 1343 1354 1370 1370 4645 4645 4645 3903 3859 3859 0 0
    0 0 1227 1223 1223 1223 1223 1223 1219 1219 1219 1219 1219 1227 1227
    1219 1219 1219 1219 1219 1214 1214 1214 1214 1214 1223 1227 1241
    1250 1255 1278 1283 1297 1312 1333 1343 1359 1370 1387 1387 4708
    4708 3948 3903 3903 0 0 0 0 1223 1223 1219 1219 1219 1219 1219 1219
    1219 1219 1219 1219 1219 1219 1219 1219 1219 1219 1214 1214 1214
    1214 1214 1223 1227 1241 1250 1255 1273 1283 1292 1322 1333 1343
    1365 1376 1387 1387 1404 4645 3994 3994 3994 0 0 0 0 1223 1223 1219
    1214 1214 1214 1214 1214 1219 1219 1219 1219 1214 1214 1219 1219
    1214 1214 1214 1214 1214 1214 1214 1223 1232 1241 1250 1255 1273
    1283 1292 1328 1338 1338 1387 1387 1392 1404 1404 4645 3948 3994
    4041 0 0 0 0 1223 1223 1219 1214 1214 1214 1214 1214 1214 1214 1214
    1214 1214 1214 1214 1214 1214 1210 1210 1214 1214 1214 1214 1219
    1227 1241 1250 1255 1273 1283 1307 1328 1338 1338 1349 1392 1398
    1404 1421 1421 3948 3994 4041 0 0 0 0 1227 1223 1214 1210 1210 1214
    1214 1214 1214 1214 1214 1214 1214 1214 1214 1210 1210 1210 1210
    1210 1210 1210 1214 1214 1223 1241 1250 1255 1273 1283 1307 1322
    1333 1338 1349 1392 1398 1410 1421 1421 3948 3994 3994 0 0 0 0 0
    1214 1214 1210 1210 1214 1214 1214 1214 1214 1214 1214 1214 1214
    1210 1210 1210 1210 1210 1210 1210 1210 1214 1214 1219 1241 1250
    1264 1278 1288 1307 1322 1333 1333 1349 1392 1398 1404 1415 1415
    3948 3948 3948 0 0 0 0 0 1210 1210 1210 1210 1214 1210 1210 1210
    1210 1210 1210 1210 1210 1210 1210 1210 1210 1210 1210 1210 1210
    1214 1214 1219 1232 1250 1264 1278 1288 1302 1317 1328 1333 1359
    1387 1398 1404 1410 1410 3903 3948 3948 0 0 0 0 1206 1206 1210 1210
    1210 1214 1210 1210 1210 1210 1210 1210 1210 1210 1210 1210 1210
    1206 1206 1206 1206 1210 1210 1214 1219 1232 1245 1264 1273 1283
    1302 1317 1328 1333 1354 1387 1398 1410 1410 1410 3903 3948 0 0 0 0
    0 1206 1206 1206 1210 1210 1214 1210 1210 1210 1210 1210 1210 1210
    1210 1210 1206 1206 1202 1202 1202 1206 1206 1210 1214 1219 1232
    1245 1255 1268 1283 1307 1322 1328 1338 1354 1381 1398 1404 1410
    1415 3903 3948 0 0 0 0 0 1206 1206 1206 1210 1210 1210 1210 1206
    1206 1210 1210 1210 1206 1206 1206 1206 1206 1202 1202 1202 1202
    1206 1210 1214 1223 1232 1245 1255 1268 1283 1302 1322 1328 1343
    1354 1381 1398 1404 1421 1427 3948 3948 0 0 0 0 1206 1202 1202 1206
    1210 1210 1210 1210 1206 1206 1210 1210 1210 1206 1206 1206 1206
    1202 1202 1197 1197 1202 1202 1202 1210 1223 1232 1245 1255 1268
    1283 1302 1322 1328 1343 1354 1381 1387 1404 1421 1433 2908 0 0 0 0
    0 1197 1197 1202 1206 1206 1206 1210 1206 1206 1206 1206 1206 1206
    1206 1202 1202 1202 1202 1202 1197 1197 1197 1197 1197 1202 1223
    1232 1241 1255 1264 1278 1302 1317 1328 1343 1365 1381 1387 1404
    1421 1427 2908 2933 2933 0 0 0 1197 1197 1202 1206 1206 1206 1210
    1206 1206 1206 1206 1206 1206 1202 1202 1202 1202 1197 1197 1197
    1197 1197 1197 1197 1202 1227 1232 1241 1255 1264 1278 1292 1317
    1317 1343 1370 1381 1387 1404 1415 1421 2883 2883 2883 2883 0 0 1206
    1202 1202 1206 1206 1206 1210 1206 1202 1202 1197 1197 1202 1197
    1197 1197 1197 1197 1197 1197 1197 1197 1197 1197 1197 1227 1232
    1236 1255 1268 1278 1292 1312 1312 1349 1376 1387 1387 1404 1410
    1421 2883 2883 2883 2883 0 1210 1210 1206 1206 1202 1202 1202 1206
    1202 1202 1202 1197 1197 1197 1197 1197 1197 1197 1197 1197 1197
    1197 1197 1197 1197 1197 1223 1227 1236 1255 1268 1278 1302 1312
    1312 1349 1381 1387 1398 1404 1404 1410 2859 2859 2859 2859 0 0 1206
    1206 1202 1202 1202 1202 1202 1197 1197 1197 1197 1197 1197 1197
    1197 1197 1197 1193 1193 1193 1193 1193 1197 1197 1202 1219 1227
    1236 1255 1268 1278 1302 1307 1312 1349 1387 1387 1392 1398 1398
    1410 2835 2835 2859 2859 0 1202 1202 1202 1197 1197 1197 1197 1202
    1197 1197 1197 1193 1193 1193 1197 1197 1197 1197 1193 1193 1193
    1193 1193 1197 1197 1206 1214 1219 1236 1259 1268 1278 1302 1307
    1312 1354 1381 1381 1387 1392 1398 1398 2835 2835 2835 2835 1197
    1197 1193 1193 1193 1193 1197 1197 1197 1197 1197 1193 1193 1193
    1193 1197 1197 1197 1197 1193 1193 1189 1189 1193 1193 1197 1202
    1210 1219 1232 1255 1268 1278 1297 1307 1312 1349 1370 1376 1387
    1392 1398 1398 2835 2859 2859 0 1193 1193 1193 1193 1193 1193 1193
    1193 1197 1197 1197 1193 1193 1193 1193 1193 1197 1197 1193 1193
    1189 1189 1189 1189 1193 1197 1202 1210 1219 1232 1250 1264 1273
    1292 1307 1312 1349 1370 1370 1387 1392 1398 1398 2859 2859 2859 0
    1193 1193 1193 1193 1193 1193 1193 1193 1197 1193 1193 1193 1193
    1193 1193 1193 1193 1193 1193 1189 1189 1189 1189 1189 1189 1193
    1197 1210 1219 1232 1245 1264 1273 1288 1302 1312 1343 1365 1370
    1387 1392 1392 1410 2835 2859 2859 0 1189 1189 1189 1189 1189 1193
    1193 1193 1197 1193 1193 1193 1193 1193 1193 1189 1189 1189 1181
    1181 1185 1185 1189 1189 1189 1193 1197 1210 1219 1232 1241 1264
    1278 1288 1302 1312 1343 1359 1376 1387 1392 1410 1410 2835 2859 0 0
    0 1189 1189 1189 1189 1189 1189 1193 1193 1193 1189 1189 1193 1193
    1193 1189 1185 1185 1181 1181 1185 1185 1185 1185 1185 1185 1197
    1214 1223 1232 1241 1255 1278 1292 1302 1312 1338 1359 1370 1381
    1404 1410 1410 2812 2812 0 0 0 1193 1189 1189 1189 1189 1189 1189
    1193 1189 1185 1185 1189 1193 1189 1185 1185 1185 1185 1185 1185
    1181 1181 1185 1185 1185 1193 1210 1223 1232 1245 1250 1278 1288
    1307 1312 1338 1354 1359 1381 1392 1410 1410 2812 2812 0 0 0 1193
    1189 1189 1189 1189 1189 1189 1189 1189 1185 1185 1189 1189 1189
    1185 1185 1185 1181 1181 1181 1181 1181 1181 1181 1185 1193 1206
    1219 1232 1245 1250 1278 1288 1302 1302 1338 1354 1354 1381 1387
    1387 1387 2812 2812 0 0 0 1193 1189 1189 1189 1185 1185 1189 1189
    1185 1181 1181 1185 1185 1185 1185 1185 1185 1181 1181 1181 1181
    1181 1181 1181 1185 1193 1206 1214 1241 1245 1250 1278 1288 1297
    1302 1338 1349 1354 1381 1387 1387 0 2835 2835 0 0 0 1189 1185 1185
    1189 1185 1185 1185 1185 1181 1181 1181 1181 1185 1185 1185 1181
    1181 1181 1181 1181 1181 1181 1181 1181 1185 1197 1210 1214 1241
    1245 1250 1283 1288 1297 1302 1338 1349 1359 1387 1387 1387 0 0 0 0
    0 0 1189 1185 1185 1185 1185 1181 1181 1181 1181 1181 1181 1181 1181
    1181 1181 1181 1181 1181 1181 1181 1181 1181 1181 1181 1185 1197
    1210 1219 1241 1245 1250 1268 1288 1297 1312 1338 1349 1359 1365
    1387 1387 0 0 0 0 0 0 1189 1181 1181 1181 1181 1181 1181 1181 1181
    1181 1181 1181 1181 1181 1181 1181 1181 1181 1181 1181 1181 1181
    1181 1181 1185 1197 1210 1219 1232 1245 1250 1264 1288 1302 1312
    1338 1354 1359 1365 1381 1381 1387 2789 0 0 0 1185 1185 1181 1181
    1181 1181 1177 1177 1181 1177 1177 1177 1177 1177 1177 1181 1181
    1181 1181 1177 1177 1177 1177 1177 1181 1185 1193 1206 1219 1232
    1241 1250 1259 1297 1302 1307 1338 1359 1359 1365 1381 1387 1387
    2789 0 0 0 1173 1173 1177 1177 1177 1177 1177 1177 1177 1177 1177
    1177 1177 1177 1177 1177 1181 1181 1177 1177 1177 1177 1177 1177
    1181 1181 1181 1197 1223 1236 1241 1250 1259 1292 1297 1307 1359
    1359 1365 1365 1381 1387 1387 2789 0 0 0 1169 1169 1173 1177 1177
    1177 1177 1177 1177 1177 1177 1177 1177 1177 1177 1177 1177 1177
    1177 1173 1173 1173 1177 1177 1181 1181 1181 1193 1227 1236 1241
    1250 1264 1288 1297 1307 1328 1359 1370 1370 1387 1387 1387 0 0 0 0
    1165 1165 1173 1177 1177 1177 1177 1177 1177 1177 1177 1177 1177
    1177 1177 1177 1177 1177 1173 1173 1173 1173 1173 1177 1177 1181
    1189 1193 1223 1232 1241 1250 1264 1283 1288 1307 1328 1349 1370
    1370 1387 1387 1387 0 0 0 0 1165 1165 1173 1173 1177 1177 1177 1177
    1177 1177 1177 1173 1173 1177 1177 1177 1173 1173 1173 1169 1169
    1173 1173 1173 1177 1181 1189 1197 1210 1223 1241 1250 1268 1278
    1288 1312 1328 1349 1365 1370 1376 1376 0 0 0 0 0 1165 1165 1173
    1173 1173 1173 1173 1173 1177 1177 1177 1173 1173 1173 1173 1173
    1173 1173 1173 1169 1169 1169 1173 1173 1177 1181 1189 1197 1210
    1219 1232 1259 1268 1278 1288 1312 1328 1349 1359 1370 1376 1376
    1376 0 0 0 1165 1165 1165 1173 1173 1169 1169 1173 1173 1177 1173
    1173 1173 1173 1173 1173 1173 1169 1165 1165 1165 1165 1169 1177
    1177 1177 1177 1189 1197 1206 1214 1232 1259 1278 1283 1288 1307
    1328 1349 1354 1370 1370 1376 1376 0 0 0 1173 0 1173 1173 1173 1169
    1169 1169 1169 1177 1173 1173 1173 1173 1173 1173 1169 1169 1165
    1165 1165 1165 1165 1165 1165 1173 1177 1185 1202 1206 1214 1232
    1245 1273 1283 1288 1307 1328 1349 1354 1365 1370 1376 1376 2789 0 0
    1181 0 1177 1173 1173 1173 1169 1169 1169 1173 1169 1169 1169 1169
    1169 1169 1169 1165 1165 1165 1161 1161 1165 1165 1165 1165 1173
    1185 1202 1210 1219 1232 1245 1264 1288 1292 1302 1312 1349 1354
    1365 1370 1376 1376 2767 0 1181 1181 1181 1177 1173 1173 1173 1169
    1165 1165 1169 1169 1169 1169 1165 1165 1169 1165 1165 1165 1165
    1161 1161 1161 1161 1165 1165 1173 1189 1202 1210 1219 1232 1245
    1264 1278 1292 1302 1312 1343 1349 1365 1370 1370 4582 2767 2744
    1181 1181 1177 1177 1173 1173 1173 1165 1161 1161 1165 1165 1165
    1165 1165 1165 1165 1165 1165 1161 1161 1161 1161 1161 1161 1161
    1165 1169 1193 1202 1210 1219 1232 1245 1264 1273 1292 1302 1317
    1343 1349 1365 1370 1370 4582 2744 0 1181 1181 1177 1173 1169 1169
    1169 1161 1161 1161 1165 1165 1165 1165 1165 1165 1165 1165 1165
    1161 1161 1161 1161 1161 1161 1161 1165 1169 1185 1197 1210 1214
    1219 1255 1268 1273 1288 1302 1317 1343 1349 1365 1365 1365 4582
    2744 0 1193 1177 1173 1169 1165 1161 1161 1161 1157 1157 1165 1165
    1165 1165 1165 1165 1165 1165 1161 1161 1161 1161 1161 1161 1161
    1161 1165 1169 1185 1197 1210 1214 1214 1259 1264 1273 1283 1297
    1312 1333 1349 1359 1365 1365 4522 2767 0 1193 1173 1169 1169 1165
    1161 1161 1161 1157 1157 1161 1161 1161 1161 1165 1165 1165 1165
    1161 1161 1161 1161 1157 1157 1157 1161 1161 1173 1193 1193 1210
    1214 1214 1250 1259 1268 1283 1297 1312 1333 1349 1359 1365 1365
    4522 0 1169 1169 1169 1165 1165 1161 1161 1161 1161 1161 1161 1161
    1161 1161 1161 1161 1165 1165 1161 1161 1157 1157 1157 1157 1157
    1157 1161 1161 1173 1193 1193 1210 1219 1227 1250 1259 1268 1283
    1302 1317 1333 1354 1365 1370 1370 4522 0 1169 1169 1169 1165 1161
    1161 1157 1157 1157 1157 1157 1161 1157 1157 1157 1157 1161 1157
    1153 1153 1149 1149 1157 1157 1157 1157 1157 1161 1177 1189 1193
    1202 1223 1223 1250 1259 1268 1268 1307 1322 1328 1349 1365 1370
    1370 4463 0 1169 1169 1169 1161 1161 1161 1157 1157 1157 1157 1157
    1157 1157 1157 1157 1157 1157 1153 1153 1153 1149 1149 1153 1153
    1153 1153 1153 1153 1173 1189 1202 1202 1210 1223 1255 1264 1268
    1268 1307 1322 1328 1349 1354 1370 1370 4463 0 1169 1169 1161 1161
    1161 1157 1157 1157 1153 1153 1157 1157 1157 1157 1157 1157 1153
    1153 1153 1153 1149 1149 1153 1149 1149 1149 1149 1153 1173 1189
    1202 1202 1210 1259 1259 1264 1273 1283 1302 1322 1328 1349 1354
    1370 1370 4405 0 0 0 1161 1157 1157 1157 1157 1157 1153 1153 1157
    1153 1153 1153 1153 1153 1153 1149 1149 1149 1149 1149 1145 1145
    1149 1149 1149 1153 1177 1185 1202 1202 1210 1259 1259 1264 1268
    1283 1302 1322 1328 1343 1354 1365 1365 4405 0 0 0 1157 1157 1157
    1157 1157 1153 1153 1153 1153 1153 1153 1153 1153 1149 1149 1149
    1149 1149 1149 1149 1145 1145 1149 1149 1149 1153 1177 1185 1202
    1202 1210 1255 1255 1259 1268 1283 1302 1322 1328 1338 1365 1365
    1365 4463 0 0 0 1157 1157 1157 1153 1153 1153 1153 1153 1153 1153
    1153 1149 1149 1149 1149 1149 1149 1149 1149 1149 1149 1149 1149
    1149 1149 1153 1177 1189 1193 1197 1210 1250 1250 1255 1264 1283
    1302 1322 1333 1338 1359 1365 1365 4463 0 0 0 1153 1153 1153 1153
    1153 1153 1149 1149 1153 1149 1149 1149 1149 1149 1149 1149 1149
    1149 1149 1149 1149 1149 1149 1149 1149 1153 1173 1193 1193 1197
    1210 1241 1250 1255 1264 1278 1328 1328 1333 1333 1354 1365 1365
    4405 0 0 1153 1153 1153 1153 1153 1153 1149 1145 1145 1149 1149 1149
    1149 1149 1149 1149 1149 1149 1145 1145 1145 1145 1145 1145 1149
    1149 1153 1173 1189 1193 1197 1223 1232 1250 1250 1259 1273 1322
    1322 1328 1333 1354 1354 4405 4405 0 0 1153 1149 1149 1149 1149 1149
    1149 1145 1145 1149 1149 1149 1149 1149 1149 1149 1149 1145 1145
    1145 1141 1141 1145 1145 1149 1149 1157 1177 1189 1197 1197 1214
    1227 1250 1250 1259 1273 1307 1307 1322 1333 1333 1333 4405 4405 0 0
    1153 1149 1145 1145 1149 1149 1149 1145 1145 1149 1149 1145 1145
    1145 1145 1145 1145 1145 1141 1141 1141 1138 1138 1141 1145 1149
    1161 1177 1189 1202 1202 1214 1227 1250 1250 1264 1278 1302 1302
    1317 1349 1349 0 4405 4405 0 1161 1161 1145 1145 1145 1145 1145 1145
    1141 1141 1145 1145 1145 1145 1145 1145 1145 1145 1145 1141 1138
    1138 1138 1138 1141 1145 1153 1161 1169 1189 1202 1202 1214 1219
    1245 1245 1264 1283 1302 1302 1317 1349 1349 0 4405 4405 0 1145 1145
    1145 1145 1145 1145 1141 1141 1141 1141 1145 1145 1145 1145 1141
    1141 1145 1145 1145 1145 1138 1138 1138 1138 1141 1145 1149 1161
    1165 1189 1197 1202 1214 1219 1245 1245 1264 1288 1307 1307 1317
    1349 1349 0 4405 4405 0 1145 1145 1145 1145 1145 1145 1141 1141 1141
    1141 1145 1145 1145 1141 1141 1141 1145 1145 1145 1141 1134 1134
    1134 1138 1141 1145 1149 1161 1165 1177 1197 1210 1214 1232 1245
    1245 1264 1292 1297 1307 1317 1343 1343 0 4349 4349 1141 1141 1141
    1141 1145 1141 1141 1141 1141 1141 1141 1145 1145 1145 1141 1141
    1141 1145 1141 1141 1138 1134 1134 1134 1134 1138 1145 1153 1161
    1165 1177 1193 1210 1223 1232 1245 1245 1259 1288 1297 1307 1317
    1338 1338 0 0 4349 0 1141 1141 1141 1141 1141 1141 1141 1138 1138
    1138 1141 1145 1145 1145 1145 1145 1145 1141 1141 1134 1134 1134
    1134 1134 1138 1145 1149 1157 1165 1177 1189 1206 1227 1232 1245
    1245 1259 1288 1297 1307 1322 1328 1328 1317 0 4349 0 1138 1138 1138
    1141 1138 1138 1138 1138 1138 1138 1138 1141 1145 1145 1145 1145
    1145 1141 1141 1134 1134 1134 1130 1130 1138 1145 1149 1153 1165
    1177 1189 1202 1227 1232 1245 1245 1259 1297 1297 1302 1322 1317
    1317 1317 0 4349 1138 1138 1138 1138 1138 1138 1138 1138 1138 1138
    1138 1138 1138 1134 1134 1134 1138 1138 1138 1138 1134 1134 1130
    1130 1130 1138 1141 1149 1153 1173 1181 1189 1197 1197 1223 1245
    1250 1250 1292 1297 1302 1322 1317 1317 1317 0 4349 1138 1138 1138
    1141 1138 1134 1134 1134 1134 1134 1134 1134 1134 1134 1134 1134
    1138 1138 1134 1134 1134 1134 1130 1130 1130 1134 1138 1145 1153
    1173 1181 1189 1197 1197 1223 1241 1250 1250 1292 1302 1302 1322
    1322 1322 1322 0 4349 1141 1141 1141 1141 1134 1134 1134 1134 1134
    1130 1130 1134 1134 1134 1134 1134 1134 1134 1134 1134 1134 1134
    1130 1130 1130 1130 1134 1141 1149 1165 1177 1193 1197 1210 1223
    1236 1245 1255 1288 1302 1302 1322 1322 1322 0 4349 4349 1141 1141
    1134 1134 1130 1130 1130 1130 1130 1130 1130 1134 1134 1134 1134
    1134 1130 1130 1130 1130 1130 1130 1130 1126 1126 1126 1134 1141
    1149 1165 1173 1185 1197 1210 1227 1236 1245 1250 1288 1302 1317
    1322 1322 1322 0 4349 4349 1141 1138 1134 1134 1130 1130 1130 1126
    1126 1130 1130 1134 1134 1130 1130 1130 1130 1130 1130 1130 1130
    1130 1130 1126 1126 1126 1130 1134 1149 1161 1173 1185 1197 1214
    1227 1236 1245 1250 1292 1302 1312 1328 1328 1328 0 4349 4349 1126
    1126 1130 1130 1130 1130 1130 1126 1126 1126 1126 1134 1134 1130
    1130 1130 1130 1130 1130 1130 1130 1130 1130 1126 1126 1126 1130
    1134 1149 1157 1185 1189 1197 1219 1227 1236 1245 1259 1288 1302
    1312 1322 1328 1328 1338 4295 4295 1126 1126 1130 1130 1130 1130
    1126 1126 1130 1126 1126 1134 1134 1134 1130 1130 1130 1130 1130
    1130 1130 1130 1130 1130 1130 1134 1134 1134 1149 1157 1181 1189
    1197 1214 1227 1236 1250 1264 1288 1302 1312 1322 1328 1338 1338
    4349 4295 1130 1130 1130 1130 1130 1130 1126 1126 1130 1130 1130
    1134 1134 1134 1130 1130 1130 1130 1130 1130 1130 1130 1130 1130
    1130 1134 1130 1130 1157 1165 1181 1189 1202 1214 1227 1236 1250
    1268 1283 1302 1322 1333 1333 1338 1338 4349 4349 1130 1130 1130
    1126 1126 1123 1123 1126 1130 0 0 0 0 0 0 0 1134 1134 1134 0 0 0 0
    1134 1134 1250 1130 1130 1236 1236 1236 1210 1210 1214 1227 1236
    1255 1268 1283 1292 1322 1328 1328 1328 4349 4349 4349 1130 1130
    1130 1126 1126 1123 1123 0 0 0 0 0 0 0 0 0 0 0 0 0 0 0 0 1214 1214
    1245 1232 1232 1232 1236 1236 1236 1219 1219 1219 1236 1259 1273
    1283 1292 1322 1328 1328 1328 4349 4349 4349 1130 1130 1130 2701
    2701 2701 2701 0 0 0 0 0 0 0 0 0 0 0 0 0 0 0 0 1214 1214 1245 1232
    1227 1219 1219 1219 0 1219 1219 1219 1219 0 0 1333 1333 1333 1338
    4241 4349 4349 4349 4349 2744 2744 2723 2723 2723 2723 2723 0 0 0 0
    0 0 0 0 0 0 0 0 0 0 0 0 1241 1241 1255 1236 1223 1214 1214 1214 0 0
    0 0 0 0 0 4190 4190 4139 4139 4241 4295 4349 4349 4349</data></Depth5448>
</opencv_storage>
