<?xml version="1.0"?>
<opencv_storage>
<Depth18707 type_id="opencv-matrix">
  <rows>107</rows>
  <cols>152</cols>
  <dt>w</dt>
  <data>
    0 0 0 0 0 0 0 0 0 0 0 0 0 0 0 0 0 0 0 0 0 0 487 487 487 487 487 487
    487 487 487 487 487 487 487 487 488 489 489 489 489 489 489 488 488
    489 489 488 488 487 487 487 487 487 487 487 487 487 489 489 491 491
    491 491 491 492 492 494 494 494 0 0 0 0 0 0 0 0 0 0 0 0 0 0 0 0 0 0
    0 0 0 0 0 0 0 0 0 0 0 0 0 0 0 0 0 0 0 0 0 0 0 0 0 0 0 0 0 0 0 0 0 0
    0 0 0 0 0 0 0 0 0 0 0 0 0 0 0 0 0 0 0 0 0 0 0 0 0 0 0 0 0 0 0 0 0 0
    0 0 0 0 0 0 0 0 0 0 0 0 0 0 0 0 0 0 486 486 487 487 487 487 489 489
    489 489 487 487 487 487 487 489 489 490 490 490 489 489 489 489 489
    488 488 489 491 487 487 487 487 487 487 488 489 489 490 491 491 491
    492 493 494 494 495 496 0 0 0 0 0 0 0 0 0 0 0 0 0 0 0 0 0 0 0 0 0 0
    0 0 0 0 0 0 0 0 0 0 0 0 0 0 0 0 0 0 0 0 0 0 0 0 0 0 0 0 0 0 0 0 0 0
    0 0 0 0 0 0 0 0 0 0 0 0 0 0 0 0 0 0 0 0 0 0 0 0 0 0 0 0 0 0 0 0 0 0
    0 0 0 0 0 0 0 0 0 0 0 0 0 0 486 486 487 487 487 488 489 489 489 489
    487 487 487 487 491 490 490 490 490 490 489 489 490 490 491 489 489
    489 491 489 487 487 487 487 487 488 489 490 490 491 491 491 492 494
    494 495 495 0 0 0 0 0 0 0 0 0 0 0 0 0 0 0 0 0 0 0 0 0 0 0 0 0 0 0 0
    0 0 0 0 0 0 0 0 0 0 0 0 0 0 0 0 0 0 0 0 0 0 0 0 0 0 0 0 0 0 0 0 0 0
    0 0 0 0 0 0 0 0 0 0 0 0 0 0 0 0 0 0 0 0 0 0 0 0 0 0 0 0 0 0 0 0 0 0
    0 0 0 0 0 0 0 0 486 486 487 487 488 488 488 489 490 490 490 488 487
    487 487 491 490 490 491 490 490 490 490 490 491 491 491 490 490 491
    489 488 487 487 488 487 487 489 490 490 491 491 491 492 494 494 495
    0 0 0 0 0 0 0 0 0 0 0 0 0 0 0 0 0 0 0 0 0 0 0 0 0 0 0 0 0 0 0 0 0 0
    0 0 0 0 0 0 0 0 0 0 0 0 0 0 0 0 0 0 0 0 0 0 0 0 0 0 0 0 0 0 0 0 0 0
    0 0 0 0 0 0 0 0 0 0 0 0 0 0 0 0 0 0 0 0 0 0 0 0 0 0 0 0 0 0 0 0 0 0
    0 0 0 486 486 487 488 488 488 489 490 490 491 491 489 489 489 489
    489 491 491 491 491 491 490 490 491 491 491 491 491 491 489 489 489
    488 488 487 486 486 494 489 489 489 490 491 492 494 494 494 0 0 0 0
    0 0 0 0 0 0 0 0 0 0 0 0 0 0 0 0 0 0 0 0 0 0 0 0 0 0 0 0 0 0 0 0 0 0
    0 0 0 0 0 0 0 0 0 0 0 0 0 0 0 0 0 0 0 0 0 0 0 0 0 0 0 0 0 0 0 0 0 0
    0 0 0 0 0 0 0 0 0 0 0 0 0 0 0 0 0 0 0 0 0 0 0 0 0 0 0 0 0 0 0 0 0 0
    487 487 488 489 489 489 490 490 491 491 489 489 489 489 489 491 491
    492 492 492 492 491 491 491 491 491 491 491 488 488 489 489 488 487
    486 486 494 489 489 489 490 491 492 494 494 494 0 0 0 0 0 0 0 0 0 0
    0 0 0 0 0 0 0 0 0 0 0 0 0 0 0 0 0 0 0 0 0 0 0 0 0 0 0 0 0 0 0 0 0 0
    0 0 0 0 0 0 0 0 0 0 0 0 0 0 0 0 0 0 0 0 0 0 0 0 0 0 0 0 0 0 0 0 0 0
    0 0 0 0 0 0 0 0 0 0 0 0 0 0 0 0 0 0 0 0 0 0 0 0 0 0 0 487 487 487
    488 489 489 490 491 491 491 491 492 489 489 490 491 491 491 492 492
    492 492 491 491 491 491 491 491 491 488 488 489 489 489 487 487 496
    495 490 490 490 491 491 493 495 495 495 0 0 0 0 0 0 0 0 0 0 0 0 0 0
    0 0 0 0 0 0 0 0 0 0 0 0 0 0 0 0 0 0 0 0 0 0 0 0 0 0 0 0 0 0 0 0 0 0
    0 0 0 0 0 0 0 0 0 0 0 0 0 0 0 0 0 0 0 0 0 0 0 0 0 0 0 0 0 0 0 0 0 0
    0 0 0 0 0 0 0 0 0 0 0 0 0 0 0 0 0 0 0 0 0 0 488 487 487 488 489 489
    489 490 491 491 492 493 493 494 493 493 493 491 491 491 491 492 492
    492 490 490 491 491 491 492 493 491 491 489 489 489 489 490 490 491
    490 490 491 491 494 495 495 486 486 487 487 488 488 489 489 489 488
    488 487 487 487 488 489 489 489 489 488 488 488 489 489 490 490 490
    491 491 492 484 484 484 484 485 486 486 487 487 487 487 487 487 487
    487 487 487 0 0 0 487 485 485 485 0 0 0 0 0 0 0 0 0 0 0 0 0 0 0 0 0
    0 0 0 0 0 0 0 0 0 0 0 0 0 0 0 0 0 0 0 0 0 0 0 0 0 0 0 0 0 0 0 0 0 0
    488 488 488 489 489 489 490 491 491 492 492 494 494 494 494 493 493
    491 491 491 491 492 492 492 490 490 491 491 491 491 492 492 492 493
    491 489 489 490 490 491 491 491 491 493 495 495 486 486 486 487 487
    488 488 489 488 488 488 488 487 487 487 488 489 489 489 489 488 488
    488 489 489 490 490 490 491 491 492 484 484 484 484 485 486 486 487
    487 487 487 487 487 487 487 487 487 0 0 0 487 485 485 485 485 485
    486 0 0 0 484 484 484 484 484 484 484 484 484 484 485 485 485 485
    485 484 484 484 483 483 484 484 484 485 485 0 0 0 0 0 0 0 0 0 0 0 0
    0 0 0 0 0 0 0 0 489 489 489 489 489 489 490 491 491 492 493 494 494
    494 494 494 493 493 492 492 492 492 492 492 491 491 491 491 491 491
    492 492 492 493 492 492 491 491 491 491 491 491 492 493 495 495 486
    486 486 487 487 489 489 489 488 488 489 489 488 488 489 489 489 489
    489 489 489 489 489 489 489 490 490 491 491 492 492 484 484 485 485
    486 486 486 487 487 487 487 487 487 487 487 487 487 487 0 0 487 485
    485 485 485 485 485 485 487 0 484 484 484 484 484 484 484 484 484
    484 484 484 484 485 485 484 484 484 483 483 484 484 484 485 485 0 0
    0 0 0 0 0 0 0 0 0 0 0 0 0 0 0 0 0 0 0 0 489 489 489 489 490 491 491
    492 493 494 494 492 492 493 491 491 492 492 492 493 493 493 491 491
    491 491 491 491 493 494 494 493 493 493 491 491 491 491 491 491 493
    494 495 487 487 487 487 487 488 489 489 489 489 489 489 489 489 490
    490 489 489 489 489 489 489 489 489 490 490 491 491 491 492 492 486
    484 484 485 486 487 487 487 487 488 488 488 489 488 488 488 488 488
    487 487 487 487 487 487 486 486 486 485 485 487 487 484 484 484 484
    484 484 484 484 484 484 484 484 484 485 485 485 484 484 484 484 484
    485 485 486 485 0 0 0 0 0 0 0 0 0 0 0 0 0 0 0 0 0 0 0 0 0 0 490 490
    490 491 491 491 492 494 494 494 494 492 492 493 491 491 492 492 492
    493 493 493 491 491 491 491 491 491 494 494 494 492 492 493 492 491
    491 491 491 491 494 494 496 487 487 487 487 488 488 489 489 490 490
    490 490 489 489 490 490 490 489 489 489 489 489 489 489 490 490 491
    491 492 492 493 485 484 484 485 487 487 487 487 487 491 489 489 489
    488 488 488 487 488 488 487 487 487 487 487 486 486 486 486 486 487
    487 484 484 485 485 485 484 484 484 484 484 485 485 485 485 486 485
    484 484 484 484 484 485 486 487 487 0 0 0 0 0 0 0 0 0 0 0 0 0 0 0 0
    0 0 0 0 0 491 491 491 491 491 491 492 493 494 494 494 494 494 495
    495 492 492 492 492 492 493 493 492 492 491 491 492 493 493 494 494
    494 492 492 493 492 491 491 491 491 493 495 496 496 488 488 488 488
    489 489 489 490 490 490 490 490 489 489 491 489 489 489 489 489 489
    489 489 489 491 491 491 491 492 493 493 484 484 484 486 487 487 487
    487 487 487 488 488 489 488 487 487 487 488 488 488 489 487 487 487
    487 487 487 487 487 487 487 486 486 486 486 487 487 487 487 486 485
    485 486 486 486 487 485 484 484 484 484 484 486 487 487 487 0 0 0 0
    0 0 0 0 0 0 0 0 0 0 0 0 0 0 0 490 490 491 491 492 491 491 493 494
    494 494 494 495 494 494 495 496 495 493 492 492 492 493 493 492 492
    493 493 493 493 493 494 494 494 493 493 493 492 491 491 491 491 496
    496 497 497 488 488 488 488 489 489 491 491 491 491 491 490 489 489
    491 489 489 489 489 489 489 489 489 489 491 491 492 492 493 494 494
    484 484 485 486 487 487 487 487 487 487 488 488 489 487 487 487 487
    488 488 488 488 488 488 487 487 487 487 487 487 487 487 486 486 487
    487 487 487 487 487 486 485 485 487 487 487 487 485 484 484 484 484
    485 486 487 487 488 0 0 0 0 0 0 0 0 0 0 0 0 0 0 0 0 0 0 491 490 490
    491 491 492 493 494 494 494 494 494 494 495 495 496 496 496 496 496
    495 495 502 502 494 494 494 494 494 493 493 493 494 494 492 492 493
    493 492 492 492 492 495 496 496 498 498 488 488 489 489 489 489 491
    491 492 491 491 490 489 489 489 489 489 489 489 489 489 489 489 489
    491 491 492 493 494 494 494 489 487 487 487 487 487 487 487 487 487
    488 488 489 487 487 487 487 489 488 488 488 487 487 487 487 487 487
    487 487 487 487 487 487 487 487 487 487 487 487 487 487 487 487 487
    487 487 486 485 485 485 486 486 487 488 488 0 0 0 0 0 0 0 0 0 0 0 0
    0 0 0 0 0 0 0 491 491 491 491 491 493 494 494 494 494 496 496 497
    496 496 496 496 496 496 496 495 495 499 499 494 494 494 494 494 493
    493 493 493 493 492 492 493 493 492 492 493 495 496 497 497 498 489
    489 489 489 489 489 490 491 491 492 491 491 490 489 489 489 489 489
    489 489 489 489 489 490 490 491 491 493 493 494 495 495 489 487 487
    487 487 487 488 487 487 487 488 488 489 487 487 487 487 488 488 488
    488 487 487 488 488 487 487 487 487 487 487 487 487 487 487 487 487
    487 487 487 487 487 487 487 487 487 486 486 486 486 486 487 487 488
    489 0 0 0 0 0 0 0 0 0 0 0 0 0 0 0 0 0 0 0 491 491 491 491 491 494
    494 494 494 495 496 496 496 496 497 496 496 496 497 497 497 497 499
    499 496 496 495 495 495 494 494 493 493 493 492 492 493 493 494 494
    495 496 496 497 497 498 489 489 489 490 490 490 491 491 492 493 493
    493 492 490 490 490 490 491 490 490 489 489 490 490 491 492 492 494
    495 495 495 489 488 488 487 487 488 489 489 488 488 488 488 488 489
    489 489 488 488 488 488 488 487 487 487 487 487 488 488 488 489 489
    487 487 487 487 487 487 487 487 487 487 487 487 487 487 488 487 487
    486 486 486 487 487 488 488 489 0 0 0 0 0 0 0 0 0 0 0 0 0 0 0 0 0 0
    0 0 491 491 491 492 494 494 495 495 496 496 496 496 496 497 497 497
    498 498 497 496 496 496 495 495 495 496 496 496 495 495 495 494 493
    493 493 493 493 495 495 495 496 497 498 499 491 491 491 491 491 491
    491 491 491 492 493 493 493 493 491 490 490 490 491 491 491 491 491
    491 491 491 492 493 494 495 495 489 488 488 488 489 489 489 489 490
    489 489 489 489 490 489 489 489 488 488 488 488 488 487 487 487 487
    487 488 488 488 489 489 487 487 487 487 487 487 487 487 487 487 487
    488 487 487 488 487 487 487 487 487 487 487 489 489 489 0 0 0 0 0 0
    0 0 0 0 0 0 0 0 0 0 0 0 0 0 491 491 492 494 494 495 496 496 497 497
    496 496 496 497 497 498 498 499 497 496 496 495 495 495 495 496 496
    496 496 497 497 498 494 494 495 494 494 495 495 495 496 497 499 499
    491 491 491 491 491 491 491 492 493 493 493 493 493 493 493 491 491
    491 491 491 491 491 491 491 492 492 493 494 495 496 496 489 488 488
    488 489 490 490 490 490 490 490 490 490 491 489 489 489 489 489 489
    489 489 489 488 488 488 488 489 489 489 489 489 489 489 488 488 487
    487 487 487 487 487 487 488 488 488 487 487 487 487 487 487 488 489
    489 489 0 0 0 0 0 0 0 0 0 0 0 0 0 0 0 0 0 0 0 0 0 491 491 494 495
    495 496 497 497 497 498 496 496 496 497 497 498 498 498 497 496 495
    495 495 496 496 496 497 497 497 497 497 497 497 497 496 496 496 496
    496 498 499 499 499 489 489 491 491 491 491 491 492 493 494 494 494
    494 494 494 493 492 492 494 494 494 492 492 492 492 492 493 494 495
    496 496 489 489 488 488 489 489 490 491 491 491 490 490 490 490 489
    489 489 489 489 489 489 489 489 489 489 490 489 489 489 487 487 490
    490 489 489 488 488 487 487 487 488 488 488 488 488 488 488 487 487
    487 487 487 488 489 489 490 0 0 0 0 0 0 0 0 0 0 0 0 0 0 0 0 0 0 0 0
    0 0 493 493 495 496 496 496 497 498 498 499 498 497 497 497 498 499
    499 497 497 496 495 495 497 497 497 498 497 497 497 497 497 497 497
    498 497 497 498 498 499 499 499 499 501 489 489 491 491 492 492 493
    494 494 494 494 494 494 495 495 493 493 493 493 493 494 493 493 492
    492 492 493 494 495 496 496 489 489 489 489 489 489 490 491 491 491
    491 491 490 490 489 489 490 490 490 490 490 489 489 490 490 490 489
    489 489 487 487 490 490 490 489 489 488 488 488 488 489 489 489 489
    489 488 488 487 487 487 487 487 489 489 489 490 0 0 0 0 0 0 0 0 0 0
    0 0 0 0 0 0 0 0 0 0 493 493 494 494 496 496 496 496 497 498 498 498
    498 498 498 498 500 499 499 497 497 497 496 496 497 497 498 498 497
    497 496 496 496 496 496 498 498 498 499 499 499 500 500 501 491 490
    490 491 493 494 494 494 494 495 495 495 495 495 495 495 494 494 493
    492 492 494 493 493 493 493 493 494 496 496 496 496 490 490 489 489
    490 490 491 491 491 491 491 491 491 491 488 488 488 491 490 490 490
    489 489 490 490 490 489 489 489 489 489 490 490 490 490 489 488 488
    488 488 489 489 490 489 489 489 488 487 487 487 487 489 489 489 489
    491 0 0 0 0 0 0 0 0 0 0 0 0 0 0 0 0 0 0 0 492 492 493 494 496 496
    497 497 497 498 498 498 498 498 499 499 499 499 499 499 498 498 499
    501 503 499 499 499 499 497 497 496 496 496 496 496 497 498 498 499
    500 500 500 501 502 491 491 491 492 493 494 494 494 495 495 495 495
    496 496 495 495 494 494 493 492 492 493 493 494 494 494 494 494 496
    496 497 496 493 490 490 490 490 490 491 491 491 492 492 491 491 492
    488 488 488 490 491 490 490 490 490 490 490 490 489 489 489 489 489
    490 491 490 489 489 488 488 488 488 489 490 490 489 489 489 489 489
    488 488 489 489 490 490 490 491 0 0 0 0 0 0 0 0 0 0 0 0 0 0 0 0 0 0
    0 492 492 494 496 496 497 498 498 498 498 498 498 499 499 499 499
    499 499 499 500 499 499 500 504 501 498 498 499 499 498 498 497 497
    497 497 497 497 498 498 499 500 500 500 502 503 491 491 492 493 494
    494 494 496 496 496 496 496 496 496 495 495 495 495 495 493 493 493
    493 494 494 494 494 495 496 497 497 497 492 491 491 491 491 491 491
    492 493 493 492 491 491 492 491 490 490 490 491 491 491 490 490 491
    491 490 490 490 490 490 490 491 490 490 489 489 489 489 489 489 489
    490 490 490 489 489 489 489 489 489 489 490 490 490 490 491 0 0 0 0
    0 0 0 0 0 0 0 0 0 0 0 0 0 0 0 495 494 494 494 494 495 498 499 499
    499 499 499 499 499 502 502 502 501 500 500 501 501 501 501 500 498
    498 499 499 499 499 498 497 497 498 498 498 499 499 500 501 501 501
    502 503 492 492 493 493 494 494 495 496 496 496 496 496 496 495 495
    495 495 495 495 494 494 493 493 494 495 495 496 496 497 498 498 497
    491 491 491 491 491 491 492 492 493 493 493 493 493 494 494 494 490
    490 491 491 491 491 491 491 491 491 490 490 490 490 490 491 490 490
    489 489 489 489 490 489 489 490 490 490 490 490 489 489 489 489 489
    490 491 491 491 491 0 0 0 0 0 0 0 0 0 0 0 0 0 0 0 0 0 0 0 495 494
    494 494 494 495 498 499 499 499 499 499 500 501 502 502 502 502 501
    501 501 501 501 500 500 500 501 499 499 499 499 498 498 498 499 498
    498 499 499 501 501 501 501 502 503 493 493 493 494 495 495 495 496
    496 496 496 496 496 495 495 495 495 495 495 494 494 494 493 493 495
    496 496 496 498 499 499 491 491 491 491 492 492 492 492 493 493 494
    494 493 493 494 494 494 493 493 493 493 492 492 491 491 491 491 490
    490 490 490 490 490 490 490 489 489 490 490 490 490 490 490 490 490
    490 490 490 489 489 490 490 491 491 491 491 0 0 0 0 0 0 0 0 0 0 0 0
    0 0 0 0 0 0 0 0 496 496 496 495 495 496 499 499 499 499 499 500 502
    502 503 503 502 502 502 502 501 501 500 500 500 500 500 500 500 499
    499 498 498 498 499 499 499 500 500 501 501 501 501 502 492 492 493
    494 494 494 495 495 496 496 496 496 496 496 495 495 495 495 495 495
    495 495 494 493 493 496 496 497 498 499 499 499 491 491 492 492 492
    492 493 493 494 494 494 494 494 494 494 494 494 493 493 493 493 492
    492 492 492 492 492 491 491 491 490 490 490 490 490 490 490 491 491
    491 490 490 490 490 490 490 490 490 490 490 490 490 491 491 491 491
    0 0 0 0 0 0 0 0 0 0 0 0 0 0 0 0 0 0 0 0 496 496 496 497 496 496 499
    499 500 500 500 501 503 502 502 501 501 502 502 502 501 501 500 500
    500 500 500 500 500 499 498 498 498 498 499 499 500 501 501 501 501
    502 502 503 492 492 494 494 494 494 495 495 496 496 496 497 497 497
    496 496 495 495 495 495 496 496 495 495 495 497 497 498 498 499 499
    499 492 492 492 492 493 493 494 494 494 494 494 494 494 494 494 494
    494 493 493 493 493 493 493 493 493 493 492 491 491 491 491 491 491
    490 490 491 491 491 491 491 491 491 491 490 490 490 490 490 490 490
    491 491 491 491 491 0 0 0 0 0 0 0 0 0 0 0 0 0 0 0 0 0 0 0 0 0 497
    497 497 498 498 499 500 500 500 500 500 502 502 502 502 501 501 502
    502 502 501 501 501 500 500 501 501 501 500 499 498 498 498 498 499
    499 499 501 502 502 502 502 502 504 504 493 493 494 494 495 495 496
    496 496 497 497 497 497 496 496 495 495 496 496 496 496 496 496 496
    497 498 499 499 500 499 496 493 493 492 492 493 493 494 494 494 494
    494 494 494 494 495 495 494 494 493 493 494 494 493 493 493 493 492
    492 492 491 491 491 491 491 491 491 491 491 491 491 492 491 491 491
    490 490 490 490 491 491 491 491 491 491 491 0 0 0 0 0 0 0 0 0 0 0 0
    0 0 0 0 0 0 0 0 0 0 498 498 498 499 499 500 499 499 500 500 502 502
    502 502 501 501 502 502 502 501 501 502 501 501 502 502 502 500 499
    499 498 498 498 499 499 499 500 502 502 502 502 504 504 505 493 493
    494 495 495 496 496 496 497 498 497 497 498 497 496 495 495 496 496
    496 496 496 496 497 498 498 499 499 501 500 495 494 493 493 493 494
    494 494 494 494 494 495 495 495 495 495 495 494 494 494 494 494 494
    494 494 494 493 492 492 492 491 491 491 491 491 491 491 491 491 492
    492 492 493 493 491 491 491 491 491 491 492 491 491 492 491 491 0 0
    0 0 0 0 0 0 0 0 0 0 0 0 0 0 0 0 0 0 0 0 498 498 498 499 499 499 499
    499 500 501 502 502 502 502 502 502 502 502 502 502 502 502 501 501
    502 502 502 500 499 499 499 499 499 499 499 500 500 502 502 503 504
    504 505 506 494 494 494 495 495 496 496 497 497 498 497 497 498 498
    497 496 496 498 496 496 496 496 497 498 498 498 499 499 501 500 494
    494 493 493 494 494 494 494 494 494 494 495 495 495 495 495 495 495
    494 494 494 494 494 493 493 494 494 493 493 493 492 492 492 492 491
    491 491 491 491 492 492 493 493 493 492 492 491 491 492 492 492 492
    492 492 491 491 0 0 0 0 0 0 0 0 0 0 0 0 0 0 0 0 0 0 0 0 0 0 0 505
    499 499 499 499 499 499 500 501 503 503 502 502 502 502 502 502 502
    502 502 501 499 499 506 501 499 499 500 500 500 500 500 499 499 500
    500 503 503 504 504 504 506 506 506 494 494 495 495 496 496 496 496
    497 497 497 499 499 497 497 497 498 497 496 496 496 497 498 498 498
    499 500 502 501 494 494 494 494 494 494 494 495 495 494 494 495 495
    496 496 496 496 496 495 494 494 494 493 493 493 494 494 494 493 493
    492 492 492 492 492 492 492 491 491 492 492 493 494 493 493 492 492
    492 492 493 493 493 493 493 493 0 0 0 0 0 0 0 0 0 0 0 0 0 0 0 0 0 0
    0 0 0 0 0 0 505 505 502 502 501 500 500 502 503 503 504 503 503 503
    502 502 502 502 502 501 500 499 499 499 501 499 499 500 502 502 502
    501 501 501 501 501 504 504 504 504 504 506 506 507 494 494 495 495
    496 496 496 496 497 497 498 498 498 498 497 497 498 499 498 498 498
    498 498 498 498 499 501 502 501 494 494 494 494 494 495 496 496 496
    496 496 496 496 495 495 496 496 496 495 495 494 494 493 493 493 494
    494 494 493 493 493 492 492 492 492 492 492 492 492 493 493 494 494
    493 493 493 492 492 493 493 493 493 493 493 493 0 0 0 0 0 0 0 0 0 0
    0 0 0 0 0 0 0 0 0 0 0 500 500 500 500 503 503 503 503 503 503 504
    504 504 504 504 504 504 502 502 502 502 502 501 499 499 499 502 501
    499 499 501 502 502 502 501 501 501 502 504 504 504 505 505 506 507
    507 507 494 494 495 495 496 496 496 496 496 497 497 498 498 498 498
    498 498 499 498 498 499 499 499 499 499 500 501 502 501 494 494 494
    494 495 495 496 496 496 496 496 496 496 495 495 496 496 496 496 495
    494 494 494 494 494 494 494 494 494 494 493 493 493 492 492 492 492
    492 492 493 493 494 494 493 493 492 492 492 493 493 493 494 493 493
    493 0 0 0 0 0 0 0 0 0 0 0 0 0 0 0 0 0 0 0 500 499 499 499 499 504
    503 503 504 504 504 504 504 505 505 507 507 507 505 504 503 503 503
    504 501 499 499 499 502 502 502 502 503 503 502 501 501 501 502 505
    505 505 505 506 507 507 508 508 496 496 496 497 496 496 496 496 496
    496 497 497 497 497 497 497 498 498 499 498 498 499 499 500 500 500
    501 501 502 501 494 494 494 495 495 495 496 496 496 496 496 496 497
    496 496 496 496 496 496 495 495 494 494 494 494 494 494 494 494 494
    493 493 493 492 492 493 493 493 494 494 494 494 494 493 493 492 492
    493 494 494 494 494 493 493 0 0 0 0 0 0 0 0 0 0 0 0 0 0 0 0 0 0 0 0
    500 499 499 499 499 504 504 504 504 504 504 504 505 505 505 506 506
    506 506 505 504 504 504 505 504 501 501 510 509 504 502 502 502 502
    502 500 500 501 502 504 505 506 506 507 507 508 509 509 496 496 497
    499 499 501 496 496 506 504 498 498 497 497 497 497 498 498 498 498
    498 499 500 501 501 501 501 502 502 499 496 494 494 495 495 495 495
    496 496 496 496 496 497 496 496 496 496 497 496 496 496 496 495 495
    495 495 495 494 494 494 493 493 493 493 494 494 494 494 494 494 494
    495 494 493 493 493 493 494 494 494 494 494 0 0 0 0 0 0 0 0 0 0 0 0
    0 0 0 0 0 0 0 0 0 0 500 499 499 499 500 502 504 504 504 504 504 505
    505 504 504 503 502 502 506 506 506 506 506 506 505 505 507 509 509
    504 504 504 502 502 501 500 500 502 503 504 505 506 507 507 508 508
    509 499 498 498 498 499 500 501 502 502 504 504 504 504 499 499 498
    498 498 498 498 498 498 499 500 502 502 502 502 502 496 496 496 496
    496 495 495 495 495 496 496 496 497 497 497 496 496 497 497 497 497
    496 496 496 496 496 495 495 495 494 494 494 493 493 495 495 494 494
    494 494 495 495 495 495 494 493 493 493 493 494 494 495 495 495 0 0
    0 0 0 0 0 0 0 0 0 0 0 0 0 0 0 0 0 0 0 0 500 499 499 499 500 502 504
    504 504 504 504 505 505 504 502 502 502 502 503 504 506 506 506 506
    505 505 507 508 508 506 504 504 502 502 501 501 501 503 503 504 505
    506 507 507 507 507 499 499 499 499 499 500 500 501 502 502 503 504
    504 504 504 502 502 502 500 499 499 499 499 499 501 502 502 502 502
    503 496 496 496 496 496 496 496 495 495 499 499 499 498 498 498 497
    497 498 497 497 497 496 496 496 496 496 496 496 496 495 495 495 493
    493 494 494 494 494 494 494 495 495 495 495 494 494 494 494 494 495
    495 495 495 495 0 0 0 0 0 0 0 0 0 0 0 0 0 0 0 0 0 0 0 0 0 501 500
    500 501 501 502 502 504 505 505 505 505 505 505 504 502 502 502 502
    502 504 506 506 507 506 506 506 507 507 507 505 504 504 504 503 503
    506 507 504 504 506 506 507 507 507 507 500 499 499 500 500 500 501
    501 501 502 501 501 502 503 504 504 504 504 504 504 503 500 499 499
    501 504 504 504 504 503 496 496 496 496 496 496 496 496 496 497 499
    499 499 498 498 498 498 498 498 497 497 497 496 496 496 496 497 497
    496 496 496 496 496 496 495 494 494 494 494 494 494 496 496 496 495
    495 495 494 494 494 495 495 495 495 495 0 0 0 0 0 0 0 0 0 0 0 0 0 0
    0 0 0 0 0 0 0 500 500 500 501 501 502 502 504 505 505 505 505 505
    505 504 502 502 502 502 502 504 506 506 506 506 506 506 507 507 507
    504 504 504 504 504 504 506 507 508 508 507 507 507 507 507 499 499
    499 500 500 501 501 502 502 501 501 501 501 501 502 503 503 504 504
    504 503 503 502 502 503 503 504 504 504 504 504 496 496 496 496 497
    498 498 498 498 498 499 499 499 499 498 498 498 498 498 498 497 497
    497 497 497 496 496 496 496 496 496 496 496 496 495 495 495 494 494
    495 496 496 496 496 496 495 495 494 494 494 495 495 496 496 0 0 0 0
    0 0 0 0 0 0 0 0 0 0 0 0 0 0 0 0 0 0 500 500 500 501 502 502 504 505
    505 506 506 506 506 505 505 505 505 502 502 505 505 506 505 505 506
    506 506 507 506 506 504 504 504 504 504 505 507 508 508 508 508 508
    509 508 499 499 499 499 500 500 502 502 502 502 501 501 501 501 501
    502 502 502 503 503 503 503 503 503 503 503 503 504 504 504 504 496
    496 496 496 497 497 499 499 499 498 498 499 499 499 499 499 498 498
    499 498 498 498 498 499 498 497 496 496 496 496 496 496 496 496 496
    496 496 496 496 496 496 496 496 496 496 496 496 495 495 495 495 496
    496 496 496 0 0 0 0 0 0 0 0 0 0 0 0 0 0 0 0 0 0 0 0 0 0 501 501 501
    502 502 503 504 505 506 506 506 506 506 505 505 505 518 506 506 506
    506 506 505 505 507 506 506 507 505 505 504 504 504 504 506 507 507
    508 508 508 509 510 510 511 499 499 499 499 500 501 502 502 502 502
    502 502 502 502 502 501 501 501 501 503 502 502 502 503 503 504 504
    504 505 505 505 496 496 496 496 497 498 499 499 498 498 498 500 500
    500 499 499 499 500 499 498 498 499 499 498 498 497 496 496 496 498
    498 496 496 496 496 496 496 496 496 496 496 497 497 497 497 496 496
    496 495 495 495 496 496 496 496 0 0 0 0 0 0 0 0 0 0 0 0 0 0 0 0 0 0
    510 510 509 504 502 502 502 503 504 504 504 505 506 506 505 505 504
    504 518 518 518 514 507 506 506 506 505 505 505 507 507 507 505 505
    505 505 505 506 507 508 508 508 509 509 510 511 511 512 499 499 499
    500 500 501 503 502 502 502 502 502 502 502 502 501 501 501 501 501
    502 502 502 503 503 504 504 504 505 506 506 497 497 497 498 498 498
    499 499 498 498 501 499 499 501 499 499 500 500 498 498 498 499 499
    498 498 498 496 496 496 498 498 497 496 496 496 496 496 496 496 496
    496 497 497 497 497 496 496 496 496 496 496 496 496 496 0 0 0 0 0 0
    0 0 0 0 0 0 0 0 0 0 0 0 0 510 509 507 504 503 503 503 504 504 504
    505 506 506 506 505 505 504 504 518 517 517 510 507 506 506 505 505
    505 505 507 507 507 506 505 505 505 505 506 507 507 508 508 510 510
    511 511 512 513 499 499 500 500 500 501 503 502 502 502 502 502 503
    504 502 502 501 501 501 501 503 503 503 503 503 504 504 505 506 506
    507 497 497 498 498 498 499 499 499 499 499 501 499 499 500 499 499
    500 500 498 498 498 499 499 499 501 500 496 496 499 498 498 497 497
    496 496 496 496 496 496 497 497 498 498 498 497 496 496 496 496 496
    496 496 496 496 0 0 0 0 0 0 0 0 0 0 0 0 0 0 0 0 0 0 0 510 508 507
    504 504 504 504 504 505 505 506 507 506 506 505 505 514 513 513 511
    511 510 507 506 506 504 504 506 506 507 507 507 506 505 505 506 506
    507 507 507 508 508 510 510 511 511 512 513 500 500 501 501 501 502
    504 504 504 503 503 504 504 504 502 502 501 501 501 506 504 503 503
    503 504 504 505 506 507 507 499 498 498 499 499 499 499 499 499 499
    499 500 499 499 499 499 499 502 499 499 499 499 499 499 499 502 499
    497 497 500 498 498 498 498 499 498 498 498 496 496 497 497 498 498
    498 497 497 496 496 496 496 497 497 497 498 0 0 0 0 0 0 0 0 0 2701
    2701 0 0 0 0 0 0 0 0 0 508 506 505 504 504 504 504 505 506 506 507
    507 506 506 506 509 511 511 511 511 509 507 507 506 504 504 507 507
    507 507 507 507 507 506 506 507 507 507 507 507 507 509 510 511 511
    512 513 500 500 501 502 502 503 504 504 504 504 504 504 504 504 502
    502 503 503 503 504 505 503 503 504 504 504 505 506 507 506 499 499
    499 499 499 499 499 500 500 501 501 500 499 499 499 499 499 502 502
    499 499 499 499 499 499 500 499 498 498 500 499 499 499 499 499 499
    499 498 498 499 499 499 498 498 498 497 496 496 496 497 497 498 498
    0 0 0 0 0 0 0 0 0 0 0 2701 2701 0 0 0 0 0 0 0 0 0 0 506 505 504 504
    505 505 506 507 507 507 508 508 508 509 509 509 509 510 511 509 507
    507 507 507 507 509 509 509 508 507 507 507 506 506 508 507 507 507
    507 507 509 510 511 512 513 501 500 500 501 502 502 503 505 504 504
    504 504 505 505 504 502 502 503 505 504 504 505 504 504 504 504 505
    506 506 507 506 499 499 499 499 500 501 501 501 501 501 501 500 499
    499 499 499 500 500 501 499 499 499 499 499 499 500 499 499 499 499
    499 499 499 499 499 499 499 498 498 499 499 499 498 498 497 496 496
    496 497 498 498 498 498 0 0 0 0 0 0 0 0 0 0 0 2701 2701 0 0 0 0 0 0
    0 0 0 0 506 505 505 505 505 506 508 508 508 508 508 508 509 509 509
    509 509 510 512 510 507 507 507 510 510 509 509 509 508 507 507 507
    506 506 507 507 507 507 507 507 509 511 511 512 513 501 501 501 502
    503 503 504 504 504 504 504 504 505 505 505 505 505 505 505 504 504
    504 504 504 504 504 505 506 507 507 502 499 499 499 500 501 501 501
    501 501 501 501 500 500 501 500 500 500 500 501 501 501 502 502 501
    501 499 499 499 499 499 499 499 499 499 499 499 499 499 499 499 499
    500 498 498 497 496 496 497 498 498 499 499 499 0 0 0 0 0 0 0 0 0 0
    0 2744 2723 0 0 0 0 0 0 0 0 0 0 0 506 505 505 505 507 508 509 508
    508 508 508 508 508 508 508 508 510 512 510 508 507 507 509 510 509
    509 509 509 510 511 511 509 509 507 507 507 507 507 508 511 511 512
    512 513 502 502 502 503 504 504 504 504 504 504 505 505 506 505 505
    506 506 505 505 504 504 504 504 504 505 505 506 507 507 507 501 499
    499 500 501 501 502 502 502 502 502 502 502 501 501 501 501 501 501
    501 501 501 501 502 499 499 499 499 499 499 499 499 499 499 499 499
    499 499 499 499 500 500 500 499 498 497 497 497 498 498 499 499 499
    499 501 0 0 0 0 0 0 0 0 0 0 2789 2723 0 0 0 0 0 0 0 0 0 0 0 506 506
    504 504 504 510 509 508 508 508 508 508 508 508 508 508 510 513 511
    508 507 507 508 509 509 509 509 509 510 511 511 511 511 510 509 509
    509 509 509 511 511 512 513 503 502 502 502 503 504 504 504 504 506
    506 507 506 506 506 505 505 506 507 507 504 504 504 504 504 506 506
    507 507 507 507 501 499 499 500 501 501 502 502 502 502 502 503 502
    502 502 502 502 502 502 501 501 501 501 501 499 499 499 499 499 499
    499 499 499 500 500 500 500 500 500 500 500 500 500 500 499 498 498
    498 498 499 499 499 499 499 501 0 0 0 0 0 0 0 0 0 0 2789 2744 0 0 0
    0 0 0 0 0 0 0 508 506 506 504 504 504 509 509 508 508 508 508 508
    508 508 508 508 510 512 511 510 508 508 508 509 510 510 510 510 511
    511 511 511 511 510 510 510 510 511 511 511 513 514 514 503 503 503
    503 504 504 504 504 504 507 506 506 507 506 506 505 505 506 506 508
    506 505 504 504 504 506 507 507 507 508 508 501 500 500 500 501 502
    502 503 503 503 503 503 503 502 502 502 502 502 502 501 501 502 501
    501 501 501 499 499 501 501 499 499 500 500 500 500 500 500 500 500
    500 501 501 500 499 499 499 499 499 499 499 500 500 500 0 0 0 0 0 0
    0 0 0 0 0 2789 2789 0 0 0 0 0 0 0 0 0 0 508 506 506 505 505 505 509
    509 508 508 508 508 508 508 508 508 511 514 512 511 510 509 508 508
    509 510 510 510 511 511 511 511 511 511 511 511 512 512 512 512 513
    514 514 515 504 503 503 504 505 506 505 505 505 507 506 506 507 507
    506 506 506 506 506 508 506 505 505 507 507 507 507 507 508 507 502
    501 500 500 500 502 502 504 504 503 502 502 504 503 503 503 503 502
    502 502 502 502 502 502 502 501 501 499 499 501 502 499 499 500 500
    500 500 500 500 500 500 500 501 501 501 499 499 499 499 499 499 500
    501 501 501 0 0 0 0 0 0 0 0 0 0 0 2812 2789 0 0 0 0 0 0 0 0 0 0 507
    506 506 506 506 510 510 511 509 509 509 509 509 510 510 509 509 514
    513 511 510 509 508 508 509 509 510 510 511 511 511 511 512 511 511
    511 511 513 513 513 513 514 515 515 504 504 504 505 507 506 506 507
    507 507 507 507 507 507 506 506 506 506 506 506 504 504 507 507 507
    507 507 507 508 503 502 501 500 500 500 502 502 504 504 504 502 502
    504 504 504 504 504 502 502 502 502 502 503 503 502 502 502 501 501
    502 502 501 501 500 500 499 499 500 500 500 500 500 501 501 500 500
    499 499 499 499 499 500 501 501 501 0 0 0 0 0 0 0 0 0 0 0 2812 2812
    0 0 0 0 0 0 0 0 0 0 507 507 507 507 508 510 510 511 511 511 511 513
    513 511 511 509 509 514 514 514 512 512 510 509 509 509 510 510 511
    511 511 511 511 511 511 511 511 514 514 514 514 515 515 515 505 505
    506 506 507 507 507 507 507 507 507 507 507 507 507 507 507 506 504
    504 504 504 507 507 507 507 507 509 509 503 502 501 501 501 501 502
    503 503 504 504 504 503 503 504 504 504 504 502 502 502 502 502 503
    503 502 502 502 502 502 501 501 501 501 500 500 499 499 500 500 501
    501 501 502 502 500 500 499 499 499 500 500 501 501 501 501 0 0 0 0
    0 0 0 0 0 0 0 2812 2812 0 0 0 0 0 0 0 0 0 510 509 509 508 508 509
    510 510 511 511 511 511 514 514 512 511 511 512 514 514 514 514 511
    510 509 509 510 510 511 511 511 511 511 511 511 511 511 514 514 514
    514 514 516 516 506 506 506 507 507 507 507 507 507 507 507 507 507
    508 508 507 507 507 507 504 504 504 504 507 507 507 508 509 509 509
    503 502 501 501 501 501 502 503 503 504 504 504 503 503 504 504 504
    504 502 502 502 502 502 503 503 502 502 502 502 502 501 501 502 501
    501 501 501 501 501 501 502 502 502 502 502 501 501 500 500 500 501
    501 501 501 501 501 0 0 0 0 0 0 0 0 0 0 0 2812 2812 0 0 0 0 0 0 0 0
    0 510 509 509 509 509 510 511 511 512 512 512 512 512 512 511 511
    512 514 514 516 515 514 511 510 509 509 510 511 511 511 511 511 511
    511 511 511 512 513 514 514 514 515 517 517 505 505 507 507 507 507
    507 507 507 507 507 509 508 508 508 507 507 507 507 507 507 506 506
    508 508 508 509 510 510 511 510 504 501 501 501 501 502 503 504 504
    504 504 504 504 504 504 504 504 502 502 502 502 502 503 502 502 502
    502 502 502 502 502 502 502 502 502 501 501 501 502 502 502 502 502
    502 501 501 501 501 501 501 502 502 502 501 501 0 0 0 0 0 0 0 0 0 0
    2812 2812 2812 0 0 0 0 0 0 0 0 0 509 509 509 510 510 511 511 511 513
    513 512 511 511 511 510 510 511 514 514 516 515 515 514 511 511 511
    511 511 511 511 511 511 511 511 512 512 512 513 514 514 515 516 517
    517 505 505 507 507 507 508 508 508 507 507 510 510 509 509 509 507
    507 508 507 507 507 507 507 508 508 509 509 510 510 511 504 504 503
    502 502 502 504 504 504 504 504 504 504 504 504 504 504 504 503 503
    503 504 504 503 502 502 502 502 502 502 502 502 502 502 502 502 504
    504 503 503 502 502 503 502 502 501 501 501 501 502 502 502 502 502
    502 0 0 0 0 0 0 0 0 0 0 2767 2767 2789 2812 0 0 0 0 0 0 0 0 0 508
    508 508 509 510 511 511 511 512 513 512 511 511 511 510 510 511 513
    513 515 516 516 514 514 514 514 514 513 512 512 512 512 512 512 512
    512 513 514 514 515 516 517 518 506 506 506 507 507 508 509 509 509
    508 508 511 511 509 509 509 507 507 509 508 508 507 507 507 508 509
    510 510 511 511 507 504 504 503 503 504 504 504 504 506 506 506 507
    507 507 506 504 504 504 504 504 504 504 504 504 503 503 503 503 502
    502 502 502 502 502 502 502 502 502 503 503 503 503 503 503 503 502
    502 502 502 502 502 502 502 502 0 0 0 0 0 0 0 0 0 0 0 2767 2767 2767
    2789 0 0 0 0 0 0 0 0 0 508 508 508 509 511 511 512 512 512 513 512
    511 511 511 511 511 511 512 512 515 515 516 516 516 516 515 514 513
    513 513 513 513 514 514 514 514 514 514 514 515 517 517 507 506 506
    506 507 507 509 510 510 510 508 508 511 511 510 509 509 507 507 509
    509 509 508 508 508 509 509 510 511 511 511 504 504 504 504 504 504
    504 504 506 507 507 507 507 507 506 506 506 505 505 504 504 504 504
    504 504 503 503 504 504 503 502 502 502 502 502 502 502 502 503 503
    503 503 503 504 503 502 502 502 502 502 502 503 504 504 0 0 0 0 0 0
    0 0 0 0 2680 2680 2680 2701 2701 2723 0 0 0 0 0 0 0 0 0 509 509 509
    511 511 511 512 515 516 514 513 512 512 511 511 511 511 512 512 515
    515 515 515 516 515 515 515 514 514 514 514 514 514 514 514 515 515
    515 516 516 518 518 507 507 507 507 507 508 510 511 511 511 510 510
    512 511 510 510 510 510 510 510 510 510 509 509 509 509 509 511 511
    512 504 504 504 504 504 504 504 505 506 506 507 507 507 507 507 506
    506 506 505 505 504 504 504 504 504 504 504 504 504 504 504 502 502
    502 502 503 502 502 502 502 503 503 504 504 504 504 502 502 502 502
    503 503 504 504 0 0 0 0 0 0 0 0 0 0 0 2680 2680 2680 2701 2701 2701
    0 0 0 0 0 0 509 509 508 508 509 511 512 512 512 513 515 515 514 513
    512 512 512 512 512 512 513 513 514 514 514 514 515 515 515 515 514
    514 514 514 514 515 515 517 517 517 517 517 518 520 520 507 507 507
    508 508 509 511 511 511 511 511 512 512 511 510 510 511 510 510 510
    510 510 510 509 509 511 511 511 512 512 504 504 504 504 504 504 505
    506 507 507 507 507 507 506 506 505 505 506 505 505 504 504 504 504
    504 505 505 504 504 504 504 504 504 504 503 503 502 502 502 502 503
    504 504 504 504 504 502 502 502 502 503 504 504 504 0 0 0 0 0 0 0 0
    0 0 0 2659 2659 2659 2680 2680 2701 0 0 0 0 0 0 509 509 508 508 511
    511 512 512 513 514 515 515 514 514 513 513 513 513 513 513 513 513
    514 514 514 514 515 514 514 514 514 514 514 514 515 516 518 518 518
    517 517 518 520 521 522 507 507 508 509 509 510 511 511 511 511 511
    511 512 512 511 511 511 511 511 511 510 510 511 511 511 512 512 512
    512 507 504 504 504 504 504 505 506 506 507 507 507 507 507 506 506
    505 505 506 504 504 504 504 504 504 504 505 505 505 504 504 504 504
    504 504 504 504 504 504 503 503 504 504 504 504 504 504 502 502 502
    502 503 504 504 504 0 0 0 0 0 0 0 0 0 0 0 2639 2639 2639 2659 2659
    2680 0 0 0 0 0 0 509 509 509 511 511 511 512 512 513 514 515 515 515
    514 514 514 513 513 513 512 512 513 514 515 516 515 515 514 514 514
    514 514 515 515 515 516 518 518 518 518 518 519 521 522 522 508 508
    509 509 510 510 511 511 511 511 511 511 512 512 512 511 511 510 510
    510 510 510 511 511 511 512 513 512 512 506 505 505 505 505 505 506
    507 507 508 507 507 507 507 507 507 506 506 506 504 504 507 506 505
    505 505 505 505 505 504 504 505 505 504 504 504 504 504 504 503 503
    504 504 505 504 504 504 503 503 503 503 504 504 504 505 0 0 0 0 0 0
    0 0 0 2639 2618 2618 2618 2639 2639 2639 2659 0 0 0 0 0 511 511 511
    511 511 511 511 512 512 513 514 515 515 515 515 514 514 514 514 513
    512 512 513 514 516 517 517 516 514 514 514 514 514 516 515 515 515
    517 517 518 518 518 519 521 522 522 508 508 509 510 510 510 511 511
    511 511 511 512 512 512 512 511 511 510 510 510 510 510 511 511 512
    513 513 513 513 505 505 505 505 505 506 506 507 507 509 508 508 508
    508 508 507 507 507 507 506 506 507 506 506 506 506 506 506 506 505
    505 505 505 504 504 504 506 505 505 505 504 504 505 505 504 504 504
    504 504 504 504 505 505 505 0 0 0 0 0 0 0 0 0 0 2618 2618 2618 2618
    2618 2618 2618 2639 0 0 0 0 0 511 511 512 512 512 512 512 512 513
    513 514 516 516 516 516 516 517 517 516 514 512 512 513 514 517 517
    517 514 514 514 514 515 515 516 516 514 514 517 517 518 518 518 519
    521 522 522 523 509 509 509 510 510 511 511 511 512 512 513 512 512
    512 512 511 511 511 511 511 511 511 511 512 513 513 514 514 505 505
    505 505 506 506 506 507 507 509 508 508 509 508 508 509 507 507 507
    507 507 507 507 507 507 507 506 506 506 505 505 506 506 506 505 505
    506 505 505 506 505 505 506 505 504 504 504 504 504 504 505 506 506
    0 0 0 0 0 0 0 0 0 0 0 2618 2618 2618 2618 2618 2618 2618 2639 0 0 0
    0 0 511 511 513 513 513 513 514 514 514 514 515 516 516 515 515 516
    516 516 516 515 515 514 514 515 517 517 516 514 514 514 514 516 516
    517 516 514 514 517 517 518 518 518 519 521 522 522 523 509 509 509
    510 510 511 511 511 512 512 513 513 513 513 512 511 511 511 511 511
    511 511 512 512 513 513 514 505 505 505 505 506 507 507 507 508 508
    511 511 511 510 508 508 509 507 507 507 507 507 507 507 507 507 507
    507 507 507 507 507 507 507 507 506 506 507 507 507 507 507 506 506
    505 504 504 504 504 504 504 505 506 507 0 0 0 0 0 0 0 0 0 0 0 2639
    2639 2639 2639 2639 2618 2618 2618 0 0 0 0 0 512 512 513 513 514 514
    514 514 514 514 515 516 516 515 515 515 516 516 516 516 517 517 517
    517 519 519 516 516 516 516 516 517 517 517 516 515 515 517 517 519
    519 519 520 522 522 523 524 509 509 509 510 511 511 511 512 512 512
    512 512 512 513 512 512 512 512 512 512 512 512 512 512 513 514 514
    505 505 505 505 506 507 507 507 508 509 510 510 511 510 508 508 508
    508 507 507 507 507 507 507 507 507 507 507 507 506 506 506 507 507
    507 507 507 507 507 507 507 507 507 507 505 504 504 504 504 505 506
    507 507 507 0 0 0 0 0 0 0 0 0 0 2618 2618 2639 2639 2618 2618 2618
    2618 2618 0 0 0 0 0 512 512 512 514 514 514 513 513 514 514 515 516
    516 515 515 515 516 516 517 517 517 516 516 517 519 518 516 516 516
    516 516 517 517 518 517 517 518 518 518 520 520 520 521 522 523 523
    525 509 509 509 510 511 511 511 512 512 512 512 512 512 514 513 513
    514 513 513 513 513 513 513 513 514 514 515 505 505 506 507 507 507
    507 509 509 510 510 510 511 510 508 508 508 508 508 507 507 507 507
    507 507 507 507 507 507 506 506 506 507 507 507 507 507 507 507 507
    507 507 507 507 506 505 504 504 504 505 506 507 507 0 0 0 0 0 0 0 0
    0 0 0 2618 2618 2639 2618 2618 2618 2618 2639 2618 0 0 0 0 0 0 0 0
    514 514 514 513 513 514 514 515 516 516 515 515 515 516 516 517 518
    517 516 516 517 519 518 516 516 516 516 517 517 517 518 518 518 518
    518 521 521 521 521 522 522 524 525 525 509 509 509 510 511 511 511
    512 512 511 511 512 513 513 514 514 514 514 513 513 513 514 514 514
    514 515 516 507 507 507 507 508 509 509 510 510 510 510 510 511 511
    511 511 509 509 509 507 507 507 507 507 507 507 507 507 507 506 506
    507 507 508 507 507 507 507 507 507 507 507 507 507 507 506 505 505
    505 506 507 507 507 0 0 0 0 0 0 0 0 0 0 2579 2579 2598 2598 2618
    2618 2618 2618 2618 2618 0 0 0 0 0 0 0 0 514 514 513 513 514 514 514
    516 516 517 516 516 516 516 516 518 518 517 516 516 517 519 519 519
    521 519 518 517 517 517 517 519 518 518 519 521 521 521 522 522 523
    524 525 525 511 511 512 513 514 514 513 513 512 511 511 512 513 513
    513 512 512 512 513 513 513 514 514 514 514 516 509 508 508 508 508
    508 509 509 510 510 510 511 511 511 511 511 510 509 508 508 509 509
    508 508 507 507 507 507 507 507 507 507 507 507 508 507 507 507 507
    507 507 507 507 507 507 507 506 505 505 507 507 507 507 507 0 0 0 0
    0 0 0 0 0 0 2541 2541 2560 2560 2579 2579 2598 2598 2618 2618 0 0 0
    0 0 0 0 0 514 514 513 513 514 514 515 517 517 517 516 515 515 516
    516 517 517 517 515 515 516 516 517 519 521 519 518 517 517 517 517
    518 518 518 521 521 521 521 522 523 524 525 513 513 513 513 514 515
    515 515 517 518 518 514 513 513 513 513 513 512 512 512 513 514 514
    514 514 515 515 516 508 508 509 509 509 509 509 510 511 511 511 511
    511 511 511 511 510 510 508 508 509 509 508 508 507 507 507 507 508
    508 507 507 508 508 508 508 507 507 507 507 507 507 508 508 508 507
    507 506 506 507 507 507 507 508 0 0 0 0 0 0 0 0 0 0 2522 2522 2541
    2560 2560 2560 2579 2579 2579 2598 0 0 0 0 0 0 0 0 514 514 514 514
    515 518 518 519 517 517 516 515 515 516 517 517 517 516 514 514 516
    516 517 520 521 520 519 518 517 517 517 518 518 518 521 521 521 522
    523 525 525 514 513 513 513 514 516 516 516 517 517 517 517 518 518
    518 518 517 514 512 512 512 513 514 514 515 515 516 515 509 508 508
    509 509 509 509 510 510 511 511 512 511 511 511 511 511 510 510 510
    510 510 510 509 509 508 508 508 509 509 509 508 508 508 508 509 508
    508 507 507 507 508 508 509 509 508 507 507 507 507 507 507 509 509
    509 0 0 0 0 0 0 0 0 0 0 2522 2522 2522 2541 2541 2541 2560 2560 2560
    2579 0 0 0 0 0 0 0 517 515 515 515 515 517 519 519 519 517 517 516
    516 516 516 522 517 517 516 514 514 517 517 517 520 520 520 519 518
    518 517 517 518 518 519 521 522 522 522 525 525 515 514 514 515 515
    515 516 516 516 517 517 517 517 518 518 518 518 518 517 514 514 514
    514 516 516 517 517 517 515 508 508 509 509 509 510 510 510 510 511
    511 511 511 511 511 511 511 510 510 510 510 510 510 510 509 509 509
    509 509 509 510 510 510 508 508 509 509 508 507 507 507 509 509 509
    509 508 507 507 507 507 507 508 509 510 510 0 0 0 0 0 0 0 0 0 0 2503
    2503 2503 2522 2522 2541 2541 2541 2560 2560 0 0 0 0 0 515 515 517
    517 517 517 517 518 519 520 519 517 517 517 517 521 524 522 518 517
    517 516 516 519 518 518 520 520 520 519 519 519 519 519 519 519 519
    519 523 523 523 525 525 515 514 514 515 515 515 516 516 517 518 517
    517 518 518 518 517 517 518 517 517 519 519 519 519 519 519 518 518
    518 508 508 509 510 510 510 510 510 510 511 511 511 511 511 511 511
    511 511 510 510 511 510 510 510 509 509 510 510 510 510 510 510 510
    509 509 509 509 509 509 508 508 509 509 510 509 508 507 507 507 507
    508 509 509 510 0 0 0 0 0 0 0 0 0 0 2503 2503 2485 2485 2485 2485
    2503 2522 2522 2541 2541 0 0 0 0 0 515 515 517 517 518 517 517 518
    519 520 519 517 517 517 517 522 523 525 524 517 517 517 518 519 518
    518 519 519 519 518 518 519 519 519 519 519 519 519 524 524 524 525
    516 516 516 516 516 516 516 516 516 518 518 518 517 517 517 517 517
    517 517 517 519 519 519 519 519 520 520 521 520 520 521 510 510 510
    510 511 511 511 511 511 511 511 511 511 512 511 511 511 511 511 511
    511 511 511 510 510 510 510 510 510 510 510 510 510 508 508 508 509
    509 510 510 510 510 510 509 508 507 507 507 508 509 509 509 509 0 0
    0 0 0 0 0 0 0 0 2467 2467 2467 2467 2485 2485 2503 2503 2522 2522
    2522 0 0 0 0 0 516 516 517 517 519 518 518 518 520 521 519 518 518
    518 519 521 522 523 523 519 519 519 519 520 520 520 519 519 519 518
    518 519 519 519 519 519 519 519 523 524 525 525 515 515 516 516 516
    516 516 517 517 519 520 519 517 517 517 517 517 517 517 517 519 519
    519 519 519 520 521 521 521 521 512 512 511 511 511 511 511 512 512
    513 513 514 514 514 514 511 511 512 512 511 511 511 511 511 510 510
    511 510 510 511 511 511 511 510 508 508 508 509 510 510 510 510 510
    510 509 508 508 508 508 509 510 510 509 509 0 0 0 0 0 0 0 0 0 2450
    2450 2450 2450 2450 2467 2467 2485 2485 2485 2503 2503 0 0 0 0 517
    517 517 517 517 518 519 519 519 519 522 519 518 518 520 520 521 521
    522 522 521 520 519 519 521 521 521 521 520 520 519 519 519 519 519
    519 519 519 519 523 524 525 526 515 515 516 517 517 517 518 518 519
    519 522 521 519 517 517 517 517 517 517 517 519 519 519 519 519 520
    521 521 521 513 512 512 511 511 513 513 514 514 514 513 513 514 514
    514 514 511 511 512 512 514 514 513 512 512 511 511 511 511 511 511
    511 511 511 511 509 509 509 509 510 511 511 511 511 511 509 509 508
    508 508 509 510 511 511 0 0 0 0 0 0 0 0 0 0 2415 2415 2415 2432 2432
    2432 2450 2467 2467 2485 2485 2485 0 0 0 0 517 517 517 517 518 518
    519 519 519 519 522 521 519 519 521 521 521 521 521 521 521 520 520
    520 521 521 522 522 520 519 519 519 519 519 519 519 519 520 520 524
    525 527 515 515 515 516 517 517 517 518 519 519 519 520 520 519 517
    517 517 517 517 517 518 519 519 519 520 520 520 521 521 521 513 512
    512 512 512 514 514 514 514 514 513 513 514 514 514 514 513 513 513
    513 514 514 513 512 512 512 512 513 511 511 511 511 511 511 511 510
    510 510 511 511 511 511 511 511 511 510 509 509 509 509 511 511 511
    511 0 0 0 0 0 0 0 0 0 0 2398 2398 2415 2415 2415 2415 2432 2450 2450
    2467 2485 2485 0 0 0 0 517 517 517 517 518 518 519 519 519 520 521
    521 521 521 521 520 520 521 521 521 521 520 520 521 522 523 523 522
    520 519 519 520 521 521 521 521 521 521 521 524 527 516 515 515 515
    516 516 517 517 518 519 520 520 520 520 520 517 517 517 517 517 517
    518 519 520 520 521 521 521 521 521 522 513 512 512 512 512 514 514
    514 514 514 513 513 514 514 514 514 514 514 514 514 514 514 513 513
    512 512 512 512 512 512 511 511 511 511 511 511 511 511 511 511 511
    511 511 511 511 510 510 510 510 510 511 511 512 513 0 0 0 0 0 0 0 0
    0 0 2381 2381 2398 2398 2415 2415 2415 2432 2432 2450 2450 2467 0 0
    0 0 517 517 517 517 518 518 519 521 521 521 521 521 521 521 521 520
    519 519 521 521 521 520 520 523 523 523 522 521 520 520 521 521 521
    522 522 523 523 523 524 528 529 516 516 516 516 516 516 517 518 519
    520 521 521 521 521 521 519 518 518 518 518 519 519 519 519 520 521
    521 521 521 521 522 513 513 513 513 513 514 514 514 514 514 514 514
    514 514 514 514 514 514 514 514 514 514 514 514 513 512 512 512 513
    513 511 511 511 511 511 512 512 511 511 512 512 513 512 511 511 510
    510 510 510 510 511 511 511 513 0 0 0 0 0 0 0 0 0 2349 2349 2381
    2381 2381 2398 2398 2398 2415 2415 2415 2432 2450 0 0 0 518 517 517
    517 517 518 518 519 521 521 522 522 522 521 521 521 520 519 519 520
    521 521 523 523 524 523 523 521 521 521 521 521 521 522 523 525 525
    526 527 527 529 529 517 516 516 517 517 517 518 518 519 519 521 521
    521 521 521 521 519 519 519 519 519 519 519 519 520 521 521 522 522
    522 522 514 513 513 514 514 515 516 516 516 516 515 515 517 516 516
    515 514 514 515 514 514 514 514 514 513 513 513 513 514 514 513 512
    512 512 512 512 512 512 512 513 513 513 513 511 511 511 511 510 510
    511 511 511 511 0 0 0 0 0 0 0 0 0 2349 2349 2349 2349 2349 2349 2349
    2349 2365 2398 2398 2398 2415 2432 0 0 0 518 518 518 518 518 518 518
    519 521 523 524 523 522 521 521 521 520 520 520 520 521 521 522 522
    524 524 524 521 521 521 521 521 522 524 525 525 525 526 528 529 529
    529 529 517 517 517 518 518 518 519 519 519 520 520 521 521 521 521
    519 519 519 519 520 520 520 520 521 521 521 522 523 523 514 514 514
    514 514 515 515 516 516 516 516 516 516 516 516 516 515 515 515 515
    514 514 514 514 514 514 514 514 514 514 514 514 513 513 513 513 513
    512 512 513 513 513 513 513 511 511 511 511 511 513 512 511 511 0 0
    0 0 0 0 0 0 0 2333 2333 2333 2333 2333 2333 2349 2349 2349 2349 2349
    2365 2381 2398 2415 0 0 0 518 518 519 519 520 520 520 521 521 522
    522 522 522 521 521 521 521 521 520 520 521 521 522 522 524 524 525
    522 522 522 522 522 523 524 525 526 526 528 529 529 529 529 529 517
    517 518 519 519 519 519 519 520 520 520 521 521 521 520 520 521 521
    521 521 520 520 521 521 521 522 523 523 515 514 514 514 514 515 515
    516 516 516 516 516 516 516 516 517 517 516 515 515 515 514 514 514
    514 514 514 514 514 514 514 514 514 514 514 514 513 513 513 513 513
    513 513 513 512 511 511 511 512 512 513 513 513 0 0 0 0 0 0 0 0 0 0
    2317 2317 2317 2333 2333 2333 2333 2333 2333 2349 2349 2349 2365
    2381 2398 0 0 0 517 517 519 520 521 521 521 522 522 521 521 521 521
    521 523 522 522 525 525 522 522 522 521 521 522 523 523 522 522 522
    522 522 523 524 525 525 525 528 529 529 529 529 529 519 519 519 519
    520 520 520 520 520 520 520 521 521 521 520 520 521 520 520 521 521
    521 521 521 521 522 523 524 514 514 514 514 515 515 516 516 516 517
    517 517 517 516 516 517 517 516 515 515 516 514 514 515 514 514 514
    514 515 514 514 514 514 514 514 514 513 513 513 513 514 513 513 513
    512 511 511 511 512 513 514 514 514 0 0 0 0 0 0 0 0 0 2286 2286 2286
    2301 2301 2301 2301 2317 2317 2333 2333 2333 2349 2365 2365 2365 0 0
    0 517 517 520 521 521 521 521 522 522 521 521 521 521 521 522 523
    523 525 525 523 523 523 521 521 522 523 523 523 523 523 525 525 524
    524 525 525 525 527 529 529 529 529 529 520 520 520 520 521 521 521
    520 520 521 522 522 522 521 521 521 521 520 520 521 521 521 521 522
    522 523 524 524 514 514 514 515 515 515 516 516 517 517 517 517 517
    516 516 517 517 517 517 516 516 514 514 515 514 514 514 514 516 514
    514 514 514 514 514 514 514 514 514 514 514 514 514 513 513 513 512
    512 513 513 514 514 0 0 0 0 0 0 0 0 0 0 2271 2271 2271 2286 2286
    2286 2286 2286 2301 2317 2317 2333 2333 2349 2349 2349 0 0 0 517 517
    520 521 521 521 521 522 522 522 521 521 521 521 522 524 524 525 525
    523 523 523 522 522 522 524 525 525 526 526 526 525 525 525 525 525
    525 527 529 529 529 530 521 520 520 521 521 521 521 521 521 522 523
    522 522 522 521 520 520 520 521 521 521 521 521 522 522 524 525 525
    514 514 514 515 515 516 516 517 517 518 518 518 517 517 517 517 517
    517 517 517 517 516 515 515 515 514 514 515 515 516 514 514 514 514
    514 514 514 515 515 515 516 515 514 514 513 513 513 513 513 513 513
    514 514 0 0 0 0 0 0 0 0 0 0 2256 2256 2256 2271 2271 2271 2286 2286
    2286 2286 2301 2317 2333 2333 2333 2333 0 0 0 517 517 520 521 521
    521 521 522 522 522 521 521 522 522 522 524 522 522 523 523 522 522
    522 521 521 525 525 525 525 525 525 525 525 525 525 525 525 527 529
    529 520 520 521 521 521 521 521 521 521 522 522 523 524 522 522 522
    521 520 520 520 521 521 522 522 523 523 525 525 525 526 514 514 515
    515 516 516 516 517 517 518 519 519 519 518 517 517 517 517 517 517
    517 517 517 516 516 516 516 516 516 516 516 516 515 514 514 514 515
    515 516 516 516 516 515 514 513 513 513 513 513 514 514 515 516 0 0
    0 0 0 0 0 0 0 0 2226 2226 2241 2256 2256 2271 2271 2271 2271 2286
    2286 2301 2301 2317 2317 2317 0 0 0 0 521 521 521 521 521 521 521
    522 522 521 521 522 522 522 522 522 522 522 522 522 522 522 521 521
    525 525 525 525 525 525 525 525 525 525 526 527 528 530 531 520 520
    521 521 522 522 522 522 522 522 524 524 524 523 523 523 522 520 520
    520 521 521 522 522 524 525 525 525 526 526 515 515 515 516 516 517
    517 518 518 519 519 520 519 519 517 517 517 517 517 517 517 517 517
    516 516 516 516 516 516 516 516 516 515 514 514 514 515 515 516 516
    516 516 516 515 514 514 514 514 514 514 515 516 516 0 0 0 0 0 0 0 0
    0 2212 2212 2212 2226 2241 2241 2241 2256 2256 2271 2271 2286 2286
    2286 2286 2286 2301 0 0 0 0 521 521 521 521 521 521 521 521 521 521
    521 521 521 521 521 521 521 522 522 522 522 522 521 521 525 525 525
    525 525 525 525 526 525 525 526 528 529 529 531 520 520 521 521 522
    522 522 524 524 525 525 525 525 524 523 523 522 521 521 521 521 522
    522 523 524 525 525 525 526 526 527 516 516 516 517 517 517 518 518
    519 519 520 520 519 518 518 517 517 517 517 518 517 517 517 517 517
    517 517 517 517 517 516 516 515 515 515 516 516 516 516 516 516 517
    516 515 514 514 514 515 515 515 516 0 0 0 0 0 0 0 0 0 0 2212 2212
    2212 2212 2226 2226 2226 2226 2241 2256 2256 2271 2271 2271 2286
    2286 2286 0 0 0 0 0 534 521 521 521 521 521 521 519 519 519 520 520
    521 521 521 521 522 522 523 523 523 522 522 525 525 525 525 525 525
    525 525 525 527 528 528 529 529 532 521 521 521 521 522 523 523 525
    525 525 525 525 525 524 524 524 523 523 522 522 522 523 523 523 524
    525 525 525 526 527 517 516 516 517 517 517 518 518 518 519 519 520
    520 519 518 518 518 518 517 517 518 517 517 517 517 517 517 517 517
    517 517 516 516 516 516 515 515 516 516 516 516 516 517 516 516 514
    514 514 515 515 516 516 0 0 0 0 0 0 0 0 0 2184 2184 2198 2198 2198
    2198 2212 2212 2212 2226 2226 2241 2241 2256 2271 2271 2271 2271 0 0
    0 0 0 534 534 534 535 539 540 539 519 518 518 519 519 520 521 521
    521 522 522 523 523 523 523 524 525 525 525 525 525 525 525 525 525
    525 528 529 529 531 533 521 521 521 521 522 524 525 525 525 525 525
    525 525 524 524 524 523 523 523 523 524 524 524 525 525 525 525 525
    526 527 517 517 517 517 517 518 518 519 519 520 520 520 520 520 519
    519 519 519 518 518 519 518 517 517 517 517 517 517 517 517 517 517
    517 516 516 515 515 516 516 517 517 517 517 516 516 515 515 515 516
    516 517 0 0 0 0 0 0 0 0 0 2170 2170 2170 2170 2170 2184 2184 2184
    2198 2198 2212 2226 2226 2226 2241 2256 2256 2271 2271 0 0 0 530 530
    531 534 534 535 538 539 538 538 518 518 517 517 519 520 521 521 521
    522 522 522 522 523 524 525 525 525 525 525 526 526 526 525 525 529
    529 530 532 522 521 521 521 522 523 525 525 525 525 525 525 525 525
    525 525 524 524 524 523 523 525 525 525 525 525 525 525 527 527 527
    517 517 517 517 518 518 518 519 520 520 520 520 520 520 519 519 520
    520 519 519 519 519 518 518 518 518 518 517 517 517 517 517 517 517
    517 517 517 517 517 517 517 517 517 516 516 515 515 516 516 516 0 0
    0 0 0 0 0 0 0 0 2156 2156 2156 2156 2170 2170 2170 2170 2184 2184
    2198 2212 2212 2226 2226 2226 2226 2241 2241 0 0 529 529 529 529 533
    534 534 537 537 537 538 538 540 517 517 518 519 520 521 521 521 522
    522 522 523 523 525 525 525 525 525 526 526 526 526 526 529 529 531
    533 522 522 522 522 523 524 525 525 525 525 525 525 525 525 525 525
    525 525 525 525 525 525 525 525 525 526 526 527 528 528 527 517 517
    518 518 519 519 520 520 521 520 520 520 520 521 520 520 521 520 520
    520 520 519 518 518 519 519 518 517 517 517 517 517 517 517 517 517
    517 517 517 517 517 517 517 516 516 516 516 516 517 517 0 0 0 0 0 0
    0 0 0 0 2143 2143 2143 2143 2156 2156 2156 2156 2156 2170 2184 2184
    2198 2212 2212 2212 2212 2212 2212 526 528 528 528 528 527 527 534
    534 536 536 536 538 538 540 517 517 518 519 519 520 521 521 521 521
    521 522 523 524 525 525 525 525 526 526 526 526 527 529 530 531 532
    522 522 522 523 524 525 525 525 525 525 525 525 525 525 525 525 525
    525 525 525 525 525 525 525 525 526 527 528 529 529 530 519 519 519
    519 519 519 521 521 521 521 521 521 521 521 521 521 521 520 520 520
    520 520 519 519 520 520 520 519 519 519 519 518 518 517 517 517 517
    517 517 518 518 518 517 516 516 516 516 517 517 517 0 0 0 0 0 0 0 0
    0 0 2129 2129 2129 2129 2143 2143 2143 2143 2156 2156 2170 2170 2184
    2184 2184 2198 2198 2212 2212 526 527 527 527 527 526 526 534 534
    535 536 536 538 538 540 540 518 518 519 519 520 521 521 521 521 521
    522 523 524 525 525 525 526 526 525 525 526 527 529 530 530 523 522
    522 523 524 524 525 525 525 525 525 525 525 525 525 525 525 525 526
    526 526 525 525 525 527 527 528 528 528 529 530 531 521 520 520 520
    520 520 521 521 522 522 522 521 521 521 521 521 521 521 521 520 520
    520 520 520 520 520 520 519 519 519 519 518 518 519 518 517 517 517
    519 519 519 518 517 517 517 517 517 517 517 517 0 0 0 0 0 0 0 0 0
    2116 2116 2116 2129 2129 2129 2129 2129 2129 2143 2143 2156 2156
    2170 2170 2170 2170 2184 2198 2198 526 527 527 527 527 526 526 534
    535 535 536 536 538 538 538 540 519 519 519 519 520 521 521 521 521
    521 521 522 523 523 523 525 525 525 525 525 525 527 529 529 529 523
    522 522 523 524 524 525 525 525 525 525 525 525 525 525 525 525 525
    526 526 527 527 527 527 528 529 529 529 529 530 531 520 520 521 521
    521 521 521 521 522 523 523 523 522 521 521 521 521 521 521 521 521
    521 521 521 521 521 520 520 520 520 519 519 519 519 519 519 519 519
    519 519 519 519 518 517 517 517 517 517 517 518 0 0 0 0 0 0 0 0 0 0
    2116 2116 2116 2116 2116 2116 2116 2129 2129 2129 2129 2143 2143
    2156 2170 2170 2170 2170 2170 2184 526 526 526 528 527 527 531 533
    534 534 534 535 537 526 525 524 524 521 520 520 521 521 521 521 521
    521 521 522 522 522 522 523 525 525 525 525 525 527 529 529 529 522
    522 522 524 525 525 525 525 525 525 525 525 525 525 525 525 525 526
    526 527 527 527 527 528 529 529 529 530 530 531 520 520 520 521 521
    521 521 522 522 522 523 523 523 522 522 522 521 521 521 521 521 521
    521 521 521 521 521 520 520 520 520 520 519 519 519 519 519 519 519
    519 520 520 519 518 518 517 517 517 518 518 519 0 0 0 0 0 0 0 0 0
    1572 1572 1579 2116 2116 2116 2116 2116 2116 2116 2116 2116 2129
    2129 2143 2156 2156 2156 2170 2170 2170 525 525 526 528 528 528 530
    533 533 533 533 534 533 526 525 524 524 522 522 521 521 521 521 522
    523 522 522 522 522 522 522 522 523 524 524 524 525 527 528 528 524
    522 522 522 524 525 525 525 525 525 525 525 525 526 526 526 526 526
    526 526 527 527 527 527 529 529 530 530 530 531 531 520 520 520 521
    521 522 522 522 522 522 523 523 523 522 522 522 522 522 522 522 523
    522 522 521 521 521 521 521 521 520 520 520 520 520 520 520 520 520
    519 519 520 520 519 518 518 518 518 518 519 519 519 0 0 0 0 0 0 0 0
    1572 1572 1572 1579 1579 1579 2103 2103 2116 2116 2116 2116 2116
    2116 2129 2129 2143 2143 2156 2156 2156 2156 525 525 525 527 529 529
    530 531 529 529 529 529 529 528 525 525 525 525 525 527 527 525 525
    525 525 525 523 523 522 522 522 522 523 523 523 523 525 526 528 528
    523 522 522 522 523 525 525 525 525 525 525 525 525 526 526 526 526
    526 526 526 527 527 527 527 529 529 530 531 531 531 521 521 521 521
    521 521 522 522 522 523 523 523 523 523 523 523 522 522 523 523 523
    524 523 522 522 521 521 521 521 521 521 520 520 520 520 520 520 520
    520 521 521 520 520 519 518 518 518 519 519 519 519 0 0 0 0 0 0 0 0
    1564 1564 1564 1564 1572 1572 1572 1572 1572 1586 2103 2103 2103
    2103 2116 2116 2116 2116 2116 2129 2129 2143 2143 525 525 525 527
    529 529 530 531 529 528 528 527 527 528 527 526 526 526 526 526 527
    527 527 526 526 526 525 523 523 523 523 523 524 523 523 523 525 526
    528 528 523 522 522 522 523 524 525 525 525 525 525 525 526 526 526
    526 526 526 527 527 527 527 527 527 529 529 530 531 531 531 521 521
    521 521 521 522 522 523 523 524 524 524 524 523 523 523 522 522 523
    523 523 524 523 522 522 521 521 521 521 521 521 521 521 521 520 520
    521 521 521 521 521 520 520 520 519 519 519 519 519 519 0 0 0 0 0 0
    0 0 0 1557 1557 1557 1564 1564 1564 1564 1564 1572 1572 1579 2103
    2103 2103 2103 2103 2103 2103 2103 2116 2116 2129 2129 526 0 0 0 0 0
    0 0 525 525 527 526 526 526 528 528 527 526 526 526 527 527 527 526
    526 526 525 525 524 523 523 527 525 525 525 525 526 526 529 529 539
    522 522 522 523 524 524 525 525 525 525 525 525 525 525 525 526 526
    526 527 527 527 527 527 528 529 531 531 532 523 522 521 521 522 522
    523 523 524 524 524 524 524 524 522 522 522 523 523 523 523 524 523
    523 522 522 522 522 522 521 521 521 521 521 521 521 521 521 521 521
    521 521 521 520 520 519 519 519 519 520 520 0 0 0 0 0 0 0 0 1550
    1550 1543 1543 1550 1550 1557 1557 1557 1557 1564 1564 1564 1564
    1564 1572 1572 2103 2103 2103 2103 2103 2116 2116 0 0 0 0 0 0 0 0
    525 525 525 525 525 525 525 525 525 526 525 525 526 527 527 527 527
    528 525 525 526 526 527 527 528 525 525 526 528 529 535 535 539 539
    539 523 523 524 524 525 525 525 525 525 525 525 525 525 525 525 525
    525 525 526 527 528 528 529 531 532 532 522 522 522 522 522 524 524
    524 525 525 525 525 525 524 522 522 522 523 523 523 523 524 523 523
    523 523 523 523 522 522 521 521 521 521 522 521 521 521 521 522 522
    522 521 521 520 520 519 519 519 521 0 0 0 0 0 0 0 0 0 1543 1543 1536
    1536 1543 1543 1543 1543 1550 1550 1557 1557 1564 1564 1564 1572
    1572 1572 2065 2065 2065 2078 2090 2103 0 0 0 0 0 0 0 0 0 525 525
    525 524 524 524 524 524 524 524 524 525 525 525 525 527 528 525 525
    524 524 525 525 528 529 529 530 530 533 534 536 537 538 539 539 539
    524 524 525 525 525 525 525 525 525 525 525 525 525 525 525 525 526
    526 528 529 529 532 533 533 522 522 522 523 524 525 525 525 525 525
    525 525 525 525 524 524 524 524 524 525 525 525 524 524 523 523 523
    523 523 522 522 522 522 522 522 522 522 522 522 522 522 521 521 521
    521 521 521 521 521 521 522 0 0 0 0 0 0 0 0 1543 1529 1529 1529 1529
    1529 1529 1536 1543 1543 1550 1550 1557 1564 1564 1564 1564 1564
    1564 1572 2065 2065 2078 2078 0 0 0 0 0 0 0 0 0 0 525 524 524 523
    523 523 523 524 524 524 525 525 525 525 526 527 525 525 524 524 525
    525 528 529 529 529 529 531 533 533 535 535 536 536 535 535 536 525
    525 525 525 525 525 525 525 525 525 525 525 525 525 526 526 528 529
    530 531 525 523 522 522 522 524 525 525 525 525 526 527 526 525 525
    525 524 524 525 525 525 525 525 525 525 524 524 524 523 523 523 523
    522 522 522 522 522 523 523 523 523 523 523 521 521 521 521 521 521
    521 521 522 522 0 0 0 0 0 0 0 0 0 1516 1516 1516 1516 1523 1523 1536
    1536 1536 1543 1543 1550 1550 1550 1550 1550 1557 1564 1564 1572
    1572 2065 2065 0 0 0 0 0 0 0 0 0 0 0 524 524 523 521 521 522 523 523
    523 524 524 525 525 525 526 525 525 524 524 525 525 525 525 527 527
    529 529 530 531 533 533 534 534 534 534 535 532 529 527 526 525 525
    525 525 525 525 525 525 525 525 526 527 528 529 529 529 525 523 523
    523 523 525 525 525 526 526 526 527 527 526 526 525 525 525 525 525
    525 525 525 525 525 525 524 524 523 523 523 523 523 523 522 522 523
    524 524 525 525 525 523 521 521 521 521 521 521 522 522 523 523 0 0
    0 0 0 0 0 0 1489 1489 1503 1503 1503 1509 1516 1523 1529 1529 1536
    1536 1536 1543 1543 1543 1543 1550 1557 1557 1564 1572 1572 2040 0 0
    0 0 0 0 0 0 0 0 0 0 0 0 521 521 522 523 523 523 524 524 525 525 525
    526 525 525 525 525 525 525 525 525 526 526 528 528 529 529 529 530
    531 533 532 532 534 532 531 529 528 528 527 525 525 525 525 525 525
    525 525 526 527 528 529 529 528 525 524 524 524 524 525 525 526 526
    527 527 527 527 527 527 526 526 525 525 525 525 525 525 526 525 525
    525 524 523 523 523 524 523 523 523 523 524 525 525 525 525 525 525
    521 521 521 521 521 522 522 523 524 524 0 0 0 0 0 0 0 1489 1489 1489
    1489 1489 1489 1496 1503 1509 1516 1516 1523 1523 1529 1536 1536
    1536 1536 1543 1543 1550 1557 1557 1564 2040 0 0 0 0 0 0 0 0 0 0 0 0
    0 0 0 0 0 0 0 0 0 525 525 526 526 526 526 526 526 525 525 525 525
    526 526 526 528 528 529 529 529 530 531 533 532 532 534 532 531 529
    529 528 527 527 526 526 525 525 525 525 525 526 528 528 529 528 527
    525 524 524 524 525 525 525 526 527 527 527 527 528 528 528 527 527
    526 525 525 525 525 525 526 526 526 525 525 524 524 524 524 523 523
    524 524 525 525 525 525 525 525 525 522 522 522 522 522 522 523 523
    524 0 0 0 0 0 0 0 0 1489 1483 1483 1483 1489 1489 1489 1496 1496
    1509 1516 1516 1523 1523 1529 1529 1536 1536 1536 1536 1543 1543
    1543 1550 1557</data></Depth18707>
</opencv_storage>
