<?xml version="1.0"?>
<opencv_storage>
<Depth6329 type_id="opencv-matrix">
  <rows>98</rows>
  <cols>54</cols>
  <dt>w</dt>
  <data>
    3816 3816 3774 3774 3732 3732 3732 3732 3732 3732 3732 3732 3692
    3692 3692 3653 3653 3653 3653 3653 3653 3692 3692 3653 3653 1013
    1007 1004 1001 1001 998 998 998 998 1001 3692 3692 3503 3503 1010
    1010 1016 1016 1022 1031 1031 1038 1038 3503 3503 3503 3468 3468
    3433 3816 3774 3774 3774 3732 3732 3732 3732 3732 3732 3732 3692
    3692 3692 3692 3653 3653 3653 3653 3653 3653 3692 3692 3692 1019
    1013 1007 1004 1001 1001 998 995 995 995 1001 1004 1004 1007 1007
    1010 1010 1013 1016 1019 1019 1034 1034 1034 1028 1028 1028 1028
    3433 3433 3816 3774 3774 3774 3732 3732 3732 3732 3732 3732 3732
    3692 3692 3692 3692 3653 3653 3653 3653 3653 1054 1054 1041 1041
    1019 1013 1007 1004 1001 998 998 995 995 995 1001 1004 1004 1007
    1007 1010 1013 1013 1016 1016 1019 1025 1028 1028 1028 1028 1028
    1028 1028 3468 3816 3774 3774 3774 3732 3732 3732 3732 3732 3732
    3732 3732 3692 3653 3653 3653 3653 3653 1063 1063 1054 1054 1047
    1041 1025 1016 1010 1004 1001 998 998 998 998 998 1001 1001 1004
    1004 1007 1007 1013 1013 1016 1016 1016 1019 1022 1025 1025 1028
    1025 1025 1025 1028 3816 3774 3774 3774 3732 3732 3732 3732 3732
    3732 3732 3774 3732 3653 3653 3653 1108 1108 1063 1063 1057 1050
    1047 1041 1025 1016 1007 1004 1001 998 995 995 998 998 998 1001 1004
    1004 1007 1007 1013 1013 1016 1016 1016 1019 1019 1025 1025 1028
    1025 1025 1028 1028 3816 3816 3774 3732 3732 3732 3732 3732 3732
    3732 3774 3816 3816 3816 1108 1108 1108 1108 1070 1063 1057 1050
    1047 1041 1025 1016 1007 1004 1001 998 995 995 995 998 998 1001 1001
    1001 1004 1004 1013 1013 1013 1016 1016 1016 1016 1019 1025 1028
    1028 1028 1028 1028 3816 3816 3774 3732 3692 3692 3692 3774 3816
    3816 3816 1123 1115 1115 1101 1097 1090 1073 1070 1063 1057 1050
    1047 1041 1025 1013 1007 1001 998 998 995 995 995 995 998 998 1001
    1001 1004 1004 1010 1013 1013 1016 1016 1016 1016 1019 1025 1025
    1028 1028 1028 1028 3816 3774 3774 3732 3692 3692 3692 3692 3692
    1126 1126 1123 1123 1115 1101 1097 1090 1073 1070 1063 1054 1047
    1041 1025 1019 1013 1007 1001 998 995 992 992 992 995 995 998 1001
    1001 1001 1004 1007 1010 1013 1016 1016 1016 1016 1016 1022 1025
    1025 1028 1028 1028 3774 3774 3732 3732 3732 3732 3732 3732 0 1138
    1126 1126 1119 1115 1101 1094 1087 1080 1070 1060 1054 1047 1041
    1022 1016 1013 1004 998 995 992 992 992 992 992 995 998 998 1001
    1001 1001 1007 1010 1013 1013 1016 1016 1016 1016 1019 1022 1025
    1025 1025 1025 3774 3774 3732 3732 0 0 1181 1181 1149 1138 1138 1126
    1119 1115 1097 1094 1087 1077 1067 1060 1050 1047 1041 1022 1016
    1013 1004 998 995 992 989 989 989 989 992 995 998 1001 1001 1001
    1004 1007 1013 1013 1013 1016 1016 1016 1019 1019 1025 1025 1025
    1025 3774 3816 3816 0 1181 1181 1181 1181 1149 1141 1138 1126 1123
    1115 1097 1094 1087 1073 1067 1057 1050 1047 1041 1025 1019 1013
    1004 998 995 989 989 989 989 989 992 995 995 998 998 1001 1004 1004
    1007 1010 1013 1013 1013 1016 1016 1019 1022 1025 1025 1025 3774 0
    3774 0 1189 1181 1169 1157 1149 1141 1138 1130 1123 1105 1094 1090
    1084 1073 1067 1057 1050 1047 1038 1025 1019 1013 1004 998 995 989
    989 989 989 989 992 995 995 995 998 1001 1004 1004 1004 1007 1007
    1010 1013 1016 1016 1016 1022 1025 1025 1025 3774 3774 0 1189 1189
    1181 1169 1157 1149 1141 1134 1130 1123 1097 1094 1090 1080 1070
    1067 1057 1050 1044 1038 1025 1019 1013 1004 998 992 989 987 987 987
    989 992 992 995 995 995 1001 1001 1004 1004 1007 1007 1010 1013 1013
    1013 1016 1019 1022 1025 1028 3859 3859 0 1185 1185 1177 1169 1157
    1149 1141 1134 1130 1123 1097 1094 1087 1080 1070 1063 1057 1050
    1044 1038 1025 1016 1013 1007 998 989 987 984 984 987 989 992 992
    995 995 995 998 1001 1004 1004 1007 1007 1010 1013 1013 1013 1013
    1016 1022 1025 1025 0 0 0 0 1185 1177 1165 1157 1149 1141 1134 1126
    1119 1097 1094 1087 1077 1070 1063 1057 1050 1041 1034 1022 1016
    1013 1007 998 989 987 984 984 984 987 992 992 992 992 995 998 1001
    1001 1004 1004 1007 1010 1013 1013 1013 1013 1016 1022 1022 1025 0 0
    1202 0 1185 1177 1165 1153 1149 1141 1134 1123 1105 1097 1094 1084
    1077 1070 1063 1054 1050 1041 1028 1022 1013 1010 1004 995 989 987
    984 984 984 987 992 992 992 992 995 998 1001 1001 1004 1004 1004
    1007 1013 1013 1013 1013 1016 1019 1022 1022 0 0 1202 1189 1181 1173
    1165 1153 1149 1138 1134 1123 1105 1101 1090 1084 1077 1070 1060
    1054 1047 1041 1025 1019 1013 1007 1001 995 987 987 984 981 981 987
    992 992 992 992 995 998 1001 1001 1001 1004 1004 1007 1010 1010 1013
    1013 1016 1019 1022 1022 0 0 1202 1189 1181 1173 1165 1153 1145 1138
    1130 1123 1105 1101 1090 1084 1077 1067 1057 1050 1047 1041 1025
    1019 1013 1007 1001 995 987 984 981 981 981 989 992 992 992 992 995
    998 1001 1001 1001 1001 1004 1004 1007 1010 1013 1013 1016 1016 1019
    1022 0 0 1202 1189 1181 1173 1165 1153 1145 1138 1130 1119 1105 1097
    1090 1084 1077 1067 1054 1050 1047 1041 1025 1019 1013 1004 998 992
    984 981 981 981 981 989 989 989 992 992 995 998 1001 1001 1001 1001
    1004 1004 1007 1010 1010 1013 1016 1016 1019 1022 0 0 0 1189 1177
    1173 1165 1153 1141 1134 1126 1119 1101 1094 1087 1080 1073 1063
    1054 1050 1044 1038 1022 1016 1013 1004 998 992 984 981 981 981 981
    987 989 989 989 992 992 995 998 1001 1001 1001 1004 1004 1007 1010
    1010 1013 1016 1016 1019 1022 0 0 0 1189 1177 1173 1161 1149 1138
    1134 1126 1119 1101 1094 1087 1080 1073 1063 1054 1050 1044 1038
    1022 1016 1010 1004 998 989 984 981 981 981 981 984 987 989 989 992
    992 995 998 998 1001 1001 1004 1004 1007 1010 1013 1013 1013 1016
    1019 1022 0 0 1202 1185 1177 1165 1157 1149 1138 1134 1126 1115 1101
    1090 1084 1077 1073 1063 1057 1047 1041 1038 1022 1016 1007 1004 998
    989 984 981 981 981 981 984 984 987 987 989 992 992 992 995 998 998
    1001 1001 1004 1004 1007 1010 1013 1013 1016 1016 0 0 1189 1181 1173
    1165 1157 1149 1141 1134 1123 1115 1097 1090 1084 1077 1073 1063
    1054 1047 1041 1028 1022 1016 1007 1004 998 989 981 981 978 978 981
    984 984 987 987 989 989 992 992 992 995 998 1001 1001 1004 1004 1007
    1010 1013 1013 1016 1016 0 0 1185 1177 1169 1161 1157 1149 1145 1134
    1119 1105 1097 1090 1084 1077 1070 1063 1054 1041 1041 1028 1022
    1016 1007 1004 998 987 981 981 978 978 981 981 981 984 984 987 989
    992 992 992 995 998 1001 1001 1004 1004 1004 1007 1010 1013 1016
    1016 0 0 1185 1177 1169 1161 1157 1149 1138 1134 1119 1101 1094 1090
    1084 1077 1070 1063 1054 1041 1028 1025 1019 1013 1007 1001 995 987
    981 978 978 978 978 981 981 984 984 987 989 989 989 992 992 995 1001
    1001 1004 1004 1004 1007 1010 1013 1013 1013 0 0 1185 1177 1169 1161
    1157 1145 1138 1130 1126 1101 1094 1090 1087 1077 1070 1063 1054
    1041 1028 1025 1019 1013 1007 998 992 984 981 978 978 978 978 978
    981 981 984 987 989 989 989 992 992 995 998 1001 1001 1004 1004 1004
    1007 1010 1013 1013 0 0 1185 1177 1169 1161 1153 1145 1138 1130 1123
    1097 1094 1090 1084 1077 1067 1063 1050 1041 1028 1025 1019 1013
    1004 998 989 984 981 978 975 975 975 978 978 981 984 984 989 989 989
    992 992 995 998 998 1001 1001 1004 1004 1004 1007 1010 1010 0 0 1185
    1177 1169 1161 1153 1145 1138 1130 1123 1097 1094 1090 1084 1077
    1067 1063 1050 1041 1028 1025 1019 1013 1001 995 989 981 978 975 973
    973 975 978 978 981 981 981 987 987 989 992 992 995 995 998 1001
    1001 1001 1001 1004 1007 1010 1010 0 1189 1185 1177 1169 1157 1153
    1145 1134 1126 1119 1097 1094 1090 1084 1073 1067 1060 1054 1041
    1028 1022 1016 1010 1001 995 989 981 978 973 973 973 975 978 981 981
    981 981 981 987 989 989 992 992 992 995 998 1001 1001 1001 1004 1007
    1010 1010 0 1185 1185 1177 1165 1157 1149 1141 1130 1123 1119 1097
    1090 1090 1080 1073 1067 1060 1050 1044 1028 1022 1016 1010 1001 995
    992 984 978 970 970 970 973 975 978 978 981 981 981 984 989 989 992
    992 992 995 998 1001 1001 1001 1004 1007 1010 1013 0 1185 1181 1169
    1165 1153 1149 1141 1130 1123 1119 1097 1090 1084 1080 1073 1067
    1057 1047 1041 1028 1022 1016 1010 1001 998 992 981 978 970 970 970
    973 975 978 978 981 981 981 984 987 989 992 992 992 995 998 1001
    1001 1001 1001 1004 1007 1013 0 1181 1173 1165 1161 1153 1145 1141
    1130 1123 1115 1097 1090 1084 1077 1070 1063 1054 1044 1038 1028
    1019 1013 1007 1001 998 992 981 973 970 970 970 973 975 978 978 978
    978 981 984 987 989 989 992 992 992 995 998 998 998 1001 1004 1007
    1007 0 1181 1173 1165 1161 1153 1145 1141 1130 1119 1105 1094 1087
    1080 1077 1067 1063 1054 1044 1038 1025 1019 1013 1007 1001 995 989
    981 973 970 970 970 970 973 978 978 978 978 981 981 984 987 989 989
    992 992 992 995 995 998 1001 1004 1004 1007 0 1173 1173 1165 1157
    1153 1145 1138 1130 1119 1101 1094 1087 1080 1077 1067 1063 1050
    1041 1038 1025 1016 1010 1004 998 992 989 981 970 970 970 970 970
    973 978 978 978 978 978 981 981 987 989 989 989 992 992 995 995 998
    1001 1001 1004 1010 0 1185 1173 1165 1157 1153 1145 1138 1130 1119
    1101 1094 1087 1080 1077 1070 1063 1050 1041 1028 1025 1016 1010
    1004 998 992 989 981 970 967 967 967 970 973 975 975 978 978 978 981
    981 984 987 989 989 989 992 992 995 995 1001 1001 1004 0 0 1181 1177
    1169 1157 1153 1145 1134 1130 1115 1101 1090 1087 1080 1073 1067
    1063 1050 1041 1028 1025 1016 1010 1004 995 992 987 978 967 967 967
    967 967 970 973 975 975 978 978 978 981 981 984 987 989 989 992 992
    995 995 998 998 1004 0 0 1181 1173 1165 1157 1153 1141 1134 1126
    1115 1101 1090 1087 1077 1070 1063 1060 1050 1041 1028 1022 1016
    1010 1001 995 989 987 978 967 967 967 967 967 970 970 973 975 978
    978 978 978 981 984 984 987 987 989 992 992 995 995 998 1001 0 0
    1181 1173 1165 1153 1149 1141 1134 1126 1119 1101 1090 1084 1077
    1070 1063 1057 1050 1041 1028 1022 1016 1010 1001 992 989 984 978
    967 967 964 964 967 970 970 973 973 975 978 978 978 981 984 984 987
    987 989 992 992 995 995 998 1001 0 0 1181 1173 1165 1153 1145 1138
    1126 1119 1115 1105 1094 1080 1077 1070 1063 1057 1047 1038 1025
    1022 1013 1004 1001 992 989 984 978 967 964 964 964 967 970 970 970
    973 973 975 978 978 981 981 984 987 987 989 992 992 995 995 998 1001
    1001 0 1177 1169 1161 1153 1145 1138 1126 1119 1115 1097 1090 1080
    1073 1070 1060 1054 1044 1038 1025 1022 1013 1004 998 992 989 984
    970 967 964 964 964 967 970 970 970 970 973 975 978 978 981 981 984
    987 987 989 989 992 992 995 995 1001 1001 1189 1177 1169 1161 1149
    1145 1138 1126 1115 1112 1097 1087 1080 1073 1067 1060 1054 1044
    1038 1025 1022 1007 1001 998 992 987 981 970 967 964 964 964 967 970
    970 970 970 970 973 978 978 981 981 981 987 987 989 989 989 992 995
    995 998 998 1189 1173 1165 1157 1149 1145 1134 1126 1115 1105 1094
    1084 1080 1073 1067 1060 1054 1044 1028 1025 1019 1007 1001 995 989
    984 981 970 967 964 964 964 967 967 970 970 970 970 973 975 978 978
    981 981 984 987 989 989 989 989 995 995 998 998 1181 1173 1165 1157
    1149 1141 1134 1126 1115 1105 1094 1084 1077 1073 1067 1060 1054
    1044 1028 1025 1019 1010 1001 992 987 981 975 967 962 962 959 959
    964 967 967 970 970 970 973 975 975 978 981 981 981 984 984 987 989
    989 992 995 995 995 1181 1169 1165 1157 1149 1141 1134 1123 1115
    1105 1094 1084 1077 1070 1063 1060 1050 1044 1028 1022 1016 1010
    1004 992 987 981 975 964 962 962 959 959 962 964 967 967 967 970 973
    975 975 978 978 978 981 981 984 987 989 989 989 992 992 992 0 1169
    1161 1153 1149 1141 1134 1123 1112 1101 1090 1084 1077 1070 1063
    1054 1050 1041 1025 1022 1016 1010 1004 992 987 981 978 964 959 959
    959 959 962 962 964 967 967 967 970 970 975 978 978 978 981 981 984
    987 989 989 989 989 989 992 0 1165 1157 1153 1149 1141 1130 1123
    1112 1101 1090 1084 1077 1067 1060 1054 1047 1041 1025 1019 1013
    1010 1004 992 987 981 970 962 959 959 959 959 959 962 962 964 967
    967 970 970 973 975 978 978 981 981 984 987 987 987 989 989 989 0 0
    1161 1153 1149 1145 1138 1130 1123 1115 1097 1090 1084 1077 1067
    1060 1054 1047 1041 1028 1016 1010 1007 1001 992 987 981 970 962 959
    959 956 956 959 962 962 964 964 967 970 970 970 973 975 978 978 981
    984 984 987 987 989 989 989 995 0 1161 1153 1149 1145 1138 1126 1119
    1105 1094 1090 1084 1077 1067 1060 1054 1047 1038 1025 1016 1010
    1004 1001 992 987 981 967 959 959 956 956 956 959 959 962 962 964
    967 967 970 970 970 973 975 978 981 981 981 984 987 989 989 992 992
    0 1161 1153 1149 1141 1134 1123 1119 1105 1094 1090 1084 1073 1063
    1057 1054 1047 1038 1025 1019 1013 1004 1001 989 984 978 967 959 956
    956 956 956 959 959 959 962 964 964 967 967 970 970 973 975 978 978
    981 981 984 987 989 989 989 992 0 1165 1153 1149 1141 1134 1123 1119
    1105 1094 1084 1080 1070 1063 1057 1054 1044 1028 1022 1016 1010
    1001 998 989 984 978 967 959 956 956 956 956 956 959 959 962 962 964
    967 967 967 970 970 973 978 978 981 981 981 984 987 989 989 992 1181
    1165 1157 1153 1145 1134 1123 1115 1105 1094 1084 1077 1070 1063
    1057 1054 1044 1028 1022 1016 1007 1001 998 989 984 978 964 959 956
    956 956 956 956 959 959 959 962 962 964 967 967 970 970 973 975 978
    978 978 981 981 984 989 989 992 1181 1161 1153 1149 1141 1134 1123
    1115 1101 1094 1084 1077 1067 1063 1057 1050 1047 1028 1022 1013
    1007 1001 995 987 981 975 964 959 956 956 956 956 956 959 959 959
    959 962 964 967 967 970 970 973 973 975 978 978 981 981 984 987 987
    992 1181 1157 1153 1149 1141 1134 1123 1105 1101 1094 1084 1073 1067
    1063 1057 1050 1044 1028 1019 1013 1007 1001 995 987 981 975 967 956
    954 954 954 954 954 956 959 959 959 962 962 967 967 967 970 970 973
    973 975 975 978 981 981 984 984 987 1173 1157 1153 1145 1141 1134
    1123 1105 1101 1094 1084 1073 1067 1063 1057 1050 1044 1028 1019
    1013 1007 1001 992 987 981 973 964 956 954 954 954 954 954 956 956
    956 959 959 962 964 967 967 967 970 973 973 973 973 975 978 981 984
    984 987 1169 1157 1153 1145 1138 1130 1123 1105 1101 1090 1080 1073
    1063 1057 1054 1050 1041 1025 1016 1013 1004 998 992 987 978 970 964
    956 951 951 951 951 954 956 956 956 959 959 959 962 964 967 967 970
    973 973 973 973 975 978 981 981 984 987 1169 1157 1153 1145 1134
    1126 1119 1105 1097 1090 1080 1073 1063 1057 1050 1047 1028 1022
    1016 1010 1004 998 992 987 978 967 962 954 951 951 951 951 951 956
    956 956 956 959 959 962 964 964 967 970 973 973 973 973 975 975 978
    981 981 984 1165 1157 1153 1141 1134 1126 1119 1101 1094 1087 1080
    1073 1063 1054 1047 1044 1028 1022 1016 1010 1004 998 992 987 978
    967 959 954 951 951 948 948 951 954 956 956 956 956 959 959 964 964
    967 967 970 970 973 973 975 975 975 978 981 981 1161 1153 1145 1138
    1126 1123 1119 1097 1094 1087 1077 1070 1063 1054 1047 1044 1028
    1022 1016 1010 1004 995 989 984 973 967 959 954 951 948 948 948 948
    954 956 956 956 956 959 959 962 964 967 967 970 970 970 973 973 975
    975 978 978 981 1157 1153 1145 1138 1126 1123 1105 1097 1090 1087
    1077 1070 1063 1054 1047 1041 1028 1019 1016 1007 1001 992 989 984
    973 964 959 954 948 948 948 948 948 951 954 956 956 956 956 959 962
    964 964 967 970 970 970 970 970 973 975 978 978 978 1153 1149 1145
    1138 1126 1123 1101 1097 1090 1087 1073 1067 1060 1054 1047 1041
    1028 1019 1016 1004 998 992 989 981 967 962 956 951 948 946 946 946
    946 948 954 954 956 956 956 959 959 962 964 964 967 970 970 970 970
    973 975 978 978 978 1153 1149 1145 1134 1126 1123 1101 1094 1090
    1084 1073 1067 1060 1054 1047 1041 1028 1016 1013 1004 998 995 989
    981 964 959 956 951 948 946 946 946 946 948 948 954 954 954 956 959
    959 962 964 964 967 970 970 970 970 973 978 978 978 978 1153 1149
    1145 1134 1126 1123 1101 1094 1087 1080 1073 1067 1060 1054 1047
    1034 1025 1016 1013 1007 1001 995 987 978 964 959 956 951 948 946
    946 946 946 948 948 951 954 954 956 956 959 959 962 964 967 967 970
    970 970 973 975 978 978 978 1161 1153 1141 1134 1126 1123 1101 1094
    1087 1080 1070 1067 1060 1054 1047 1034 1022 1016 1010 1004 998 992
    987 978 967 962 956 951 948 946 946 946 946 948 948 951 951 951 956
    956 956 959 959 962 964 967 967 970 970 973 975 978 978 978 1153
    1149 1138 1134 1126 1119 1105 1094 1087 1080 1070 1067 1060 1054
    1041 1034 1022 1016 1010 1004 998 992 987 975 967 962 956 951 948
    946 943 943 946 946 948 948 948 951 954 956 956 956 959 962 962 964
    964 967 970 973 975 978 978 978 1153 1149 1138 1130 1123 1119 1105
    1094 1087 1077 1067 1063 1060 1054 1041 1034 1022 1016 1007 1001 995
    989 987 975 967 964 956 948 946 943 943 943 946 946 948 948 948 948
    951 954 956 956 959 962 962 964 964 967 967 970 973 975 975 978 1149
    1145 1138 1130 1123 1115 1101 1094 1087 1073 1067 1063 1054 1050
    1044 1031 1022 1013 1004 998 992 989 984 970 962 959 954 946 943 940
    940 940 946 946 948 948 948 948 948 951 954 956 959 959 959 962 964
    964 967 970 970 973 975 978 1149 1141 1138 1130 1123 1105 1097 1094
    1087 1073 1067 1060 1054 1047 1044 1031 1022 1013 1004 998 992 989
    984 970 962 959 954 946 943 940 940 940 943 946 946 946 948 948 948
    951 954 956 959 959 959 962 964 964 967 967 967 970 970 973 1145
    1138 1138 1130 1123 1101 1097 1090 1087 1073 1063 1057 1054 1047
    1038 1028 1019 1013 1004 998 992 987 981 967 959 956 954 946 943 940
    940 940 943 943 946 946 946 948 948 951 954 956 956 959 959 962 964
    967 967 967 967 970 970 970 1141 1138 1134 1130 1119 1101 1094 1090
    1084 1073 1063 1057 1050 1047 1034 1025 1019 1013 1004 998 992 987
    981 964 959 956 954 946 940 938 938 938 940 940 943 943 946 946 948
    951 951 954 956 959 959 962 964 967 967 967 967 967 970 970 1141
    1138 1134 1126 1119 1101 1094 1090 1084 1070 1063 1054 1050 1047
    1034 1025 1016 1013 1004 998 992 989 973 964 962 956 951 946 940 938
    938 938 938 940 943 943 946 946 948 951 951 954 954 956 959 962 964
    967 967 967 967 967 967 967 1141 1138 1134 1126 1119 1101 1094 1087
    1080 1070 1060 1054 1050 1047 1031 1025 1016 1010 1004 998 992 987
    973 964 959 954 948 940 938 935 935 935 938 940 943 943 943 946 948
    948 951 951 954 954 956 959 962 964 967 967 967 967 967 967 1138
    1134 1134 1130 1115 1097 1094 1087 1077 1070 1060 1054 1050 1044
    1031 1025 1016 1010 1004 995 989 987 973 964 959 954 948 938 935 935
    935 935 938 938 940 943 943 946 948 948 951 951 951 954 956 959 959
    962 962 962 964 967 970 970 1138 1134 1130 1123 1105 1094 1090 1084
    1077 1067 1063 1054 1050 1041 1028 1022 1013 1010 1001 995 989 987
    973 964 959 954 946 938 935 935 935 935 938 938 940 940 943 946 948
    948 951 951 951 954 956 956 959 959 959 959 962 964 967 970 1138
    1134 1126 1119 1105 1094 1087 1084 1073 1067 1063 1054 1050 1034
    1028 1022 1013 1007 1001 992 989 984 973 964 959 954 946 938 935 935
    935 935 935 938 940 940 940 943 946 948 948 948 951 951 954 956 956
    956 959 959 959 962 967 970 1138 1134 1126 1119 1105 1094 1087 1080
    1073 1067 1060 1054 1050 1031 1022 1016 1013 1007 998 992 989 981
    970 964 956 948 946 938 935 935 935 935 935 938 938 938 940 943 943
    946 948 948 951 951 954 956 956 956 956 959 959 962 964 967 1138
    1134 1126 1119 1105 1094 1087 1077 1070 1063 1057 1054 1050 1028
    1019 1013 1010 1004 998 989 984 975 970 964 956 948 946 940 935 935
    935 935 935 935 938 938 940 943 943 946 948 948 951 951 954 954 956
    956 956 956 959 959 962 964 1138 1134 1126 1115 1105 1097 1087 1077
    1070 1063 1057 1050 1041 1028 1019 1013 1007 1001 995 989 984 975
    970 964 954 948 946 938 935 935 933 933 935 935 938 938 940 943 943
    946 946 948 948 951 951 954 956 956 956 956 956 956 959 962 1134
    1130 1126 1115 1101 1094 1087 1077 1067 1060 1054 1050 1041 1028
    1019 1013 1007 1001 995 989 981 973 970 964 954 948 946 938 935 930
    930 933 935 935 935 938 940 940 943 943 946 946 948 948 951 954 956
    956 956 956 956 956 959 962 1134 1130 1123 1115 1101 1094 1087 1077
    1067 1060 1054 1047 1041 1028 1019 1013 1004 1001 995 989 981 970
    967 962 951 948 943 938 935 930 930 930 933 935 935 935 938 938 940
    940 943 946 948 948 951 954 954 956 956 956 956 956 956 962 1134
    1126 1119 1115 1101 1090 1084 1073 1067 1063 1054 1047 1038 1025
    1019 1013 1004 1001 995 989 984 970 967 959 951 946 943 938 933 928
    928 930 930 933 935 935 935 935 938 938 940 946 948 948 948 948 951
    954 956 956 956 956 956 959 1130 1126 1119 1105 1097 1090 1080 1073
    1067 1063 1057 1047 1031 1025 1016 1013 1004 1001 995 989 973 967
    964 956 951 946 943 935 930 928 928 928 930 933 933 933 935 935 938
    938 940 943 946 946 948 948 948 948 954 954 956 956 959 959 1130
    1123 1119 1101 1097 1090 1080 1077 1070 1063 1050 1044 1028 1025
    1016 1013 1007 1001 995 987 973 967 962 956 951 946 940 935 930 928
    928 928 928 933 933 933 935 935 938 938 938 943 946 946 946 948 948
    948 951 951 956 956 956 959 1126 1123 1119 1101 1094 1087 1080 1073
    1070 1063 1047 1041 1028 1022 1016 1013 1007 998 992 984 973 967 962
    956 951 946 940 935 928 928 925 925 928 930 933 933 935 935 935 938
    938 943 946 946 946 946 948 948 948 951 951 954 956 962 1126 1123
    1119 1101 1094 1087 1080 1073 1067 1057 1047 1041 1028 1022 1016
    1013 1007 995 992 984 973 967 959 956 951 946 938 935 925 925 925
    925 928 930 933 933 933 935 935 938 938 940 943 946 946 946 946 948
    948 948 951 954 956 0 1126 1123 1119 1101 1094 1087 1080 1070 1067
    1057 1047 1041 1028 1019 1016 1010 1004 995 989 984 973 967 959 956
    951 943 938 933 925 925 925 925 928 930 930 930 933 933 935 938 938
    938 940 943 946 946 946 948 948 948 951 954 956 959 1123 1123 1119
    1101 1094 1084 1077 1070 1063 1057 1047 1034 1025 1019 1016 1010
    1001 995 989 981 973 967 962 956 948 940 935 930 925 925 925 925 925
    928 930 930 930 933 933 935 938 938 940 940 943 946 946 946 948 948
    951 954 956 959 1123 1119 1115 1097 1090 1084 1077 1070 1063 1057
    1047 1031 1025 1019 1016 1010 1001 992 989 981 970 964 959 954 946
    938 935 930 925 925 925 925 925 928 928 928 930 933 933 935 935 938
    938 938 940 943 946 946 948 948 951 956 956 959 1123 1119 1115 1097
    1090 1080 1077 1070 1063 1054 1047 1031 1025 1016 1013 1007 1001 992
    989 975 970 964 959 954 943 938 935 930 925 925 925 925 925 928 928
    928 933 933 933 935 935 935 938 938 940 943 943 946 946 948 951 956
    956 956 1119 1119 1105 1094 1087 1080 1077 1070 1060 1054 1044 1034
    1025 1016 1013 1004 998 992 989 975 970 964 959 954 943 938 935 930
    923 923 923 923 925 925 928 928 930 933 933 935 935 935 938 938 940
    940 940 943 946 948 951 954 956 954 1115 1115 1101 1094 1087 1080
    1077 1070 1060 1050 1044 1031 1025 1019 1013 1004 998 992 987 975
    967 962 959 951 943 938 935 925 923 920 920 923 925 925 928 928 928
    930 933 933 935 935 935 938 940 940 940 943 943 948 951 951 954 951
    1115 1115 1097 1094 1087 1080 1077 1070 1060 1047 1041 1031 1025
    1019 1010 1004 998 992 987 975 967 959 954 948 943 938 935 925 920
    918 918 920 923 925 925 925 928 928 930 930 933 935 935 938 938 940
    940 940 940 946 948 951 951 948 1115 1105 1094 1090 1087 1080 1077
    1063 1057 1047 1034 1028 1025 1016 1010 1004 998 989 984 970 967 959
    954 948 943 940 935 923 918 918 918 920 923 923 925 925 925 928 930
    930 933 933 935 938 938 938 940 940 940 943 948 951 951 948 1115
    1105 1094 1090 1087 1080 1077 1063 1054 1047 1031 1025 1022 1013
    1007 1004 998 989 984 970 964 959 951 948 943 938 935 920 918 918
    918 920 920 923 923 923 925 928 928 930 933 933 935 935 938 938 940
    940 940 943 946 946 948 948 3503 1105 1094 1090 1087 1080 1077 1063
    1054 1050 1031 1025 1019 1013 1007 1004 998 987 975 970 964 959 951
    948 943 938 933 920 918 918 918 918 920 923 923 923 925 928 928 930
    933 933 935 935 938 938 940 940 946 946 946 946 948 948 3468 3433
    3433 3399 3399 1080 1077 1077 3399 3399 1031 1025 1019 1013 1007
    1004 998 984 973 970 964 959 954 946 943 935 930 920 918 918 918 918
    918 920 923 923 925 925 928 928 930 933 933 935 935 938 940 940 946
    946 946 946 948 948 3468 3433 3433 3399 3399 1080 1077 1077 3399
    3399 3399 1028 1028 1028 0 0 984 984 973 970 964 962 954 946 943 935
    925 920 918 915 915 918 918 920 920 920 923 923 925 928 930 933 933
    935 935 935 938 940 946 946 946 946 948 948 3503 3503 3433 3399 3365
    3365 3433 3433 3433 3433 3399 3399 3399 3399 0 0 3399 0 0 0 3399
    3333 3333 3333 946 938 925 920 918 915 915 918 918 920 918 918 920
    923 925 925 930 930 933 933 935 935 935 935 946 946 946 946 948 948
    3503 3503 3433 3365 3365 3365 3433 3468 3433 3433 3399 3399 3399
    3399 0 0 0 0 0 0 3333 3333 3333 3365 3333 3333 3365 920 920 918 918
    918 918 920 918 918 918 918 925 925 930 930 933 933 935 935 935 935
    3178 946 946 946 951 951</data></Depth6329>
</opencv_storage>
