<?xml version="1.0"?>
<opencv_storage>
<Depth5874 type_id="opencv-matrix">
  <rows>60</rows>
  <cols>46</cols>
  <dt>w</dt>
  <data>
    4522 4522 4522 4582 4522 4522 4582 4582 4645 1722 1722 1713 1713
    1705 1705 1713 1713 4774 4774 4842 4774 4774 4774 4842 4842 4842
    4842 4842 4911 4911 4983 4983 4983 4983 4983 4983 4983 4983 4983
    4983 5056 5056 5056 5056 5056 5132 4522 4463 4463 4463 4522 4522
    4582 4645 1731 1713 1713 1705 1705 1705 1705 1713 1713 1722 1722
    1722 4842 4842 4842 4842 4842 4911 4911 4911 4983 4983 4983 4983
    4983 4983 4983 4983 4983 4983 4983 4983 5056 5056 5056 5056 5056
    5056 4522 4463 4463 4463 4522 4522 4522 1731 1722 1713 1713 1705
    1705 1705 1713 1713 1722 1722 1722 1722 1713 1713 1713 1722 1722
    1731 4911 4911 4983 4983 4983 4983 4983 4983 5056 4983 4983 4983
    4983 4983 5056 5056 5056 5056 5056 5056 4522 4463 4463 4522 4522
    4522 1731 1731 1722 1713 1705 1705 1705 1705 1705 1713 1713 1722
    1722 1722 1713 1713 1713 1722 1722 1731 1722 1722 4983 4983 1731
    1731 4983 4983 4983 4983 4983 4983 4983 4983 5056 5056 5056 5056
    5056 5056 4522 4463 4463 4522 4522 4522 1731 1731 1731 1713 1705
    1705 1705 1705 1705 1713 1713 1722 1722 1722 1722 1722 1722 1722
    1722 1731 1722 1722 1731 1731 1731 1731 1731 1731 1739 4983 4983
    4983 4983 4983 5056 5056 5056 4983 4983 5056 4463 4463 4463 4522
    4582 4582 1731 1731 1722 1713 1713 1713 1713 1713 1713 1713 1713
    1713 1713 1713 1713 1713 1713 1722 1722 1731 1731 1731 1731 1731
    1731 1731 1731 1731 1739 1739 1731 1731 1731 4983 5056 4983 4983
    4983 4983 5056 4463 4463 4463 4522 4522 1748 1731 1731 1722 1713
    1713 1713 1713 1713 1713 1722 1722 1713 1713 1713 1713 1713 1713
    1722 1722 1731 1731 1731 1731 1731 1739 1739 1739 1739 1739 1739
    1731 1731 1731 1739 1739 1748 1739 1731 1731 5056 4463 4463 4463
    4463 4463 1748 1748 1731 1722 1713 1713 1713 1705 1705 1713 1713
    1713 1713 1713 1713 1713 1722 1722 1722 1731 1731 1731 1731 1731
    1731 1739 1739 1739 1739 1739 1739 1731 1731 1731 1739 1739 1739
    1739 1731 1731 1731 4463 4463 4463 4463 4463 1731 1731 1722 1722
    1713 1713 1713 1705 1705 1705 1713 1713 1722 1722 1722 1722 1722
    1722 1722 1722 1739 1731 1731 1731 1731 1731 1731 1739 1739 1739
    1739 1739 1739 1739 1739 1739 1739 1739 1739 1731 1731 4463 4463
    4463 4463 4463 1722 1722 1713 1713 1705 1705 1713 1705 1705 1705
    1713 1713 1722 1722 1722 1722 1722 1722 1722 1722 1731 1731 1731
    1731 1731 1731 1731 1739 1739 1739 1739 1739 1739 1739 1739 1739
    1739 1739 1739 1739 1748 4463 4463 4405 4405 4405 1722 1722 1713
    1713 1705 1705 1713 1705 1705 1713 1713 1722 1722 1722 1722 1722
    1722 1722 1722 1722 1731 1731 1731 1731 1731 1731 1731 1739 1739
    1739 1739 1739 1739 1739 1739 1739 1739 1739 1739 1739 1748 4463
    4463 4405 4405 4405 1731 1722 1713 1713 1705 1705 1713 1713 1713
    1713 1713 1722 1722 1722 1722 1722 1722 1722 1722 1722 1731 1731
    1731 1731 1731 1731 1731 1739 1739 1739 1739 1739 1739 1739 1739
    1739 1739 1739 1739 1739 1748 4463 4463 4463 4463 1731 1731 1722
    1713 1713 1705 1705 1713 1713 1713 1713 1713 1722 1722 1722 1722
    1722 1722 1722 1722 1722 1731 1731 1731 1731 1731 1731 1731 1739
    1739 1739 1739 1739 1739 1739 1748 1748 1739 1739 1739 1739 1739
    4522 4463 4463 4463 1739 1731 1731 1722 1713 1705 1705 1713 1713
    1713 1713 1722 1722 1722 1722 1722 1722 1722 1722 1722 1722 1731
    1731 1731 1731 1731 1731 1739 1739 1739 1739 1739 1739 1739 1739
    1739 1748 1739 1739 1739 1739 1739 4522 4522 4522 4522 1739 1731
    1731 1722 1722 1713 1713 1713 1713 1713 1713 1722 1722 1722 1722
    1722 1722 1722 1722 1722 1722 1731 1731 1731 1731 1731 1731 1739
    1739 1739 1739 1739 1739 1739 1739 1739 1748 1739 1739 1739 1739
    1739 4582 4522 4522 4522 1739 1739 1731 1722 1722 1722 1713 1713
    1713 1713 1713 1722 1722 1722 1722 1722 1722 1722 1722 1722 1731
    1731 1731 1731 1731 1731 1739 1739 1748 1739 1739 1739 1739 1739
    1739 1739 1739 1739 1739 1739 1739 1739 4582 4522 4522 4522 1748
    1748 1731 1722 1722 1722 1722 1713 1713 1713 1722 1722 1722 1722
    1722 1722 1722 1722 1722 1722 1731 1731 1731 1731 1731 1731 1739
    1739 1739 1739 1739 1739 1739 1739 1739 1739 1739 1739 1739 1739
    1739 1739 4582 4522 4522 4522 1748 1748 1731 1722 1722 1722 1722
    1722 1713 1713 1722 1722 1722 1722 1722 1722 1722 1722 1722 1722
    1731 1739 1731 1731 1739 1739 1739 1739 1739 1739 1739 1739 1739
    1739 1739 1739 1739 1739 1739 1739 1739 1739 4582 4522 4522 4522
    1748 1748 1731 1722 1722 1722 1722 1722 1722 1722 1722 1722 1722
    1722 1722 1722 1722 1722 1722 1722 1731 1731 1731 1731 1739 1739
    1739 1739 1739 1739 1739 1739 1739 1739 1739 1739 1739 1739 1739
    1739 1739 5210 4582 4522 4522 4522 1757 1739 1731 1722 1722 1722
    1722 1722 1722 1722 1722 1722 1722 1722 1722 1722 1722 1722 1722
    1722 1722 1731 1731 1731 1739 1739 1739 1739 1739 1739 1739 1739
    1739 1739 1739 1739 1739 1739 1739 1739 5056 5056 4522 4522 4522
    1766 1757 1731 1722 1722 1722 1722 1722 1722 1722 1722 1722 1722
    1722 1722 1722 1722 1722 1722 1722 1722 1722 1739 1731 1731 1731
    1739 1739 1739 1739 1739 1739 1739 1739 1739 1739 1739 1748 1748
    1748 1748 5056 5056 4463 4463 4463 1766 1739 1722 1722 1722 1722
    1722 1722 1722 1722 1722 1722 1722 1722 1722 1722 1722 1722 1722
    1722 1722 1731 1739 1731 1731 1731 1739 1739 1739 1739 1739 1739
    1739 1739 1739 1748 1748 1748 1748 1748 1748 5132 5132 4463 4463
    4463 1722 1722 1722 1722 1722 1722 1722 1722 1722 1722 1722 1722
    1722 1722 1722 1722 1722 1722 1722 1722 1722 1731 1739 1731 1731
    1731 1739 1739 1748 1739 1739 1739 1739 1739 1748 1748 1748 1748
    1748 1757 1766 1766 5132 4463 4463 4463 1722 1722 1713 1713 1722
    1722 1722 1722 1722 1722 1722 1722 1722 1722 1722 1722 1722 1722
    1722 1722 1722 1731 1739 1739 1731 1731 1739 1739 1739 1739 1739
    1739 1739 1748 1748 1748 1748 1748 1748 1748 1766 1766 5210 4463
    4463 4463 1776 1713 1713 1713 1722 1722 1722 1722 1722 1722 1722
    1722 1722 1722 1722 1722 1722 1722 1722 1722 1731 1731 1739 1739
    1739 1739 1739 1739 1739 1739 1739 1739 1739 1748 1748 1739 1739
    1739 1739 1739 1748 1748 5210 4463 4463 1794 1776 1739 1722 1722
    1722 1722 1722 1722 1722 1722 1722 1722 1722 1722 1722 1722 1722
    1722 1722 1722 1731 1731 1739 1739 1739 1739 1739 1739 1739 1739
    1739 1739 1739 1739 1748 1739 1739 1739 1731 1731 1748 1748 5291
    4463 4463 1785 1776 1739 1722 1722 1722 1722 1722 1722 1722 1722
    1722 1722 1722 1731 1722 1722 1722 1722 1722 1722 1731 1731 1739
    1739 1739 1739 1739 1739 1739 1739 1739 1739 1739 1739 1748 1739
    1739 1739 1731 1731 1731 5132 5132 4582 4582 1776 1748 1739 1731
    1722 1722 1722 1722 1722 1722 1722 1722 1722 1722 1722 1722 1722
    1722 1722 1722 1731 1731 1731 1739 1739 1739 1739 1739 1739 1739
    1739 1739 1739 1739 1739 1748 1748 1739 1739 1731 1731 1731 5132
    5132 4582 4582 1776 1739 1731 1731 1722 1722 1722 1722 1722 1722
    1722 1722 1722 1722 1722 1722 1722 1722 1731 1731 1731 1731 1731
    1739 1739 1739 1739 1739 1739 1739 1739 1739 1739 1739 1739 1739
    1748 1748 1748 1739 1739 1739 5210 5210 4582 4582 1731 1731 1731
    1722 1722 1722 1722 1722 1722 1722 1722 1722 1722 1722 1722 1722
    1731 1731 1731 1731 1731 1731 1731 1739 1739 1739 1739 1739 1739
    1739 1739 1739 1739 1739 1739 1739 1748 1748 1748 1739 1739 1739
    5210 5210 4645 0 1722 1722 1722 1722 1722 1722 1722 1722 1722 1722
    1722 1722 1722 1722 1722 1722 1731 1731 1731 1722 1722 1731 1731
    1739 1739 1739 1739 1739 1739 1739 1739 1739 1739 1739 1739 1739
    1748 1748 1739 1739 1739 1739 5210 5210 4645 0 1722 1722 1722 1722
    1722 1722 1722 1722 1722 1722 1722 1722 1722 1722 1722 1722 1731
    1731 1731 1722 1722 1731 1731 1739 1739 1739 1739 1739 1739 1739
    1739 1739 1739 1739 1739 1739 1739 1739 1739 1739 1748 1748 5210
    5210 4582 1757 1731 1731 1731 1722 1722 1722 1722 1722 1722 1722
    1722 1722 1722 1722 1722 1731 1731 1731 1731 1722 1722 1731 1731
    1739 1739 1739 1739 1739 1739 1739 1739 1739 1739 1739 1739 1739
    1739 1739 1739 1739 1739 5210 5210 5210 4582 1757 1757 1731 1731
    1722 1722 1722 1722 1722 1722 1722 1722 1722 1722 1722 1722 1731
    1731 1731 1731 1731 1731 1731 1731 1739 1739 1739 1739 1739 1739
    1739 1739 1739 1739 1739 1739 1739 1739 1739 1739 1739 1739 5210
    5210 5210 4582 1766 1757 1731 1722 1722 1722 1722 1722 1722 1722
    1722 1722 1722 1722 1722 1722 1731 1731 1731 1731 1731 1731 1731
    1731 1739 1739 1739 1739 1739 1739 1739 1739 1739 1739 1739 1739
    1739 1739 1739 1739 1739 1739 5210 5210 5210 4582 1757 1731 1731
    1722 1722 1722 1722 1722 1722 1722 1722 1722 1722 1722 1722 1722
    1731 1731 1731 1731 1731 1731 1731 1731 1739 1739 1739 1739 1739
    1739 1739 1739 1739 1739 1739 1739 1739 1739 1739 1739 1739 5210
    5210 5210 5210 4582 1757 1731 1731 1722 1722 1722 1722 1722 1722
    1722 1722 1722 1722 1731 1722 1722 1731 1731 1731 1731 1731 1731
    1731 1731 1739 1739 1739 1739 1739 1739 1739 1739 1739 1739 1739
    1748 1748 1739 1722 1722 1722 5132 5132 5132 5132 4582 1731 1731
    1731 1722 1722 1722 1722 1722 1722 1722 1722 1722 1722 1731 1722
    1722 1731 1731 1731 1731 1731 1731 1731 1731 1739 1739 1739 1739
    1739 1739 1739 1739 1739 1739 1748 1748 1739 1739 1722 1722 1722
    5056 5056 5056 5132 4582 1731 1731 1731 1722 1722 1722 1722 1722
    1722 1722 1722 1722 1722 1731 1731 1731 1731 1731 1731 1731 1731
    1731 1731 1731 1739 1739 1739 1739 1739 1739 1739 1739 1739 1739
    1748 1748 1739 1739 1731 1731 1731 1731 5056 5056 5132 4582 1731
    1731 1722 1722 1722 1722 1722 1722 1722 1722 1722 1722 1731 1731
    1731 1731 1731 1731 1731 1731 1731 1731 1731 1731 1739 1739 1739
    1739 1739 1739 1739 1748 1748 1748 1748 1748 1739 1739 1739 1731
    1731 1731 5132 5132 5132 4582 1731 1731 1722 1722 1722 1722 1722
    1722 1722 1722 1722 1722 1722 1722 1722 1731 1731 1731 1731 1731
    1731 1731 1731 1731 1739 1739 1739 1739 1739 1739 1739 1748 1748
    1748 1748 1748 1739 1739 1739 1739 1739 5132 5132 5132 5210 1739
    1739 1731 1722 1722 1722 1722 1731 1731 1722 1722 1722 1722 1722
    1722 1722 1731 1731 1731 1731 1731 1731 1731 1731 1731 1739 1739
    1739 1739 1739 1739 1739 1748 1748 1748 1748 1748 1748 1748 1748
    1748 1748 5210 5210 5210 5210 1731 1731 1731 1722 1722 1722 1722
    1722 1722 1722 1722 1722 1722 1722 1722 1722 1731 1731 1731 1731
    1731 1731 1731 1731 1731 1739 1739 1739 1739 1739 1739 1739 1748
    1748 1739 1739 1748 1748 1748 1748 1748 5210 5210 5210 5210 5210
    1731 1731 1731 1722 1722 1722 1722 1722 1722 1722 1722 1722 1722
    1722 1722 1722 1731 1731 1731 1731 1731 1731 1731 1731 1731 1739
    1739 1739 1739 1739 1748 1748 1748 1739 1739 1739 1748 1748 1748
    1748 1748 5210 5210 5210 5210 5132 1731 1731 1722 1722 1722 1722
    1722 1722 1722 1722 1722 1722 1722 1722 1722 1731 1731 1731 1731
    1731 1731 1731 1731 1731 1731 1739 1739 1739 1739 1739 1748 1748
    1748 1739 1739 1739 1748 1748 1748 1748 1748 5210 5210 5132 5132
    5132 1731 1731 1722 1722 1722 1722 1722 1722 1722 1722 1722 1722
    1722 1722 1722 1731 1731 1731 1731 1731 1731 1731 1731 1731 1731
    1739 1739 1739 1739 1739 1748 1748 1748 1739 1739 1739 1739 1739
    1739 1739 1739 5210 5210 5132 5132 5132 1731 1731 1722 1722 1722
    1722 1722 1722 1722 1722 1722 1722 1722 1722 1722 1731 1731 1731
    1731 1731 1731 1731 1731 1731 1731 1739 1739 1739 1739 1739 1739
    1739 1748 1739 1739 1739 1739 1739 1739 1739 1739 5132 5132 5132
    5132 5132 1731 1731 1731 1731 1722 1722 1722 1722 1722 1722 1722
    1722 1731 1722 1722 1731 1731 1731 1731 1731 1731 1731 1731 1731
    1731 1739 1739 1739 1739 1739 1739 1739 1748 1739 1739 1739 1739
    1739 1748 1748 1748 5132 5132 5132 5132 5132 1731 1731 1731 1722
    1722 1722 1722 1722 1731 1731 1731 1731 1731 1722 1722 1731 1731
    1731 1731 1731 1731 1731 1731 1731 1731 1739 1739 1739 1739 1739
    1739 1748 1739 1739 1739 1739 1739 1739 1748 1757 1757 5210 5210
    5132 5132 5132 1731 1731 1731 1722 1722 1722 1722 1722 1731 1731
    1731 1731 1731 1722 1722 1731 1731 1731 1731 1731 1731 1722 1722
    1722 1722 1739 1739 1739 1739 1739 1739 1748 1739 1739 1739 1739
    1748 1748 1748 1748 5210 5210 5132 5132 5132 5132 1731 1731 1731
    1722 1722 1722 1722 1722 1731 1731 1731 1731 1731 1722 1722 1731
    1731 1731 1731 1731 1731 1722 1722 1722 1722 1739 1739 1739 1739
    1739 1739 1748 1739 1739 1739 1739 1748 1748 1748 1748 5210 5210
    5132 5132 5132 5132 1731 1731 1722 1722 1722 1722 1722 1722 1731
    1731 1731 1731 1731 1722 1722 1731 1731 1731 1731 1731 1731 1722
    1722 1722 1731 1739 1739 1739 1739 1748 1748 1748 1748 1748 1748
    1748 1748 1748 1748 5210 5210 5210 5210 5210 5210 5132 1722 1722
    1722 1722 1722 1722 1722 1731 1731 1731 1731 1731 1731 1722 1722
    1731 1731 1731 1731 1731 1731 1731 1731 1731 1731 1739 1748 1748
    1748 1748 1748 1748 1748 1748 1748 1748 1748 1748 1748 5210 5210
    5210 5210 5210 5210 5210 1722 1722 1722 1722 1722 1722 1722 1722
    1722 1731 1731 1731 1731 1731 1731 1731 1731 1731 1731 1731 1731
    1731 1731 1731 1739 1748 1748 1739 1739 1748 1748 1748 1748 1748
    1748 1748 1748 1757 1766 1766 5291 5210 5210 5132 5132 5210 4645
    1722 1722 1722 1722 1722 1722 1722 1722 1731 1731 1731 1731 1731
    1731 1731 1731 1731 1731 1731 1731 1731 1731 1731 1739 1748 1748
    1739 1739 1739 1739 1739 1748 1748 1748 1748 1748 1757 1766 1766
    5210 5210 5210 5132 5132 5210 4645 4645 4708 4708 1731 1731 1731
    4774 1731 1731 1731 1731 1731 1731 1731 1731 1731 1731 1731 1731
    1731 1731 1731 1731 1731 1739 1739 1748 1739 1739 1739 1739 1748
    1748 1748 1748 1748 1757 1766 1766 5132 5132 5210 5132 5132 5210
    4645 4645 4708 4708 4708 4708 4708 4708 4708 4774 4774 1776 1757
    1757 1739 1731 1731 1722 1722 1731 1731 1731 1731 1731 1731 1739
    1739 1748 1739 1739 1739 1739 1748 1748 1748 1757 1757 1766 1766
    5210 5132 5132 5210 5132 5132 5210 4582 4645 4708 4708 4708 4708
    4708 4708 4708 4774 4774 1794 1757 1757 1739 1731 1731 1722 1722
    1731 1739 1739 1739 1731 1731 1739 1739 1748 1739 1739 1739 1739
    1748 1748 1748 1748 1757 1757 5210 5210 5132 5132 5132 5210 5210
    5210 4582 4582 4645 4708 4708 4708 4708 4774 4842 4842 4842 4842
    1757 1757 1739 1739 0 1739 0 1757 0 1757 1748 1739 1739 1739 1748
    1748 1739 1739 1739 1739 1748 1748 1748 1748 1757 1757 5210 5210
    5132 5132 5132 5132 5210 5210 4582 4582 4645 4645 4645 4708 4708
    4774 4842 4842 4842 4842 1766 1757 1757 0 0 0 0 0 0 1757 1757 1757
    1757 1757 5056 5056 5056 5056 5056 1766 1766 1748 1748 1757 1757
    5210 5210 5210 5132 5132 5132 5132 5132 5132</data></Depth5874>
</opencv_storage>
