<?xml version="1.0"?>
<opencv_storage>
<Depth8792 type_id="opencv-matrix">
  <rows>77</rows>
  <cols>46</cols>
  <dt>w</dt>
  <data>
    4190 4190 4190 4295 4295 4241 1452 1445 1445 1433 1433 1433 1433
    1433 1354 1354 4190 4190 4190 4190 4190 4190 4190 4190 4190 4190
    4190 4190 4241 4190 4190 4241 4190 4190 4190 4190 4190 4190 4190
    4190 4190 4190 4190 4190 4190 4190 4139 4139 4295 4295 1439 1439
    1445 1439 1439 1421 1404 1404 1404 1381 1354 1354 1354 1333 1333
    1333 1333 4190 4190 4190 4190 4190 4190 4190 4241 4190 4190 4241
    4190 4190 4190 4190 4190 4190 4190 4190 4190 4190 4190 4190 4190
    4190 4139 4139 4241 4241 1439 1439 1439 1433 1410 1404 1392 1387
    1381 1381 1354 1354 1354 1333 1333 1333 0 0 1302 1297 0 0 0 4241 0
    4241 4241 4241 4190 4190 4190 4190 4190 4190 4190 4190 4190 4190
    4190 4190 4190 4190 4190 4190 4241 1445 1439 1439 1439 1415 1398
    1398 1387 1376 1376 1359 1354 1343 1338 1333 1333 1333 1307 1302
    1302 0 0 0 0 0 0 4241 4241 4241 4241 4190 4190 4190 4190 4190 4190
    4190 1283 1283 4190 4190 4190 4190 4190 4241 4241 1439 1439 1439
    1415 1404 1392 1392 1381 1370 1370 1359 1354 1343 1338 1317 1312
    1307 1307 1302 1302 1297 1297 1297 0 0 0 0 0 1255 4190 4190 4190
    1322 1322 4241 4241 1288 1283 1283 1288 4190 4190 4190 4241 4349
    4349 1439 1439 1433 1415 1404 1392 1387 1376 1365 1359 1349 1349
    1338 1333 1317 1312 1307 1307 1302 1297 1288 1288 1288 1259 1259
    1259 0 1255 1255 1255 4139 4139 1322 1312 1292 1288 1288 1283 1283
    1283 1283 1278 4190 4190 4190 1439 1439 1439 1433 1410 1404 1392
    1387 1370 1365 1359 1349 1338 1333 1322 1312 1307 1302 1297 1292
    1288 1278 1273 1264 1259 1259 0 0 1255 1255 1255 1259 4139 4139 1312
    1292 1288 1283 1278 1278 1278 1278 1278 4190 4190 0 1433 1433 1433
    1433 1410 1404 1392 1387 1370 1365 1359 1349 1338 1328 1317 1307
    1302 1297 1288 1283 1273 1268 1264 1259 1255 1250 1245 1245 1250
    1250 1255 1255 1259 1268 1268 1283 1283 1278 1273 1273 1273 1273
    1278 1278 4139 4089 1433 1433 1433 1433 1410 1404 1392 1387 1376
    1365 1359 1349 1338 1328 1317 1307 1297 1292 1283 1278 1268 1264
    1255 1250 1245 1241 1241 1241 1245 1245 1250 1255 1255 1259 1264
    1264 1268 1273 1273 1273 1273 1273 1278 1278 4089 4089 1433 1433
    1433 1433 1410 1398 1392 1387 1370 1365 1359 1354 1343 1328 1317
    1307 1297 1292 1283 1273 1268 1259 1255 1250 1241 1241 1241 1241
    1245 1245 1250 1255 1255 1255 1264 1264 1268 1268 1268 1273 1273
    1273 1273 1273 4089 4089 0 1433 1433 1415 1410 1398 1392 1381 1370
    1365 1365 1354 1349 1333 1317 1307 1297 1288 1278 1273 1268 1259
    1250 1241 1236 1236 1241 1241 1245 1250 1250 1255 1255 1255 1259
    1264 1264 1268 1268 1273 1273 1273 1273 1273 4139 4139 0 1439 1439
    1415 1410 1398 1387 1376 1370 1365 1359 1354 1343 1333 1317 1307
    1292 1288 1278 1273 1268 1259 1250 1241 1236 1236 1241 1241 1245
    1250 1250 1255 1255 1259 1259 1264 1264 1268 1268 1273 1273 1273
    1273 1278 4139 4139 0 1439 1439 1415 1404 1392 1387 1376 1370 1365
    1359 1354 1343 1333 1317 1307 1292 1288 1278 1273 1268 1259 1250
    1241 1236 1236 1241 1245 1245 1250 1250 1255 1255 1259 1259 1264
    1268 1268 1268 1273 1273 1273 1273 1273 4190 0 1439 1439 1439 1415
    1404 1392 1381 1376 1370 1365 1359 1354 1338 1333 1317 1307 1292
    1288 1278 1268 1264 1259 1241 1236 1236 1236 1241 1245 1245 1250
    1250 1255 1255 1259 1259 1264 1268 1268 1268 1268 1273 1273 1273
    1273 4139 0 1439 1439 1433 1415 1404 1392 1381 1370 1370 1365 1359
    1349 1338 1328 1312 1307 1292 1288 1278 1268 1264 1259 1241 1236
    1236 1236 1241 1245 1245 1250 1250 1250 1255 1259 1259 1264 1268
    1268 1268 1268 1273 1273 1273 1273 4139 0 1439 1439 1433 1415 1404
    1392 1381 1370 1365 1354 1354 1349 1338 1328 1312 1307 1292 1288
    1278 1273 1264 1255 1241 1236 1236 1241 1241 1245 1245 1250 1250
    1250 1255 1255 1259 1264 1268 1268 1268 1268 1273 1273 1273 1273
    4139 0 1433 1433 1427 1415 1404 1392 1381 1370 1365 1354 1354 1343
    1333 1317 1312 1302 1292 1288 1278 1273 1264 1255 1241 1236 1236
    1241 1241 1245 1250 1250 1250 1255 1255 1255 1259 1264 1268 1268
    1273 1273 1273 1273 1273 1273 0 0 1433 1433 1427 1415 1404 1392 1381
    1370 1365 1354 1354 1343 1333 1317 1307 1297 1292 1288 1278 1268
    1259 1255 1241 1241 1241 1241 1245 1245 1250 1250 1250 1255 1255
    1255 1259 1264 1268 1268 1273 1273 1273 1273 1273 1273 0 0 1433 1433
    1427 1410 1404 1392 1381 1370 1365 1354 1354 1338 1328 1317 1307
    1297 1288 1283 1273 1268 1259 1250 1241 1236 1236 1236 1241 1245
    1250 1250 1250 1255 1255 1259 1259 1264 1268 1268 1268 1273 1273
    1273 1273 1273 0 1452 1433 1433 1427 1410 1404 1392 1381 1370 1365
    1354 1349 1338 1328 1317 1307 1297 1288 1283 1273 1268 1255 1241
    1236 1236 1236 1236 1241 1245 1250 1250 1250 1255 1255 1259 1264
    1264 1268 1268 1268 1268 1273 1273 1273 0 0 1452 1452 1439 1427 1410
    1404 1392 1381 1370 1365 1354 1349 1338 1328 1312 1307 1297 1292
    1283 1273 1264 1255 1241 1236 1236 1236 1236 1241 1245 1250 1250
    1250 1255 1255 1259 1264 1268 1268 1268 1268 1268 1273 1273 1273 0 0
    0 1445 1439 1427 1410 1404 1392 1381 1370 1365 1354 1349 1338 1317
    1312 1307 1297 1292 1283 1273 1264 1255 1241 1236 1236 1236 1236
    1241 1245 1250 1250 1250 1255 1255 1259 1264 1264 1268 1268 1268
    1268 1273 1273 1273 0 4241 0 1439 1439 1415 1410 1398 1387 1381 1370
    1365 1349 1343 1338 1317 1312 1307 1297 1288 1283 1273 1264 1255
    1241 1236 1236 1236 1241 1245 1250 1250 1250 1250 1255 1255 1259
    1259 1264 1264 1264 1268 1273 1273 1273 1273 0 4241 0 1439 1439 1415
    1410 1398 1387 1376 1370 1359 1349 1343 1338 1322 1312 1302 1292
    1288 1283 1273 1264 1255 1241 1236 1236 1236 1241 1245 1250 1250
    1250 1250 1255 1255 1255 1259 1259 1264 1264 1268 1268 1273 1273
    1273 0 4241 0 1439 1439 1415 1410 1392 1387 1376 1365 1359 1349 1343
    1338 1322 1312 1302 1292 1288 1283 1273 1259 1255 1241 1236 1236
    1236 1241 1241 1245 1245 1250 1250 1255 1255 1255 1259 1259 1264
    1264 1268 1268 1273 1273 1273 0 4190 0 1439 1439 1415 1404 1392 1381
    1370 1365 1354 1343 1343 1338 1322 1312 1302 1292 1288 1278 1273
    1259 1255 1241 1236 1236 1236 1241 1241 1245 1245 1250 1250 1255
    1255 1255 1259 1259 1264 1268 1268 1268 1273 1273 1273 0 0 0 1439
    1433 1415 1404 1392 1381 1370 1365 1354 1343 1343 1338 1322 1312
    1297 1292 1288 1278 1268 1259 1255 1241 1236 1236 1236 1241 1241
    1245 1250 1250 1250 1255 1255 1259 1259 1264 1264 1268 1268 1268
    1273 1273 1278 1278 0 1439 1439 1433 1410 1404 1392 1387 1370 1359
    1354 1343 1343 1333 1322 1307 1297 1292 1288 1278 1268 1259 1241
    1236 1236 1236 1236 1241 1241 1245 1245 1250 1250 1255 1255 1259
    1259 1264 1264 1268 1268 1268 1273 1273 1283 1283 0 1433 1433 1433
    1410 1404 1392 1381 1376 1359 1354 1343 1343 1328 1317 1302 1297
    1292 1288 1278 1268 1259 1241 1236 1236 1236 1236 1241 1241 1245
    1245 1250 1250 1255 1255 1259 1259 1264 1264 1268 1268 1268 1273
    1278 1283 1283 0 0 1433 1415 1410 1398 1392 1381 1376 1365 1354 1343
    1343 1328 1317 1302 1297 1292 1288 1278 1268 1259 1241 1236 1236
    1236 1236 1241 1241 1245 1250 1250 1255 1255 1255 1259 1259 1264
    1264 1268 1268 1268 1273 1273 1283 1283 0 0 1415 1415 1410 1398 1392
    1381 1370 1365 1354 1349 1349 1322 1312 1302 1297 1292 1283 1278
    1268 1259 1241 1236 1236 1236 1236 1241 1241 1245 1250 1250 1255
    1255 1255 1259 1259 1264 1264 1268 1268 1273 1273 1273 1283 1283
    1439 1433 1433 1427 1410 1398 1392 1376 1370 1365 1354 1349 1349
    1322 1312 1302 1297 1292 1283 1278 1268 1259 1241 1236 1236 1236
    1236 1241 1245 1245 1250 1250 1255 1255 1259 1259 1264 1264 1268
    1268 1268 1268 1273 1273 1273 1273 1439 1439 1433 1427 1410 1392
    1387 1376 1370 1365 1354 1349 1349 1322 1312 1302 1297 1288 1283
    1278 1268 1255 1241 1236 1236 1236 1236 1241 1245 1250 1250 1250
    1250 1255 1255 1259 1264 1264 1268 1268 1268 1268 1273 1273 1273 0 0
    1439 1433 1427 1404 1392 1387 1376 1370 1359 1354 1343 1333 1322
    1312 1302 1292 1288 1283 1278 1268 1255 1241 1236 1236 1236 1236
    1241 1245 1250 1250 1250 1250 1255 1255 1255 1259 1264 1268 1268
    1268 1273 1273 1278 1278 0 0 1445 1439 1415 1404 1392 1387 1376 1370
    1359 1349 1343 1333 1322 1312 1297 1292 1288 1283 1278 1268 1255
    1241 1236 1236 1236 1236 1241 1241 1250 1250 1250 1250 1255 1255
    1255 1259 1264 1268 1268 1268 1273 1273 1278 1278 1273 0 1445 1433
    1415 1404 1392 1387 1376 1365 1359 1349 1343 1333 1322 1307 1297
    1292 1288 1283 1273 1264 1255 1241 1236 1236 1236 1236 1236 1241
    1250 1250 1250 1250 1255 1255 1255 1259 1264 1264 1264 1268 1273
    1273 1273 1273 1273 0 0 1433 1415 1404 1392 1387 1376 1365 1359 1349
    1343 1328 1317 1307 1297 1292 1288 1283 1273 1264 1250 1241 1236
    1236 1236 1236 1236 1241 1250 1250 1250 1250 1255 1255 1255 1259
    1264 1264 1264 1268 1273 1273 1273 1273 1273 0 1433 1433 1410 1404
    1392 1387 1376 1365 1359 1349 1343 1328 1317 1307 1302 1297 1283
    1278 1273 1264 1250 1241 1236 1236 1236 1236 1241 1241 1250 1250
    1250 1250 1255 1255 1255 1259 1264 1268 1268 1273 1273 1273 1273
    1273 1273 0 1415 1415 1410 1404 1392 1387 1376 1365 1359 1349 1338
    1328 1317 1312 1302 1292 1283 1278 1273 1264 1241 1241 1236 1236
    1236 1236 1241 1245 1250 1250 1250 1250 1255 1255 1259 1259 1259
    1268 1268 1273 1273 1273 1273 1273 0 0 1415 1415 1410 1404 1392 1387
    1376 1365 1359 1349 1338 1328 1317 1312 1302 1292 1283 1278 1273
    1264 1241 1241 1236 1236 1236 1241 1241 1245 1250 1250 1255 1255
    1255 1255 1259 1259 1259 1268 1268 1273 1273 1273 1273 1273 4190
    1415 1415 1415 1410 1404 1392 1381 1376 1370 1359 1349 1338 1333
    1317 1312 1297 1292 1288 1278 1268 1264 1255 1241 1236 1236 1236
    1241 1241 1245 1250 1250 1255 1255 1255 1255 1259 1259 1264 1268
    1268 1273 1273 1273 1273 1273 4190 1415 1415 1415 1410 1398 1392
    1381 1376 1370 1359 1349 1338 1333 1317 1307 1292 1292 1283 1273
    1268 1264 1255 1241 1241 1241 1241 1241 1245 1245 1250 1250 1255
    1255 1255 1255 1259 1259 1264 1264 1268 1273 1273 1273 1273 1273
    4190 1415 1415 1415 1404 1398 1387 1381 1376 1370 1359 1349 1333
    1333 1322 1307 1292 1292 1283 1273 1268 1259 1255 1241 1241 1241
    1241 1241 1245 1245 1250 1250 1255 1255 1255 1259 1259 1264 1264
    1264 1268 1273 1273 1273 1273 1273 4139 1415 1415 1415 1404 1398
    1387 1381 1376 1365 1359 1349 1333 1328 1322 1312 1297 1292 1283
    1273 1264 1259 1250 1236 1236 1236 1236 1241 1245 1245 1250 1250
    1255 1255 1255 1259 1259 1264 1264 1264 1268 1268 1273 1273 1273 0
    4139 1433 1415 1415 1410 1398 1387 1381 1370 1365 1359 1338 1333
    1328 1322 1312 1297 1288 1283 1273 1264 1259 1250 1236 1236 1236
    1236 1236 1245 1250 1250 1250 1255 1255 1255 1259 1259 1264 1264
    1264 1268 1268 1273 1273 1273 0 4139 1433 1433 1415 1410 1398 1387
    1381 1370 1365 1359 1338 1333 1328 1322 1312 1297 1288 1278 1273
    1264 1259 1250 1241 1236 1236 1236 1236 1245 1250 1250 1250 1250
    1255 1255 1255 1259 1264 1268 1268 1268 1268 1273 1273 1273 0 4139 0
    1433 1415 1410 1398 1387 1381 1370 1365 1354 1338 1333 1328 1322
    1312 1302 1288 1278 1273 1268 1259 1255 1236 1236 1236 1236 1241
    1250 1250 1250 1250 1250 1255 1255 1255 1259 1264 1268 1268 1268
    1268 1268 1273 0 0 0 1415 1415 1415 1410 1398 1387 1381 1370 1365
    1354 1338 1333 1328 1322 1307 1302 1288 1278 1273 1268 1264 1255
    1236 1236 1236 1236 1241 1245 1245 1245 1250 1250 1250 1255 1255
    1259 1264 1268 1268 1268 1268 1268 1268 0 0 0 1433 1415 1415 1410
    1398 1387 1381 1370 1359 1349 1338 1333 1328 1317 1307 1302 1288
    1278 1273 1268 1259 1241 1236 1236 1236 1236 1236 1241 1245 1245
    1250 1250 1250 1255 1259 1259 1268 1268 1268 1268 1268 1268 1268 0 0
    0 1433 1421 1415 1410 1398 1387 1381 1370 1359 1349 1338 1333 1328
    1312 1302 1297 1288 1278 1273 1264 1255 1241 1236 1236 1236 1236
    1236 1241 1241 1250 1250 1250 1250 1255 1259 1259 1264 1268 1268
    1268 1268 1273 1273 0 0 0 1433 1421 1415 1410 1392 1387 1376 1370
    1359 1343 1338 1333 1322 1312 1302 1297 1288 1278 1268 1259 1255
    1241 1236 1236 1236 1236 1236 1241 1241 1250 1250 1250 1255 1255
    1259 1259 1264 1264 1268 1268 1268 1273 1273 0 0 0 1433 1421 1415
    1404 1392 1387 1376 1370 1359 1343 1338 1333 1322 1312 1302 1292
    1288 1278 1268 1255 1250 1241 1236 1236 1236 1236 1236 1241 1241
    1245 1250 1250 1255 1255 1255 1255 1259 1264 1264 1268 1268 1273
    1273 1273 0 4139 1439 1427 1415 1404 1392 1387 1376 1370 1359 1338
    1328 1328 1317 1312 1302 1292 1288 1278 1268 1255 1250 1236 1236
    1236 1236 1236 1241 1241 1241 1245 1250 1250 1255 1255 1255 1255
    1259 1264 1264 1268 1268 1273 1273 1273 0 4190 1433 1427 1421 1404
    1392 1387 1376 1370 1359 1338 1328 1328 1317 1307 1297 1292 1288
    1278 1268 1255 1241 1236 1236 1236 1236 1236 1241 1241 1241 1245
    1250 1250 1255 1255 1255 1259 1264 1268 1268 1268 1268 1268 1268
    1268 0 4190 1433 1427 1421 1404 1392 1387 1376 1370 1359 1338 1328
    1328 1317 1307 1297 1292 1288 1278 1268 1259 1241 1236 1236 1236
    1236 1236 1241 1241 1245 1250 1250 1250 1255 1255 1255 1259 1264
    1264 1268 1268 1268 1268 1268 1268 4190 4190 1433 1427 1415 1404
    1392 1387 1376 1365 1349 1338 1328 1328 1317 1307 1302 1292 1288
    1273 1268 1259 1241 1236 1236 1236 1236 1236 1236 1241 1245 1245
    1245 1250 1250 1250 1255 1255 1259 1264 1268 1268 1273 1273 1273
    1273 4190 4190 1427 1421 1415 1404 1392 1381 1370 1365 1349 1338
    1328 1328 1317 1312 1297 1292 1283 1273 1268 1255 1241 1236 1236
    1232 1232 1236 1236 1241 1241 1245 1245 1250 1250 1250 1255 1255
    1259 1268 1268 1268 1273 1273 1273 0 4190 4190 1427 1421 1415 1404
    1392 1381 1370 1365 1349 1338 1328 1328 1312 1307 1297 1288 1278
    1273 1268 1255 1241 1236 1232 1232 1232 1236 1236 1241 1241 1245
    1250 1250 1250 1250 1255 1255 1259 1264 1268 1268 1273 1278 1278 0
    4089 4089 1415 1415 1410 1404 1392 1381 1370 1365 1349 1338 1328
    1322 1312 1302 1292 1288 1278 1273 1268 1250 1241 1236 1232 1232
    1232 1236 1236 1241 1245 1245 1250 1250 1255 1255 1255 1255 1259
    1264 1264 1268 1273 1278 1278 0 4089 4089 1415 1415 1410 1404 1387
    1376 1370 1365 1349 1338 1328 1322 1312 1302 1292 1288 1278 1273
    1264 1250 1241 1236 1232 1232 1232 1236 1236 1241 1241 1241 1245
    1250 1255 1255 1255 1259 1259 1264 1264 1268 1273 1273 0 0 0 4089
    1415 1415 1410 1392 1387 1376 1370 1365 1349 1338 1328 1322 1312
    1302 1292 1288 1278 1273 1264 1255 1241 1236 1232 1232 1232 1236
    1236 1236 1241 1241 1245 1250 1250 1255 1255 1255 1259 1264 1264
    1268 1273 1273 1273 0 4089 4089 1415 1410 1410 1392 1387 1376 1370
    1354 1349 1338 1328 1322 1312 1302 1292 1288 1278 1268 1259 1255
    1241 1236 1232 1232 1232 1236 1236 1236 1241 1241 1245 1250 1250
    1255 1255 1255 1259 1264 1264 1268 1273 1273 1273 0 4089 4089 1415
    1410 1404 1392 1387 1370 1365 1349 1349 1338 1328 1322 1307 1302
    1292 1288 1278 1268 1259 1255 1245 1236 1232 1232 1236 1236 1236
    1236 1241 1241 1245 1250 1250 1255 1255 1255 1259 1264 1264 1268
    1273 1273 1273 0 4089 4089 1410 1410 1404 1392 1381 1370 1365 1349
    1343 1338 1322 1317 1307 1297 1292 1288 1278 1268 1259 1255 1245
    1236 1236 1232 1232 1232 1236 1236 1236 1241 1245 1250 1250 1255
    1255 1255 1259 1264 1264 1268 1268 1278 1278 3994 4089 4089 1410
    1410 1404 1392 1381 1370 1365 1349 1343 1328 1317 1312 1302 1292
    1288 1283 1278 1268 1259 1255 1245 1236 1236 1232 1232 1232 1236
    1236 1236 1241 1250 1250 1250 1255 1255 1259 1259 1264 1264 1268
    1268 1278 0 3994 3994 3994 1410 1410 1398 1392 1381 1370 1365 1349
    1343 1322 1317 1312 1302 1292 1288 1283 1278 1268 1259 1255 1236
    1232 1232 1232 1232 1232 1236 1236 1241 1245 1250 1250 1250 1250
    1255 1259 1259 1264 1264 1268 1268 1268 1268 3994 3994 3994 1410
    1410 1398 1392 1387 1370 1365 1349 1343 1322 1317 1312 1297 1288
    1283 1278 1273 1268 1259 1255 1236 1232 1232 1232 1232 1232 1236
    1236 1241 1245 1245 1250 1250 1250 1255 1259 1264 1264 1264 1268
    1268 1268 0 3994 3994 3903 1398 1398 1392 1392 1387 1376 1370 1349
    1343 1328 1317 1312 1297 1288 1283 1273 1268 1264 1255 1241 1236
    1232 1232 1232 1232 1232 1236 1236 1241 1245 1245 1250 1250 1250
    1255 1259 1264 1268 1268 1268 1268 1268 1268 3994 3994 3903 0 1398
    1392 1392 1387 1376 1365 1349 1338 1328 1317 1312 1302 1292 1288
    1273 1268 1264 1255 1241 1236 1232 1232 1232 1232 1232 1236 1241
    1241 1245 1245 1250 1250 1250 1255 1259 1264 1268 1268 1268 1268
    1268 1268 1557 1557 1557 0 1404 1392 1392 1387 1370 1354 1343 1333
    1322 1312 1312 1302 1292 1288 1278 1268 1264 1255 1241 1236 1232
    1232 1232 1232 1232 1236 1236 1241 1245 1245 1250 1250 1255 1255
    1255 1264 1268 1268 1268 1268 1268 1268 1557 1557 1550 0 0 1398 1392
    1387 1365 1349 1338 1333 1322 1312 1312 1307 1297 1288 1278 1273
    1264 1255 1241 1236 1232 1232 1232 1232 1232 1236 1236 1241 1245
    1250 1250 1255 1255 1255 1255 1259 1264 1268 1268 1268 1268 1550
    1550 1550 1550 0 0 0 0 1365 1343 1343 1338 1333 1322 1312 1312 1307
    1292 1288 1278 1268 1264 1255 1241 1236 1232 1232 1232 1232 1232
    1236 1236 1245 1250 1250 1250 1255 1255 1255 1255 1259 1259 1264
    1268 1268 1268 1550 1550 1550 1550 0 0 0 0 1365 1343 1338 1333 1333
    1317 1307 1307 1307 1292 1288 1273 1268 1264 1255 1241 1236 1232
    1232 1232 1232 1232 1236 1241 1245 1250 1250 1250 1255 1255 1255
    1255 1259 1259 1264 1268 1268 1550 1550 1550 1550 1550 0 0 0 0 0
    1343 1338 1333 1333 1317 1307 1307 1302 1292 1283 1273 1268 1255
    1250 1241 1236 1232 1232 1232 1232 1236 1236 1241 1245 1250 1250
    1250 1250 1255 1255 1255 1255 1259 1264 1264 1264 1557 1557 1550
    1550 1550 0 0 0 0 0 0 0 1333 1333 1322 1312 1307 1297 1292 1283 1273
    1268 1255 1250 1236 1236 1232 1232 1232 1236 1236 1236 1241 1245
    1245 1245 1250 1250 1255 1255 1255 1255 1259 1264 1264 1264 1557
    1557 1550 1550 1550 0 0 0 0 0 0 0 0 0 1322 1307 1302 1297 1292 1283
    1273 1268 1259 1250 1236 1236 1232 1232 1232 1236 1236 1236 1241
    1241 1245 1245 1250 1250 1250 1255 1255 1259 1264 1268 1268 1268
    1268 1268 1564 1564 2859 0 0 0 0 0 0 0 0 0 0 1307 1302 1297 1292
    1288 1273 1268 1259 1250 1241 1236 1232 1232 1232 1236 1236 1241
    1236 1236 1241 1241 1250 1250 1250 1255 1255 1264 1264 1268 1268
    1268 1268 0 0 2859 2859</data></Depth8792>
</opencv_storage>
