<?xml version="1.0"?>
<opencv_storage>
<Depth11748 type_id="opencv-matrix">
  <rows>105</rows>
  <cols>108</cols>
  <dt>w</dt>
  <data>
    0 0 0 0 0 0 4089 4089 4089 4089 4089 4041 4041 3994 3994 3994 3994
    3994 3994 3994 3994 3948 3948 3948 3948 3948 3948 3903 3903 3903
    3903 3859 3859 3859 3816 3816 3816 3816 3859 3816 3816 3816 3774
    3774 3774 3774 3774 3816 3774 3774 3774 3774 3774 3732 3732 3732
    3732 3732 3732 3732 3692 3692 3692 3653 3653 3653 3614 3614 984 984
    984 987 987 987 3576 3576 3614 3614 3539 3539 3539 3539 3576 3576
    3576 3539 3539 3503 3503 3503 3503 3503 3468 3468 3503 3503 3503
    3503 3503 3468 3468 3468 3468 3433 3433 3399 3365 3365 0 0 0 0 0 0
    4041 4041 4089 4089 4041 4041 3994 3994 3994 3994 3948 3948 3948
    3948 3948 3948 3948 3948 3903 3903 3903 3859 3859 3859 3859 3859
    3859 3816 3816 3816 3816 3816 3859 3859 3859 3816 3774 3774 3774
    3774 3774 3816 3774 3774 3774 3774 3774 3732 3732 3732 3732 3732
    3692 3692 3692 3653 3653 3653 3653 3653 3614 3614 981 981 984 987
    987 987 3576 3576 3576 3539 3539 3539 3539 3539 3539 3539 3539 3503
    3503 3503 3503 3503 3503 3468 3468 3468 3468 3468 3468 3468 3468
    3468 3468 3468 3433 3399 3365 3365 3365 3365 0 0 0 0 0 0 4041 4041
    4041 4041 3903 3903 3948 3948 3948 3948 3948 3948 3948 3948 3948
    3948 3948 3948 3903 3903 3859 3816 3816 3859 3859 3859 3816 3816
    3816 3816 3816 3816 3816 3816 3816 3816 3774 3774 3774 3774 3774
    3774 3774 3774 3774 3732 3732 3692 3692 3692 3732 3692 3653 3653
    3653 3653 3653 3653 3614 3614 978 978 978 978 984 987 987 987 987
    987 0 3539 3539 3503 3503 3503 3539 3539 3503 3503 3503 3503 3503
    3503 3503 3468 3468 3468 3468 3468 3468 3468 3468 3468 3433 3399
    3365 3365 3333 3333 3333 3333 0 0 0 0 0 0 4041 3994 3948 3948 3903
    3903 3948 3948 3948 3948 3948 3948 3948 3948 3948 3948 3948 3903
    3903 3859 3859 3816 3816 3816 3816 3859 3816 3816 3816 3816 3816
    3816 3816 3816 3816 3774 3774 3774 3774 3774 3774 3774 3732 3732
    3732 3732 3692 3692 3692 3692 3653 3653 3653 3614 3614 3614 3614
    3653 3614 978 975 975 975 975 978 981 987 987 987 0 0 3468 3468 3468
    3468 3468 3503 3503 3503 3503 3503 3503 3503 3503 3468 3468 3468
    3468 3468 3468 3468 3468 3433 3399 3399 3365 3365 3365 3333 3333
    3333 3300 0 0 0 0 0 0 3994 3994 3948 3948 3948 3948 3903 3903 3903
    3903 3948 3948 3948 3948 3948 3903 3903 3903 3859 3859 3816 3774
    3774 3816 3816 3816 3816 3816 3774 3774 3816 3816 3816 3774 3774
    3774 3774 3774 3774 3732 3732 3732 3732 3732 3732 3692 3692 3692
    3653 3653 3653 3653 3653 3614 3614 3614 3614 973 973 975 975 975 973
    973 978 981 984 984 984 0 0 3468 3468 3468 3468 3468 3503 3503 3503
    3503 3503 3503 3503 3468 3468 3468 3468 3468 3468 3468 3468 3433
    3399 3365 3365 3365 3333 3333 3333 3333 3333 3300 0 0 0 0 0 0 3948
    3948 3948 3948 3948 3948 3903 3903 3903 3903 3948 3948 3903 3903
    3903 3859 3859 3903 3859 3816 3774 3774 3774 3816 3816 3816 3816
    3816 3774 3774 3816 3774 3774 3774 3774 3774 3774 3774 3732 3732
    3732 3732 3732 3732 3732 3692 3692 3692 3653 3653 3653 3653 3614
    3614 3614 3614 973 973 973 975 975 975 973 973 978 981 984 984 984 0
    0 0 3468 3468 3468 3468 3503 3503 3468 3468 3503 3503 3503 3468 3468
    3468 3433 3433 3433 3468 3433 3399 3365 3365 3365 3333 3333 3333
    3333 3300 3300 3300 0 0 0 0 0 0 3948 3948 3948 3948 3948 3948 3903
    3903 3903 3903 3948 3948 3903 3816 3816 3816 3774 3774 3774 3774
    3774 3774 3774 3774 3774 3816 3774 3774 3774 3774 3774 3774 3774
    3774 3774 3774 3732 3732 3732 3732 3732 3732 3692 3692 3692 3692
    3692 3692 3653 3653 3653 3653 3614 3614 3614 975 973 973 973 975 975
    975 970 970 981 984 984 984 0 0 0 0 3468 3468 3468 3468 3503 3468
    3468 3468 3468 3468 3468 3468 3433 3433 3433 3399 3399 3399 3399
    3365 3365 3333 3333 3333 3300 3300 3300 3300 3300 3300 0 0 0 0 0 0
    3948 3948 3948 3948 3948 3903 3903 3903 3903 3903 3903 3903 3859
    3816 3774 3774 3774 3774 3774 3774 3774 3774 3774 3774 3774 3774
    3774 3774 3774 3774 3774 3774 3774 3774 3732 3732 3732 3732 3732
    3732 3692 3692 3692 3692 3692 3653 3653 3653 3653 3653 3653 3653
    3653 3614 970 970 973 973 973 975 975 975 970 970 981 984 984 984 0
    0 0 3468 3468 3468 3468 3468 3503 3468 3468 3468 3468 3433 3433 3468
    3433 3399 3399 3399 3399 3399 3365 3365 3333 3333 3333 3333 3300
    3300 3300 3300 3300 3300 0 0 0 0 0 0 3948 3948 3948 3948 3903 3903
    3903 3903 3903 3903 3859 3859 3816 3774 3774 3774 3774 3774 3774
    3774 3774 3774 3774 3774 3774 3732 3732 3732 3732 3732 3732 3732
    3732 3732 3732 3732 3732 3692 3692 3692 3692 3692 3653 3653 3653
    3653 3653 3653 3653 3653 3653 3614 3614 967 967 967 970 973 973 975
    973 973 975 975 981 984 984 987 0 0 0 0 3433 3433 3433 3433 3468
    3468 3468 3433 3433 3433 3433 3433 3365 3365 3365 3365 3365 3365
    3333 3333 3333 3300 3300 3300 3269 3269 3269 3300 3300 3300 0 0 0 0
    0 0 3903 3903 3903 3903 3903 3903 3859 3859 3859 3859 3859 3816 3816
    3774 3774 3774 3732 3732 3732 3732 3732 3774 3774 3774 3732 3732
    3732 3732 3732 3732 3732 3732 3732 3732 3692 3692 3653 3653 3614
    3614 3614 3653 3653 3653 3653 3653 3653 3653 3653 3653 3653 3614 964
    964 964 967 970 973 973 973 973 973 973 973 973 987 987 987 0 0 0 0
    3433 3433 3433 3433 3468 3433 3433 3399 3399 3399 3399 3399 3365
    3365 3333 3333 3333 3333 3300 3300 3300 3300 3300 3269 3269 3269
    3269 3300 3300 3300 0 0 0 0 0 0 3859 3859 3816 3816 3859 3859 3859
    3859 3859 3816 3816 3774 3774 3774 3774 3774 3732 3732 3732 3732
    3732 3732 3732 3774 3732 3732 3732 3732 3732 3732 3732 3732 3732
    3692 3692 3692 3614 3614 3614 3614 3614 3614 3614 3614 3653 3653
    3653 3614 3614 3614 3692 967 964 964 964 967 967 973 970 970 973 973
    973 973 981 987 984 984 984 0 0 0 0 3433 3399 3399 3433 3399 3399
    3399 3399 3399 3399 3365 3333 3333 3333 3333 3300 3300 3300 3300
    3300 3300 3300 3269 3269 3269 3269 3269 3269 3269 0 0 0 0 0 0 3859
    3816 3816 3816 3816 3816 3816 3816 3859 3816 3774 3774 3732 3732
    3732 3732 3732 3732 3732 3732 3732 3732 3732 3732 3732 3692 3692
    3692 3692 3692 3732 3732 3732 3653 3653 3653 3614 3614 3614 3614
    3614 3614 3614 3614 3614 3653 3653 3300 3300 970 967 964 964 964 964
    967 967 973 967 967 973 973 973 975 981 984 984 984 984 984 0 0 0
    3433 3365 3365 3399 3365 3365 3365 3365 3365 3399 3365 3300 3269
    3269 3269 3269 3269 3269 3269 3269 3269 3269 3269 3238 3238 3238
    3238 3269 3269 0 0 0 0 0 0 3774 3774 3774 3774 3774 3774 3774 3816
    3816 3774 3774 3732 3732 3732 3732 3732 3732 3732 3732 3732 3732
    3732 3732 3732 3732 3692 3692 3692 3692 3692 3732 3692 3692 3653
    3653 3653 3653 3653 3614 3614 3576 3576 3614 3614 3614 3653 3653 964
    964 967 967 964 964 964 964 967 967 970 967 967 973 973 973 975 981
    984 984 981 981 984 0 0 3365 3365 3365 3365 3399 3365 3365 3365 3365
    3365 3365 3333 3269 3238 3238 3238 3238 3238 3238 3238 3238 3269
    3269 3238 3238 3238 3238 3238 3238 3238 0 0 0 0 0 0 3774 3774 3774
    3774 3774 3774 3774 3774 3774 3774 3732 3732 3732 3732 3732 3732
    3732 3732 3732 3732 3732 3732 3732 3732 3732 3692 3692 3692 3692
    3692 3732 3692 3692 3653 3653 3653 3653 3653 3614 3614 3576 3576
    3576 3576 3614 964 964 964 964 964 964 967 967 967 967 967 967 967
    967 967 973 973 973 975 981 984 984 981 981 984 984 0 0 3433 0 3433
    3399 3365 3365 3365 3333 3333 3365 3300 3269 3238 3238 3238 3238
    3238 3238 3238 3238 3238 3238 3238 3238 3238 3238 3238 3238 3238 0 0
    0 0 0 0 3816 3816 3774 3774 3774 3732 3732 3732 3774 3774 3732 3732
    3732 3732 3732 3732 3732 3732 3732 3732 3732 3732 3732 3732 3732
    3692 3692 3653 3653 3653 3692 3692 3653 3653 3653 3614 3614 3614
    3653 3614 3614 3576 3576 3576 964 962 962 962 964 964 964 967 967
    967 967 967 967 967 967 967 973 973 973 975 978 978 981 981 981 981
    984 984 987 0 3433 3433 3399 3365 3365 3333 3333 3333 3300 3269 3238
    3238 3238 3238 3238 3238 3238 3238 3238 3238 3238 3238 3238 3238
    3238 3238 3238 3238 0 0 0 0 0 0 3774 3774 3774 3774 3774 3732 3732
    3732 3732 3732 3732 3732 3732 3732 3732 3732 3732 3732 3732 3732
    3732 3732 3732 3692 3692 3692 3653 3653 3653 3653 3653 3653 3653
    3653 3653 3614 3614 3614 3614 3614 3614 3576 3576 962 962 962 962
    962 964 964 964 964 967 970 973 973 970 970 970 970 973 973 973 975
    975 975 975 975 978 978 984 987 987 987 0 3433 3433 3365 3365 3333
    3333 3333 3269 3238 3238 3238 3238 3238 3238 3238 3238 3238 3238
    3238 3238 3238 3238 3238 3238 3238 3238 3208 0 0 0 0 0 0 3774 3774
    3774 3774 3732 3732 3692 3692 3732 3732 3732 3732 3732 3732 3732
    3692 3692 3692 3692 3692 3692 3692 3692 3692 3692 3653 3653 3614
    3614 3614 3614 3614 3614 3614 3614 3614 3614 3614 3614 3614 3614
    3576 959 959 959 962 962 962 964 964 964 964 967 967 973 973 973 973
    970 970 1028 973 973 973 975 975 975 975 978 978 987 987 987 987 0 0
    3433 3365 3333 3333 3238 3238 3238 3238 3238 3238 3238 3238 3238
    3238 3238 3238 3238 3238 3238 3238 3238 3238 3238 3208 3208 3208 0 0
    0 0 0 0 3774 3774 3774 3732 3692 3692 3692 3692 3732 3732 3732 3732
    3732 3732 3692 3692 3692 3692 3692 3692 3692 3692 3692 3692 3692
    3653 3653 3614 3614 3614 3614 3614 3614 3614 3614 3614 3576 3576
    3576 3576 3576 956 956 959 959 959 962 962 964 964 964 964 967 967
    973 975 975 975 975 1022 1028 1028 973 973 973 975 975 975 978 978
    987 987 987 987 989 0 989 3333 3333 3238 3238 3208 3208 3208 3208
    3208 3208 3238 3238 3238 3238 3238 3238 3238 3238 3238 3238 3238
    3208 3208 3208 3208 0 0 0 0 0 0 3732 3732 3732 3692 3692 3692 3692
    3692 3732 3732 3732 3732 3732 3692 3692 3653 3653 3653 3653 3653
    3653 3692 3653 3653 3653 3614 3614 3614 3576 3576 3576 3576 3576
    3576 3576 3576 3576 3576 3576 962 959 956 956 959 959 959 959 962
    964 964 964 964 967 970 975 978 981 984 987 1022 1025 1028 1028 973
    973 975 975 975 978 981 987 987 989 989 989 989 989 989 3238 3238
    3208 3208 3208 3208 3208 3208 3208 3208 3208 3208 3238 3208 3208
    3238 3238 3238 3238 3238 3208 3208 3208 3208 0 0 0 0 0 0 3732 3732
    3732 3692 3653 3653 3692 3692 3732 3732 3732 3692 3692 3692 3692
    3653 3653 3653 3653 3653 3653 3653 3653 3653 3653 3614 3614 3614
    3576 3576 3576 3576 3576 3576 3576 3539 3539 3576 3576 959 956 956
    959 959 959 959 959 962 964 964 964 967 967 973 981 984 987 989 989
    995 1022 1028 1028 1031 978 978 978 978 978 981 987 987 989 989 989
    989 989 992 3120 3120 3120 3120 3208 3208 3208 3208 3208 3208 3208
    3208 3208 3208 3208 3208 3208 3208 3208 3208 3208 3208 3178 3178 0 0
    0 0 0 0 3692 3692 3692 3653 3614 3614 3653 3692 3732 3692 3692 3692
    3692 3732 3692 3653 3653 3653 3653 3614 3614 3653 3614 3614 3614
    3614 3614 3614 3576 3576 3614 3576 3576 3576 3576 3539 3539 951 951
    954 956 956 959 959 959 962 962 962 964 964 967 970 970 975 984 987
    987 987 989 995 1019 1025 1028 1031 1034 978 978 978 981 981 987 987
    989 989 992 992 992 992 992 3120 3120 3120 3149 3178 3208 3208 3208
    3208 3208 3208 3208 3208 3208 3208 3208 3208 3208 3208 3178 3178
    3178 3178 0 0 0 0 0 0 3653 3653 3692 3653 3614 3614 3653 3692 3732
    3692 3692 3692 3692 3692 3653 3653 3653 3653 3653 3614 3614 3614
    3614 3576 3576 3614 3576 3576 3576 3576 3576 3576 3576 3576 3576
    3539 951 951 951 954 954 954 959 959 962 962 962 962 964 964 967 973
    978 981 984 987 987 987 989 992 1016 1025 1028 1031 1031 1034 978
    978 981 981 987 987 989 992 992 992 992 992 992 0 3149 3149 3149
    3178 3208 3208 3208 3208 3208 3208 3208 3178 3178 3178 3178 3178
    3178 3178 3178 3178 3149 3149 0 0 0 0 0 0 3653 3653 3692 3653 3653
    3653 3653 3653 3653 3653 3653 3653 3653 3692 3653 3653 3653 3653
    3614 3614 3614 3614 3614 3576 3576 3614 3576 3576 3576 3576 3576
    3576 3576 3576 3576 954 951 951 954 954 954 954 956 959 962 962 962
    964 964 967 975 978 984 987 987 987 987 989 989 992 998 1022 1028
    1031 1031 1031 978 978 981 981 987 989 989 992 992 995 992 992 0 998
    0 0 3208 3208 3208 3208 3208 3208 3208 3178 3178 3149 3149 3149 3178
    3149 3149 3149 3149 3149 3149 3120 0 0 0 0 0 0 3692 3692 3692 3692
    3692 3653 3653 3653 3653 3614 3614 3614 3614 3653 3614 3614 3614
    3614 3614 3614 3614 3576 3576 3576 3576 3576 3576 3576 3576 3576
    3539 3539 3576 954 954 954 954 954 954 954 954 954 956 959 962 962
    964 964 964 967 981 984 987 987 987 987 987 989 989 989 998 1022
    1028 1031 1031 1031 1031 978 978 981 987 989 989 992 992 995 995 995
    998 0 0 3208 3208 3208 3208 3208 3208 3208 3178 3178 3178 3149 3149
    3149 3149 3120 3120 3120 3120 3120 3120 3120 0 0 0 0 0 0 3653 3653
    3653 3692 3692 3692 3614 3614 3614 3614 3614 3614 3614 3614 3614
    3614 3614 3614 3614 3614 3576 3576 3576 3576 3576 3576 3576 3576
    3539 3503 3503 3503 954 954 954 954 954 954 954 954 954 954 956 959
    962 962 964 964 967 973 984 987 987 989 987 987 989 989 989 989 1025
    1025 1028 1031 1031 1031 1031 978 978 978 987 989 989 989 992 995
    995 998 998 998 998 0 3208 3208 3208 3208 3208 3208 3178 3178 3149
    3149 3120 3120 3120 3120 3120 3120 3120 3120 3120 3092 0 0 0 0 0 0
    3653 3653 3653 3653 3653 3653 3614 3614 3614 3576 3576 3614 3614
    3614 3614 3614 3614 3614 3614 3576 3576 3576 3576 3576 3539 3539
    3539 3576 3539 3503 3503 951 951 951 954 954 954 954 954 954 954 956
    959 959 962 964 964 970 970 975 984 987 987 989 989 989 989 992 992
    1022 1022 1022 1025 1028 1028 1031 1031 1031 978 978 987 989 989 989
    992 992 995 998 998 995 995 995 0 0 3208 3208 3208 3208 3178 3178
    3149 3120 3120 3120 3120 3120 3120 3092 3092 3092 3092 3092 0 0 0 0
    0 0 3653 3653 3653 3653 3653 3614 3614 3576 3576 3576 3576 3576 3576
    3614 3614 3614 3576 3576 3576 3576 3576 3576 3576 3576 3539 3539
    3539 951 951 951 951 951 951 951 954 954 954 954 954 954 954 956 959
    959 962 964 967 975 975 978 984 987 987 989 989 989 992 995 998 1022
    1022 1022 1025 1028 1028 1031 1031 1031 1034 987 987 987 989 989 992
    992 995 995 998 995 995 0 0 3208 0 3208 3208 3178 3178 3149 3120
    3120 3120 3120 3120 3092 3092 3092 3092 3092 3092 3092 0 0 0 0 0 0
    3653 3614 3614 3614 3614 3614 3576 3576 3576 3576 3576 3576 3576
    3576 3576 3576 3576 3576 3576 3576 3576 3576 3576 3576 3576 3539 948
    948 948 948 948 951 951 951 951 951 954 954 954 954 954 956 959 959
    962 964 973 978 981 984 984 987 987 989 989 992 995 1013 1019 1022
    1022 1022 1025 1028 1028 1031 1031 1031 1031 987 987 987 989 989 989
    989 992 992 995 995 998 998 998 995 3208 3208 3208 3178 3149 3149
    3120 3120 3120 3120 3092 3092 3092 3092 3064 3064 3064 3064 0 0 0 0
    0 0 3653 3614 3614 3614 3614 3614 3576 3576 3576 3576 3576 3576 3576
    3576 3576 3576 3576 3576 3576 3576 3539 3539 3576 3576 3576 948 948
    948 948 948 948 948 951 951 951 951 954 954 954 954 956 956 959 959
    964 964 975 978 981 981 981 984 987 992 992 992 1001 1019 1019 1022
    1022 1022 1025 1025 1025 1028 1028 1031 1031 987 987 987 989 989 989
    989 989 989 989 995 998 995 995 995 995 3208 3208 3149 3120 3120
    3120 3120 3120 3092 3092 3092 3092 3092 3064 3064 3064 3064 0 0 0 0
    0 0 3653 3614 3614 3614 3576 3576 3576 3576 3576 3576 3576 3539 3539
    3539 3539 3576 3576 3576 3576 3576 3539 3539 3539 3576 948 948 948
    946 946 946 946 946 948 951 954 954 954 954 954 956 956 959 959 959
    964 964 973 975 975 981 981 984 984 995 998 1016 1019 1022 1022 1022
    1022 1022 1025 1025 1025 1028 1028 1031 1031 1031 987 987 989 989
    989 989 989 989 989 992 998 995 995 995 1001 3120 3120 3120 3120
    3120 3120 3120 3120 3092 3092 3092 3064 3064 3064 3064 3037 3037 0 0
    0 0 0 0 3614 3576 3576 3576 3539 3539 3576 3576 3576 3576 3539 3539
    3539 3503 3503 3576 3576 3576 3576 3576 3539 3539 3539 943 943 946
    946 946 946 946 946 946 948 951 954 954 954 954 956 959 959 962 962
    962 964 964 964 970 975 978 981 984 984 1010 1016 1019 1022 1022
    1022 1022 1022 1025 1025 1025 1028 1028 1031 1031 1031 989 989 989
    989 989 989 989 987 987 987 989 995 998 998 1001 1001 1001 3120 3120
    3064 3064 3092 3092 3120 3092 3092 3092 3064 3064 3064 3037 3037
    3010 0 0 0 0 0 0 3614 3576 3539 3539 3539 3539 3576 3576 3576 3576
    3539 3539 3503 3468 3468 3539 3539 3539 3539 3539 3539 3539 940 940
    943 946 946 946 946 948 948 948 948 951 954 954 956 956 959 959 962
    962 962 962 962 964 964 967 973 978 984 984 1004 1016 1019 1019 1022
    1022 1022 1022 1022 1025 1028 1028 1028 1028 1031 1031 1031 989 989
    989 989 989 989 989 987 987 987 987 992 998 998 998 998 1001 0 3064
    3064 3064 3092 3092 3092 3092 3064 3064 3064 3064 3064 3037 3037
    3010 0 0 0 0 0 0 3576 3576 3503 3503 3503 3503 3539 3539 3539 3539
    3503 3503 3468 3468 3468 3503 3539 3539 3539 3539 3539 940 940 940
    943 943 943 943 946 948 948 951 954 956 956 956 956 956 959 959 962
    962 962 962 962 964 964 964 970 975 995 995 1004 1013 1016 1019 1019
    1022 1022 1022 1022 1025 1028 1028 1028 1028 1031 984 984 984 987
    989 989 989 989 989 987 987 987 987 992 998 998 998 998 1001 1004 0
    1004 3092 3092 3092 3064 3064 3064 3064 3064 3037 3037 3010 3010
    3010 0 0 0 0 0 0 3539 3539 3503 3503 3503 3503 3539 3539 3539 3539
    3503 3503 3468 3468 3468 3503 3503 3539 3539 943 943 940 940 940 943
    943 943 943 943 946 948 951 954 956 959 959 959 959 962 962 962 962
    959 959 962 962 964 964 967 967 1010 1010 1010 1013 1016 1019 1019
    1022 1022 1022 1022 1025 1028 1028 1028 981 981 981 984 984 987 989
    989 989 989 989 987 984 984 987 992 998 998 1001 1001 1001 1004 1004
    1007 3064 3064 3064 3037 3037 3037 3037 3037 3037 3037 3010 3010
    3010 0 0 0 0 0 0 3539 3539 3503 3503 3503 3503 3539 3539 3539 3539
    3503 3503 3468 3468 3468 3468 3468 3576 943 943 940 940 940 940 943
    943 940 940 943 946 951 954 956 956 959 959 962 962 962 962 962 959
    956 956 959 962 964 964 964 964 964 1010 1010 1013 1016 1019 1019
    1022 1022 1022 1022 1025 1028 1028 981 981 981 981 984 984 987 989
    989 989 989 987 987 984 984 987 992 995 998 998 1001 1001 1004 1007
    1007 0 3037 3037 3037 3037 3037 3037 3037 3037 3010 3010 2984 2984 0
    0 0 0 0 0 3539 3539 3503 3503 3503 3503 3503 3503 3503 3503 3503
    3503 3433 3433 3503 3468 3468 940 940 940 940 940 940 940 943 943
    940 940 943 948 951 956 959 962 962 962 962 962 962 962 962 956 956
    956 956 962 962 964 964 964 964 1010 1010 1013 1016 1016 1019 1019
    1022 1022 1022 1025 1028 975 975 978 981 981 981 981 987 989 989 989
    987 987 984 981 981 987 992 995 998 998 1001 1001 1004 1004 1004
    1010 3037 3037 3037 3037 3037 3037 3010 3010 2984 2984 2984 2984 0 0
    0 0 0 0 3539 3503 3503 3503 3468 3468 3468 3468 3503 3503 3503 3503
    3433 3433 3433 935 935 935 938 938 938 940 940 940 943 943 943 946
    951 954 954 956 962 962 962 962 962 962 962 962 959 956 956 956 956
    962 962 964 964 964 964 964 964 1016 1016 1016 1019 1019 1022 1022
    1022 975 975 975 975 978 981 981 981 981 984 987 989 989 987 987 984
    981 981 987 992 995 998 998 1001 1001 1004 1004 1010 1010 1010 3037
    3037 3010 3010 3010 2984 2984 2958 2958 2958 2958 0 0 0 0 0 0 3503
    3503 3468 3468 3468 3468 3468 3468 3503 3503 3503 3503 3503 3503 935
    935 935 935 935 938 938 940 940 940 943 943 946 948 951 956 956 962
    962 962 964 964 962 962 962 962 959 959 959 959 959 959 959 962 962
    964 964 964 964 1016 1016 1016 1019 1019 1019 1022 975 975 975 975
    975 981 981 981 981 981 984 987 989 989 987 987 984 981 981 987 992
    995 998 998 1001 1001 1001 1004 1010 0 1010 0 3010 3010 2984 2984
    2984 2958 2958 2933 2908 2908 0 0 0 0 0 0 3503 3468 3468 3468 3468
    3468 3433 3433 3468 3503 3503 3539 3539 940 935 935 935 935 935 940
    940 940 940 943 943 946 948 951 954 956 956 962 962 964 964 964 964
    962 962 962 962 962 962 962 959 959 959 962 962 964 964 964 964 967
    1016 1016 1019 1019 1019 975 975 973 973 973 975 978 981 981 981 981
    987 987 989 989 987 987 984 984 984 987 995 998 998 998 1001 1001
    1001 1004 1007 1010 0 1010 3010 3010 2984 2984 2984 2958 2933 2908
    2908 2908 0 0 0 0 0 0 3503 3468 3433 3433 3433 3433 3399 3333 3300
    3300 3576 3576 940 940 935 935 935 935 935 940 940 940 940 943 946
    951 951 954 954 956 956 962 962 964 964 964 964 964 964 964 962 962
    962 962 959 959 959 962 962 964 964 964 964 967 967 1016 1019 975
    975 975 975 973 973 973 975 978 978 981 981 981 987 987 989 989 989
    989 989 987 987 989 995 998 998 1001 1001 1001 1001 1004 1007 1007
    1010 1010 1010 2984 2984 2984 2958 2958 2933 2908 2908 2908 0 0 0 0
    0 0 3468 3468 3433 3433 3399 3399 3399 3333 3300 3300 3300 933 933
    933 933 933 933 935 935 940 940 940 940 943 951 954 954 954 954 956
    956 962 962 962 962 964 964 964 964 964 962 962 962 962 962 962 962
    962 962 964 964 964 964 967 967 970 973 973 975 975 975 973 973 973
    975 978 978 978 981 981 987 987 987 989 989 989 989 989 989 995 998
    1001 1001 1001 1004 1004 1004 1004 1007 1007 1010 1010 1010 1013
    2984 2984 2958 2933 2933 2908 2908 2908 0 0 0 0 0 0 3433 3433 3399
    3399 3399 3399 3399 3399 923 923 923 930 930 930 933 933 933 935 935
    938 940 940 940 946 951 954 954 954 956 956 959 962 962 962 962 964
    964 964 964 964 964 964 964 962 962 962 962 962 964 964 964 964 964
    967 967 970 973 973 973 973 973 973 973 973 975 978 978 978 981 984
    987 987 987 989 989 989 989 989 995 998 1001 1001 1001 1004 1004
    1004 1004 1004 1007 1007 1010 1010 1013 1013 1013 2958 2958 2933
    2908 2908 2908 2908 0 0 0 0 0 0 3399 3365 3365 3365 3365 3399 3399
    925 923 923 923 930 930 930 930 930 933 935 935 938 940 940 943 948
    951 954 956 956 956 956 959 962 962 962 962 964 964 964 964 964 964
    964 964 964 962 962 962 964 964 964 964 964 967 967 967 970 970 973
    973 973 973 973 973 973 975 978 978 981 984 984 987 987 987 989 989
    989 989 992 995 1001 1004 1019 1019 1013 1007 1004 1004 1007 1007
    1010 1010 1010 1013 1013 1013 1101 1105 1105 1101 1101 1101 1105 0 0
    0 0 0 0 3365 3365 3365 3365 3365 3365 925 925 925 928 928 930 930
    930 930 930 933 935 935 938 940 940 946 948 954 954 956 959 959 959
    959 962 962 962 962 964 964 964 964 964 964 964 964 964 964 964 964
    964 964 964 964 964 967 967 967 970 970 973 973 973 973 973 973 975
    978 981 981 984 984 984 987 987 987 987 989 989 989 992 995 1004
    1010 1019 1022 1016 1007 1004 1004 1007 1007 1010 1010 1010 1010
    1010 1010 1101 1101 1101 1101 1101 1101 1101 0 0 0 0 0 0 3365 3365
    3365 3365 3365 928 925 925 925 928 928 930 933 933 933 933 933 935
    935 943 943 943 948 951 954 954 956 956 959 959 959 959 962 962 962
    964 964 964 964 964 964 964 967 964 964 964 964 964 964 964 964 964
    967 967 967 970 970 973 973 973 973 973 973 975 978 981 981 984 984
    984 987 987 987 987 989 989 989 992 998 1007 1013 1019 1022 1022
    1013 1004 1004 1004 1007 1010 1010 1010 1010 1010 1010 1010 1097
    1097 1097 1097 1101 1101 0 0 0 0 0 0 3365 3333 3333 920 920 923 923
    923 925 925 928 930 933 933 933 933 935 935 938 946 948 948 954 954
    954 956 956 956 959 959 959 959 962 962 962 962 962 964 964 964 964
    964 967 967 964 964 964 964 964 964 964 964 967 967 967 970 970 970
    973 973 973 973 973 975 981 981 981 984 984 984 987 987 989 989 989
    989 992 995 1001 1007 1013 1016 1019 1022 1016 1007 1004 1004 1010
    1007 1007 1010 1010 1010 1010 1010 1097 1097 1097 1097 1097 1101 0 0
    0 0 0 0 3365 3333 3333 920 920 923 923 923 923 925 928 928 930 933
    933 933 935 935 940 948 951 951 954 954 954 956 956 959 956 956 959
    959 962 962 962 962 962 964 964 964 964 967 970 970 967 964 964 964
    964 964 964 967 967 967 967 967 970 970 973 973 973 973 973 975 978
    981 981 981 981 984 987 987 989 989 992 995 995 998 998 1007 1013
    1016 1019 1022 1019 1010 1004 1004 1010 1007 1007 1010 1010 1010
    1010 1010 1097 1097 1094 1094 1097 1097 0 0 0 0 0 0 3399 920 920 920
    920 923 923 923 923 925 925 928 930 930 930 933 935 935 940 948 951
    951 954 954 954 954 954 956 956 956 959 959 962 962 962 962 964 964
    964 964 967 967 970 970 970 964 964 962 962 964 964 967 967 967 967
    967 967 967 970 973 973 973 973 975 978 978 978 981 981 984 987 987
    989 992 998 998 998 998 998 1007 1013 1013 1016 1022 1022 1016 1007
    1007 1007 1007 1007 1010 1010 1010 1010 1013 1097 1094 1094 1094
    1094 1094 0 0 0 0 0 0 0 920 920 920 920 923 923 923 923 925 925 928
    928 930 930 933 935 935 940 948 951 951 954 954 954 954 954 954 959
    959 959 959 962 962 962 962 964 964 967 967 967 967 970 970 967 964
    964 962 962 964 964 964 964 964 964 964 967 967 970 973 973 973 973
    975 975 978 978 981 981 984 987 989 989 998 1001 1001 998 998 1001
    1007 1013 1013 1016 1022 1022 1019 1010 1007 1007 1007 1007 1007
    1010 1010 1010 1013 1013 1013 1094 1094 1094 1097 0 0 0 0 0 0 920
    920 920 920 920 920 923 923 923 923 928 928 928 930 933 935 935 935
    940 943 948 951 951 954 954 954 954 954 959 959 962 962 962 962 962
    962 964 967 967 967 967 967 970 970 967 964 964 962 962 964 964 964
    964 964 964 964 967 967 970 970 970 973 975 975 975 975 978 978 981
    984 989 992 998 1001 1001 1001 998 998 1004 1004 1010 1013 1016 1022
    1022 1022 1013 1007 1007 1007 1007 1007 1010 1010 1010 1013 1013
    1013 1090 1090 1090 1094 0 0 0 0 920 920 920 920 920 920 920 920 923
    923 923 923 928 928 928 928 930 935 935 935 940 943 946 948 951 954
    954 954 954 954 959 962 962 962 962 962 962 962 964 964 970 970 970
    970 967 967 964 964 964 962 962 964 964 964 964 964 964 970 970 970
    970 970 970 973 975 975 975 975 978 978 984 987 992 998 998 1001
    1001 1001 1001 1001 1004 1004 1010 1013 1016 1019 1019 1019 1016
    1010 1007 1007 1007 1010 1010 1010 1010 1010 1010 1094 1090 1090
    1090 1090 0 0 0 913 913 920 920 920 920 920 920 920 923 923 925 925
    928 928 928 928 930 935 935 938 940 946 946 948 951 954 954 954 954
    954 959 962 962 962 962 962 962 962 964 964 964 970 970 970 967 964
    964 964 964 962 962 964 964 964 964 964 964 970 973 970 970 970 970
    973 975 975 975 975 978 981 984 989 995 998 1001 1001 1001 1004 1004
    1004 1004 1007 1010 1013 1016 1016 1019 1019 1016 1013 1010 1010
    1010 1010 1010 1010 1010 1010 1010 1090 1090 1090 1090 1090 0 0 918
    913 913 918 918 918 920 920 920 920 920 920 925 928 928 930 930 930
    930 930 933 940 940 940 946 948 951 954 954 954 954 956 959 962 962
    962 962 962 962 962 964 964 964 964 964 967 964 964 962 962 962 962
    962 962 962 962 962 964 964 970 973 973 973 970 970 973 975 975 975
    975 978 984 987 989 995 998 998 1001 1001 1001 1007 1010 1010 1010
    1010 1010 1010 1013 1016 1019 1019 1016 1010 1010 1010 1010 1010
    1010 1010 1010 1010 1090 1090 1090 1090 1090 0 915 915 918 918 918
    918 918 920 920 920 920 920 920 923 923 925 930 930 930 930 930 933
    933 940 940 943 948 951 954 954 954 954 956 959 959 959 959 962 962
    962 962 964 964 964 964 964 964 964 962 962 962 962 962 962 962 962
    962 962 964 964 970 970 970 970 973 973 973 975 975 975 978 978 984
    987 987 992 995 998 998 998 1001 1004 1010 1010 1010 1007 1007 1010
    1013 1016 1019 1016 1010 1010 1007 1007 1010 1010 1010 1010 1010
    1010 1013 1013 1013 1013 1013 0 915 915 918 915 915 918 918 918 918
    918 920 920 920 923 923 925 930 930 930 930 930 933 933 935 938 938
    946 948 951 954 954 956 956 956 959 959 959 959 959 962 964 964 964
    964 964 964 964 962 962 962 962 962 962 962 962 962 962 964 964 967
    970 970 970 970 973 973 973 973 975 975 978 978 984 984 984 989 992
    995 998 998 1001 1004 1010 1010 1010 1007 1007 1010 1013 1013 1013
    1013 1010 1010 1007 1007 1007 1007 1010 1010 1010 1010 1013 1013
    1013 1013 1013 913 915 915 915 915 915 915 915 915 915 918 920 920
    920 923 925 925 928 930 930 930 930 933 933 933 935 938 943 943 946
    951 954 956 956 956 956 956 959 959 959 962 964 964 964 964 962 962
    962 962 962 959 959 959 959 962 962 964 964 964 964 964 967 967 967
    970 973 973 973 973 975 975 978 984 981 981 984 989 989 995 998 1001
    1001 1004 1010 1010 1010 1010 1010 1010 1010 1013 1013 1013 1010
    1010 1010 1007 1007 1007 1007 1010 1010 1013 1013 1013 1013 1013
    1013 913 915 915 915 915 915 915 915 915 915 918 918 918 920 923 923
    923 925 928 930 933 933 933 933 933 935 935 940 943 943 948 951 956
    956 956 956 956 959 959 959 962 962 964 962 962 962 962 962 962 962
    959 959 959 959 962 962 964 964 964 964 964 967 967 967 970 973 973
    973 973 975 975 978 981 981 981 984 989 989 992 998 998 1001 1013
    1010 1010 1010 1010 1010 1007 1007 1007 1007 1007 1010 1010 1010
    1007 1007 1007 1007 1010 1010 1010 1010 1013 1013 1013 1013 913 913
    915 915 913 913 913 915 915 915 918 918 918 923 923 923 923 925 928
    930 933 933 933 933 933 935 935 940 940 943 946 951 954 954 956 956
    956 959 959 959 962 962 962 959 959 959 956 956 956 959 959 959 959
    959 962 964 964 964 964 964 964 967 967 967 970 973 973 973 973 975
    975 975 981 981 981 984 987 989 992 998 998 1001 1010 1010 1010 1010
    1010 1010 1007 1004 1004 1004 1004 1007 1007 1010 1007 1007 1007
    1007 1010 1010 1010 1010 1013 1013 1013 2701 913 913 913 913 913 913
    913 915 918 918 918 920 923 923 923 923 923 925 928 930 933 933 933
    933 933 935 935 940 940 943 946 946 948 951 954 959 959 959 959 962
    962 959 959 956 954 954 954 954 954 956 959 959 962 962 962 964 964
    964 964 964 964 967 967 967 970 973 973 973 975 975 975 975 981 981
    981 984 987 989 992 995 998 998 1001 1007 1010 1010 1010 1010 1013
    1001 1001 1001 1001 1001 1004 1004 1007 1007 1007 1007 1010 1010
    1010 1010 1010 1013 1013 2701 913 913 913 913 915 913 913 915 920
    920 928 938 948 948 923 923 923 923 925 930 933 933 933 933 933 933
    935 938 940 943 943 946 946 951 951 954 956 959 962 962 962 954 954
    956 954 954 954 954 954 956 956 962 962 962 962 964 964 964 964 967
    967 967 967 967 970 973 973 975 975 975 975 975 978 981 981 984 987
    989 989 995 998 998 1001 1004 1007 1007 1010 1010 1001 1001 1001
    1001 1001 1001 1001 1004 1004 1007 1007 1007 1010 1010 1010 1010
    1010 1010 2701 2701 913 915 915 915 918 923 928 935 930 930 938 940
    943 948 943 925 923 923 925 933 933 933 933 935 933 933 935 938 940
    940 943 946 946 948 951 954 954 954 959 959 959 951 951 954 954 954
    954 954 954 956 956 962 962 962 962 964 964 964 964 967 967 970 973
    970 970 970 973 975 973 973 975 975 978 981 984 984 987 989 989 989
    995 998 1001 1004 1007 1007 1010 1007 1001 1001 1001 1001 1001 1001
    1001 1001 1004 1004 1007 1007 1007 1010 1010 1010 1010 2701 2701
    2701 918 915 915 920 923 928 933 935 938 938 938 938 940 946 943 938
    928 928 928 930 933 933 933 935 933 933 933 933 940 940 940 943 946
    948 951 951 951 954 954 954 954 951 951 951 954 954 954 954 954 956
    956 962 962 962 962 962 964 964 964 967 970 973 973 970 970 970 973
    973 973 973 973 975 975 978 981 984 987 989 989 989 992 995 998 1001
    1001 1004 1004 1004 1001 1001 1001 1001 1001 1001 1001 1001 1004
    1004 1004 1004 1004 1010 1010 1010 1010 2701 2701 2701 923 923 923
    928 930 930 935 935 935 938 938 938 940 943 943 946 933 928 928 930
    930 933 933 933 933 933 933 933 940 940 940 943 943 946 948 951 951
    951 951 951 951 951 951 951 954 954 954 954 954 956 959 962 962 962
    962 962 964 964 967 967 970 970 973 973 973 973 973 973 973 973 973
    973 975 978 981 984 987 989 989 989 992 995 998 998 1001 1001 1001
    1001 1001 1001 1001 1001 1001 1001 1001 1001 1001 1001 1001 1001
    1004 1010 1010 2701 2701 2701 2701 2701 925 925 930 930 930 933 935
    935 935 935 935 938 938 940 943 946 943 925 925 928 930 930 933 933
    933 933 933 933 940 940 940 943 943 943 948 948 951 948 946 946 948
    948 951 951 951 954 954 954 954 959 959 959 962 962 962 962 964 967
    967 967 967 970 970 973 970 970 973 973 973 973 973 973 975 975 978
    984 987 989 989 989 992 992 995 998 998 1001 1001 1001 1001 1001
    1001 1001 1001 1001 1001 1001 1001 1001 1001 1001 1004 1004 2701
    2701 2701 2701 2701 2701 925 928 933 933 933 933 935 935 935 935 935
    938 938 940 940 943 946 925 925 928 930 930 933 933 933 933 933 933
    935 940 940 940 940 943 946 948 948 948 946 946 948 948 951 951 951
    954 954 954 954 959 959 959 962 962 962 964 964 964 967 967 967 970
    970 970 970 970 973 973 973 973 975 975 975 975 978 984 987 989 989
    989 989 992 995 998 998 998 998 998 1001 1001 1001 1001 1001 1001
    1001 1001 1001 1001 1001 1001 1001 2680 2701 2701 2701 2701 2701
    2680 925 930 933 933 933 933 935 935 935 938 938 940 940 940 940 943
    946 948 930 930 930 930 933 933 933 933 933 935 935 940 940 940 940
    943 943 946 946 946 946 946 946 948 951 951 951 954 954 954 954 956
    959 962 962 962 962 964 964 964 967 967 967 970 970 970 973 973 973
    973 973 973 975 975 975 978 978 978 987 989 989 989 989 989 992 998
    998 998 998 998 998 998 998 998 998 998 998 1001 1001 1001 1001 1001
    2680 2680 2680 2680 2680 2680 2680 2680 925 930 933 933 933 933 935
    935 935 938 938 938 938 940 940 943 946 951 956 964 930 930 933 933
    933 933 933 935 940 940 940 940 940 943 943 943 946 946 943 943 946
    951 951 954 954 954 954 954 954 956 959 962 962 962 964 964 964 964
    964 964 964 967 967 973 973 973 973 973 973 973 975 978 978 978 978
    978 987 987 987 989 989 989 989 995 995 998 995 995 998 998 998 998
    998 998 998 1001 1001 1001 1001 1001 2680 2680 2680 2659 2659 2659
    2659 2659 928 933 933 933 933 933 933 933 933 938 938 938 938 940
    940 943 946 951 956 964 962 933 933 933 933 933 933 935 940 940 940
    940 940 943 943 943 943 943 943 943 946 948 951 951 954 954 954 954
    954 956 959 962 962 964 964 964 964 964 964 964 964 967 967 970 973
    973 975 973 973 973 975 975 975 975 975 975 978 981 987 987 989 989
    989 995 995 995 995 995 995 998 998 998 998 998 998 1001 1001 1001
    1001 2680 2680 2680 2680 2659 2659 2659 2639 2639 930 933 930 930
    933 933 933 933 933 935 935 935 938 940 943 943 946 956 962 964 962
    962 938 933 933 933 933 935 940 940 940 940 940 943 943 943 943 943
    946 946 946 948 951 951 954 954 954 954 954 956 959 962 962 964 962
    962 964 964 967 964 964 967 967 970 973 973 975 973 973 973 975 975
    975 975 975 975 978 981 987 987 989 989 989 992 995 995 995 995 995
    995 998 998 998 998 998 1001 1004 1004 2680 2680 2659 2659 2680 2659
    2659 2639 2639 2639 930 933 930 930 933 933 933 933 933 933 933 933
    935 938 943 946 948 956 962 967 923 923 918 918 933 933 933 938 938
    938 938 940 940 940 943 943 943 943 943 946 946 948 948 951 951 954
    954 954 954 956 959 962 962 964 962 962 964 967 967 964 964 964 967
    970 973 973 973 973 973 975 975 975 975 975 975 978 981 984 987 987
    989 989 989 992 992 992 992 992 995 995 995 998 998 998 998 998 998
    2659 2659 2659 2659 2659 2659 2659 2659 2639 2639 2639 928 930 930
    930 933 933 933 933 933 933 933 933 935 938 943 946 951 959 964 970
    923 923 918 918 935 935 935 935 938 938 938 940 940 940 943 943 943
    943 943 943 943 946 948 951 951 951 954 954 954 956 959 962 962 964
    964 964 964 964 967 964 964 964 967 970 973 973 973 975 975 975 975
    975 978 978 978 978 981 984 987 987 989 989 989 989 989 989 989 989
    992 992 995 998 998 998 998 2639 2639 2659 2659 2659 2639 2639 2639
    2659 2659 2659 2639 2639 925 928 930 930 933 933 933 933 933 933 933
    933 935 940 943 948 954 967 970 970 928 928 933 933 933 933 933 935
    935 938 940 940 940 940 943 943 943 943 943 943 943 946 948 951 951
    951 954 954 954 959 959 962 962 962 962 964 964 964 967 964 964 964
    964 967 973 973 973 975 975 975 975 978 978 981 981 981 984 984 987
    987 987 989 989 989 989 989 989 989 989 992 995 998 998 1001 2659
    2639 2639 2639 2659 2639 2639 2639 2639 2639 2639 2639 2639 2639 925
    928 930 930 933 933 933 933 933 933 933 933 935 940 954 954 962 973
    970 970 928 928 930 933 933 933 933 933 935 935 938 940 940 940 940
    940 940 943 943 946 946 946 948 951 951 951 954 954 954 956 959 962
    962 962 962 962 962 964 964 964 964 964 964 967 973 973 975 975 975
    978 978 978 978 981 981 981 984 984 987 987 987 987 989 987 987 987
    987 989 989 992 992 2659 2639 2639 2639 2639 2639 2639 2639 2639
    2639 2639 2639 2618 2618 2639 2618 2618 925 928 928 930 930 933 933
    933 933 933 935 935 938 984 975 975 973 970 967 967 928 928 930 930
    930 933 933 933 933 935 938 940 940 940 940 940 940 943 943 946 946
    946 948 951 951 954 954 954 956 956 959 959 962 962 962 962 962 964
    964 964 964 964 964 973 973 973 975 975 975 978 978 978 978 981 984
    984 987 987 987 987 987 987 989 987 987 987 987 989 989 989 2639
    2659 2659 2639 2639 2639 2639 2639 2639 2639 2639 2639 2639 2618
    2618 2618 2598 2598 925 928 928 930 930 930 930 933 933 933 935 935
    938 984 975 975 973 970 967 967 933 930 930 930 930 930 933 933 933
    935 935 938 940 940 940 943 943 943 943 943 943 946 946 951 951 951
    954 954 956 956 959 959 962 962 962 962 962 964 964 964 964 964 964
    967 970 973 975 975 978 978 978 978 975 975 975 984 987 987 987 987
    987 987 987 987 987 987 987 989 989 2639 2639 2639 2639 2639 2639
    2639 2639 2639 2618 2618 2618 2618 2639 2618 2618 2618 2598 2598 923
    928 928 930 930 930 930 933 935 935 935 935 938 981 975 975 975 975
    975 933 930 930 928 928 930 930 930 933 933 935 935 938 940 940 940
    943 943 943 943 943 943 943 946 948 951 951 954 954 956 956 959 959
    962 962 962 962 962 962 964 964 964 964 964 967 970 973 975 975 978
    978 975 975 975 975 975 984 987 984 984 987 987 987 987 987 987 989
    989 2639 2639 2639 2639 2639 2639 2639 2639 2639 2618 2618 2618 2618
    2618 2618 2618 2618 2618 2598 2579 2579 920 923 928 928 930 928 928
    930 933 935 938 943 946 981 975 975 975 928 928 930 930 930 928 928
    928 928 930 933 933 933 938 938 940 940 940 943 943 943 943 943 943
    943 946 948 951 954 954 954 956 956 956 959 962 962 962 962 962 962
    964 964 964 964 967 970 970 970 975 975 978 975 975 975 975 975 975
    978 987 984 984 984 984 987 987 987 987 987 2639 2639 2639 2639 2639
    2639 2639 2639 2639 2639 2618 2618 2618 2618 2618 2618 2618 2618
    2618 2598 2579 2579 913 915 918 923 928 928 928 930 930 935 938 946
    951 964 964 930 928 928 928 928 930 928 928 928 928 928 930 933 933
    933 938 938 940 940 940 940 940 943 943 943 943 943 946 948 951 954
    954 954 956 956 956 959 959 962 962 962 964 964 964 964 964 967 967
    970 970 970 973 975 975 975 975 975 975 975 975 975 981 984 981 981
    984 987 987 987 987 2618 2639 2639 2639 2639 2639 2639 2639 2639
    2639 2618 2618 2618 2618 2618 2598 2598 2598 2598 2598 2598 2579
    2579 913 915 918 920 923 925 928 928 930 933 940 946 951 954 928 928
    928 925 925 925 928 928 928 928 928 930 930 933 933 935 940 940 940
    940 940 940 940 943 943 943 943 943 946 948 951 954 954 954 954 954
    956 956 956 962 962 962 964 964 967 967 967 967 967 970 970 970 973
    973 975 975 975 975 975 975 975 975 981 984 981 981 984 987 987 987
    2618 2618 2639 2639 2639 2639 2639 2639 2639 2618 2618 2618 2618
    2618 2618 2598 2598 2598 2598 2598 2598 2598 2579 2560 913 915 918
    920 923 923 925 928 928 933 940 948 946 925 923 923 923 923 923 923
    928 928 928 928 928 930 933 933 935 938 940 940 940 940 940 940 940
    943 946 946 943 943 946 948 951 954 954 954 954 954 956 956 956 962
    962 962 962 964 964 964 967 967 970 970 970 970 973 973 973 973 975
    975 975 975 975 975 981 981 981 981 981 981 2639 2639 2618 2618 2639
    2639 2639 2639 2639 2639 2618 2618 2618 2598 2598 2598 2598 2598
    2598 2579 2579 2579 2579 2579 2560 2560 913 915 915 918 920 920 923
    925 925 928 933 925 925 925 923 923 923 923 923 923 923 925 928 930
    930 930 933 933 935 940 940 940 940 940 940 943 943 943 946 946 943
    943 948 948 951 954 954 954 956 956 956 959 959 959 962 962 962 964
    964 964 964 967 970 970 970 970 973 973 973 973 975 975 975 975 975
    975 978 981 978 978 978 0 2639 2639 2639 2639 2639 2639 2618 2618
    2618 2618 2618 2618 2618 2598 2598 2598 2598 2598 2598 2579 2579
    2579 2560 2560 2560 2541 913 913 913 915 918 918 920 920 923 923 923
    923 923 923 920 920 920 920 923 923 923 923 925 930 930 930 933 933
    935 935 938 940 940 943 943 943 943 943 946 946 948 948 948 948 951
    951 954 954 959 956 956 959 959 959 959 962 962 964 964 964 964 964
    970 970 970 973 973 973 973 973 975 973 973 975 975 975 978 981 978
    978 978 2618 2659 2659 2639 2639 2639 2618 2618 2618 2618 2618 2618
    2618 2618 2598 2598 2598 2598 2579 2579 2560 2560 2560 2560 2560
    2541 2541 910 910 913 913 915 915 918 920 920 923 920 920 920 920
    920 920 920 920 923 923 923 923 923 928 928 930 933 933 935 935 938
    940 940 940 940 943 943 943 946 946 946 948 948 948 951 951 951 954
    956 956 956 959 959 959 959 962 962 964 964 964 964 964 970 970 973
    973 973 973 973 973 973 973 973 975 975 975 981 981 978 978 2618
    2618 2639 2639 2639 2639 2639 2618 2618 2618 2618 2598 2598 2598
    2579 2579 2579 2579 2579 2560 2560 2560 2541 2541 2541 2541 2541
    2522 910 910 910 913 913 913 915 918 918 920 920 920 920 918 918 918
    918 920 923 923 923 923 923 928 928 933 933 935 935 935 938 938 940
    940 940 943 943 943 946 946 946 946 951 951 951 951 951 954 954 956
    956 956 956 959 962 962 962 964 964 964 964 964 967 967 970 970 973
    973 973 973 973 973 973 973 975 975 975 2618 2618 2618 2618 2618
    2639 2639 2639 2618 2618 2618 2618 2598 2598 2598 2598 2598 2579
    2579 2579 2579 2560 2560 2560 2541 2541 2541 2541 2541 2522 2522 910
    910 910 913 913 913 913 915 918 918 918 918 918 918 918 918 918 920
    923 925 925 925 925 928 930 933 935 935 935 935 938 938 940 940 943
    943 943 946 946 946 946 946 948 948 951 951 951 951 954 954 954 956
    956 959 962 962 964 964 964 964 964 964 967 967 970 970 970 970 970
    973 973 973 973 973 973 2618 2618 2618 2618 2618 2618 2618 2618 2618
    2618 2618 2618 2618 2618 2598 2598 2598 2598 2598 2579 2579 2560
    2560 2560 2560 2560 2541 2541 2522 2522 2522 2503 2485 910 910 910
    910 910 913 913 913 915 915 915 915 918 918 918 918 918 920 925 925
    925 925 928 930 930 933 935 935 935 935 938 938 940 940 943 943 943
    946 946 946 946 946 948 948 948 948 951 951 954 954 954 956 956 959
    959 962 962 962 962 964 964 964 970 970 970 970 970 970 970 973 973
    975 975 2598 2598 2598 2598 2598 2598 2598 2618 2618 2618 2598 2598
    2618 2618 2618 2598 2579 2579 2579 2579 2579 2560 2560 2560 2560
    2560 2541 2541 2522 2522 2522 2503 2503 2485 2485 910 910 910 910
    910 913 913 913 915 915 915 915 918 918 918 920 920 923 925 925 928
    928 928 930 933 933 933 935 935 938 938 938 938 940 943 943 943 946
    946 946 946 946 946 948 948 948 951 951 954 954 954 956 959 959 959
    959 959 962 962 964 964 964 970 970 970 970 970 970 970 973 975 975
    975 2598 2598 2598 2598 2598 2598 2598 2618 2598 2598 2598 2598 2598
    2598 2598 2579 2560 2560 2579 2579 2579 2560 2560 2541 2541 2541
    2541 2541 2522 2522 2503 2503 2485 2485 2485 910 910 913 910 910 913
    913 913 913 913 913 915 918 918 918 920 920 923 925 925 928 928 930
    933 933 933 933 935 935 935 938 938 938 940 940 943 943 943 946 946
    946 946 946 948 951 951 951 951 954 954 954 959 959 959 959 959 959
    962 964 964 964 967 967 967 967 967 970 970 970 970 970 970 2618
    2598 2598 2598 2598 2598 2598 2598 2598 2598 2598 2598 2579 2579
    2579 2579 2579 2560 2560 2560 2560 2560 2560 2541 2541 2541 2541
    2541 2541 2522 2503 2485 2485 2485 2467 2467 910 910 910 910 910 913
    913 913 913 913 913 915 915 918 920 920 923 923 925 925 928 928 930
    930 933 933 933 935 935 935 938 938 938 940 940 943 943 943 946 948
    948 948 946 946 948 951 951 951 954 954 956 959 959 959 959 959 962
    962 964 964 964 967 967 967 967 967 970 970 970 970 970 2598 2618
    2618 2598 2598 2598 2579 2579 2598 2579 2579 2579 2579 2579 2579
    2560 2560 2560 2560 2560 2560 2560 2560 2541 2541 2522 2522 2522
    2522 2503 2503 2485 2485 2485 2467 2467 2467 910 910 910 910 910 913
    913 913 913 913 913 915 915 918 920 920 920 923 923 925 928 928 930
    930 933 933 935 935 935 938 938 938 938 940 940 943 943 943 946 946
    948 948 946 946 948 951 951 954 954 954 956 959 959 959 959 959 962
    962 962 964 964 964 964 964 964 964 967 970 973 973 2598 2598 2598
    2598 2618 2618 2598 2579 2579 2579 2579 2560 2560 2560 2560 2560
    2560 2560 2560 2560 2560 2541 2541 2541 2541 2522 2522 2503 2503
    2503 2503 2485 2485 2485 2467 2467 2467 2467 910 910 910 910 910 913
    913 913 913 913 913 913 915 920 920 920 920 923 923 925 928 930 930
    930 933 933 935 935 935 938 938 938 938 940 940 943 943 943 946 946
    948 948 946 946 951 951 951 954 954 954 954 959 956 956 959 959 959
    959 962 962 962 962 962 962 962 964 967 967 2598 2598 2598 2598 2598
    2598 2598 2579 2579 2560 2560 2579 2579 2560 2560 2560 2560 2560
    2560 2560 2541 2541 2541 2541 2522 2522 2522 2503 2485 2485 2485
    2485 2485 2467 2467 2467 2467 2467 2467 2467 908 908 910 910 910 910
    910 913 913 913 913 913 918 920 920 920 920 923 923 925 928 930 930
    930 930 933 933 935 935 938 938 940 940 940 940 940 940 940 943 948
    948 951 948 948 951 954 954 954 954 954 954 956 956 956 959 959 959
    959 962 962 962 962 962 962 962 962 962 2579 2579 2579 2579 2579
    2579 2579 2579 2579 2579 2560 2560 2560 2560 2560 2560 2541 2541
    2541 2560 2560 2541 2541 2522 2522 2503 2503 2485 2485 2485 2467
    2467 2467 2467 2467 2467 2467 2450 2450 2450 2450 906 908 910 910
    910 910 910 910 913 913 915 915 918 920 920 920 920 923 923 925 928
    930 930 930 930 933 933 933 935 938 938 940 940 940 940 940 940 940
    943 948 948 951 951 951 951 951 951 954 954 954 954 956 956 956 959
    959 959 962 962 962 962 962 962 962 962 962 0 2579 2579 2579 2579
    2579 2560 2560 2560 2541 2541 2541 2541 2541 2560 2560 2560 2541
    2541 2541 2541 2541 2541 2522 2522 2503 2503 2503 2485 2485 2467
    2467 2467 2450 2450 2450 2450 2450 2432 2432 2432 2450 906 908 910
    910 910 910 910 910 910 913 915 915 918 920 920 920 920 923 923 925
    928 928 930 930 930 933 933 933 933 935 938 940 940 940 940 940 940
    940 943 946 951 951 951 951 951 951 951 954 954 954 954 954 956 956
    956 959 962 962 959 959 959 962 962 962 962 962 2579 2560 2560 2560
    2579 2560 2560 2560 2560 2541 2541 2541 2541 2541 2560 2541 2541
    2541 2541 2541 2541 2522 2522 2522 2503 2503 2485 2485 2485 2485
    2467 2467 2467 2450 2450 2432 2432 2432 2415 2415 2415 2415 906 908
    908 908 910 910 910 910 910 913 918 918 920 920 920 920 920 920 923
    925 925 928 928 930 930 933 933 933 933 935 938 940 940 940 940 940
    940 940 940 943 946 951 951 951 951 951 954 954 954 954 954 954 956
    956 956 956 959 962 959 959 959 959 959 962 962 2579 2579 2579 2560
    2560 2560 2560 2560 2560 2541 2541 2541 2541 2541 2541 2541 2541
    2541 2541 2522 2522 2522 2503 2485 2485 2485 2485 2485 2485 2467
    2467 2467 2467 2450 2432 2432 2415 2415 2415 2415 2415 2415 2398 906
    906 906 906 910 910 910 910 910 915 915 915 918 920 920 920 920 920
    923 923 923 925 928 930 930 933 933 933 933 935 935 938 940 940 940
    940 940 940 940 943 946 951 951 951 951 951 954 954 954 954 954 956
    956 956 956 956 956 962 956 956 956 959 959 959 2560 2579 2579 2579
    2579 2560 2560 2560 2541 2541 2541 2541 2541 2541 2522 2522 2541
    2522 2522 2522 2522 2522 2503 2485 2485 2485 2485 2485 2467 2467
    2467 2467 2467 2450 2432 2432 2415 2415 2415 2415 2415 2415 2398
    2398 903 903 903 903 908 910 910 910 910 915 915 915 918 920 920 920
    920 920 923 923 923 925 928 930 930 933 933 933 933 935 935 938 938
    940 940 940 940 943 943 943 946 948 951 951 951 954 954 954 954 954
    954 954 954 954 954 954 956 956 956 956 956 959 959 2560 2560 2560
    2560 2579 2560 2560 2560 2541 2541 2541 2541 2541 2541 2522 2522
    2522 2541 2522 2503 2503 2503 2503 2485 2485 2467 2467 2467 2467
    2467 2450 2450 2450 2450 2450 2432 2432 2415 2415 2415 2415 2398
    2398 2398 2398 903 903 903 903 908 910 910 910 910 915 915 915 920
    920 920 920 920 920 920 920 923 925 928 930 930 930 930 933 933 935
    935 938 938 940 940 940 940 943 943 943 946 948 948 951 951 954 954
    954 954 954 954 954 954 954 954 954 956 956 962 962 962 962 2560
    2560 2560 2560 2560 2579 2560 2560 2541 2541 2541 2522 2522 2522
    2522 2522 2522 2522 2503 2503 2503 2503 2503 2485 2485 2467 2467
    2467 2450 2450 2432 2432 2432 2432 2432 2415 2415 2415 2415 2415
    2398 2398 2398 2398 2381 2381 901 901 901 903 906 906 908 908 910
    913 915 915 920 920 920 920 920 920 920 920 923 925 928 930 930 930
    930 933 933 935 935 935 938 940 940 943 943 943 943 946 948 948 948
    948 951 951 951 951 951 951 954 954 954 954 954 954 956 959 962 962
    962 2522 2522 2541 2541 2541 2541 2560 2560 2541 2541 2541 2522 2522
    2522 2503 2503 2503 2503 2503 2503 2503 2485 2485 2485 2485 2467
    2467 2450 2450 2450 2432 2432 2415 2415 2415 2415 2415 2415 2415
    2415 2398 2398 2398 2398 2398 2381 2365 901 901 901 903 903 906 906
    906 908 910 915 918 918 920 920 920 920 920 920 920 923 925 925 928
    930 930 930 933 933 935 935 935 935 940 940 943 943 943 946 946 948
    948 948 948 948 948 948 951 951 951 951 951 951 951 954 956 959 964
    964 964 2541 2522 2522 2541 2541 2541 2541 2541 2541 2541 2522 2522
    2522 2522 2503 2485 2485 2485 2485 2485 2503 2485 2485 2485 2485
    2485 2467 2450 2450 2432 2432 2432 2415 2415 2398 2398 2398 2398
    2415 2415 2415 2398 2398 2381 2381 2365 2349 2349 901 901 901 901
    903 903 906 906 908 910 913 913 913 915 915 915 920 920 920 923 923
    925 925 928 930 930 930 933 933 933 935 935 935 940 940 943 943 943
    943 943 946 946 946 946 948 948 948 948 948 948 951 951 951 951 954
    956 956 2541 2541 2541 2541 2522 2522 2522 2522 2522 2522 2541 2541
    2522 2522 2522 2522 2503 2485 2485 2467 2467 2467 2467 2485 2485
    2467 2467 2467 2467 2467 2450 2432 2432 2432 2415 2415 2415 2398
    2398 2398 2398 2398 2398 2398 2398 2398 2381 2365 2333 2333 2333 898
    898 901 901 903 903 906 906 908 910 910 913 913 915 915 915 920 920
    920 923 923 923 923 923 925 928 930 930 933 933 935 935 935 938 940
    940 943 943 943 943 943 943 943 943 946 948 946 946 943 943 948 948
    948 948 954 959 959 2541 2541 2541 2541 2522 2522 2522 2522 2522
    2522 2522 2522 2522 2522 2503 2503 2503 2485 2467 2467 2467 2467
    2467 2467 2467 2467 2467 2467 2450 2450 2432 2432 2415 2415 2415
    2415 2398 2398 2398 2398 2398 2398 2398 2398 2381 2381 2349 2349
    2317 2317 2317 898 898 901 901 901 903 903 906 908 908 910 910 913
    915 915 915 920 920 920 923 923 923 923 923 923 928 928 930 933 933
    933 935 935 938 940 940 940 940 940 940 943 943 943 943 946 946 946
    943 940 940 943 948 948 948 948 948 2522 2541 2541 2541 2541 2522
    2522 2522 2522 2522 2522 2522 2522 2522 2522 2503 2503 2467 2467
    2467 2467 2467 2450 2450 2467 2467 2467 2467 2450 2450 2450 2415
    2415 2415 2415 2415 2415 2398 2398 2398 2398 2398 2398 2381 2381
    2381 2365 2349 2349 2317 2317 2301 901 898 898 898 898 903 903 906
    908 908 910 910 913 915 915 918 918 918 918 920 920 923 923 923 923
    925 928 930 930 933 933 935 935 935 938 938 938 940 940 940 943 943
    943 943 943 946 946 943 940 940 940 948 951 951 951 2541 2522 2522
    2522 2541 2541 2522 2522 2522 2522 2522 2522 2503 2503 2503 2503
    2503 2485 2467 2467 2467 2467 2450 2450 2450 2467 2467 2450 2450
    2450 2432 2415 2415 2415 2415 2415 2415 2398 2398 2398 2398 2381
    2381 2365 2365 2365 2349 2349 2333 2333 2301 2301 2301 898 898 898
    898 898 901 903 903 906 908 910 913 913 915 915 915 915 915 918 918
    920 923 923 923 923 925 928 930 930 933 933 935 935 935 938 938 938
    940 940 940 940 940 940 940 940 940 943 943 943 940 940 948 951 0
    2541 2541 2522 2522 2522 2522 2522 2522 2522 2522 2522 2522 2522
    2503 2503 2503 2485 2467 2467 2450 2450 2450 2450 2450 2450 2450
    2467 2450 2432 2432 2432 2415 2415 2398 2398 2398 2398 2398 2398
    2381 2381 2381 2365 2365 2365 2349 2349 2333 2333 2333 2317 2301
    2301 2301</data></Depth11748>
</opencv_storage>
