<?xml version="1.0"?>
<opencv_storage>
<Depth17908 type_id="opencv-matrix">
  <rows>140</rows>
  <cols>39</cols>
  <dt>w</dt>
  <data>
    0 0 0 0 0 0 0 0 0 0 0 0 0 0 0 0 0 0 0 803 803 803 825 825 825 823
    823 823 821 821 821 0 0 0 0 0 4190 4190 4190 0 0 0 0 0 0 0 0 0 0 0 0
    0 0 0 0 0 0 803 803 803 803 825 825 825 823 823 821 821 821 0 0 0 0
    0 0 4190 4190 4190 0 0 0 0 0 0 0 0 0 0 0 0 0 0 0 0 0 0 0 803 803 803
    803 825 825 823 821 821 821 821 0 0 0 0 0 0 0 0 4190 0 0 0 0 0 0 0 0
    0 0 0 0 0 0 0 0 0 0 805 805 805 803 803 827 821 821 821 821 821 821
    821 815 815 0 0 0 0 0 0 0 0 0 0 0 0 0 0 0 0 0 0 0 819 819 819 0 0
    805 805 805 807 809 815 813 813 813 813 815 815 815 813 813 813 813
    0 0 0 0 823 819 819 819 0 0 821 819 817 817 0 819 819 817 817 817
    817 819 817 811 811 811 813 813 813 813 811 811 813 813 813 813 813
    813 813 813 0 0 0 823 819 817 817 817 819 817 817 817 815 815 817
    817 817 817 815 815 815 815 813 813 813 813 813 813 813 811 811 813
    813 813 813 813 813 813 813 0 0 0 821 819 817 817 817 817 817 817
    817 815 815 817 817 817 817 815 815 815 815 815 815 813 813 813 813
    813 813 813 813 813 813 813 813 813 813 813 0 0 0 819 819 817 817
    817 817 817 817 817 815 815 817 817 817 817 815 815 815 817 817 815
    815 815 813 813 813 813 813 813 813 813 813 813 813 813 813 0 0 0
    819 819 819 817 817 817 817 817 817 817 817 817 817 817 815 815 815
    815 815 817 817 817 815 815 815 815 815 815 815 815 815 815 815 813
    813 813 0 0 0 821 819 819 819 819 819 817 817 817 817 817 817 817
    817 815 815 815 815 815 817 817 817 817 815 815 817 815 815 815 815
    815 815 815 813 813 815 0 0 0 821 819 819 819 819 819 819 819 819
    819 819 819 819 817 817 817 815 815 817 817 817 819 817 817 817 817
    815 815 815 815 817 817 815 815 815 815 0 0 0 821 819 819 819 819
    819 819 819 819 819 819 819 819 817 817 817 817 817 817 817 819 819
    819 819 817 817 817 815 815 817 817 819 817 817 817 817 0 0 0 821
    819 819 819 819 819 819 819 819 819 819 819 819 819 819 819 819 817
    817 819 819 819 819 819 817 817 817 815 815 817 817 819 819 817 817
    817 0 0 0 821 821 821 821 819 819 819 821 821 821 819 819 819 819
    819 819 819 819 819 819 819 819 819 819 819 819 817 817 817 817 819
    819 819 817 817 817 0 0 0 821 821 821 821 821 823 823 821 821 821
    819 819 819 819 819 819 819 819 819 819 819 819 819 819 819 819 819
    819 817 817 819 819 819 817 817 819 0 0 0 821 821 821 823 823 825
    823 823 821 821 821 821 819 819 821 821 821 819 819 819 819 819 819
    819 819 819 819 819 819 819 819 819 819 817 817 819 0 0 0 823 823
    823 823 823 825 823 823 821 821 821 821 821 821 821 821 821 819 819
    819 819 819 819 819 819 819 819 819 819 819 821 821 819 819 819 819
    0 0 0 823 823 823 825 825 825 823 823 821 821 821 821 821 821 821
    821 821 821 821 821 821 821 821 821 821 821 821 821 821 821 821 821
    821 819 819 819 0 0 0 823 825 825 825 825 825 825 823 821 821 821
    821 821 821 821 821 821 821 821 821 821 821 821 821 821 821 821 821
    821 821 821 821 821 821 819 819 0 0 0 823 825 825 825 825 825 825
    823 823 823 823 823 821 821 821 821 823 821 821 821 821 821 821 821
    821 821 821 821 821 821 821 821 823 823 823 0 0 0 0 825 825 827 827
    825 825 825 825 823 823 823 823 823 823 823 823 823 823 823 823 823
    823 821 821 821 821 821 821 821 821 823 823 825 823 823 0 0 0 0 827
    827 827 827 825 825 825 825 825 825 825 825 823 823 823 823 825 825
    825 825 823 823 823 823 823 823 823 823 821 821 823 823 823 823 823
    0 0 0 0 827 827 827 827 827 827 825 825 827 825 825 825 825 825 825
    825 825 827 827 825 825 825 823 823 825 823 823 823 821 821 823 823
    823 825 825 0 0 0 0 829 827 827 827 827 827 827 827 827 825 825 827
    825 825 825 827 827 827 827 827 825 825 825 825 827 825 825 823 823
    823 823 823 825 825 825 0 0 0 0 829 827 827 827 827 827 827 827 827
    827 827 827 827 825 825 825 827 827 827 827 827 825 825 827 827 827
    827 825 825 825 825 825 825 827 827 0 0 0 0 829 829 827 827 829 829
    827 827 827 827 827 827 827 825 825 825 827 827 827 827 827 827 827
    827 827 827 827 827 825 825 825 827 827 827 827 0 0 0 0 825 827 829
    829 829 829 829 829 829 829 827 827 827 827 827 827 827 827 827 827
    827 827 827 827 827 827 827 827 827 827 827 827 827 827 827 0 0 0 0
    825 827 829 829 829 829 829 829 829 829 829 827 827 827 827 827 827
    827 827 827 829 829 827 827 827 827 827 827 827 827 827 827 827 827
    827 0 0 0 0 829 829 831 829 829 829 829 829 829 829 829 829 829 829
    829 827 827 827 827 829 829 829 829 827 827 827 827 827 827 827 827
    827 827 827 827 0 0 0 0 829 829 831 829 829 829 829 831 831 829 829
    829 829 829 829 829 829 829 829 829 829 829 829 827 827 829 827 827
    827 827 827 827 827 827 827 0 0 0 0 0 831 831 831 831 831 831 831
    831 829 829 829 829 831 831 829 829 829 829 829 829 829 829 829 829
    829 829 829 827 827 827 829 829 827 827 0 0 0 0 0 831 831 831 831
    831 833 833 835 833 833 833 831 831 833 831 831 831 831 831 831 831
    829 829 831 829 829 829 829 829 829 829 829 827 827 0 0 0 0 0 833
    833 833 833 833 833 833 835 833 833 833 833 833 833 833 831 831 831
    831 831 831 831 831 831 831 831 831 829 829 829 831 831 829 829 0 0
    0 0 0 835 835 835 835 835 835 835 835 835 835 835 835 833 833 833
    833 833 833 833 833 833 833 831 831 831 831 831 831 831 831 831 831
    829 823 823 0 0 0 0 835 835 835 835 835 837 835 835 835 835 835 835
    835 835 835 833 833 833 833 835 835 835 833 833 833 833 833 833 833
    833 833 833 829 823 823 0 0 0 835 835 835 837 837 837 837 837 837
    835 835 835 835 835 835 835 835 835 835 835 835 835 835 835 835 835
    835 835 835 835 835 835 835 833 829 829 833 0 0 835 835 837 837 837
    837 837 837 837 835 835 835 835 835 835 835 835 835 835 835 835 835
    835 835 835 835 835 835 835 835 835 835 835 835 833 833 833 0 0 837
    837 837 837 837 837 837 837 837 837 835 835 835 835 835 835 835 835
    835 835 835 835 835 835 835 835 835 835 835 835 835 835 837 835 835
    835 835 0 0 837 837 837 837 837 837 837 837 837 837 835 835 835 835
    835 835 835 835 835 835 835 835 835 837 837 837 837 835 835 835 835
    837 837 837 835 835 835 0 0 0 839 839 837 837 837 837 837 837 837
    837 835 835 837 837 837 837 835 835 837 837 837 837 837 837 837 837
    837 837 835 835 837 837 837 835 835 835 0 0 0 841 841 839 839 839
    839 839 839 839 839 837 837 837 837 837 837 837 837 837 837 837 837
    837 837 837 837 837 837 837 837 837 837 837 835 835 835 0 0 0 843
    841 841 841 841 839 839 839 839 839 837 837 837 837 837 837 837 837
    837 837 837 837 837 837 837 837 837 837 837 837 839 837 837 835 835
    835 0 0 847 843 843 841 841 841 841 841 841 839 839 839 837 837 837
    837 837 839 839 839 839 839 837 837 837 837 837 837 837 837 837 839
    839 837 835 835 0 0 0 847 843 843 843 843 841 841 841 841 841 841
    841 839 839 839 839 839 839 841 839 839 839 839 837 837 837 837 837
    839 839 839 839 839 837 835 835 0 0 0 849 845 843 843 843 843 843
    841 841 841 841 841 841 839 839 839 839 839 841 839 839 839 839 837
    837 839 839 839 841 839 839 839 839 839 835 835 0 0 0 0 845 843 843
    843 843 843 843 843 843 843 843 843 841 841 841 841 841 841 841 841
    841 841 839 839 839 839 841 841 839 839 839 839 839 839 839 0 0 0 0
    845 845 843 843 843 843 843 843 843 843 843 843 841 841 841 841 841
    841 841 841 841 841 841 841 841 841 841 841 839 839 841 841 839 839
    0 0 0 0 0 845 845 845 845 843 843 843 843 843 843 843 843 843 843
    843 843 843 841 841 841 841 841 841 843 841 841 841 841 841 841 841
    841 841 841 0 0 0 0 0 845 845 845 845 845 845 845 845 845 845 845
    845 843 843 843 843 843 843 843 843 841 841 843 843 843 843 843 841
    841 841 843 843 843 843 0 0 0 0 0 847 847 847 845 845 845 845 845
    845 845 845 845 845 845 845 843 843 845 843 843 843 843 843 843 843
    843 843 843 843 843 843 843 843 843 843 0 0 0 0 849 847 847 847 845
    845 845 845 845 845 845 845 845 847 845 845 845 845 845 845 845 845
    845 845 845 845 843 843 843 843 843 843 843 843 843 0 0 0 0 849 847
    847 847 845 845 847 847 847 845 845 845 847 847 845 845 845 845 845
    845 845 845 845 845 845 845 845 845 845 845 845 845 845 843 843 0 0
    0 0 851 849 847 847 845 845 847 847 849 849 847 847 847 849 847 847
    845 845 845 845 845 845 845 845 845 845 845 845 845 845 845 845 845
    847 847 0 0 0 0 851 849 849 847 847 847 847 847 849 849 849 847 847
    849 847 847 847 845 845 845 845 845 845 845 845 845 845 845 845 845
    845 845 847 847 847 0 0 0 0 851 851 849 849 847 847 847 847 849 849
    849 847 847 847 847 847 847 847 845 845 845 845 845 845 845 845 845
    845 845 845 845 845 847 847 847 847 0 0 0 854 851 851 849 849 847
    847 849 849 849 849 849 849 847 847 847 847 847 845 845 845 845 845
    849 849 847 847 847 847 847 847 847 849 849 847 847 0 0 0 854 854
    851 851 851 849 849 849 851 851 851 851 851 849 849 847 847 849 849
    849 849 849 849 849 849 849 849 849 849 849 847 847 849 849 847 847
    0 0 0 856 854 854 851 851 851 851 851 851 851 851 851 851 849 849
    849 849 849 849 849 849 849 849 849 849 851 849 849 851 851 849 849
    851 851 849 849 0 0 0 856 854 854 851 851 851 851 851 851 851 851
    851 851 851 851 849 849 849 849 851 851 851 849 849 849 851 851 851
    851 851 849 849 851 851 849 849 0 0 0 856 854 854 854 851 851 854
    851 851 851 851 851 851 851 851 851 851 851 851 851 851 851 851 851
    851 851 851 851 851 851 851 851 851 851 851 0 0 0 0 0 854 854 854
    851 851 854 854 854 854 854 854 851 851 851 854 851 851 851 851 851
    851 851 851 851 851 851 851 851 851 851 851 851 851 851 851 0 0 0 0
    856 856 854 854 854 854 854 854 854 854 854 851 851 854 854 854 851
    851 851 851 851 854 854 851 851 851 851 851 851 851 851 851 851 851
    851 0 0 0 0 856 856 854 854 854 854 854 854 854 854 854 854 854 854
    854 854 854 854 854 854 854 854 854 854 851 851 851 851 851 851 851
    851 851 851 851 0 0 0 0 858 856 856 854 854 854 854 854 854 854 854
    854 854 856 854 854 854 854 854 854 854 854 854 854 851 851 854 851
    851 854 854 854 854 851 851 851 0 0 0 860 858 858 858 858 858 854
    854 854 854 854 856 856 856 856 854 854 854 854 854 854 854 854 854
    854 854 854 851 851 854 854 854 856 851 851 851 0 0 869 860 860 860
    860 860 858 858 858 856 856 856 858 858 858 856 856 854 854 856 856
    856 854 854 854 854 854 854 854 854 856 856 856 856 851 851 0 0 0
    869 862 858 858 860 860 860 860 858 858 856 856 858 858 858 856 856
    856 856 856 856 856 856 854 854 854 856 856 858 858 858 858 858 856
    854 854 0 0 0 871 862 858 858 860 860 860 860 860 860 858 858 858
    858 858 858 858 856 856 856 858 858 858 854 854 854 856 856 858 858
    858 858 858 856 854 854 0 0 0 0 862 860 860 860 860 860 860 860 860
    858 858 858 858 860 860 860 858 858 858 858 858 860 858 858 858 858
    858 858 858 858 858 858 856 854 854 854 0 0 0 862 860 860 860 860
    860 860 860 860 860 860 860 860 860 860 860 860 858 858 860 860 860
    858 858 858 858 860 858 858 858 858 858 858 858 854 851 851 0 0 0
    862 862 862 862 862 860 860 862 860 860 860 860 860 860 860 860 860
    860 860 860 860 860 860 860 860 860 860 860 860 860 860 860 858 856
    851 851 0 0 0 862 862 862 862 862 860 860 862 860 860 860 860 860
    860 860 860 860 860 860 860 860 860 860 860 860 860 860 860 860 860
    862 860 858 858 851 851 0 0 0 864 864 862 862 862 862 862 862 862
    862 862 862 860 860 860 860 860 860 860 860 860 860 862 862 862 862
    860 860 860 862 862 860 860 858 851 851 0 0 0 864 864 862 862 862
    862 862 862 862 862 862 862 862 860 860 862 862 862 862 860 860 862
    862 862 862 862 860 860 862 862 862 862 860 858 851 851 0 0 0 862
    862 862 862 862 862 862 864 862 862 864 862 862 862 862 862 862 862
    862 862 862 862 862 862 862 862 862 862 862 862 862 862 862 860 860
    0 0 0 0 862 862 862 862 864 864 864 864 864 864 864 864 864 862 862
    862 862 862 862 862 862 862 862 862 862 862 862 862 862 862 862 862
    862 862 862 0 0 0 0 862 862 864 864 867 867 864 864 864 864 864 864
    864 862 862 862 862 862 862 862 862 862 862 862 864 864 862 862 862
    862 862 862 862 862 0 0 0 0 0 864 864 867 867 867 867 867 867 867
    867 867 867 867 864 864 862 862 862 862 862 862 862 864 864 867 867
    864 864 862 862 862 862 862 862 0 0 0 0 0 869 867 867 869 867 867
    867 867 867 867 867 867 867 864 864 864 864 864 864 864 864 864 864
    864 867 867 864 864 867 864 864 862 862 862 0 0 0 0 869 869 869 869
    869 867 867 867 867 867 867 867 867 867 867 867 864 864 867 867 867
    864 864 867 867 867 867 864 864 867 867 867 864 862 862 0 0 0 0 869
    869 869 869 869 869 869 869 869 869 867 867 867 867 867 867 867 867
    867 867 867 867 867 867 867 869 869 867 864 864 867 867 867 864 864
    0 0 0 875 871 869 869 869 869 869 869 869 869 869 869 869 869 869
    869 869 869 869 869 869 869 869 869 869 869 869 869 867 864 864 867
    867 867 864 864 0 0 0 875 871 869 869 869 869 871 871 871 871 869
    869 869 869 869 869 869 869 869 869 869 869 869 869 869 869 869 869
    869 867 867 867 867 869 869 869 0 0 0 0 0 869 869 869 871 871 871
    871 871 869 869 869 869 869 869 869 869 869 869 869 869 869 869 869
    869 869 869 869 867 867 867 869 869 869 869 869 0 0 0 0 873 871 871
    871 871 871 871 871 869 869 869 871 871 871 871 871 871 871 871 871
    871 869 869 869 869 869 869 869 869 869 869 869 869 869 869 0 0 0 0
    875 871 871 871 871 873 873 871 871 871 871 871 871 871 871 871 871
    871 871 871 871 871 871 869 869 869 869 869 869 869 869 869 869 869
    869 0 0 0 880 878 873 873 871 871 873 873 871 871 871 871 871 871
    871 873 871 871 871 871 871 871 871 871 869 869 871 871 871 869 869
    869 869 869 869 871 0 0 0 880 878 873 873 873 873 873 873 873 871
    871 871 871 873 873 873 871 871 871 871 871 871 871 871 871 871 871
    871 871 871 871 871 871 871 0 0 0 0 0 0 878 875 875 873 873 875 875
    875 873 871 871 871 873 873 873 873 873 873 871 871 871 871 871 871
    871 871 871 871 871 871 871 871 871 871 0 0 0 0 0 878 878 875 873
    873 875 875 875 873 873 873 873 875 873 873 873 873 873 873 873 873
    873 873 873 873 873 871 871 871 871 871 873 871 871 871 0 0 0 0 878
    878 875 873 873 875 875 875 875 875 875 875 875 875 875 873 873 875
    875 875 875 875 873 873 873 873 873 871 871 871 871 873 871 869 869
    0 0 0 0 880 880 878 878 878 878 878 878 878 875 875 875 875 875 875
    875 875 875 875 875 875 875 875 875 873 873 873 873 873 873 873 873
    873 869 869 0 0 0 0 880 878 878 878 878 878 878 878 878 875 875 875
    878 875 875 875 875 875 878 878 875 875 878 878 878 878 875 875 875
    875 875 875 875 869 869 0 0 0 0 880 878 878 878 878 878 878 878 878
    878 878 878 878 878 878 878 878 878 878 878 878 878 878 878 878 878
    878 875 875 875 875 878 878 871 871 0 0 0 0 880 880 880 878 878 878
    878 878 878 878 878 878 878 878 878 878 878 878 878 878 878 878 878
    878 878 878 878 875 875 875 878 878 878 875 875 0 0 0 0 882 880 880
    878 878 878 878 878 878 878 878 878 878 878 878 878 878 878 878 878
    878 878 880 878 878 878 878 878 875 875 878 880 878 875 875 0 0 0 0
    0 880 880 878 878 878 878 880 880 880 880 880 880 880 880 880 878
    878 878 878 880 880 880 878 878 878 878 878 875 875 878 880 878 878
    0 0 0 0 0 887 882 880 878 878 880 880 880 880 880 880 880 880 880
    880 880 880 880 880 880 880 880 880 880 880 878 878 878 878 878 880
    880 878 878 878 0 0 0 889 887 885 882 880 880 880 880 882 880 880
    880 880 880 880 880 880 880 880 880 880 880 880 880 880 880 880 880
    880 880 880 880 880 880 878 878 0 0 0 887 887 885 882 882 882 882
    882 882 882 882 880 880 880 880 880 880 880 882 882 880 880 880 880
    880 880 880 880 880 880 880 880 880 880 878 878 0 0 0 887 882 882
    882 882 885 885 882 882 882 882 882 882 882 882 882 882 882 882 882
    880 880 880 880 880 880 880 880 880 880 880 880 880 880 878 878 0 0
    0 0 882 882 882 882 885 885 885 882 882 882 882 885 882 882 882 882
    882 882 882 882 882 882 880 880 882 882 882 882 882 882 880 880 880
    880 880 0 0 0 0 0 887 882 882 885 885 885 885 885 885 885 885 885
    885 885 885 885 885 885 885 882 882 882 882 882 880 880 882 882 882
    880 880 880 880 880 0 0 0 0 0 885 885 887 885 885 885 885 885 887
    887 885 885 885 885 887 887 887 887 887 885 882 882 882 882 880 880
    882 882 882 882 882 880 880 880 0 0 0 0 0 885 885 887 887 887 887
    887 887 887 887 885 885 885 885 887 887 887 887 887 887 885 885 885
    885 885 885 885 885 882 882 885 885 885 885 0 0 0 0 0 887 887 887
    887 887 887 887 887 887 887 887 887 887 887 887 887 887 887 887 887
    885 885 885 885 885 887 887 887 887 887 885 885 885 887 0 0 0 0 882
    882 887 889 889 889 889 887 887 887 887 887 887 889 889 887 887 887
    889 889 887 887 887 887 887 887 889 887 887 887 887 887 887 887 0 0
    0 0 0 882 882 887 889 889 889 889 887 887 887 887 887 887 889 889
    889 889 889 889 889 889 887 887 887 887 887 889 889 887 887 887 889
    887 887 0 0 0 0 0 1025 889 889 891 889 889 889 889 889 889 889 889
    889 891 891 889 889 889 889 889 889 887 887 887 887 887 889 889 887
    887 887 889 885 885 0 0 0 0 1019 1019 1022 896 894 891 889 889 889
    889 889 889 891 891 891 891 889 889 889 889 889 1013 887 887 887 887
    989 889 889 1004 1004 1004 889 885 885 0 0 0 0 1013 1013 1016 1013
    898 898 896 891 891 1001 1001 1001 1010 1013 1013 1010 1010 1007
    1007 1007 1007 1007 1007 1001 995 992 989 989 1001 1001 1001 1001
    998 998 0 0 0 0 0 1010 1010 1007 1007 1007 1007 1007 1004 1001 1001
    1001 1001 1004 1004 1004 1004 1004 1004 1004 1001 1001 1001 1001 995
    992 992 989 989 995 995 995 992 992 989 989 0 0 0 0 1007 1001 1001
    1001 1001 1001 1001 1001 1001 1001 998 998 1001 1001 1001 1001 998
    998 995 995 995 992 992 992 989 989 987 987 992 989 987 987 987 987
    987 987 987 0 0 1001 998 998 998 995 992 992 995 995 992 992 992 989
    989 992 992 992 989 989 989 984 984 987 989 987 987 987 987 987 984
    981 981 984 984 984 987 987 0 0 995 992 992 989 989 987 987 989 989
    984 984 984 984 984 984 984 984 984 981 981 981 981 981 984 984 984
    984 987 981 978 978 978 975 973 973 973 962 0 0 989 987 984 984 981
    981 984 987 981 981 981 978 978 978 978 978 978 981 978 978 975 975
    973 973 973 970 970 970 970 964 964 964 964 964 962 962 962 0 0 978
    975 973 973 973 978 978 978 978 975 975 975 975 973 973 970 970 973
    970 970 970 970 967 967 967 964 964 964 964 959 959 956 956 962 962
    962 967 981 981 978 973 970 970 962 962 962 962 962 970 967 967 967
    964 964 964 962 962 962 962 962 962 962 962 962 962 962 962 959 959
    959 956 956 959 959 959 959 0 981 975 967 967 967 959 959 959 959
    959 959 959 959 959 959 962 962 959 959 959 959 959 959 959 959 959
    959 959 959 959 959 956 956 956 956 959 959 959 0 0 975 964 962 959
    959 959 959 959 959 959 959 959 959 959 959 959 959 959 959 959 959
    956 956 959 959 959 959 959 959 959 956 956 956 956 956 956 956 0 0
    967 964 962 959 959 959 959 959 959 959 959 959 959 959 959 959 959
    959 959 959 959 956 956 956 956 959 959 959 959 959 959 956 956 956
    956 956 956 1376 0 964 962 962 959 959 959 959 959 959 959 959 959
    959 959 959 959 959 962 959 959 959 959 959 956 956 959 959 959 959
    959 959 956 956 956 956 956 956 1376 964 964 962 962 962 962 962 959
    959 959 959 959 959 962 959 959 962 962 962 962 962 959 959 959 959
    959 959 959 959 959 959 959 959 956 956 956 956 956 1376 0 964 964
    962 962 962 962 962 962 962 962 962 962 962 962 959 959 959 962 962
    962 962 962 962 962 962 959 959 959 959 959 959 959 959 959 956 956
    956 1376 0 964 964 962 962 962 962 962 962 962 962 962 962 964 962
    959 959 959 959 959 962 962 962 962 962 962 962 959 959 959 959 959
    959 959 959 956 956 956 1370 1370 967 967 967 964 964 964 964 964
    964 962 962 964 964 962 962 959 959 959 959 962 962 962 962 962 962
    962 959 959 959 959 959 959 959 959 959 959 959 1354 1354 967 967
    967 967 964 964 964 964 964 962 962 964 964 962 962 959 959 959 959
    959 959 959 962 962 962 962 962 962 962 959 959 962 962 962 962 962
    962 1338 1338 1338 967 967 967 967 967 967 967 967 964 964 967 967
    962 962 962 959 959 962 959 959 959 962 964 964 962 962 964 962 959
    956 956 959 962 964 964 1776 1338 1338 1343 970 970 970 967 967 967
    967 967 967 970 970 970 970 970 970 967 967 962 962 964 964 964 970
    970 970 970 998 998 1001 956 956 959 967 967 1776 1766 1338 1343
    1343 1343 1349 973 967 967 967 1013 1007 1004 995 995 981 975 973
    973 970 970 970 970 970 973 984 981 981 989 992 998 998 1001 1001
    1731 1776 1776 1766 1766 1766 1338 1338 1338 1338 1343 1343 1343
    1343 1013 1013 1007 1004 995 995 989 989 984 984 981 981 981 984 984
    984 987 987 987 992 992 998 998 1001 1001 1731 1731 1748 1748 1757
    1748 1328 1328 1328 1328 1333 1333 1333 1322 1013 1013 1010 1001 998
    995 992 989 987 987 987 984 984 984 984 984 987 987 987 992 992 995
    998 1004 1004 1731 1731 1739 1739 1739 1739 1322 1317 1317 1317 1317
    1317 1322 1322 1322 1013 1013 1001 998 995 992 992 989 989 989 987
    987 984 984 987 987 989 989 992 995 995 995 1004 1004 1731 1731 1731
    1731 1739 1731 1317 1312 1312 1312 1312 1312 1312 1312 0 1013 1013
    1001 998 992 992 992 989 989 989 987 987 984 984 987 987 989 992 992
    995 995 995 1004 1004 1696 1696 1696 1722 1722 1713 1307 1307 1307
    1302 1302 1302 1302 1302 1297 1001 1001 1001 998 992 992 992 992 989
    989 989 987 987 987 987 987 989 992 992 995 995 995 995 1696 1696
    1688 1688 1713 1713 1713 1292 1292 1292 1297 1297 1297 1297 1297
    1297 0 1004 1004 1001 998 992 992 992 992 992 989 989 987 987 987
    987 989 992 992 995 995 998 0 998 1688 1688 1688 1705 1705 1705 1283
    1283 1288 1288 1288 1288 1288 1297 1297 1273 1004 1004 1001 998 998
    995 992 992 992 989 989 989 989 989 989 989 992 995 995 995 998 0 0
    998 0 0 1705 1696 1696 1278 1278 1278 1278 1283 1283 1278 1273 1273
    0 1010 1007 1004 998 998 995 995 992 992 992 989 989 989 989 989 989
    992 995 995 998 1001 0 0 0 0 0 1705 1696 1696 1278 1278 1278 1278
    1283 1283 1278 1273 1273 0 1010 1007 1004 1001 998 995 995 992 992
    992 992 992 992 992 992 992 992 995 998 1001 1001 0 0 0 0 0 1705
    1688 1688</data></Depth17908>
</opencv_storage>
