<?xml version="1.0"?>
<opencv_storage>
<Depth6193 type_id="opencv-matrix">
  <rows>122</rows>
  <cols>62</cols>
  <dt>w</dt>
  <data>
    3859 3816 3816 3859 3859 3903 3903 3948 3948 3948 3948 3948 3948
    3948 3948 3948 3948 3994 0 0 0 0 0 0 0 0 0 0 766 766 764 764 766 767
    771 773 773 774 776 776 776 776 0 0 0 0 0 0 4190 4190 4190 4190 4241
    4241 4241 4241 4241 4241 4190 4190 4190 4190 3816 3859 3859 3859
    3859 3903 3903 3948 3948 3948 3948 3948 3948 3948 3948 3948 3948 0 0
    0 0 0 0 0 0 0 0 773 766 766 764 764 766 766 769 769 769 773 773 776
    776 776 778 778 0 0 0 0 4241 4241 4241 4190 4190 4190 4241 4241 4241
    4241 4190 4190 4190 4190 3816 3903 3903 3903 3903 3903 3903 3948
    3948 3948 3948 3948 3948 3948 3948 3994 0 0 0 0 0 0 0 0 0 0 0 773
    766 766 764 764 766 766 769 769 769 773 773 774 776 776 778 778 780
    780 780 781 781 785 4190 4190 4190 805 805 4241 4241 4241 4241 4241
    4241 0 3816 3903 3903 3903 3903 3903 3948 3948 3948 3948 3948 3948
    3948 3948 3948 0 0 0 0 0 0 0 0 0 0 0 0 774 766 766 764 764 766 766
    767 769 771 773 773 774 774 776 778 778 780 780 780 781 783 785 787
    787 807 805 805 805 4295 4295 4295 4295 0 0 3903 3903 3903 3903 3903
    3903 3948 3948 3948 3948 3948 3948 3948 3948 0 0 0 0 0 0 0 0 0 800
    798 794 794 766 766 766 764 764 764 766 767 771 773 773 773 774 774
    776 776 778 780 780 781 781 783 785 787 790 805 803 800 800 800 800
    800 800 800 0 3948 3948 3948 3948 3948 3948 3948 3948 3948 3948 3948
    3948 3948 0 0 0 0 0 0 0 0 0 0 798 796 792 789 766 766 766 764 764
    764 764 767 769 773 774 774 774 774 774 776 776 780 780 781 781 783
    785 787 789 790 800 800 800 798 798 800 800 800 798 3948 3948 3948
    3948 3948 3948 3948 3948 3948 3948 3948 3948 0 0 0 0 0 0 0 0 0 0 0
    798 796 792 789 766 766 764 764 764 764 764 767 769 771 773 774 774
    774 774 776 776 778 780 781 783 783 787 787 789 789 790 794 796 796
    798 798 798 798 798 3903 3948 3948 3948 3948 3948 3948 3948 3948
    3948 3948 0 0 0 0 0 0 0 0 0 0 0 0 803 798 792 789 774 764 762 762
    762 762 764 767 767 771 773 774 774 774 774 776 776 778 780 781 783
    783 787 787 789 789 790 794 796 796 798 798 798 798 798 3903 3948
    3948 3948 3948 3948 3948 3948 3948 3948 3994 0 0 0 0 0 0 0 0 0 0 0
    811 807 796 789 781 774 764 762 762 762 762 764 767 767 771 771 773
    774 774 776 776 776 780 780 781 783 783 787 787 789 789 790 794 796
    796 798 798 798 800 800 3903 3903 3948 3948 3948 3948 3948 3948 3948
    0 0 0 0 0 0 0 0 0 0 835 833 817 811 809 794 787 781 776 764 762 762
    762 762 766 767 769 769 771 773 774 774 776 776 778 780 781 781 783
    783 785 787 787 789 790 792 794 796 796 798 798 802 802 3903 3903
    3903 3948 3948 3948 3948 3948 0 0 0 0 0 0 0 0 0 0 0 835 833 817 817
    796 792 787 781 776 764 762 761 761 764 766 769 769 769 769 773 774
    774 776 776 778 780 781 781 783 783 785 787 787 789 790 792 794 794
    796 798 798 802 802 3903 3903 3903 3903 3903 3903 3948 0 0 0 0 0 0 0
    0 0 0 845 843 837 835 819 819 796 792 787 780 776 764 761 761 761
    761 767 769 769 769 769 771 773 774 776 776 778 780 780 781 781 783
    785 789 789 789 790 792 794 794 796 798 798 800 802 2485 2503 3948
    3903 3903 3903 3948 0 0 0 0 0 0 0 0 867 858 845 843 839 835 819 805
    800 792 787 780 776 764 761 761 761 761 762 769 769 769 769 771 773
    774 774 776 778 780 780 781 781 783 785 787 787 789 790 792 794 796
    796 798 798 800 802 2485 2485 2485 2467 2467 3948 0 0 0 0 0 0 0 0 0
    867 858 849 843 841 837 815 805 800 794 789 781 774 764 762 761 761
    761 762 769 769 769 769 771 773 774 774 776 778 780 780 781 781 783
    785 787 787 789 790 792 794 794 796 798 798 800 800 2485 2485 2485
    2467 2467 0 0 0 0 0 0 0 0 0 0 867 862 856 843 839 821 813 805 802
    796 790 780 774 766 762 761 761 761 764 769 769 769 771 771 773 774
    776 778 778 778 780 780 781 783 785 787 787 789 790 790 794 794 796
    798 798 800 800 2485 2485 2485 2485 2485 0 0 0 0 0 0 0 0 0 0 867 862
    856 843 839 821 813 805 802 796 792 780 773 766 762 761 761 761 764
    769 769 769 771 771 773 774 776 776 778 778 780 780 781 785 785 787
    787 789 789 790 792 794 796 796 798 800 800 2485 2485 2485 2485 2485
    0 0 0 0 0 0 0 0 0 885 869 862 856 843 839 825 815 807 802 794 781
    778 769 764 762 761 761 762 764 769 769 769 771 771 773 774 776 776
    776 778 778 780 783 785 787 787 787 789 789 790 792 794 796 796 798
    800 800 2467 2467 2485 2485 2485 0 0 0 0 0 0 0 0 0 885 871 862 851
    843 839 825 815 807 800 792 781 776 764 762 761 761 761 762 766 769
    769 769 769 769 771 774 774 776 776 778 778 780 783 785 787 787 787
    789 789 790 792 792 794 796 798 800 800 2467 2450 2450 2467 2467 0 0
    0 0 0 0 0 906 903 885 871 862 849 841 837 825 813 807 798 792 781
    771 764 762 761 761 761 762 766 769 769 769 769 769 771 774 774 776
    776 778 778 780 783 785 787 787 787 789 789 790 790 792 794 796 798
    798 798 2467 2450 2450 2467 2467 0 0 0 0 0 918 913 906 901 896 875
    875 847 841 835 821 811 807 798 790 781 771 762 761 761 761 761 762
    766 769 769 769 769 769 771 773 774 776 776 778 780 780 783 783 787
    787 787 789 789 790 790 792 794 796 796 796 796 2467 2467 2467 2467
    2467 0 0 0 0 0 918 913 906 901 894 875 875 845 839 835 821 809 803
    796 790 781 766 762 761 761 761 761 762 766 766 767 769 769 769 771
    773 774 776 776 778 780 780 783 783 787 787 789 789 789 790 790 790
    794 794 796 796 796 2467 2467 2467 0 0 0 0 0 0 0 918 913 906 901 894
    887 887 845 837 829 819 809 800 796 790 781 766 762 761 761 761 761
    762 766 766 767 769 769 771 773 773 774 774 776 778 778 780 783 785
    787 787 789 789 789 790 790 790 794 794 794 794 0 2450 2450 2467 0 0
    0 0 0 0 0 918 913 906 898 878 862 858 847 837 825 819 805 800 796
    790 785 766 762 761 761 761 761 761 764 766 767 769 769 771 773 773
    774 774 776 776 778 781 781 783 787 787 789 789 789 790 790 792 794
    794 794 794 0 2450 2450 0 0 0 0 0 0 0 0 918 913 908 898 875 862 858
    847 837 825 819 803 800 796 790 785 762 761 761 759 759 761 761 761
    766 767 767 769 771 773 773 774 774 776 776 778 781 781 783 785 787
    789 789 789 790 792 794 794 794 794 796 0 2450 0 0 0 0 0 0 0 0 0 918
    913 913 913 873 864 860 847 837 823 819 803 796 794 792 792 762 761
    761 759 759 759 759 761 766 767 767 769 771 773 773 774 774 776 778
    778 781 781 783 783 785 787 789 789 790 790 792 796 796 796 796 798
    0 0 0 0 0 0 0 0 0 0 918 913 910 882 873 864 860 845 837 823 819 803
    796 794 792 792 764 761 761 759 759 759 759 759 764 766 767 767 771
    773 774 774 774 776 778 778 781 781 783 783 785 787 787 789 790 790
    792 796 796 796 798 798 0 0 0 0 0 0 962 962 962 925 915 913 906 882
    873 864 858 845 835 823 817 809 800 794 794 771 764 761 761 759 759
    759 759 759 764 766 767 767 771 773 774 774 774 776 776 778 781 781
    783 783 783 785 787 789 790 790 792 796 796 796 798 798 0 0 0 0 0 0
    962 956 940 925 913 908 903 887 871 864 856 845 829 821 817 809 800
    796 796 771 764 761 761 759 759 759 759 761 766 767 767 767 771 771
    773 774 774 776 776 780 781 781 781 783 783 785 787 789 790 790 792
    796 796 796 796 796 0 0 0 0 0 0 956 954 940 928 913 908 903 891 869
    862 856 847 827 819 815 807 800 796 785 774 762 761 761 759 759 761
    761 762 767 767 767 767 769 771 773 773 774 776 776 780 781 781 781
    783 783 785 789 789 790 790 792 796 796 794 794 794 0 0 0 0 0 0 956
    954 940 928 913 908 901 891 867 860 858 845 827 819 815 805 798 794
    785 774 762 761 759 759 759 761 761 764 767 767 767 767 769 771 771
    773 773 774 776 780 781 781 781 783 783 785 789 789 790 790 792 794
    796 794 794 794 0 0 0 0 0 0 956 951 943 928 913 908 901 891 864 860
    856 843 827 819 811 803 798 794 787 780 762 761 759 759 759 761 761
    764 766 767 767 767 769 771 771 773 773 774 776 780 780 781 781 783
    783 785 789 789 790 790 792 794 796 796 794 794 0 0 0 0 0 0 956 951
    938 930 918 908 901 878 864 862 856 843 827 821 807 802 798 794 790
    767 762 761 759 759 759 759 761 762 766 767 767 767 769 771 771 773
    774 774 776 778 780 781 781 783 783 787 787 789 790 790 790 794 796
    796 796 796 0 0 0 0 0 962 956 954 935 930 915 908 898 878 869 864
    851 843 827 823 807 802 798 794 790 767 762 761 759 759 759 759 759
    761 764 766 766 766 767 769 771 773 774 774 776 776 780 780 781 783
    785 787 787 789 789 789 790 792 796 798 798 800 0 0 0 0 0 962 956
    956 935 930 913 906 898 878 871 864 851 845 825 823 807 802 798 798
    771 767 764 761 759 759 759 759 759 761 764 764 766 766 767 769 771
    774 774 776 776 776 780 780 781 783 785 787 787 789 789 789 790 792
    796 796 798 800 0 0 0 0 0 956 956 951 935 923 908 903 894 878 871
    854 849 847 825 819 809 802 796 783 771 767 764 761 759 759 759 759
    759 761 764 764 766 766 767 769 771 773 774 776 776 778 780 780 781
    783 785 787 787 787 789 789 790 792 796 796 796 798 0 0 0 0 0 956
    956 948 935 923 908 903 894 878 873 854 849 847 821 817 809 802 794
    783 774 767 764 761 759 759 759 759 759 761 762 764 766 767 767 769
    773 773 774 776 778 778 780 781 781 783 783 785 787 787 789 789 790
    794 796 796 796 798 0 0 0 0 0 959 956 946 933 923 908 906 896 878
    873 856 849 847 819 815 811 802 794 783 774 767 762 759 759 759 759
    759 759 761 762 764 766 767 767 769 771 773 774 776 778 778 778 781
    781 783 783 785 787 789 789 790 790 796 796 796 796 0 0 0 0 0 0 959
    954 938 933 925 913 906 894 878 860 856 849 843 819 815 811 803 794
    781 774 767 762 759 757 757 757 759 759 761 762 764 766 767 767 769
    771 773 774 776 778 778 778 780 781 781 783 785 787 789 789 790 790
    796 796 796 796 0 0 0 0 0 0 956 948 938 933 925 915 906 894 875 860
    856 849 829 821 815 809 802 796 781 773 766 759 757 757 757 757 759
    759 759 762 764 764 767 767 769 771 773 774 776 776 778 778 780 781
    781 783 785 787 789 789 790 790 794 796 796 0 0 0 0 0 0 0 956 946
    938 933 925 910 898 880 875 860 858 851 829 823 817 809 802 794 783
    771 764 759 757 757 757 757 759 759 759 762 764 764 767 767 769 771
    773 773 776 776 778 778 780 781 781 783 785 787 789 789 789 790 794
    796 796 796 0 0 0 0 0 0 948 946 940 935 925 906 898 880 873 860 858
    851 829 823 817 807 800 794 785 771 761 759 757 755 755 755 757 759
    759 762 764 764 766 767 769 771 773 773 774 776 778 778 780 780 781
    783 785 787 787 789 789 790 794 796 796 796 0 0 0 0 0 0 948 946 946
    940 940 906 896 878 873 860 856 847 827 821 815 805 800 794 787 774
    761 757 755 755 755 755 757 759 761 762 764 764 766 767 771 771 773
    773 774 776 778 778 780 780 781 783 785 787 787 789 789 790 794 794
    794 794 0 0 0 0 0 959 956 948 938 930 918 908 896 875 871 858 856
    847 825 817 813 805 800 794 780 774 761 757 755 755 755 755 757 759
    761 764 764 764 766 767 769 771 773 773 774 776 778 778 780 781 783
    783 785 785 787 789 789 789 790 794 794 794 0 0 0 0 962 959 956 951
    938 930 918 910 885 875 871 854 854 847 825 815 809 805 800 794 778
    774 761 757 755 755 755 757 757 759 762 764 764 764 766 767 767 769
    771 773 774 776 778 780 780 780 783 783 783 785 787 787 789 789 790
    792 792 794 0 0 0 0 962 959 956 951 938 930 920 910 885 878 878 854
    854 845 839 813 805 805 800 794 776 773 761 755 755 755 755 757 759
    761 762 764 764 766 766 767 767 769 771 774 774 776 776 778 780 780
    781 783 783 785 785 787 789 789 790 792 792 0 0 0 0 0 962 959 956
    951 938 930 920 910 882 878 878 878 845 845 839 811 805 805 796 781
    773 771 761 755 755 755 755 757 759 761 762 764 766 766 766 767 769
    769 771 774 774 776 776 778 780 781 781 783 783 785 785 787 789 789
    790 792 792 0 0 0 0 0 962 959 956 951 935 928 920 910 882 875 869
    869 869 827 827 811 807 805 796 780 771 766 761 755 755 755 755 757
    759 761 761 762 766 766 767 767 769 769 769 773 774 776 776 776 780
    780 781 783 783 785 785 787 789 789 790 792 792 796 0 0 0 0 0 959
    956 948 935 928 920 913 882 875 864 858 858 858 825 811 807 805 805
    776 771 766 759 755 754 754 755 757 759 759 761 762 764 764 767 767
    769 769 769 773 774 776 776 776 780 780 781 781 783 785 785 787 787
    789 790 792 792 796 0 0 0 0 0 956 954 943 935 928 915 915 885 878
    864 858 851 851 825 811 807 803 803 776 773 773 759 755 754 754 755
    757 759 759 761 762 764 764 767 767 767 769 771 773 774 776 776 776
    780 780 781 781 783 785 785 787 787 789 790 792 792 796 0 0 0 0 0
    956 954 943 935 928 915 889 882 875 864 858 851 829 825 811 807 803
    803 780 769 764 759 755 755 755 755 759 759 761 761 762 764 764 766
    767 767 769 771 773 774 774 776 776 780 780 781 781 783 783 785 787
    787 789 792 794 794 796 0 0 0 0 0 954 951 938 935 928 913 889 882
    875 864 858 851 829 821 811 807 803 794 780 767 764 761 757 755 755
    755 759 759 761 761 762 764 764 766 767 767 769 771 773 774 774 776
    776 780 780 781 781 783 783 785 787 789 789 792 794 794 796 0 0 0 0
    0 954 951 938 933 930 913 887 880 873 864 858 851 827 821 815 809
    798 792 789 766 762 759 757 755 755 755 759 759 759 759 762 762 764
    766 767 767 769 771 773 774 776 776 778 780 780 781 781 783 783 783
    785 785 789 790 792 792 796 0 0 0 0 962 956 951 935 930 923 913 887
    880 871 864 858 847 827 821 815 809 798 792 783 766 762 759 757 755
    755 755 759 759 759 759 762 762 764 766 767 767 769 771 773 774 776
    776 778 778 778 781 781 781 783 783 785 785 789 790 792 790 790 0 0
    0 0 962 959 946 935 930 918 910 891 880 871 864 858 847 829 821 815
    807 798 792 783 764 761 757 754 754 754 755 757 759 759 759 762 762
    766 766 767 767 769 771 773 774 774 776 778 778 778 781 781 781 783
    783 785 785 789 790 792 790 790 0 0 0 0 0 962 946 935 930 918 910
    891 882 873 864 858 847 829 821 813 807 796 783 778 764 761 755 754
    754 754 754 757 757 759 759 762 762 766 766 767 767 769 771 773 774
    774 776 776 778 778 780 781 781 783 783 785 787 789 790 790 790 790
    0 0 0 0 0 962 943 938 930 918 898 891 880 873 862 858 847 847 821
    811 803 796 783 774 767 762 755 754 754 754 754 755 757 759 759 762
    762 766 766 767 767 769 771 773 774 774 776 776 778 778 780 781 781
    781 783 785 787 790 790 790 790 790 0 0 0 0 962 948 943 938 930 915
    898 889 878 871 862 862 862 821 821 811 803 798 792 774 767 762 755
    754 754 754 754 755 755 759 759 762 762 766 766 767 767 769 771 773
    774 774 774 776 776 780 780 781 781 781 783 785 787 790 790 792 792
    0 0 0 0 0 962 948 943 938 930 910 901 887 878 871 862 862 862 827
    821 811 803 796 783 774 766 761 755 754 754 754 754 755 755 759 759
    762 764 766 766 767 767 769 771 773 774 774 774 776 776 780 780 781
    781 783 783 785 787 789 790 792 792 0 0 0 0 0 962 951 943 935 930
    910 901 885 875 871 864 864 864 825 821 815 803 796 783 773 761 759
    755 754 754 754 754 755 755 759 761 762 764 766 766 767 767 769 771
    771 774 774 774 776 776 780 780 781 781 781 783 785 787 789 789 790
    792 0 0 0 0 0 970 951 943 935 928 910 901 885 875 871 867 867 867
    823 819 813 803 796 789 773 761 759 755 754 754 754 754 755 757 759
    761 762 764 766 766 767 769 769 769 771 774 774 774 776 776 780 780
    781 781 781 783 785 787 789 789 790 790 0 0 0 0 0 967 951 943 933
    928 913 901 880 875 871 867 860 841 823 819 813 805 796 787 787 761
    759 755 754 754 754 755 757 759 759 761 762 764 764 766 767 769 769
    769 771 773 774 774 776 776 780 780 781 781 783 783 785 787 789 789
    790 790 0 0 0 0 0 967 954 943 933 928 913 894 880 875 869 862 856
    841 823 817 811 805 800 776 776 762 759 757 754 754 754 755 757 759
    759 761 762 762 764 766 767 769 769 769 771 773 774 774 774 776 778
    780 781 781 783 783 785 787 789 789 790 790 0 0 0 0 0 967 954 943
    933 923 915 894 885 878 869 858 851 841 823 817 811 805 781 776 776
    761 757 755 754 754 754 755 755 759 759 761 762 762 764 766 767 769
    769 769 771 773 774 774 774 776 778 780 781 781 783 783 785 787 789
    790 789 789 789 0 0 0 0 962 954 943 933 923 915 896 887 880 864 858
    851 827 825 817 811 805 780 778 778 757 755 754 754 752 752 754 755
    759 759 759 762 762 764 766 767 767 769 769 771 773 774 774 774 776
    778 780 781 781 781 783 783 785 789 789 789 789 789 0 0 0 0 962 954
    943 930 923 898 896 889 882 864 858 851 827 825 817 805 802 780 778
    774 757 755 754 754 752 752 754 755 759 759 759 762 762 764 766 767
    767 769 769 771 773 773 774 774 776 778 780 781 781 781 783 783 785
    789 789 789 789 0 0 0 0 0 962 954 946 930 918 898 896 889 878 864
    860 851 829 823 815 805 802 781 778 771 759 755 754 752 752 754 754
    755 759 759 759 762 764 764 766 767 767 769 769 771 773 773 774 776
    776 778 780 781 781 781 783 783 785 789 789 789 789 0 0 0 0 0 956
    954 938 930 918 898 894 885 875 867 860 851 827 823 813 803 802 781
    774 769 761 755 754 752 752 754 754 755 759 759 759 762 762 764 766
    767 767 769 769 771 773 774 774 776 776 776 780 781 781 781 783 783
    787 789 789 789 789 0 0 0 0 0 956 954 938 933 920 898 894 880 875
    867 862 847 827 821 813 803 800 794 774 769 762 755 754 752 752 752
    754 755 759 759 761 762 762 764 766 767 767 769 771 771 773 774 774
    774 776 776 778 780 781 781 783 783 789 789 789 789 789 0 0 0 0 0
    956 951 940 933 920 898 894 875 871 867 858 847 829 817 811 803 798
    794 774 769 764 755 754 752 752 752 754 754 759 759 761 762 762 764
    766 767 767 769 771 771 773 773 774 774 776 776 778 780 781 781 783
    783 789 789 789 789 0 0 0 0 0 0 951 946 940 933 918 901 896 875 871
    867 858 847 829 817 811 802 798 778 774 769 764 755 754 752 752 752
    754 754 759 759 761 761 762 764 766 767 767 769 771 771 773 773 774
    776 776 776 778 780 780 781 781 783 789 789 789 789 0 0 0 0 0 0 951
    946 940 935 913 901 894 875 869 862 856 847 827 817 809 798 781 778
    774 771 761 757 754 752 752 752 752 754 757 757 761 761 762 764 766
    767 767 769 771 771 773 773 774 776 776 776 778 780 780 781 781 783
    789 789 789 789 0 0 0 0 0 0 956 946 943 933 913 901 891 875 869 860
    851 845 827 819 809 798 781 778 774 771 759 755 754 754 752 752 752
    754 755 757 761 762 762 764 766 767 767 769 771 771 773 773 774 776
    776 776 778 780 781 781 781 785 787 789 789 789 0 0 0 0 0 0 956 940
    938 930 915 901 887 875 869 860 851 827 827 821 809 796 783 781 778
    755 755 755 754 754 752 752 752 752 755 757 761 762 762 764 766 766
    767 769 771 771 773 773 774 774 776 776 778 780 781 781 781 787 787
    789 789 789 0 0 0 0 0 0 0 940 935 925 915 910 887 875 869 860 851
    827 827 823 809 796 783 781 780 754 754 755 754 752 752 752 752 752
    754 759 761 762 762 764 764 766 767 769 769 771 771 773 774 774 776
    776 778 780 781 781 783 787 787 787 787 789 0 0 0 0 0 0 943 938 933
    925 915 913 913 875 869 860 851 827 823 817 809 798 783 781 780 754
    754 754 754 752 752 752 752 752 754 759 761 762 762 764 764 766 767
    767 769 771 771 773 774 774 776 776 776 780 781 781 783 787 787 787
    787 0 0 0 0 0 0 0 943 938 930 925 915 910 885 875 867 860 851 823
    819 811 807 800 783 780 780 761 755 754 752 752 752 752 752 754 754
    759 761 761 762 762 764 766 767 767 769 771 771 773 774 774 776 776
    776 780 781 781 783 787 787 787 787 0 0 0 0 0 0 959 943 938 930 923
    903 896 885 873 867 860 854 823 819 811 805 802 781 778 771 761 759
    755 752 752 752 752 752 754 754 759 761 761 762 762 764 766 767 767
    769 771 771 773 774 774 776 776 778 780 781 781 783 785 787 787 787
    0 0 0 0 0 0 956 948 940 928 923 903 896 885 873 867 860 856 823 819
    811 805 798 781 776 767 762 759 755 752 752 752 752 752 754 754 759
    761 761 762 762 764 766 767 767 769 769 771 773 774 774 776 776 778
    780 781 781 783 785 787 787 787 0 0 0 0 0 0 956 943 935 928 920 903
    896 885 873 867 860 831 825 819 811 805 796 776 774 767 762 757 754
    752 752 752 752 752 754 755 759 761 761 761 762 764 766 767 767 769
    769 771 773 774 774 776 776 778 780 781 781 783 785 787 787 787 0 0
    0 0 0 0 0 943 935 928 918 903 896 885 875 860 860 831 827 821 819
    798 796 776 774 769 759 755 754 752 752 752 752 752 754 757 757 761
    761 761 762 764 766 767 767 769 769 771 773 774 774 776 776 778 780
    781 781 783 785 787 787 787 0 0 0 0 0 0 948 943 935 928 918 903 896
    896 862 860 858 839 829 821 813 798 794 790 774 769 759 754 752 752
    752 752 752 752 754 757 757 761 761 761 762 764 766 767 767 769 769
    771 773 773 774 776 776 778 780 780 781 783 785 787 787 787 0 0 0 0
    0 0 948 943 938 930 915 903 896 896 860 858 856 839 829 817 811 807
    794 790 776 773 757 754 752 750 750 750 750 752 752 755 757 761 761
    761 762 762 766 767 767 769 769 771 771 771 774 776 776 778 780 780
    781 783 785 785 785 785 0 0 0 0 0 0 948 946 940 928 915 901 894 873
    860 858 847 841 841 813 807 803 794 780 776 771 757 754 752 750 750
    750 750 752 752 755 757 761 761 761 762 762 764 766 767 767 769 769
    771 771 774 776 776 778 780 780 781 783 785 785 785 785 0 0 0 0 0 0
    946 946 940 928 913 901 894 873 862 858 847 841 841 813 807 803 794
    780 776 771 755 752 750 749 749 749 750 752 754 757 757 759 761 761
    762 762 764 766 767 767 769 769 771 771 774 774 776 778 780 780 781
    783 785 785 785 785 0 0 0 0 0 0 946 946 940 918 913 903 894 894 862
    858 851 851 851 807 807 802 783 780 774 771 754 750 749 749 749 749
    750 752 755 757 757 759 761 762 762 762 764 766 767 767 769 769 771
    773 774 774 776 776 780 781 781 783 785 785 785 785 0 0 0 0 0 0 0
    948 943 918 913 903 903 906 862 858 851 851 851 813 800 800 783 780
    774 771 754 750 749 749 749 749 752 752 755 757 757 759 761 762 762
    764 764 766 767 767 769 769 771 773 774 774 774 776 778 780 781 783
    785 785 785 785 0 0 0 0 0 0 954 948 938 918 913 910 906 906 862 858
    851 851 851 813 809 800 792 781 776 771 755 750 750 749 749 749 752
    754 755 755 757 759 761 762 762 764 766 766 767 769 769 769 771 773
    774 774 774 776 778 780 781 783 785 785 785 787 0 0 0 0 0 956 951
    948 938 918 913 910 906 906 862 858 856 856 856 813 807 800 792 781
    774 761 757 750 750 749 749 749 752 754 755 755 757 759 761 761 762
    762 764 766 767 769 769 769 771 773 774 774 774 776 776 778 780 781
    785 785 785 787 0 0 0 0 0 956 946 943 940 925 913 901 901 871 862
    858 858 858 819 811 807 800 785 780 773 761 757 752 750 749 749 750
    752 754 754 755 757 759 761 761 762 762 764 766 767 767 769 769 771
    773 774 774 774 776 776 776 780 781 783 783 785 787 0 0 0 0 0 0 946
    943 938 928 913 896 885 871 867 860 841 829 819 811 805 800 785 780
    767 764 757 752 750 749 749 750 752 754 754 754 755 759 761 761 762
    762 764 766 766 767 769 769 771 773 773 774 776 776 776 776 780 781
    783 783 785 787 0 0 0 0 0 0 946 940 933 925 903 894 885 871 867 851
    837 829 819 813 805 800 785 780 767 764 754 752 749 749 749 750 752
    754 754 754 755 759 761 761 762 762 764 766 766 767 767 769 769 771
    773 774 776 776 776 778 780 781 783 783 785 0 0 0 0 0 0 954 946 940
    933 923 901 891 885 875 867 847 837 827 821 813 805 800 785 780 767
    764 752 749 747 747 747 749 752 754 754 754 755 759 761 761 761 762
    764 766 766 767 767 769 769 771 773 774 774 776 776 778 780 781 783
    783 783 0 0 0 0 0 0 954 946 938 933 918 898 889 885 875 869 847 839
    825 821 815 805 798 785 781 764 764 752 749 747 747 747 749 752 754
    754 754 755 759 761 761 761 762 764 766 766 767 767 769 769 769 773
    774 774 776 776 778 781 783 783 783 783 0 0 0 0 0 0 954 946 938 933
    915 898 889 882 875 860 847 847 823 819 815 805 798 785 783 764 759
    752 749 747 747 747 749 752 754 754 754 755 759 761 761 761 762 762
    764 766 766 767 769 769 769 773 774 774 776 776 780 781 783 783 785
    785 0 0 0 0 0 0 954 946 938 928 915 901 889 882 862 860 849 849 821
    819 815 805 794 783 783 783 759 752 749 747 747 747 747 750 754 754
    754 755 759 759 761 761 762 762 762 764 766 767 769 769 769 773 774
    774 776 778 780 781 781 783 785 785 0 0 0 0 0 0 0 946 938 928 918
    903 891 889 862 860 851 851 821 815 809 803 790 781 780 780 761 754
    750 747 747 747 747 750 754 754 754 755 759 759 761 761 762 762 762
    764 767 767 769 769 769 771 773 774 776 778 778 780 781 783 783 785
    0 0 0 0 0 0 0 946 938 925 913 898 894 891 862 858 854 854 823 815
    809 803 785 780 774 767 761 754 749 747 747 747 749 752 754 754 754
    755 757 759 761 761 762 762 764 764 767 767 769 769 769 771 773 774
    776 776 778 780 781 781 783 785 0 0 0 0 0 0 0 946 935 925 903 896
    891 891 862 858 854 827 823 817 809 785 785 780 774 764 759 752 749
    747 747 747 749 752 752 754 754 754 757 759 761 761 762 762 764 766
    767 769 769 769 769 771 773 774 774 776 778 780 780 781 783 783 0 0
    0 0 0 954 954 946 935 928 901 896 891 891 864 858 858 827 821 815
    809 785 785 780 773 762 755 750 747 747 747 747 749 752 752 752 754
    754 757 759 761 761 761 762 764 766 767 769 769 769 769 771 773 774
    774 776 778 780 780 781 783 783 0 0 0 0 0 954 951 946 935 928 898
    894 887 887 887 847 841 827 821 815 809 809 785 778 773 761 755 750
    747 747 747 747 747 752 752 752 754 754 757 759 761 761 761 762 764
    766 767 767 767 769 769 771 773 774 774 776 776 778 780 781 781 781
    0 0 0 0 0 954 951 946 933 928 896 889 887 887 851 847 841 829 821
    813 807 800 787 778 773 761 754 750 749 747 747 747 747 752 752 752
    754 754 757 759 759 761 761 762 764 766 766 767 767 769 769 771 773
    773 776 776 776 778 780 781 781 781 0 0 0 0 0 954 948 943 933 928
    896 889 887 882 851 847 843 829 817 811 807 800 787 778 767 759 754
    750 749 747 747 747 749 750 752 752 754 754 755 757 759 761 761 762
    764 766 766 767 767 769 769 771 773 773 774 774 776 778 780 781 781
    783 0 0 0 0 0 948 946 940 930 925 896 889 887 882 851 849 843 841
    815 811 809 802 787 778 767 759 754 750 747 746 746 747 749 750 752
    752 754 754 755 757 759 761 762 762 764 766 766 767 767 769 769 771
    773 774 774 774 776 776 780 781 781 783 0 0 0 0 0 946 946 940 930
    925 896 891 887 878 851 849 843 839 815 811 809 807 785 780 767 759
    754 749 746 746 746 747 749 750 752 752 752 754 755 759 759 761 761
    762 762 764 766 766 767 769 769 771 773 774 774 774 776 776 778 781
    781 781 0 0 0 0 0 946 946 940 933 923 898 894 887 869 860 849 841
    835 817 813 811 809 783 778 767 755 752 749 746 746 747 747 749 750
    752 752 752 754 755 759 759 761 761 762 762 764 766 766 767 769 769
    771 773 774 774 774 776 776 778 780 781 781 0 0 0 0 0 946 943 940
    930 923 898 894 891 867 862 847 841 835 819 813 809 789 783 778 767
    755 750 749 746 746 747 747 749 752 752 752 754 754 755 759 761 761
    762 762 762 762 764 766 767 767 769 771 773 774 774 774 774 776 778
    780 781 781 0 0 0 0 0 946 943 940 930 925 898 894 894 867 862 847
    841 835 819 811 807 787 785 785 767 764 750 747 746 746 747 747 750
    750 752 752 752 754 755 757 761 761 761 761 762 762 764 764 767 767
    769 769 773 774 774 774 774 776 778 780 781 0 0 0 0 0 0 948 946 940
    930 906 898 891 880 869 862 849 841 831 817 811 805 787 783 776 766
    757 750 747 746 746 747 747 750 750 752 752 752 754 755 757 761 761
    761 761 762 762 764 764 767 767 769 769 771 774 774 776 776 778 778
    780 781 0 0 0 0 0 0 951 943 935 930 906 898 889 880 869 860 845 839
    829 815 809 803 789 783 774 766 757 750 747 746 746 746 747 749 750
    752 752 752 754 755 757 759 761 761 762 762 762 764 764 767 767 769
    769 771 774 774 776 776 778 778 780 780 781 0 0 0 0 0 946 938 933
    923 906 896 889 878 869 851 845 839 825 813 809 803 789 785 774 767
    754 750 746 746 746 746 747 747 749 752 752 752 754 755 757 759 761
    761 762 762 762 764 764 767 767 769 769 771 773 774 776 776 778 778
    778 778 778 0 0 0 0 0 946 935 930 923 906 896 887 875 867 851 845
    837 825 813 809 802 789 785 776 766 754 750 746 746 746 746 747 747
    749 750 752 752 754 755 757 759 759 761 762 762 762 764 764 767 767
    769 769 771 773 774 774 776 776 778 778 778 778 0 0 0 0 0 943 935
    930 923 906 896 887 875 862 851 851 837 823 817 809 794 789 785 776
    764 755 750 746 746 746 746 747 747 747 750 750 752 754 755 757 757
    759 761 761 762 762 762 764 767 767 769 769 771 773 774 774 776 776
    778 778 778 778 0 0 0 0 0 940 938 930 915 906 896 887 887 862 858
    858 858 821 817 803 792 789 781 767 762 757 750 746 746 746 746 747
    747 747 750 750 752 754 755 757 757 757 761 761 762 762 762 764 767
    767 769 769 771 773 774 774 776 776 778 778 778 0 0 0 0 0 0 940 938
    930 910 903 896 887 887 887 887 825 819 819 817 803 792 789 781 767
    762 755 750 746 746 746 746 747 747 749 750 752 752 754 755 755 757
    757 761 761 762 762 762 766 767 767 769 769 771 773 774 774 776 776
    778 778 778 0 0 0 0 0 0 0 0 0 910 903 898 891 891 891 856 825 825
    819 817 803 792 789 783 767 762 752 746 746 746 746 746 747 747 749
    750 752 752 754 755 755 757 757 761 761 762 762 762 766 767 767 769
    769 771 773 774 774 776 776 780 780 780 0 0 0 0 0 0 0 0 0 913 913
    901 901 0 856 856 833 825 821 817 803 792 789 783 769 764 749 746
    744 744 746 746 747 747 749 750 750 752 754 755 755 757 757 761 761
    762 762 762 766 767 767 769 769 771 773 774 774 776 778 780 780 780
    0 0 0 0 0 0 0 0 0 913 913 0 0 0 0 856 833 825 821 817 803 792 789
    785 785 746 746 744 744 744 746 746 747 747 749 750 750 750 752 755
    757 757 759 761 761 762 762 764 766 767 767 769 769 771 773 774 774
    778 780 781 781 781 0 0 0 0 0 0 0 0 0 915 915 0 0 0 0 835 835 829
    823 819 819 0 0 0 0 746 746 744 744 744 746 746 746 747 747 749 750
    750 752 755 757 759 759 761 761 762 762 764 766 767 767 769 771 771
    773 774 774 776 778 781 781 781 781 0 0 0 0 0 0 0 0 0 0 0 0 0 0 843
    839 833 831 831 2767 0 0 0 0 0 752 746 746 746 746 746 746 747 747
    749 750 750 752 755 755 757 759 759 761 762 762 766 767 767 767 767
    771 771 773 774 774 776 778 780 781 781 781 0 0 0 0 0 0 0 0 0 0 0 0
    0 0 843 841 837 837 2767 2767 0 0 0 0 0 752 750 746 746 746 746 747
    747 747 749 749 749 752 755 755 757 757 759 761 761 762 764 766 767
    767 767 771 771 773 774 774 776 778 780 781 781 781 0 0 0 0 0 0 0 0
    0 0 0 0 0 0 0 843 843 2812 2789 2789 0 0 0 0 0 0 0 746 746 746 747
    747 747 747 749 749 749 752 755 755 757 757 759 761 761 761 764 766
    767 767 769 771 771 773 773 774 776 776 780 780 780 781 0 0 0 0 0 0
    0 0 0 0 0 0 0 0 0 2744 2744 2744 2767 0 0 0 0 0 0 0 0 0 0 747 747
    747 747 3994 4041 4041 4041 4041 755 755 755 4139 4139 761 761 761
    4190 4190 769 769 771 771 771 773 773 774 776 776 780 780 780 781
    4349 0 0 4241 0</data></Depth6193>
</opencv_storage>
