<?xml version="1.0"?>
<opencv_storage>
<Depth16868 type_id="opencv-matrix">
  <rows>85</rows>
  <cols>48</cols>
  <dt>w</dt>
  <data>
    4349 4349 4349 4295 4295 1489 1489 1483 1483 1483 1503 1496 1496
    1557 1543 1543 4405 1503 1496 1496 1496 1496 1496 1496 1496 1509
    1516 1509 1509 1496 1496 1496 1496 1503 1496 1496 1496 1496 1496
    1503 1503 1503 1503 1496 1496 4582 4582 4645 4349 4349 4349 1489
    1489 1489 1489 1483 1483 1483 1496 1496 1496 1496 1496 1509 1496
    1496 1489 1489 1496 1496 1496 1496 1496 1496 1496 1496 1496 1496
    1496 1496 1496 1496 1496 1496 1496 1496 1496 1496 1496 1503 1503
    1496 1496 1496 1496 4645 4295 1489 1489 1489 1489 1489 1489 1489
    1489 1489 1496 1489 1489 1489 1489 1496 1496 1496 1489 1489 1489
    1489 1489 1489 1496 1496 1496 1496 1496 1496 1496 1496 1496 1496
    1496 1496 1496 1496 1496 1496 1496 1496 1503 1503 1496 1496 1496
    4645 1543 1543 1489 1489 1489 1489 1489 1489 1489 1489 1489 1489
    1489 1489 1489 1489 1489 1489 1489 1489 1489 1489 1489 1489 1489
    1496 1496 1496 1489 1489 1489 1496 1496 1496 1489 1489 1496 1496
    1496 1496 1496 1496 1503 1496 1496 1496 1496 4645 1543 1543 1529
    1489 1489 1489 1489 1489 1489 1489 1489 1489 1489 1489 1489 1489
    1489 1489 1489 1489 1489 1489 1489 1489 1489 1489 1489 1489 1489
    1489 1489 1496 1496 1489 1489 1489 1496 1496 1496 1496 1496 1503
    1503 1496 1496 1496 1496 4645 1543 1543 1529 1489 1489 1489 1489
    1489 1489 1489 1489 1489 1489 1489 1489 1489 1489 1489 1489 1489
    1489 1489 1489 1489 1489 1489 1489 1489 1489 1489 1489 1496 1496
    1489 1489 1489 1496 1496 1496 1496 1503 1503 1503 1496 1496 1496
    1496 4645 1516 1516 1516 1489 1483 1483 1489 1489 1489 1489 1483
    1483 1483 1483 1483 1489 1489 1489 1489 1489 1489 1489 1489 1489
    1489 1489 1489 1489 1489 1489 1496 1496 1496 1489 1489 1496 1496
    1496 1496 1496 1503 1503 1503 1496 1496 1496 1496 4645 0 1516 1509
    1489 1483 1477 1477 1483 1483 1483 1483 1483 1483 1483 1483 1483
    1489 1489 1489 1489 1489 1489 1489 1489 1489 1489 1489 1489 1489
    1489 1496 1496 1496 1496 1496 1496 1496 1496 1496 1496 1496 1496
    1503 1496 1496 1496 1496 4645 0 1509 1509 1489 1483 1477 1477 1483
    1483 1483 1483 1483 1483 1483 1483 1483 1489 1489 1489 1489 1489
    1489 1489 1489 1489 1489 1489 1489 1489 1489 1496 1496 1496 1496
    1496 1496 1496 1496 1496 1496 1496 1496 1503 1503 1496 1496 1496
    4645 0 1503 1503 1489 1483 1477 1477 1483 1483 1483 1483 1483 1489
    1483 1483 1489 1489 1489 1489 1489 1489 1489 1489 1489 1489 1489
    1489 1489 1489 1496 1496 1496 1496 1496 1496 1496 1496 1496 1496
    1496 1496 1496 1503 1503 1496 1496 1496 4645 0 1503 1503 1489 1483
    1477 1477 1483 1483 1483 1483 1483 1489 1489 1489 1489 1489 1489
    1489 1489 1489 1489 1489 1489 1489 1489 1489 1489 1489 1496 1496
    1496 1496 1496 1496 1496 1496 1496 1496 1496 1496 1496 1496 1496
    1496 1496 1496 4708 1516 1496 1496 1489 1483 1483 1483 1483 1483
    1483 1483 1483 1483 1489 1483 1483 1483 1489 1489 1489 1489 1489
    1489 1489 1489 1489 1489 1489 1489 1496 1496 1496 1496 1496 1496
    1496 1496 1496 1496 1496 1496 1496 1496 1496 1496 1496 1496 4708
    1516 1516 1496 1489 1483 1483 1483 1483 1483 1483 1483 1483 1483
    1489 1483 1483 1483 1483 1483 1489 1489 1489 1489 1489 1489 1489
    1489 1489 1489 1496 1496 1496 1496 1496 1496 1496 1496 1496 1496
    1496 1496 1496 1496 1496 1496 1496 1496 4708 1516 1516 1503 1489
    1483 1483 1483 1483 1483 1483 1483 1483 1483 1483 1483 1483 1483
    1483 1483 1489 1489 1489 1489 1489 1489 1489 1489 1489 1489 1496
    1496 1496 1496 1496 1496 1496 1496 1496 1496 1496 1496 1496 1496
    1496 1496 1496 1496 4708 0 1516 1509 1489 1483 1483 1483 1483 1483
    1483 1483 1483 1483 1483 1483 1483 1483 1483 1483 1489 1489 1489
    1489 1489 1489 1489 1489 1489 1489 1496 1496 1496 1496 1496 1496
    1496 1496 1496 1496 1496 1496 1496 1496 1496 1496 1496 1496 4645 0
    1516 1509 1489 1483 1483 1483 1483 1483 1477 1477 1477 1477 1477
    1483 1483 1483 1483 1483 1483 1483 1489 1489 1489 1489 1489 1489
    1489 1489 1496 1489 1489 1496 1496 1496 1496 1496 1496 1496 1496
    1496 1496 1496 1496 1496 1496 1496 4645 1523 1523 1509 1489 1483
    1483 1483 1483 1483 1477 1477 1477 1470 1470 1483 1483 1483 1483
    1489 1483 1483 1489 1489 1489 1489 1489 1489 1489 1489 1496 1489
    1489 1496 1496 1496 1496 1496 1496 1489 1489 1496 1496 1496 1496
    1496 1496 1496 4645 1523 1523 1509 1489 1483 1483 1483 1483 1483
    1477 1477 1477 1470 1470 1483 1483 1483 1483 1483 1489 1489 1489
    1489 1489 1489 1489 1489 1489 1489 1496 1496 1496 1496 1496 1496
    1496 1496 1496 1489 1489 1489 1496 1496 1496 1496 1496 1496 4645
    1483 1483 1483 1483 1483 1483 1483 1483 1483 1483 1483 1483 1477
    1477 1483 1483 1483 1483 1483 1489 1489 1489 1489 1489 1489 1489
    1489 1489 1489 1496 1496 1496 1496 1496 1496 1496 1489 1489 1489
    1489 1489 1496 1496 1496 1496 1496 1496 4582 1458 1477 1477 1477
    1477 1477 1477 1483 1483 1483 1483 1483 1477 1477 1483 1483 1483
    1483 1483 1489 1489 1489 1489 1489 1489 1489 1489 1489 1489 1496
    1496 1496 1496 1496 1496 1496 1489 1489 1489 1489 1496 1496 1496
    1496 1496 1496 1496 4582 0 1458 1458 1470 1477 1477 1477 1477 1483
    1483 1483 1483 1483 1483 1483 1483 1483 1483 1483 1489 1489 1489
    1489 1489 1489 1489 1489 1489 1489 1489 1489 1489 1496 1496 1496
    1496 1496 1496 1489 1489 1496 1496 1496 1496 1496 1496 1496 4645 0
    1458 1458 1470 1477 1477 1477 1477 1483 1483 1483 1483 1483 1483
    1483 1483 1483 1483 1483 1483 1489 1489 1489 1489 1489 1489 1489
    1489 1489 1489 1489 1489 1496 1496 1489 1489 1496 1496 1496 1496
    1496 1496 1496 1496 1496 1496 1496 4645 0 1529 1470 1470 1477 1477
    1483 1483 1483 1483 1483 1483 1483 1483 1483 1483 1483 1483 1483
    1483 1489 1489 1489 1489 1489 1489 1489 1489 1489 1489 1489 1489
    1489 1489 1489 1489 1496 1496 1496 1496 1496 1496 1496 1496 1496
    1496 1496 4645 0 1516 1483 1483 1477 1477 1477 1477 1483 1483 1483
    1483 1483 1483 1483 1483 1483 1477 1477 1483 1483 1489 1489 1489
    1489 1489 1489 1489 1489 1489 1489 1489 1489 1489 1496 1496 1496
    1496 1496 1496 1496 1496 1496 1496 1496 1496 1496 4645 0 1516 1496
    1483 1477 1470 1470 1477 1477 1477 1483 1483 1483 1483 1483 1483
    1483 1477 1477 1483 1483 1483 1483 1483 1489 1489 1489 1489 1489
    1489 1489 1496 1489 1489 1496 1496 1496 1496 1496 1496 1496 1496
    1496 1496 1489 1489 1489 4645 0 1496 1496 1477 1477 1470 1470 1477
    1477 1477 1477 1477 1483 1477 1477 1483 1483 1483 1483 1483 1483
    1483 1483 1483 1489 1489 1489 1489 1489 1489 1496 1496 1489 1489
    1496 1496 1496 1496 1496 1496 1496 1496 1496 1496 1489 1489 1489
    4645 0 1496 1496 1477 1477 1470 1470 1477 1477 1477 1477 1477 1477
    1477 1477 1483 1483 1483 1483 1483 1483 1489 1489 1489 1489 1489
    1489 1489 1489 1489 1489 1496 1496 1496 1496 1496 1496 1496 1496
    1496 1496 1496 1496 1496 1489 1489 1489 4645 0 1516 1496 1477 1477
    1470 1470 1477 1477 1477 1477 1477 1477 1477 1477 1477 1483 1483
    1483 1483 1483 1489 1489 1489 1489 1489 1489 1489 1489 1489 1489
    1496 1496 1496 1496 1496 1496 1496 1496 1496 1496 1496 1496 1496
    1496 1496 1496 4645 0 1516 1509 1477 1477 1470 1470 1477 1477 1477
    1477 1477 1477 1477 1477 1477 1483 1483 1483 1483 1483 1489 1489
    1489 1489 1489 1489 1489 1489 1489 1489 1489 1489 1496 1496 1496
    1496 1496 1496 1496 1496 1496 1496 1496 1496 1496 1503 1503 1516
    1516 1516 1477 1470 1470 1470 1477 1477 1477 1477 1477 1477 1477
    1477 1477 1483 1483 1483 1483 1489 1489 1489 1489 1489 1489 1489
    1489 1489 1489 1489 1489 1489 1489 1496 1496 1496 1496 1496 1496
    1496 1496 1496 1496 1496 1503 1503 1503 1516 1516 1516 1477 1470
    1470 1470 1477 1477 1477 1477 1477 1477 1477 1477 1477 1483 1483
    1483 1483 1483 1483 1489 1489 1489 1489 1489 1489 1489 1489 1489
    1489 1489 1489 1496 1496 1496 1489 1489 1489 1496 1496 1496 1496
    1496 1496 1496 1496 1503 1503 1503 1477 1477 1470 1470 1477 1477
    1477 1470 1470 1477 1477 1477 1483 1483 1483 1483 1483 1483 1483
    1483 1483 1483 1483 1483 1483 1483 1489 1489 1489 1489 1496 1496
    1496 1496 1489 1489 1489 1496 1496 1496 1496 1496 1496 1496 1496 0 0
    1503 1483 1477 1470 1470 1470 1477 1477 1470 1470 1470 1477 1477
    1483 1483 1483 1483 1483 1483 1483 1483 1483 1483 1483 1483 1483
    1483 1489 1489 1489 1489 1496 1496 1496 1496 1496 1496 1496 1496
    1496 1496 1496 1496 1496 1496 4582 0 1503 1503 1489 1477 1470 1470
    1470 1477 1477 1470 1470 1470 1470 1477 1483 1483 1483 1483 1483
    1483 1483 1483 1483 1489 1483 1483 1483 1483 1483 1489 1489 1489
    1496 1496 1496 1496 1496 1496 1496 1496 1496 1496 1496 1496 1496
    1496 1496 0 0 1503 1489 1483 1477 1470 1470 1477 1470 1470 1470 1470
    1470 1477 1477 1477 1483 1483 1483 1483 1483 1483 1483 1489 1483
    1483 1483 1483 1483 1489 1489 1489 1489 1496 1496 1496 1496 1496
    1496 1496 1489 1489 1496 1496 1496 1496 1496 0 0 1503 1489 1483 1477
    1470 1470 1477 1470 1470 1470 1470 1470 1477 1477 1477 1477 1477
    1483 1483 1483 1483 1489 1489 1489 1489 1483 1483 1489 1489 1489
    1489 1489 1496 1496 1496 1496 1496 1496 1496 1489 1489 1496 1496
    1496 1496 1496 0 0 1483 1483 1477 1477 1470 1470 1477 1470 1470 1470
    1470 1470 1477 1477 1477 1477 1477 1483 1483 1483 1489 1489 1483
    1483 1489 1483 1483 1489 1489 1489 1489 1489 1489 1489 1489 1496
    1496 1496 1496 1489 1489 1496 1496 1496 1496 1496 0 0 1477 1477 1470
    1470 1470 1470 1477 1470 1470 1470 1470 1470 1477 1477 1477 1477
    1477 1477 1477 1483 1489 1489 1483 1483 1489 1483 1483 1489 1489
    1489 1489 1489 1489 1489 1489 1496 1496 1496 1496 1489 1489 1496
    1496 1496 1496 1496 0 0 1477 1477 1470 1470 1470 1470 1470 1470 1470
    1470 1470 1470 1477 1477 1477 1477 1477 1477 1477 1483 1483 1483
    1483 1483 1489 1489 1489 1489 1489 1489 1489 1489 1489 1489 1489
    1496 1496 1496 1496 1489 1489 1496 1496 1496 1496 1496 0 0 1470 1470
    1470 1470 1470 1470 1470 1470 1470 1470 1470 1470 1477 1483 1477
    1477 1477 1477 1477 1483 1483 1483 1483 1483 1483 1483 1483 1483
    1483 1483 1489 1489 1489 1489 1489 1489 1496 1496 1496 1496 1496
    1496 1496 1496 1496 1496 1529 1523 1470 1470 1470 1470 1470 1470
    1470 1470 1470 1477 1470 1470 1477 1483 1477 1477 1477 1477 1477
    1483 1483 1483 1483 1483 1483 1483 1483 1483 1483 1483 1489 1489
    1496 1489 1489 1489 1496 1496 1496 1496 1496 1496 1496 1496 1496
    1496 1529 1523 1523 1483 1470 1470 1470 1470 1470 1470 1470 1477
    1477 1477 1477 1483 1483 1477 1477 1477 1477 1483 1483 1483 1483
    1483 1483 1483 1483 1483 1483 1489 1489 1489 1496 1489 1489 1489
    1496 1496 1496 1496 1496 1496 1496 1496 1496 1496 1529 1398 1398
    1404 1470 1470 1470 1470 1470 1470 1470 1470 1470 1470 1477 1477
    1477 1477 1477 1477 1477 1483 1483 1483 1483 1483 1483 1483 1483
    1489 1489 1489 1489 1489 1496 1496 1489 1489 1496 1496 1496 1496
    1496 1496 1496 1496 1496 1496 1392 1392 1392 1392 1392 1470 1470
    1470 1470 1470 1470 1470 1470 1470 1477 1477 1477 1477 1477 1477
    1477 1483 1483 1483 1483 1489 1483 1483 1483 1489 1489 1489 1489
    1489 1496 1496 1496 1496 1496 1496 1496 1496 1496 1496 1496 1496
    1496 1496 1392 1392 1392 1392 1392 1470 1470 1470 1470 1470 1470
    1470 1470 1470 1477 1477 1477 1477 1477 1477 1477 1477 1483 1483
    1483 1483 1483 1483 1483 1489 1489 1489 1489 1489 1496 1496 1496
    1496 1496 1496 1496 1496 1496 1496 1496 1489 1489 1489 1404 1398
    1398 1404 1477 1470 1470 1470 1470 1470 1470 1470 1470 1470 1477
    1477 1477 1477 1477 1477 1477 1477 1477 1483 1483 1483 1483 1483
    1483 1489 1489 1489 1489 1489 1489 1489 1496 1496 1496 1496 1496
    1496 1496 1496 1496 1489 1489 1489 1421 1410 1410 1410 1477 1470
    1470 1470 1470 1470 1470 1470 1470 1477 1477 1477 1477 1477 1477
    1477 1477 1477 1477 1483 1483 1483 1483 1483 1483 1489 1489 1489
    1489 1489 1489 1489 1489 1489 1489 1489 1496 1496 1496 1496 1496
    1489 1489 1489 1427 1415 1415 1421 1470 1470 1470 1470 1470 1470
    1470 1470 1470 1470 1470 1470 1477 1477 1483 1483 1483 1483 1483
    1483 1483 1483 1483 1483 1483 1489 1489 1489 1489 1489 1489 1489
    1489 1489 1489 1489 1489 1489 1496 1496 1489 1489 1489 1489 1427
    1415 1415 1421 1470 1470 1470 1470 1470 1470 1470 1470 1470 1470
    1470 1470 1477 1477 1483 1483 1483 1483 1483 1483 1483 1483 1483
    1483 1483 1489 1489 1489 1489 1489 1489 1489 1489 1489 1489 1489
    1489 1489 1496 1496 1489 1489 1489 1489 1415 1415 1415 1421 1470
    1470 1470 1470 1470 1470 1470 1470 1477 1470 1470 1470 1470 1477
    1477 1483 1483 1483 1483 1483 1483 1483 1483 1483 1483 1483 1489
    1489 1489 1489 1489 1489 1489 1489 1489 1489 1489 1489 1489 1489
    1489 1489 1489 1489 1415 1415 1415 1477 1470 1470 1470 1470 1470
    1470 1470 1470 1477 1470 1470 1470 1470 1477 1477 1477 1483 1483
    1483 1483 1483 1483 1477 1477 1483 1483 1489 1489 1489 1489 1489
    1489 1489 1489 1489 1489 1489 1489 1489 1489 1489 1489 1489 1489
    4241 1536 1536 1503 1477 1470 1470 1470 1470 1470 1470 1470 1477
    1470 1470 1470 1470 1477 1477 1477 1477 1477 1483 1483 1483 1483
    1477 1477 1483 1483 1489 1489 1489 1489 1489 1489 1489 1489 1489
    1489 1489 1489 1489 1489 1496 1489 1489 1489 4241 1529 1529 1503
    1477 1470 1470 1470 1470 1470 1470 1470 1470 1477 1477 1477 1477
    1477 1477 1477 1477 1477 1483 1483 1483 1483 1477 1477 1483 1483
    1489 1489 1489 1489 1489 1489 1489 1489 1489 1489 1489 1489 1489
    1489 1496 1496 1496 1496 1536 1529 1529 1503 1483 1470 1470 1470
    1470 1470 1470 1470 1470 1477 1477 1477 1477 1477 1477 1477 1477
    1477 1483 1483 1489 1483 1483 1477 1477 1483 1483 1483 1489 1489
    1489 1489 1489 1489 1489 1489 1489 1489 1489 1489 1496 1496 1496
    1496 1536 1536 1523 1503 1489 1470 1470 1470 1470 1470 1470 1470
    1470 1477 1477 1477 1483 1477 1477 1477 1477 1477 1483 1483 1489
    1489 1483 1477 1477 1483 1483 1483 1489 1489 1489 1489 1489 1489
    1489 1489 1489 1489 1489 1489 1496 1496 1496 1496 1536 1536 1503
    1489 1489 1470 1470 1470 1470 1470 1470 1470 1470 1470 1477 1477
    1483 1477 1477 1477 1477 1477 1483 1483 1489 1489 1489 1483 1483
    1483 1483 1483 1489 1489 1489 1489 1489 1489 1489 1489 1489 1489
    1489 1489 1496 1496 1496 1496 1489 1496 1496 1489 1483 1470 1470
    1470 1470 1470 1470 1470 1470 1470 1477 1477 1477 1477 1477 1477
    1477 1477 1477 1483 1483 1483 1483 1483 1483 1483 1489 1489 1489
    1489 1489 1489 1489 1489 1489 1489 1489 1489 1489 1489 1496 1496
    1496 1496 1489 1489 1496 1489 1477 1470 1470 1470 1470 1470 1470
    1470 1470 1470 1477 1477 1477 1477 1477 1477 1477 1477 1477 1483
    1483 1483 1483 1483 1483 1489 1489 1489 1489 1489 1489 1489 1489
    1489 1489 1489 1489 1489 1489 1489 1489 1489 1496 1496 1489 1489
    1496 1489 1477 1470 1470 1470 1470 1464 1464 1470 1470 1470 1470
    1477 1477 1477 1477 1477 1477 1477 1477 1477 1477 1477 1483 1483
    1483 1489 1489 1489 1489 1489 1489 1489 1489 1489 1489 1489 1489
    1489 1489 1489 1489 1489 1496 1496 1557 1509 1496 1489 1477 1470
    1470 1470 1470 1464 1464 1470 1470 1470 1470 1470 1470 1477 1477
    1477 1477 1477 1477 1477 1477 1477 1477 1477 1483 1483 1489 1483
    1483 1489 1489 1489 1489 1489 1489 1489 1489 1489 1489 1489 1489
    1489 1496 1496 1557 1523 1503 1489 1477 1470 1470 1464 1464 1470
    1470 1470 1470 1470 1470 1470 1470 1477 1477 1477 1477 1477 1477
    1477 1477 1477 1477 1477 1483 1483 1483 1483 1483 1483 1489 1489
    1489 1489 1489 1489 1489 1489 1489 1489 1489 1489 1489 1489 1894
    1894 1601 1489 1477 1470 1464 1464 1464 1464 1470 1470 1470 1470
    1470 1470 1470 1477 1477 1477 1477 1477 1477 1477 1477 1477 1477
    1477 1483 1483 1477 1477 1477 1483 1483 1489 1489 1489 1489 1489
    1489 1489 1489 1489 1489 1489 1489 1489 1883 1883 1489 1489 1477
    1470 1464 1464 1464 1464 1470 1470 1470 1470 1470 1470 1470 1477
    1477 1477 1477 1477 1477 1477 1477 1477 1477 1483 1477 1477 1477
    1477 1477 1483 1483 1489 1489 1489 1489 1489 1489 1489 1489 1489
    1489 1489 1489 1489 1883 1883 1883 1489 1470 1470 1464 1464 1464
    1464 1464 1464 1470 1470 1470 1470 1470 1470 1470 1470 1470 1470
    1470 1477 1477 1477 1477 1483 1477 1477 1477 1477 1477 1483 1483
    1489 1489 1489 1489 1489 1489 1489 1489 1489 1489 1489 1489 1496
    1873 1873 1873 1470 1470 1470 1464 1464 1464 1464 1464 1464 1464
    1464 1464 1470 1470 1470 1470 1470 1470 1470 1470 1470 1477 1477
    1477 1483 1483 1483 1483 1483 1483 1483 1483 1489 1489 1489 1489
    1489 1489 1489 1489 1489 1489 1489 1496 1496 1863 1853 1853 1470
    1470 1470 1470 1464 1464 1464 1464 1464 1464 1464 1464 1470 1470
    1477 1470 1470 1470 1470 1470 1470 1477 1477 1477 1483 1489 1489
    1489 1483 1483 1483 1483 1489 1489 1489 1489 1489 1489 1483 1483
    1489 1489 1489 1496 1503 1863 1853 1853 1464 1464 1470 1470 1464
    1464 1458 1458 1458 1458 1458 1464 1464 1470 1477 1477 1477 1470
    1470 1477 1477 1477 1477 1477 1483 1489 1489 1489 1489 1489 1489
    1489 1489 1489 1489 1489 1489 1489 1483 1483 1489 1489 1489 1503
    1503 1853 1843 1843 1464 1464 1470 1464 1464 1458 1452 1452 1445
    1445 1445 1464 1464 1470 1489 1489 1483 1477 1477 1477 1477 1477
    1483 1489 1496 1496 1496 1496 1496 1489 1489 1489 1489 1489 1489
    1489 3269 3269 3269 3269 3269 3300 3300 3300 3269 1853 1843 1843
    1843 1470 1464 1464 1445 1445 1452 1452 1445 1445 1445 1445 1543
    1543 1543 1496 1496 1496 1496 1503 1503 1550 1550 1550 1550 1543
    1529 1529 1496 1496 1579 1579 3208 3208 3208 3238 3269 3269 3269
    3269 3269 3300 3269 3269 3269 1843 1843 1843 1843 1843 1464 1464
    1445 1445 1445 1833 1557 1557 1557 1557 1543 1543 1536 1503 1496
    1496 1503 1503 0 0 0 1550 1550 1543 1536 1536 1572 1572 1579 1579
    3208 3208 3208 3238 3269 3269 3269 3269 3269 3269 3269 3269 3269
    1843 1843 1833 1833 1833 1833 1833 1843 1833 1833 1833 1557 1557
    1557 1557 1543 1543 1536 1503 1503 1503 1503 1503 1594 1579 1579
    1557 1557 1543 1516 1516 1516 1586 1586 1586 3208 3208 3208 3238
    3238 3269 3269 3269 3269 3269 3269 3269 3238 1843 1833 1833 1833
    1833 1833 1833 1823 1823 1813 1813 1813 1564 1564 1564 1550 1543
    1536 1523 1509 1509 1509 1594 1594 1579 1579 1572 1564 1543 1503
    1503 1503 1496 1496 3238 3238 3238 3238 3238 3238 3269 3269 3269
    3269 3269 3269 3269 3238 1843 1833 1833 1833 1833 1833 1833 1823
    1823 1813 1813 1813 1564 1564 1557 1550 1543 1536 1523 1509 1509
    1579 1579 1579 1579 1579 1572 1572 1579 1496 1496 1496 1496 1523
    3238 3238 3238 3238 3238 3238 3238 3269 3269 3269 3269 3269 3269
    3238 3010 1863 1833 1833 1833 1833 1833 1813 1813 1813 1813 1564
    1557 1557 1550 1550 1543 1536 1523 1516 1516 1523 1543 1557 1557
    1557 1550 1550 1503 1496 1496 1496 1523 1523 3208 3208 3208 3238
    3238 3238 3238 3238 3238 3269 3269 3269 3269 3238 3010 1863 1853
    1843 1843 1823 1823 1804 1804 1804 1804 1557 1550 1543 1536 1536
    1536 1529 1523 1516 1516 1516 1536 1536 1543 1536 1529 1529 1503
    1503 1503 1503 1516 1516 1516 3208 3178 3178 3238 3238 3238 3238
    3238 3238 3269 3269 3269 3238 3010 3037 3037 3064 1843 1823 1813
    1804 1804 1804 1804 1557 1543 1536 1529 1523 1523 1523 1516 1509
    1509 1509 1516 1529 1529 1529 1523 1523 1503 1503 1503 1503 1503
    1503 1503 1503 3178 3178 3208 3208 3238 3238 3238 3238 3238 3238
    3238 3238 3037 3037 3037 3064 3092 3092 1813 1804 1804 1804 1564
    1557 1543 1523 1523 1516 1516 1509 1503 1496 1496 1489 1489 1523
    1523 1523 1523 1523 1509 1509 1503 1503 1496 1496 1489 1489 1489
    3178 3178 3178 3238 3238 3238 3238 3238 3238 3238 3238 3037 3037
    3064 3092 3092 3092 1813 1804 1804 1785 1564 1550 1523 1516 1496
    1496 1496 1496 1489 1489 1489 1477 1477 1477 1483 1483 1477 1470
    1470 1477 1483 1483 1483 1483 1483 1483 1470 1470 3178 3178 3238
    3238 0 0 0 0 3238 3238 3037 3037 3064 3064 3092 3092 3120 1813 1804
    1785 1564 1543 1523 1503 1489 1477 1477 1477 1477 1477 1470 1470
    1470 1470 1470 1470 1470 1464 1464 1470 1470 1470 1470 1477 1477
    1470 1470 1458 1452 1452 0 0 0 0 0 0 0 0 3037 3037 3037 3064 3064
    3120 3120 3120 1804 1804 1564 1536 1523 1489 1477 1470 1470 1470
    1470 1470 1470 1464 1464 1464 1464 1464 1464 1464 1464 1464 1464
    1470 1470 1470 1470 1470 1470 1452 1452 1452 0 0 0 0 0 0 0 0 3037
    3037 3037 3010 3010 3037 3064 3092 3092 3120 1785 1523 1523 1489
    1477 1464 1464 1464 1464 1464 1464 1464 1464 1464 1464 1464 1464
    1464 1464 1464 1464 1464 1470 1470 1470 1470 1464 1452 1452 0 0 0 0
    0 0 0 0 0 3010 3010 3037 3010 3010 3010 3010 3037 3092 3120 3120
    1523 1523 1483 1470 1464 1464 1464 1464 1464 1464 1464 1464 1464
    1464 1464 1464 1464 1464 1464 1464 1464 1470 1470 1470 1470 1464
    1458 1458 0 0 0 0 0 0 0 0 0 3010 3010 3037 3010 3010 3010 3010 3010
    3092 3120 0 0 0 1477 1470 1464 1458 1458 1464 1464 1464 1464 1464
    1464 1464 1464 1464 1464 1464 1464 1464 1464 1470 1470 1470 1470
    1464 1464 1464 0 0 0 0 0 0 0 0 0 3010 3037 3064 3037 3037 3037 3010
    3010 0 0 0 0 0 1477 1464 1458 1458 1458 1458 1458 1464 1464 1464
    1464 1464 1464 1464 1464 1464 1464 1464 1464 1464 1470 1470 1470
    1464 1464 1464 0 0 0 0 0 0 0 0 0 0 0 0 0 0 0 0 0 0 0 0 0 0 1477 1464
    1458 1452 1452 1458 1458 1458 1464 1464 1464 1464 1464 1464 1464
    1464 1464 1464 1464 1464 1470 1470 1470 1464 1464 1464 0 0 0 0 0 0 0
    0 0</data></Depth16868>
</opencv_storage>
