<?xml version="1.0"?>
<opencv_storage>
<Depth5214 type_id="opencv-matrix">
  <rows>47</rows>
  <cols>35</cols>
  <dt>w</dt>
  <data>
    5056 5056 4983 4983 4911 4911 5291 5210 2226 2212 2212 2170 2170
    2170 2170 2184 2184 2184 2184 2184 2184 2184 5640 5640 5548 5548
    5548 5548 5548 5640 5548 5548 5460 5460 5548 5056 5056 5056 4983
    4911 4911 4911 2226 2226 2212 2212 2184 2184 2170 2170 2184 2184
    2184 2184 2184 2184 2184 2212 2226 5548 5548 5548 5548 5640 5640
    5548 5548 5460 5460 5460 4983 4983 4983 4983 4911 4911 4911 2226
    2226 2212 2212 2198 2184 2170 2170 2184 2184 2184 2184 2184 2184
    2184 2212 2226 2271 2256 2256 2256 2286 5640 5548 5548 5460 5460
    5374 4983 4983 4983 4983 4983 4983 2212 2212 2212 2212 2212 2184
    2170 2170 2184 2184 2184 2184 2198 2198 2198 2212 2226 2226 2256
    2256 2256 2256 2286 2286 2286 2286 5460 5460 5374 4983 4983 5056
    4983 4983 4983 2212 2212 2212 2212 2198 2184 2170 2170 2170 2170
    2184 2184 2198 2198 2198 2212 2226 2241 2256 2256 2271 2286 2286
    2286 2286 2286 2301 2333 2349 4983 4983 4983 5056 5056 2212 2212
    2212 2212 2198 2184 2184 2170 2170 2170 2170 2184 2184 2184 2198
    2212 2212 2226 2241 2256 2256 2271 2271 2286 2286 2286 2301 2301
    2333 2349 4983 4983 4983 4983 4983 2226 2226 2226 2212 2198 2184
    2184 2170 2170 2170 2170 2170 2184 2184 2198 2212 2212 2226 2241
    2256 2271 2271 2271 2286 2286 2301 2301 2301 2349 2349 4911 4911
    4983 4983 4983 2226 2226 2226 2212 2198 2184 2184 2170 2170 2156
    2156 2170 2184 2184 2198 2212 2212 2226 2241 2256 2256 2256 2271
    2286 2286 2301 2301 2301 2333 2333 4911 4911 4983 4983 4983 2226
    2226 2212 2198 2184 2184 2170 2170 2156 2143 2143 2170 2184 2184
    2198 2212 2212 2226 2241 2256 2256 2256 2271 2286 2301 2317 2317
    2317 2333 2333 4911 4911 4983 4983 4983 4983 2226 2198 2198 2184
    2184 2170 2170 2156 2143 2143 2170 2184 2184 2198 2212 2226 2226
    2241 2241 2256 2256 2271 2286 2301 2317 2317 2317 2317 2317 4911
    4911 4911 4911 5056 5056 2212 2198 2184 2184 2184 2170 2170 2156
    2156 2170 2170 2184 2184 2184 2198 2226 2226 2241 2241 2241 2256
    2271 2286 2301 2301 2317 2317 2317 2317 4911 4911 4911 4911 4911
    2212 2212 2198 2184 2184 2184 2170 2156 2156 2156 2170 2170 2184
    2184 2184 2198 2226 2226 2241 2241 2241 2256 2271 2286 2301 2301
    2317 2317 2301 2301 4983 4983 4911 4911 4911 2226 2198 2198 2184
    2184 2170 2170 2156 2156 2156 2170 2170 2184 2184 2198 2198 2212
    2226 2226 2241 2256 2256 2286 2286 2301 2301 2317 2317 2301 2301
    4983 4983 4983 4983 2184 2184 2184 2198 2184 2184 2170 2170 2143
    2143 2156 2170 2170 2184 2184 2198 2198 2212 2226 2226 2241 2256
    2271 2286 2286 2301 2301 2301 2317 2301 2301 4983 4983 4983 4983
    2184 2184 2184 2198 2184 2184 2170 2170 2143 2143 2156 2170 2170
    2184 2184 2184 2184 2212 2212 2212 2241 2241 2256 2271 2286 2301
    2301 2301 2301 2301 2301 4911 4911 4983 4983 2212 2198 2184 2184
    2184 2184 2170 2170 2143 2143 2156 2170 2170 2184 2184 2184 2184
    2212 2212 2212 2241 2241 2256 2271 2286 2301 2301 2301 2301 2301
    2301 4911 4911 4983 4983 2198 2198 2184 2184 2184 2170 2170 2170
    2156 2156 2170 2170 2170 2184 2184 2198 2212 2212 2226 2226 2241
    2241 2256 2271 2286 2301 2301 2301 2317 2286 2286 4911 4911 4911
    2184 2184 2184 2184 2184 2170 2156 2156 2156 2156 2156 2156 2170
    2170 2184 2184 2198 2212 2212 2226 2226 2241 2241 2241 2271 2286
    2301 2301 2301 2317 2286 2286 4774 4774 4774 2184 2184 2170 2170
    2170 2170 2156 2156 2156 2156 2156 2156 2156 2170 2170 2184 2184
    2212 2226 2226 2226 2241 2241 2241 2271 2286 2301 2301 2301 2301
    2301 2301 4774 4774 4774 2170 2170 2170 2170 2170 2170 2129 2129
    2156 2143 2143 2143 2156 2156 2170 2184 2184 2212 2226 2226 2226
    2241 2241 2256 2271 2286 2301 2301 2301 2301 2301 2301 4842 4911
    4911 2170 2170 2170 2170 2170 2156 2129 2129 2143 2143 2143 2143
    2143 2156 2170 2184 2198 2198 2212 2212 2226 2241 2241 2256 2271
    2286 2301 2301 2301 2301 2301 5291 4911 4983 4983 2184 2170 2170
    2170 2170 2156 2129 2129 2129 2129 2143 2143 2143 2156 2170 2184
    2198 2198 2212 2212 2226 2226 2241 2256 2271 2286 2286 2301 2301
    2301 2301 5291 4911 4911 4911 2184 2184 2170 2170 2170 2129 2116
    2116 2116 2129 2129 2143 2143 2156 2170 2184 2184 2184 2198 2212
    2226 2226 2241 2256 2271 2286 2286 2286 2301 2301 2301 5291 4911
    4911 4911 2184 2184 2184 2184 2170 2129 2116 2116 2116 2129 2129
    2143 2156 2170 2170 2170 2184 2184 2198 2212 2226 2226 2241 2241
    2271 2286 2286 2286 2301 2317 2317 5291 4911 4911 4911 2184 2184
    2184 2184 2170 2129 2129 2129 2116 2116 2129 2143 2156 2170 2170
    2170 2170 2184 2198 2212 2226 2226 2241 2241 2271 2286 2286 2286
    2301 2317 2317 5291 4911 4911 4911 2184 2184 2184 2170 2170 2129
    2129 2129 2116 2116 2129 2143 2156 2170 2170 2170 2170 2184 2212
    2226 2226 2226 2241 2241 2286 2286 2286 2286 2301 2317 2317 5291
    4911 4911 2184 2184 2184 2170 2156 2156 2129 2129 2129 2129 2129
    2129 2143 2156 2170 2170 2170 2170 2184 2212 2226 2226 2226 2241
    2256 2286 2286 2286 2286 2301 2301 2301 5291 4842 4842 2184 2184
    2170 2156 2156 2156 2143 2129 2129 2129 2129 2143 2143 2156 2170
    2170 2170 2170 2184 2212 2226 2226 2226 2241 2256 2271 2286 2286
    2286 2286 2301 5210 5210 4842 2198 2198 2184 2170 2156 2156 2143
    2129 2129 2129 2129 2129 2143 2143 2156 2156 2170 2170 2170 2184
    2212 2226 2226 2226 2226 2256 2271 2286 2286 2286 2286 2286 5210
    5210 2198 2198 2198 2184 2170 2170 2156 2143 2129 2129 2116 2116
    2116 2129 2143 2143 2156 2170 2170 2184 2184 2212 2226 2226 2226
    2226 2256 2271 2286 2286 2286 2286 2286 5291 5291 2156 2184 2184
    2170 2170 2170 2156 2129 2129 2129 2116 2116 2116 2129 2129 2143
    2156 2156 2170 2170 2184 2212 2226 2226 2226 2226 2256 2286 2286
    2286 2286 2286 2286 5291 5291 2156 2156 2156 2170 2170 2170 2156
    2129 2129 2129 2116 2116 2116 2129 2129 2143 2156 2156 2170 2170
    2184 2212 2226 2226 2226 2226 2271 2271 2271 2286 2286 2286 2286
    5291 5291 4911 2156 2156 2156 2170 2156 2143 2129 2129 2116 2116
    2116 2116 2116 2129 2143 2156 2170 2170 2170 2184 2198 2212 2212
    2226 2226 2256 2271 2271 2271 2271 2271 2271 5291 5291 4911 2184
    2156 2156 2156 2143 2143 2129 2129 2116 2116 2116 2116 2116 2129
    2143 2156 2170 2170 2170 2184 2198 2198 2212 2226 2241 2256 2256
    2271 2271 2271 2271 5374 5374 5291 2184 2184 2170 2156 2156 2143
    2129 2129 2116 2116 2116 2116 2116 2116 2129 2143 2156 2170 2170
    2170 2184 2184 2198 2198 2226 2241 2256 2256 2271 2271 2271 2271
    5291 5291 5291 2184 2184 2170 2156 2156 2143 2129 2116 2116 2116
    2116 2116 2116 2116 2129 2129 2143 2156 2170 2170 2184 2184 2198
    2198 2226 2241 2256 2256 2271 2271 2271 2286 5291 5291 5291 2170
    2170 2170 2156 2156 2143 2129 2116 2116 2116 2116 2116 2116 2116
    2129 2129 2143 2156 2170 2170 2184 2184 2198 2198 2212 2241 2256
    2256 2271 2271 2271 2286 2286 5291 5291 2129 2129 2129 2143 2143
    2129 2129 2116 2116 2103 2103 2116 2116 2129 2129 2129 2143 2156
    2170 2170 2184 2184 2198 2198 2212 2241 2256 2256 2271 2271 2241
    2241 2241 5291 5291 2129 2129 2129 2143 2143 2129 2116 2116 2103
    2103 2103 2116 2129 2129 2129 2129 2143 2156 2156 2170 2184 2198
    2198 2198 2212 2241 2241 2256 2271 2271 2241 2241 5640 5291 5291
    2184 2184 2143 2143 2129 2129 2116 2116 2103 2103 2103 2116 2116
    2116 2116 2129 2143 2156 2156 2170 2184 2198 2198 2198 2212 2241
    2241 2256 2271 2271 2271 2286 5640 5291 5210 2156 2156 2129 2116
    2116 2129 2116 2116 2103 2103 2103 2116 2116 2116 2116 2129 2143
    2143 2156 2170 2184 2198 2198 2198 2226 2241 2241 2256 2256 2271
    2271 2286 5374 5291 5210 2116 2116 2116 2116 2116 2116 2116 2116
    2090 2090 2103 2103 2103 2116 2116 2116 2143 2143 2156 2170 2170
    2198 2198 2198 2226 2241 2241 2256 2256 2271 2271 2271 5291 5291
    5210 4911 2116 2116 2116 2116 2116 2116 2116 2078 2078 2078 2103
    2103 2116 2116 2116 2143 2143 2156 2170 2170 2184 2198 2198 2212
    2226 2241 2256 2256 2271 2271 2271 5210 5210 5210 2116 2116 2116
    2116 2116 2116 2103 2103 2078 2078 2078 2103 2103 2116 2116 2129
    2143 2156 2156 2170 2170 2184 2198 2198 2198 2212 2241 2256 2256
    2271 2301 5056 5056 5132 5210 2116 2116 2116 2116 2116 2103 2103
    2103 2090 2078 2078 2129 2129 2129 2129 2129 2143 2156 2156 2170
    2170 2184 2198 2198 2198 2212 2241 2241 2256 2271 2271 5056 5056
    5132 5210 2116 2116 2116 2116 2116 2103 2103 2103 4911 4911 2170
    2170 2170 5210 5210 5210 2156 2156 2156 2170 2170 2184 2198 2184
    2184 2198 2226 2241 2271 2271 5210 5210 5210 5210 5132 4774 4774
    4983 4983 4983 4983 4983 5056 5056 4983 4983 4983 4983 5210 5210
    5210 5210 5210 2170 2170 2184 2184 2198 2184 2184 2198 2226 5291
    5291 5291 5291 5210 5210 5210 5132</data></Depth5214>
</opencv_storage>
