<?xml version="1.0"?>
<opencv_storage>
<Depth2874 type_id="opencv-matrix">
  <rows>60</rows>
  <cols>37</cols>
  <dt>w</dt>
  <data>
    1283 1292 0 0 0 0 0 0 0 0 0 0 0 0 0 0 0 0 0 0 0 0 0 0 0 2933 2933
    2908 2908 2908 2908 2908 2908 2883 2859 2859 2835 1288 1292 0 0 0 0
    0 0 0 0 0 0 0 0 0 0 0 0 0 0 0 0 0 0 0 2908 2908 2908 2908 2908 2908
    2908 2908 2908 2859 2859 2835 1297 1302 0 0 0 0 0 0 0 0 0 0 0 0 0 0
    0 0 0 0 0 0 0 0 2933 2908 2908 2933 2933 2908 2908 2908 2908 2908
    2908 2908 2908 1307 1307 0 0 0 0 0 0 0 0 0 0 0 0 0 0 0 0 0 0 0 0 0 0
    2933 2933 2933 2933 2933 2933 2908 2908 2908 2908 2908 2908 2933
    1307 0 0 0 0 0 0 0 0 0 0 0 0 0 0 0 0 0 0 0 0 0 0 0 2958 2958 2958
    2958 2958 2933 2908 2908 2908 2908 2908 2908 2908 0 0 0 0 0 0 0 0 0
    0 0 0 0 0 0 0 0 0 0 0 0 0 2958 2958 2958 2958 2958 2958 2958 2958
    2933 2933 2908 2908 2908 2908 2908 0 0 0 0 0 0 0 0 0 0 0 0 0 0 0 0 0
    0 0 0 0 2984 2958 2958 2984 2984 2958 2958 2958 2958 2933 2933 2933
    2933 2933 2908 2908 0 0 0 0 0 0 0 0 0 0 0 0 0 0 0 0 0 0 0 0 0 2984
    2958 2958 2984 2984 2984 2984 2958 2958 2933 2933 2933 2933 2933
    2958 3994 0 0 0 0 0 0 0 0 0 0 0 0 0 0 0 0 0 0 0 0 0 2984 2984 2984
    2984 2984 2984 2984 2958 2958 2933 2933 2933 2933 2958 2958 4041 0 0
    0 0 0 0 0 0 0 0 0 0 0 0 0 0 0 0 0 0 3037 3010 3010 3010 3010 3010
    2984 2984 2958 2958 2933 2933 2933 2933 2933 4089 4041 0 0 0 0 0 0 0
    0 0 0 0 0 0 0 0 0 0 0 0 0 3037 3010 3010 3010 3010 3010 2984 2984
    2958 2958 2933 2933 2933 2933 2933 4089 4041 0 0 0 0 0 0 0 0 0 0 0 0
    0 0 0 0 0 0 0 0 3037 3010 3010 3037 3010 3010 3010 2984 2958 2958
    2933 2933 2933 2933 4089 4089 4041 0 0 0 0 0 0 0 0 0 0 0 0 0 0 0 0 0
    0 0 0 3037 3037 3037 3037 3037 3010 3010 3010 2984 2984 2933 2933
    2933 2933 4089 4089 4041 0 0 0 0 0 0 0 0 0 0 0 0 0 0 0 0 0 0 0 0
    3120 3037 3037 3037 3037 3037 3010 3010 3010 3010 2984 2984 2984
    2984 4139 4139 4041 0 0 0 0 0 0 0 0 0 0 0 0 0 0 0 0 0 0 0 3120 3120
    3037 3037 3064 3037 3037 3037 3010 3010 3010 3010 3010 4190 4190
    4190 4139 4041 0 0 0 0 0 0 0 0 0 0 0 0 0 0 0 0 0 0 0 3092 3092 3092
    3092 3064 3037 3037 3037 3010 3010 3010 3010 4241 4190 4190 4190
    4139 4041 0 0 0 0 0 0 0 0 0 0 0 0 0 0 0 0 0 3120 3120 3092 3092 3092
    3064 3064 3064 3037 3037 3037 3010 3010 3010 4241 4190 4190 4190
    4089 4041 0 0 0 0 0 0 0 0 0 0 0 0 0 0 0 0 0 3120 3120 3120 3092 3092
    3064 3064 3037 3037 3037 3037 3037 3010 3010 4241 4190 4190 4190
    4089 4041 0 0 0 0 0 0 0 0 0 0 0 0 0 0 0 0 3092 3092 3120 3120 3092
    3092 3064 3064 3037 3037 3037 3037 3037 3037 3037 4190 4190 4190
    4190 4139 4089 0 0 0 0 0 0 0 0 0 0 0 0 0 0 0 0 3092 3092 3120 3120
    3120 3092 3064 3064 3037 3037 3037 3037 3037 3037 3037 4190 4190
    4190 4190 4089 4089 0 0 0 0 0 0 0 0 0 0 0 0 0 0 0 3120 3120 3120
    3149 3120 3120 3092 3092 3092 3064 3037 3037 3037 3037 4190 4190
    4190 4190 4190 4190 4089 4089 0 0 0 0 0 0 0 0 0 0 0 0 0 0 3120 3120
    3120 3149 3149 3149 3120 3120 3092 3092 3064 3037 3037 3037 4190
    4190 4190 4190 4190 4190 4139 4089 4041 0 0 0 0 0 0 0 0 0 0 0 0 0 0
    3120 3120 3149 3149 3149 3149 3120 3120 3120 3120 3092 3064 3064
    4241 4190 4190 4241 4241 4241 4190 4139 4089 4041 0 0 0 0 0 0 0 0 0
    0 0 0 0 3149 3149 3149 3149 3149 3149 3149 3120 3120 3120 3120 3092
    3064 3064 4295 4190 4190 4241 4241 4241 4190 4139 4139 4089 0 0 0 0
    0 0 0 0 0 0 0 0 3178 3149 3149 3178 3149 3149 3149 3149 3120 3120
    3120 3120 3120 3064 3064 4349 4241 4241 4241 4241 4241 4190 4139
    4139 4089 0 0 0 0 0 0 0 0 0 0 0 3178 3178 3178 3178 3178 3149 3149
    3149 3149 3149 3149 3149 3120 3092 3092 3092 4349 4295 4241 4241
    4241 4241 4241 4190 4139 4139 0 0 0 0 0 0 0 0 0 0 0 3178 3178 3178
    3178 3178 3178 3178 3149 3149 3149 3149 3149 3120 3092 3092 4405
    4405 4349 4295 4241 4241 4241 4241 4190 4190 4139 0 0 0 0 0 0 0 0 0
    0 0 3208 3178 3178 3178 3208 3178 3178 3149 3149 3149 3149 3149 3149
    3149 4405 4405 4405 4349 4295 4295 4295 4241 4241 4190 4190 4139 0 0
    0 0 0 0 0 0 0 0 3269 3269 3238 3238 3238 3238 3208 3208 3178 3178
    3178 3149 3149 3149 4405 4405 4405 4405 4295 4295 4241 4241 4241
    4241 4190 4190 4190 0 0 0 0 0 0 0 0 0 0 3269 3238 3238 3238 3238
    3238 3238 3238 3208 3208 3178 3149 3149 3149 4405 4463 4405 4405
    4295 4295 4241 4241 4241 4241 4190 4190 4190 0 0 0 0 0 0 0 0 0 3208
    3208 3238 3238 3238 3238 3238 3238 3238 3208 3208 3178 3149 3149
    4405 4405 4405 4405 4405 4295 4295 4241 4241 4241 4190 4190 4190
    4190 0 0 0 0 0 0 0 0 3149 3149 3208 3238 3238 3269 3269 3238 3238
    3238 3208 3208 3208 3178 3178 4405 4405 4405 4405 4405 4295 4295
    4241 4241 4241 4190 4190 4190 4190 0 0 0 0 0 0 0 0 3149 3149 3208
    3238 3269 3269 3269 3238 3238 3238 3208 3208 3238 3208 3208 4405
    4405 4405 4405 4405 4349 4295 4241 4241 4241 4190 4190 4190 4190 0 0
    0 0 0 0 0 0 3208 3208 3208 3238 3269 3269 3269 3269 3238 3238 3208
    3208 3238 3238 3238 4463 4405 4405 4405 4405 4349 4349 4295 4241
    4241 4190 4190 4241 4241 0 0 0 0 0 0 0 0 3269 3208 3208 3238 3269
    3269 3269 3269 3238 3238 3208 3208 3238 3238 4463 4463 4405 4405
    4405 4405 4405 4349 4349 4295 4241 4241 4241 4241 4241 0 0 0 0 0 0 0
    3365 3333 3269 3269 3269 3269 3269 3269 3269 3238 3238 3208 3208
    3238 4522 4463 4463 4405 4405 4405 4405 4405 4349 4349 4349 4295
    4241 4241 4241 4241 0 0 0 0 0 0 3399 3365 3333 3333 3269 3269 3269
    3269 3269 3269 3269 3238 3238 3238 4582 4522 4463 4463 4463 4463
    4405 4405 4405 4349 4349 4349 4295 4295 4241 4241 4241 0 0 0 0 0
    3333 3333 3333 3333 3333 3300 3269 3269 3269 3269 3269 3269 3269
    3238 3238 4582 4522 4522 4463 4463 4463 4405 4405 4405 4349 4349
    4349 4349 4295 4295 4241 4241 0 0 0 0 3300 3300 3300 3300 3333 3333
    3300 3269 3269 3269 3269 3269 3269 3269 3238 3238 4582 4522 4522
    4463 4463 4405 4405 4405 4349 4349 4349 4349 4349 4295 4295 4241
    4241 0 0 0 0 3300 3300 3300 3300 3333 3333 3300 3269 3269 3269 3269
    3269 3269 3269 3300 4582 4582 4582 4522 4522 4463 4405 4405 4349
    4349 4349 4349 4349 4349 4349 4349 4295 4295 0 0 0 0 3333 3333 3333
    3333 3365 3333 3333 3300 3300 3269 3269 3300 3333 3333 3333 4645
    4582 4582 4522 4522 4463 4405 4405 4349 4349 4349 4349 4405 4405
    4405 4349 4295 4295 0 0 0 0 3333 3333 3333 3333 3365 3365 3333 3333
    3300 3300 3300 3300 3333 3333 3333 4645 4582 4582 4522 4522 4463
    4405 4349 4349 4349 4349 4349 4405 4405 4405 4349 4295 4295 0 0 0 0
    3365 3365 3365 3399 3399 3365 3365 3365 3333 3333 3300 3300 3333
    3365 4645 4645 4582 4582 4522 4463 4463 4405 4349 4349 4349 4349
    4349 4405 4405 4405 4349 4349 4295 0 0 0 3365 3365 3365 3399 3399
    3399 3365 3365 3365 3333 3333 3333 3333 3333 4645 4645 4645 4582
    4582 4463 4463 4405 4405 4349 4349 4349 4405 4405 4405 4405 4405
    4405 4349 4295 0 0 3399 3365 3365 3365 3399 3399 3399 3365 3365 3365
    3333 3333 3333 3333 4645 4645 4645 4645 4582 4582 4463 4463 4405
    4405 4405 4405 4405 4405 4405 4405 4405 4405 4405 4405 4349 0 0 3399
    3399 3399 3399 3399 3399 3399 3365 3365 3365 3333 3333 4708 4708
    4645 4645 4645 4645 4582 4582 4463 4463 4405 4405 4405 4405 4405
    4405 4405 4405 4405 4405 4405 4405 4349 0 0 3399 3399 3399 3399 3399
    3399 3399 3365 3365 3365 3333 3333 4645 4645 4645 4645 4645 4645
    4582 4582 4463 4463 4405 4405 4405 4405 4463 4463 4463 4463 4405
    4405 4405 4405 4349 0 0 3433 3433 3399 3399 3399 3399 3399 3365 3365
    3365 3333 3333 4645 4645 4645 4645 4645 4645 4645 4582 4522 4463
    4463 4463 4463 4463 4463 4463 4463 4463 4405 4405 4405 4405 4349 0 0
    3468 3433 3433 3399 3399 3399 3399 3365 3365 3365 3365 3365 4708
    4708 4708 4645 4645 4645 4645 4582 4522 4522 4463 4463 4463 4463
    4463 4463 4463 4463 4463 4405 4405 4405 4349 0 3503 3468 3468 3433
    3399 3399 3399 3399 3399 3365 3365 3399 4774 4708 4708 4645 4645
    4645 4645 4645 4582 4522 4522 4522 4463 4463 4463 4463 4463 4463
    4463 4463 4405 4405 4405 4349 3503 3503 3468 3468 3433 3399 3399
    3399 3399 3399 3399 3399 3399 4774 4708 4708 4645 4645 4645 4645
    4582 4522 4522 4522 4522 4522 4522 4463 4463 4463 4463 4463 4463
    4405 4405 4405 4405 3503 3503 3468 3468 3433 3433 3433 3433 3399
    3399 3399 3399 4774 4774 4774 4708 4708 4645 4645 4645 4582 4522
    4522 4522 4522 4522 4522 4522 4463 4463 4463 4463 4463 4405 4405
    4405 4405 3503 3503 3503 3468 3468 3468 3468 3433 3433 3433 3468
    4911 4842 4842 4774 4774 4708 4645 4645 4645 4582 4522 4463 4463
    4522 4522 4522 4522 4522 4463 4463 4463 4463 4405 4405 4405 4405
    3503 3503 3503 3503 3503 3468 3468 3433 3433 3433 3468 4911 4911
    4842 4842 4774 4708 4708 4645 4645 4582 4522 4463 4463 4522 4522
    4522 4522 4522 4463 4463 4463 4463 4405 4405 4405 4405 3503 3503
    3539 3503 3503 3503 3468 3433 3433 3433 4911 4911 4911 4911 4842
    4774 4708 4708 4645 4645 4582 4582 4582 4582 4582 4582 4582 4582
    4522 4522 4463 4463 4463 4405 4405 4405 4405 3539 3539 3539 3503
    3503 3503 3468 3433 3433 3433 4911 4911 4911 4842 4842 4708 4708
    4708 4645 4645 4645 4582 4582 4645 4645 4645 4645 4582 4582 4522
    4463 4463 4463 4405 4405 4405 4405 3539 3539 3539 3539 3503 3503
    3468 3468 3503 4911 4911 4911 4911 4842 4842 4708 4708 4708 4645
    4645 4645 4645 4645 4645 4645 4645 4645 4645 4582 4582 4522 4522
    4463 4463 4463 4463 4463 3539 3539 3539 3539 3503 3503 3503 3503
    3503 4911 4911 4911 4911 4842 4842 4708 4708 4645 4645 4645 4645
    4645 4645 4708 4645 4645 4645 4645 4582 4582 4522 4522 4522 4463
    4463 4463 4463 3576 3576 3539 3503 3503 3503 3503 3539 4983 4911
    4911 4911 4911 4842 4842 4708 4708 4645 4645 4645 4645 4645 4708
    4708 4645 4645 4645 4645 4582 4582 4582 4582 4522 4522 4522 4463
    4463 1202 1202 3539 3503 3503 3503 3539 3614 4983 4911 4911 4911
    4911 4842 4774 4708 4708 4645 4645 4645 4708 4708 4708 4708 4645
    4645 4645 4582 4582 4645 4582 4582 4522 4522 4522 4522 4463</data></Depth2874>
</opencv_storage>
