<?xml version="1.0"?>
<opencv_storage>
<Depth9774 type_id="opencv-matrix">
  <rows>96</rows>
  <cols>59</cols>
  <dt>w</dt>
  <data>
    3300 3269 3269 3269 3269 3300 3269 3269 3269 3269 3269 3269 3269
    3269 3269 3269 3269 3269 3269 3269 3269 3269 3269 3238 3238 3238
    3238 3238 3238 3238 3238 1349 1349 1343 1338 1338 3238 3238 3208
    3208 3208 3208 3208 3208 3208 3208 3208 3178 3178 3178 3178 3178
    2198 2170 2156 2143 2129 2116 2078 3300 3269 3269 3300 3300 3269
    3269 3269 3269 3269 3269 3269 3269 3269 3269 3269 3269 3269 3269
    3269 3269 3269 3269 3238 3238 3238 3238 3238 3238 3238 3238 1349
    1343 1343 1338 1338 1338 3178 3178 3178 3178 3208 3208 3208 3208
    3208 3208 3178 3178 3178 3178 3178 3178 2170 2156 2143 2129 2090
    2078 3300 3300 3300 3300 3300 3269 3269 3269 3269 3269 3269 3269
    3269 3269 3269 3269 3269 3269 3269 3269 3269 3269 3269 3238 3238
    3238 3238 3238 3269 3269 1343 1343 1338 1338 1343 1343 1354 1354
    3178 3149 3149 3178 3208 3208 3178 3178 1297 1297 3178 3208 3208
    3178 3178 2170 2156 2129 2103 2090 2065 3300 3300 3300 3300 3269
    3269 3269 3269 3269 3269 3269 3269 3269 3269 3269 3269 3269 3269
    3269 3269 3269 3238 3238 1288 1288 1292 1292 1292 3269 3269 1338
    1338 1338 1338 1343 1349 1354 1250 1250 1255 1255 3178 3208 1292
    1292 1297 1297 1292 1292 3208 3208 3178 3178 3178 2156 2116 2103
    2078 2065 3300 3300 3300 3300 3269 3269 3269 3269 3269 3269 3269
    3269 3269 3269 3269 3269 3269 3269 3269 3269 3269 3238 3238 1273
    1273 1278 1292 1292 1292 1307 1307 1317 1338 1338 1343 1343 1349
    1245 1245 1250 1250 1250 1268 1273 1278 1292 1292 1292 1292 1292
    1292 3208 3208 3178 3178 2090 2078 2078 2053 3269 3269 3300 3300
    3269 3269 3269 3269 3269 3269 3269 3269 1219 1219 1161 1161 1161
    1153 1153 3269 3269 1259 1259 1273 1273 1278 1292 1292 1292 1302
    1214 1214 1338 1338 1343 1343 1241 1241 1245 1245 1245 1250 1268
    1273 1273 1278 1283 1292 1292 1292 1292 3208 3208 3208 3208 2078
    2078 2053 2053 3269 3269 3269 3269 3269 3269 3269 3269 3269 3269
    1219 1219 1214 1169 1161 1161 1161 1153 1153 1157 1157 1255 1255
    1255 1259 1278 1288 1288 1288 1202 1202 1210 1333 1333 1338 1338
    1236 1236 1241 1241 1245 1250 1264 1268 1273 1273 1283 1288 1288
    1292 1292 3208 3178 3178 3178 2065 2065 2053 2053 3269 3269 3269
    1219 1219 1214 1214 1214 1219 1219 1214 1210 1202 1169 1165 1165
    1165 1165 1157 1157 1165 1241 1241 1245 1250 1273 1283 1288 1202
    1197 1197 1202 1210 1219 1219 1227 1232 1236 1236 1236 1245 1245
    1259 1264 1268 1273 1273 1283 1283 1292 1292 3208 3208 3178 3178
    2065 2065 2053 2040 3269 1219 1214 1214 1214 1214 1214 1214 1214
    1214 1214 1210 1197 1169 1169 1165 1165 1165 1161 1157 1153 1153
    1153 1165 1169 1185 1185 1197 1202 1197 1197 1197 1202 1210 1219
    1223 1232 1236 1236 1236 1245 1245 1255 1259 1268 1268 1273 1278
    1283 1292 1292 3208 3208 3208 3178 3149 2040 2040 2040 3269 1219
    1214 1210 1210 1210 1214 1214 1214 1214 1214 1206 1189 1165 1165
    1161 1161 1165 1157 1157 1153 1153 1153 1165 1169 1177 1181 1189
    1197 1197 1197 1197 1202 1210 1219 1219 1223 1232 1236 1236 1250
    1250 1255 1259 1268 1268 1273 1278 1283 1288 1288 1288 3238 3208
    3178 3178 2040 2040 2040 1219 1214 1214 1210 1210 1210 1210 1210
    1214 1210 1210 1193 1173 1161 1161 1157 1157 1161 1157 1157 1157
    1157 1161 1165 1169 1177 1181 1189 1193 1197 1197 1197 1202 1214
    1219 1219 1223 1232 1232 1236 1245 1245 1255 1259 1264 1268 1273
    1273 1283 1288 1288 1288 3208 3208 3178 3178 2040 2040 2040 1219
    1214 1214 1210 1210 1210 1206 1206 1206 1202 1185 1181 1169 1161
    1157 1153 1153 1157 1153 1153 1157 1161 1161 1165 1169 1177 1181
    1185 1193 1193 1197 1197 1202 1210 1219 1219 1223 1227 1232 1236
    1245 1245 1250 1259 1264 1264 1268 1273 1283 1292 1292 1292 3178
    3178 3178 3178 2040 2040 2040 1223 1219 1214 1210 1210 1206 1202
    1202 1197 1189 1181 1173 1165 1161 1157 1153 1153 1153 1153 1153
    1153 1161 1165 1165 1169 1173 1181 1185 1189 1193 1193 1197 1202
    1210 1214 1219 1223 1227 1236 1241 1245 1250 1250 1255 1259 1264
    1268 1273 1278 1288 1292 1292 3178 3178 3178 3178 3178 3178 2040
    1219 1214 1214 1210 1202 1202 1202 1197 1193 1181 1177 1173 1165
    1161 1157 1153 1149 1149 1149 1149 1153 1157 1161 1165 1169 1173
    1177 1185 1185 1189 1189 1197 1202 1210 1214 1219 1223 1227 1236
    1241 1245 1245 1250 1255 1259 1264 1268 1273 1273 1283 1288 1288
    1288 3208 3178 3178 3178 3178 3149 1219 1214 1214 1214 1202 1197
    1197 1193 1189 1181 1177 1173 1165 1161 1157 1153 1149 1145 1145
    1149 1149 1157 1161 1165 1169 1173 1177 1181 1185 1185 1189 1193
    1202 1210 1214 1214 1223 1227 1232 1236 1245 1245 1250 1255 1255
    1264 1268 1268 1273 1278 1283 1288 1288 3178 3178 3178 3178 3178
    3178 1219 1219 1214 1214 1202 1197 1197 1189 1185 1181 1177 1173
    1165 1161 1157 1153 1149 1145 1145 1149 1149 1157 1161 1165 1169
    1173 1177 1181 1185 1185 1189 1193 1197 1210 1214 1214 1219 1223
    1227 1236 1241 1245 1250 1255 1255 1264 1268 1268 1273 1278 1283
    1288 1288 3178 3178 3178 3178 3178 3178 1219 1219 1214 1210 1202
    1202 1197 1189 1185 1181 1177 1173 1165 1161 1157 1153 1149 1145
    1145 1149 1149 1157 1161 1165 1169 1169 1177 1181 1181 1185 1185
    1193 1197 1202 1214 1214 1219 1223 1227 1232 1241 1245 1250 1255
    1259 1259 1268 1268 1273 1283 1288 1292 1292 3178 3178 3178 3178
    3178 3178 1223 1219 1219 1210 1206 1202 1197 1193 1185 1181 1181
    1177 1165 1161 1157 1153 1149 1149 1149 1149 1153 1157 1161 1165
    1165 1169 1177 1181 1181 1185 1185 1193 1197 1202 1210 1214 1219
    1227 1227 1232 1241 1245 1250 1255 1255 1259 1264 1268 1273 1283
    1288 1288 1288 3178 3178 3178 3178 3178 3178 1227 1223 1219 1210
    1206 1202 1197 1193 1185 1181 1181 1169 1165 1161 1157 1153 1149
    1149 1149 1149 1153 1157 1161 1161 1165 1169 1173 1181 1181 1185
    1189 1193 1197 1202 1210 1214 1223 1223 1227 1232 1241 1245 1250
    1250 1255 1259 1264 1268 1273 1283 1288 1288 1288 3178 3178 3178
    3178 3178 3178 1223 1223 1219 1210 1206 1202 1197 1193 1189 1185
    1181 1169 1165 1161 1157 1153 1149 1149 1149 1149 1153 1157 1161
    1161 1165 1169 1169 1181 1185 1185 1185 1193 1197 1202 1210 1214
    1219 1223 1227 1232 1236 1245 1245 1250 1255 1255 1268 1268 1273
    1283 1283 1283 1283 3178 3178 3178 3178 3178 3178 1223 1223 1219
    1214 1206 1202 1197 1193 1189 1181 1181 1169 1165 1161 1157 1153
    1149 1149 1149 1149 1153 1157 1161 1161 1161 1169 1169 1177 1181
    1185 1185 1193 1197 1202 1206 1214 1219 1223 1227 1232 1236 1245
    1245 1250 1255 1255 1268 1268 1273 1283 1283 1283 1283 3178 3178
    3178 3178 3178 3178 1223 1223 1219 1214 1206 1202 1197 1193 1189
    1181 1181 1169 1169 1165 1157 1153 1149 1149 1149 1149 1153 1157
    1161 1161 1161 1169 1173 1177 1181 1185 1189 1193 1197 1202 1206
    1214 1219 1223 1223 1227 1236 1241 1245 1250 1255 1255 1268 1268
    1273 1278 1283 1283 1283 3178 3178 3178 3178 3178 3178 1223 1223
    1219 1214 1206 1202 1197 1193 1189 1185 1181 1173 1169 1165 1157
    1153 1149 1149 1149 1149 1149 1153 1157 1161 1161 1169 1173 1177
    1181 1185 1189 1197 1197 1202 1206 1214 1219 1223 1223 1227 1232
    1241 1245 1250 1255 1255 1264 1268 1273 1278 1278 1278 1283 1283
    3178 3178 3178 3178 3178 1223 1219 1219 1214 1210 1202 1197 1193
    1189 1185 1177 1173 1169 1165 1161 1153 1149 1149 1149 1149 1149
    1153 1157 1161 1165 1169 1173 1177 1181 1181 1189 1197 1197 1202
    1206 1214 1219 1223 1223 1227 1232 1241 1245 1250 1255 1255 1264
    1268 1273 1278 1278 1278 1283 1283 3178 3178 3178 3178 3178 1223
    1219 1219 1214 1210 1206 1202 1193 1189 1185 1177 1173 1169 1165
    1161 1153 1149 1149 1149 1149 1149 1149 1153 1161 1165 1169 1169
    1177 1177 1181 1189 1197 1197 1202 1206 1214 1219 1223 1223 1227
    1232 1241 1245 1245 1250 1255 1264 1268 1273 1278 1283 1283 1288
    1288 3178 3178 3178 3178 3178 1223 1219 1219 1214 1210 1206 1202
    1197 1189 1185 1177 1173 1169 1165 1161 1153 1149 1149 1149 1149
    1149 1149 1153 1157 1161 1165 1169 1173 1177 1181 1189 1193 1193
    1202 1206 1219 1219 1223 1223 1227 1232 1241 1245 1245 1250 1259
    1264 1268 1273 1278 1278 1278 1288 1288 3238 3178 3178 3178 3178
    1219 1219 1219 1214 1210 1206 1202 1197 1189 1185 1177 1173 1169
    1165 1161 1153 1153 1149 1149 1149 1149 1149 1153 1157 1161 1165
    1169 1173 1177 1181 1189 1193 1193 1197 1210 1214 1219 1219 1223
    1223 1232 1241 1245 1245 1250 1259 1264 1268 1268 1278 1278 1278
    1278 3208 3208 3178 3178 3178 3178 1219 1219 1219 1214 1210 1206
    1202 1197 1193 1189 1181 1173 1169 1165 1161 1157 1153 1149 1149
    1149 1149 1149 1153 1153 1157 1161 1169 1173 1177 1185 1189 1193
    1193 1197 1210 1214 1214 1219 1219 1223 1232 1236 1245 1245 1250
    1259 1264 1268 1268 1278 1278 1278 1278 3208 3208 3178 3178 3178
    3178 1223 1223 1219 1219 1210 1206 1202 1197 1193 1189 1181 1173
    1169 1165 1161 1157 1153 1149 1149 1149 1149 1149 1153 1153 1157
    1161 1169 1173 1177 1185 1189 1189 1193 1202 1210 1214 1214 1219
    1219 1223 1232 1236 1241 1245 1250 1255 1264 1268 1268 1278 1278
    1278 1278 1278 3238 3208 3178 3178 3178 1232 1232 1219 1219 1214
    1206 1202 1197 1197 1185 1181 1173 1169 1165 1161 1157 1153 1149
    1149 1149 1149 1149 1153 1153 1157 1161 1169 1169 1177 1185 1185
    1185 1197 1197 1210 1214 1214 1219 1219 1223 1232 1236 1241 1245
    1250 1255 1264 1268 1268 1278 1278 1278 1278 1278 3178 3178 3178
    3178 3178 1232 1232 1223 1219 1214 1206 1202 1197 1197 1185 1181
    1173 1169 1165 1165 1157 1153 1149 1149 1149 1149 1149 1153 1153
    1157 1161 1169 1169 1177 1185 1185 1185 1193 1197 1206 1214 1214
    1219 1219 1223 1232 1236 1241 1245 1250 1255 1264 1264 1268 1278
    1278 1278 1278 1278 1278 3178 3178 3178 3178 1227 1227 1219 1219
    1214 1206 1202 1197 1197 1185 1181 1173 1169 1165 1161 1157 1153
    1149 1149 1149 1149 1149 1153 1153 1157 1161 1169 1169 1177 1185
    1189 1193 1193 1197 1206 1210 1214 1219 1219 1223 1232 1236 1241
    1245 1250 1255 1259 1264 1268 1278 1278 1278 1278 1278 1278 3178
    3178 3178 3178 1219 1219 1219 1219 1214 1206 1202 1197 1197 1185
    1181 1173 1169 1165 1161 1157 1153 1149 1145 1145 1145 1149 1153
    1153 1157 1165 1169 1169 1177 1181 1185 1189 1193 1197 1206 1210
    1214 1219 1219 1219 1227 1236 1241 1250 1250 1250 1255 1259 1268
    1278 1278 1278 1278 1278 1278 3178 3178 3178 3178 1219 1219 1219
    1219 1214 1206 1202 1197 1197 1189 1181 1177 1169 1169 1161 1157
    1153 1149 1145 1145 1145 1149 1153 1157 1161 1165 1169 1169 1177
    1181 1185 1189 1193 1197 1206 1210 1214 1214 1219 1219 1227 1236
    1245 1250 1250 1250 1255 1259 1264 1273 1278 1278 1278 1278 1278
    3178 3178 3178 3178 1219 1219 1219 1219 1214 1206 1202 1197 1197
    1185 1181 1177 1169 1169 1161 1157 1153 1149 1145 1145 1145 1149
    1153 1157 1161 1165 1169 1169 1177 1181 1185 1189 1193 1197 1206
    1210 1214 1214 1219 1219 1223 1232 1245 1250 1250 1250 1250 1255
    1264 1273 1278 1278 1278 1278 1278 3178 3178 3178 3178 1219 1219
    1219 1219 1214 1210 1206 1202 1197 1185 1181 1177 1173 1169 1165
    1157 1153 1149 1149 1145 1145 1149 1153 1157 1161 1161 1169 1169
    1177 1181 1185 1189 1193 1197 1202 1206 1210 1214 1219 1219 1223
    1232 1241 1250 1250 1250 1250 1255 1264 1273 1278 1278 1278 1278
    1278 3178 3178 3178 3178 3269 1219 1219 1219 1214 1214 1206 1202
    1197 1185 1181 1181 1173 1169 1165 1161 1153 1153 1149 1145 1145
    1149 1153 1153 1157 1161 1165 1169 1177 1181 1185 1189 1193 1197
    1202 1206 1206 1214 1219 1219 1223 1232 1236 1245 1250 1250 1255
    1255 1264 1273 1278 1278 1278 1278 1278 3178 3178 3178 3178 3238
    1219 1219 1219 1214 1214 1206 1202 1197 1185 1181 1181 1173 1169
    1169 1161 1153 1153 1149 1145 1145 1149 1149 1153 1157 1161 1165
    1169 1177 1181 1185 1189 1193 1197 1202 1206 1206 1214 1219 1219
    1223 1227 1232 1241 1250 1250 1255 1259 1264 1273 1278 1278 1278
    1278 1278 3149 3149 3149 3178 3238 1219 1219 1214 1214 1214 1206
    1202 1189 1185 1181 1181 1173 1169 1169 1161 1153 1153 1149 1145
    1145 1149 1149 1153 1157 1161 1165 1169 1177 1181 1185 1189 1193
    1197 1197 1202 1206 1214 1219 1219 1223 1227 1232 1236 1241 1250
    1255 1264 1264 1273 1278 1278 1278 1278 1278 3149 3149 3149 3178
    3238 1219 1219 1214 1214 1214 1206 1202 1189 1185 1181 1181 1177
    1169 1165 1161 1153 1153 1149 1149 1149 1149 1149 1153 1157 1161
    1161 1169 1177 1181 1185 1185 1189 1193 1197 1202 1206 1214 1219
    1219 1223 1223 1232 1236 1241 1250 1255 1264 1264 1273 1273 1278
    1278 1278 1278 3149 3149 3149 3178 3300 3300 1219 1219 1214 1214
    1206 1202 1197 1185 1185 1181 1177 1169 1165 1161 1153 1153 1149
    1149 1149 1149 1149 1153 1157 1161 1161 1173 1177 1181 1181 1185
    1185 1193 1197 1202 1206 1214 1219 1219 1223 1223 1227 1236 1245
    1250 1255 1259 1264 1273 1273 1278 1278 1278 1278 3149 3149 3149
    3178 3300 3300 1219 1219 1214 1210 1206 1202 1197 1189 1185 1181
    1177 1169 1169 1165 1157 1153 1149 1149 1149 1149 1149 1153 1153
    1157 1161 1173 1177 1181 1181 1185 1185 1193 1193 1197 1206 1210
    1214 1219 1219 1223 1227 1236 1245 1250 1250 1255 1259 1273 1273
    1278 1283 1283 1283 3149 3149 3149 3149 3300 3300 1223 1219 1214
    1210 1206 1202 1197 1185 1185 1181 1177 1169 1169 1165 1157 1153
    1153 1149 1149 1149 1149 1153 1153 1157 1161 1173 1177 1181 1185
    1185 1185 1193 1193 1197 1206 1210 1214 1219 1219 1223 1227 1236
    1245 1250 1250 1255 1259 1273 1273 1278 1278 1283 1283 1283 3149
    3149 3149 3333 3399 1219 1219 1214 1210 1206 1202 1197 1185 1185
    1181 1173 1169 1169 1165 1161 1157 1153 1149 1149 1149 1149 1153
    1157 1157 1161 1169 1173 1177 1185 1185 1185 1193 1197 1202 1206
    1210 1214 1219 1219 1223 1232 1236 1241 1245 1250 1255 1259 1273
    1273 1278 1278 1283 1283 0 3149 3149 3149 3399 3399 1219 1219 1214
    1210 1206 1202 1197 1189 1185 1181 1173 1169 1169 1165 1161 1157
    1153 1149 1149 1149 1149 1153 1153 1157 1161 1169 1173 1177 1181
    1185 1185 1189 1193 1202 1206 1210 1214 1219 1223 1227 1232 1236
    1241 1241 1250 1255 1259 1273 1273 1273 1278 1278 1278 0 3149 3149
    3149 3399 3399 1223 1223 1219 1214 1210 1202 1197 1189 1185 1181
    1173 1169 1169 1165 1161 1157 1153 1149 1145 1145 1149 1149 1153
    1157 1161 1165 1169 1177 1181 1185 1185 1185 1193 1197 1206 1210
    1214 1219 1223 1227 1232 1236 1241 1241 1250 1255 1259 1273 1273
    1273 1278 1278 1278 0 3149 3149 3149 3269 1223 1223 1223 1219 1214
    1210 1206 1202 1189 1185 1181 1177 1173 1169 1165 1161 1157 1153
    1145 1145 1145 1149 1149 1153 1157 1161 1165 1169 1177 1181 1185
    1185 1185 1193 1197 1206 1210 1214 1219 1219 1223 1227 1232 1241
    1241 1245 1255 1259 1268 1273 1273 1278 1278 0 0 0 3149 3149 3269
    1223 1223 1219 1219 1219 1214 1206 1202 1189 1185 1181 1177 1173
    1169 1165 1161 1157 1153 1145 1145 1149 1149 1149 1153 1157 1161
    1165 1169 1177 1181 1185 1185 1189 1193 1202 1210 1210 1214 1219
    1219 1223 1227 1232 1236 1241 1245 1255 1259 1268 1273 1273 1278
    1278 1278 0 3149 3149 2116 3238 1219 1219 1219 1219 1219 1214 1210
    1202 1189 1185 1181 1177 1173 1169 1165 1161 1157 1153 1145 1145
    1149 1149 1149 1153 1157 1161 1165 1173 1177 1181 1181 1185 1185
    1189 1197 1210 1210 1214 1219 1219 1223 1227 1232 1236 1241 1245
    1255 1255 1268 1273 1273 1278 1278 1278 0 3178 3178 2116 3238 1219
    1219 1219 1219 1219 1214 1210 1202 1189 1185 1181 1181 1177 1169
    1165 1161 1157 1153 1149 1149 1149 1149 1149 1153 1157 1161 1169
    1173 1177 1181 1181 1181 1185 1189 1197 1210 1210 1214 1214 1219
    1223 1227 1232 1236 1241 1250 1255 1255 1268 1273 1273 1278 1278
    1278 0 3178 3178 2129 3208 3208 1219 1219 1219 1219 1214 1210 1202
    1197 1185 1181 1181 1177 1173 1165 1161 1157 1153 1149 1149 1149
    1149 1149 1153 1157 1161 1169 1173 1173 1177 1181 1181 1185 1189
    1193 1202 1210 1210 1214 1219 1223 1227 1232 1236 1241 1250 1250
    1255 1264 1268 1273 1273 1278 1278 1278 3178 3178 2129 3208 3208
    1219 1219 1219 1219 1214 1210 1202 1197 1185 1181 1181 1177 1173
    1165 1161 1157 1153 1145 1145 1145 1149 1149 1153 1157 1165 1169
    1173 1173 1177 1181 1181 1185 1189 1193 1202 1210 1210 1214 1219
    1223 1227 1236 1236 1245 1250 1250 1255 1264 1268 1273 1273 1278
    1278 1278 3208 3208 2143 3238 3238 1219 1219 1219 1219 1214 1210
    1202 1197 1185 1185 1181 1177 1173 1165 1161 1157 1153 1145 1145
    1145 1149 1149 1153 1161 1165 1169 1169 1173 1177 1181 1181 1185
    1189 1193 1202 1206 1210 1214 1219 1219 1227 1236 1236 1241 1250
    1250 1255 1264 1268 1273 1273 1273 1273 1273 1273 2143 2143 3269
    3269 1223 1223 1219 1219 1214 1210 1202 1197 1189 1185 1181 1177
    1173 1165 1161 1157 1153 1145 1145 1145 1149 1149 1153 1161 1165
    1165 1169 1173 1177 1181 1181 1185 1189 1193 1202 1206 1210 1214
    1219 1219 1232 1236 1236 1241 1250 1250 1255 1264 1268 1273 1273
    1273 1273 1273 1273 2143 2143 3269 3269 1232 1232 1223 1219 1214
    1210 1206 1197 1189 1185 1181 1177 1173 1169 1165 1161 1157 1153
    1145 1145 1149 1149 1153 1161 1165 1165 1169 1173 1177 1181 1185
    1185 1189 1193 1202 1210 1214 1214 1219 1219 1227 1232 1236 1236
    1245 1250 1255 1259 1264 1273 1278 1273 1273 1273 1273 2143 2143
    3269 3269 1250 1232 1223 1219 1214 1210 1206 1202 1189 1185 1181
    1177 1173 1169 1165 1161 1157 1153 1149 1149 1149 1149 1153 1161
    1165 1165 1169 1173 1177 1181 1185 1185 1189 1193 1202 1210 1214
    1214 1219 1219 1227 1232 1236 1236 1245 1250 1250 1259 1264 1273
    1278 1278 1278 1278 1278 2143 2143 3269 3269 1250 1236 1223 1219
    1214 1210 1206 1202 1193 1185 1181 1177 1173 1169 1165 1161 1157
    1153 1145 1145 1149 1149 1153 1161 1161 1161 1165 1169 1177 1181
    1181 1185 1185 1193 1197 1210 1214 1214 1214 1219 1219 1227 1236
    1236 1245 1250 1250 1259 1264 1268 1278 1278 1278 1278 1278 2129
    2129 3300 3300 3300 1223 1223 1219 1214 1210 1202 1197 1193 1185
    1185 1181 1177 1169 1165 1161 1153 1153 1145 1145 1145 1149 1153
    1157 1161 1161 1165 1169 1173 1177 1181 1185 1185 1193 1197 1206
    1210 1214 1214 1219 1219 1227 1232 1236 1241 1250 1250 1259 1264
    1268 1273 1278 1278 1283 1283 2129 2129 3300 3300 0 1223 1223 1219
    1214 1210 1202 1197 1193 1185 1181 1181 1177 1169 1165 1161 1153
    1153 1145 1145 1145 1145 1153 1157 1161 1161 1165 1169 1173 1177
    1181 1185 1185 1193 1197 1206 1210 1214 1214 1219 1219 1227 1232
    1241 1241 1250 1250 1259 1264 1268 1273 1278 1278 1278 1278 2129
    2129 3300 3300 0 1223 1223 1219 1214 1210 1202 1197 1193 1189 1181
    1181 1177 1169 1165 1161 1153 1153 1145 1145 1145 1145 1153 1153
    1157 1161 1165 1169 1169 1173 1181 1185 1185 1189 1197 1202 1210
    1214 1214 1219 1219 1227 1232 1241 1245 1250 1250 1259 1264 1268
    1273 1278 1278 1278 1278 1278 2143 3300 3300 0 1219 1219 1219 1214
    1210 1202 1197 1197 1189 1181 1181 1177 1169 1169 1165 1153 1153
    1145 1145 1145 1145 1149 1153 1153 1157 1165 1169 1169 1173 1181
    1185 1185 1189 1197 1202 1210 1214 1219 1219 1219 1227 1232 1241
    1245 1250 1250 1259 1264 1268 1273 1273 1278 1278 1278 1278 2129
    3300 0 0 0 1219 1219 1214 1210 1206 1197 1193 1189 1181 1181 1177
    1173 1169 1165 1161 1153 1149 1149 1149 1149 1149 1153 1153 1157
    1165 1169 1169 1173 1181 1181 1185 1189 1193 1202 1210 1214 1214
    1219 1219 1227 1232 1241 1245 1250 1250 1259 1264 1273 1273 1273
    1278 1278 1278 1278 2129 3269 3269 0 1223 1223 1219 1219 1214 1202
    1197 1193 1189 1185 1181 1177 1173 1169 1165 1161 1157 1153 1149
    1149 1149 1149 1153 1153 1157 1165 1169 1169 1173 1177 1181 1185
    1189 1193 1202 1210 1214 1214 1219 1219 1227 1232 1241 1245 1245
    1250 1259 1264 1273 1273 1273 1278 1278 1278 1278 2116 3269 0 0 0
    1219 1219 1219 1214 1202 1197 1193 1189 1185 1181 1177 1173 1169
    1165 1161 1153 1149 1145 1145 1149 1149 1153 1157 1161 1165 1169
    1169 1173 1177 1181 1185 1189 1193 1202 1210 1214 1214 1219 1219
    1223 1232 1241 1245 1245 1250 1259 1259 1273 1273 1273 1273 1273
    1278 1278 2129 3238 0 0 0 1219 1219 1219 1219 1206 1202 1193 1189
    1185 1181 1177 1173 1169 1165 1157 1153 1149 1145 1145 1149 1149
    1153 1157 1161 1165 1169 1169 1173 1177 1181 1185 1189 1193 1202
    1206 1214 1214 1219 1219 1223 1232 1236 1245 1245 1250 1259 1259
    1273 1273 1273 1273 1273 1273 2129 2129 3238 0 3269 0 1219 1219 1219
    1219 1206 1202 1197 1193 1185 1181 1177 1173 1169 1165 1157 1153
    1149 1145 1145 1149 1149 1153 1157 1157 1161 1165 1169 1177 1181
    1185 1185 1193 1197 1202 1202 1210 1214 1219 1219 1223 1227 1232
    1245 1245 1250 1259 1259 1273 1273 1273 1273 1273 1273 1273 2129
    3238 3269 3269 0 1219 1219 1219 1219 1206 1202 1197 1193 1185 1181
    1177 1173 1169 1165 1157 1153 1149 1145 1145 1149 1149 1153 1157
    1157 1161 1165 1169 1177 1181 1185 1185 1189 1193 1197 1202 1206
    1210 1214 1219 1219 1227 1232 1245 1245 1245 1255 1259 1268 1273
    1273 1273 1273 1273 1273 2116 3269 3269 3269 0 1219 0 1219 1219 1206
    1202 1197 1193 1185 1185 1177 1173 1169 1165 1157 1153 1153 1145
    1145 1149 1149 1153 1153 1157 1161 1165 1169 1177 1181 1181 1185
    1189 1193 1197 1202 1206 1210 1214 1214 1219 1223 1236 1241 1245
    1245 1255 1259 1268 1273 1273 1273 1273 1273 1273 1273 3269 3269
    3269 0 0 0 1219 1214 1206 1202 1197 1193 1185 1185 1181 1177 1169
    1165 1161 1153 1153 1145 1145 1149 1149 1153 1153 1153 1161 1165
    1169 1173 1181 1181 1185 1185 1189 1197 1202 1206 1210 1214 1214
    1219 1223 1236 1241 1245 1245 1255 1259 1264 1273 1273 1273 1273
    1273 1273 1273 3269 3269 0 0 0 1219 1219 1210 1202 1202 1197 1193
    1185 1185 1181 1177 1169 1165 1161 1153 1149 1145 1145 1149 1149
    1153 1153 1153 1161 1165 1169 1173 1181 1181 1185 1185 1189 1197
    1202 1206 1210 1214 1214 1214 1219 1236 1245 1245 1245 1255 1259
    1264 1273 1273 1273 1273 1273 1273 1273 3269 3269 3238 0 1227 1227
    1223 1210 1202 1202 1197 1193 1185 1185 1181 1177 1169 1165 1165
    1161 1149 1145 1145 1149 1149 1153 1153 1157 1161 1165 1169 1169
    1177 1181 1185 1185 1189 1197 1202 1206 1210 1214 1214 1214 1219
    1236 1245 1245 1250 1255 1259 1264 1268 1273 1273 1273 1273 1273
    2090 3238 3238 3238 0 1227 1227 1223 1210 1206 1202 1197 1193 1189
    1185 1181 1181 1169 1165 1165 1157 1149 1149 1149 1149 1149 1153
    1153 1157 1161 1165 1169 1169 1173 1181 1185 1185 1189 1193 1197
    1206 1210 1210 1214 1214 1219 1236 1245 1245 1245 1250 1255 1259
    1268 1273 1273 1268 1268 1268 2090 3208 3208 3208 0 1232 1232 1223
    1214 1206 1202 1202 1197 1189 1185 1181 1177 1173 1165 1165 1153
    1149 1149 1145 1145 1149 1153 1153 1157 1157 1161 1165 1169 1173
    1181 1181 1185 1185 1193 1197 1202 1206 1210 1214 1214 1219 1232
    1241 1245 1245 1250 1255 1259 1264 1268 1268 1268 1268 1268 2078
    3208 3208 3208 0 1232 1232 1223 1214 1210 1206 1202 1197 1189 1185
    1181 1177 1169 1165 1161 1153 1149 1145 1145 1145 1145 1153 1157
    1157 1157 1161 1165 1169 1173 1177 1181 1185 1185 1193 1197 1202
    1206 1210 1214 1214 1219 1227 1236 1241 1245 1250 1255 1255 1259
    1264 1268 1268 1268 1268 2078 3238 3238 3269 0 1232 1232 1223 1214
    1210 1206 1202 1197 1189 1185 1181 1177 1169 1165 1161 1153 1149
    1145 1141 1141 1141 1149 1153 1157 1157 1161 1165 1169 1169 1177
    1181 1185 1185 1193 1197 1202 1206 1210 1214 1214 1219 1227 1232
    1236 1245 1250 1255 1255 1259 1264 1268 1273 1273 1273 2090 3238
    3238 3269 3269 1232 1219 1219 1214 1210 1202 1202 1197 1189 1185
    1181 1177 1173 1169 1165 1153 1149 1145 1141 1141 1141 1149 1153
    1157 1157 1161 1165 1169 1169 1177 1181 1181 1185 1193 1197 1202
    1202 1206 1210 1214 1223 1232 1232 1236 1245 1250 1250 1255 1259
    1264 1268 1273 1278 1278 2090 3269 3238 3238 3238 1232 1232 1219
    1214 1210 1202 1202 1197 1193 1185 1181 1177 1173 1169 1165 1153
    1149 1145 1141 1141 1141 1149 1153 1157 1157 1161 1169 1169 1173
    1177 1181 1181 1185 1189 1193 1197 1202 1202 1206 1210 1223 1232
    1232 1236 1241 1245 1245 1250 1255 1264 1268 1273 1273 1273 2090
    3238 3238 3238 3238 1232 1232 1219 1214 1210 1206 1202 1197 1193
    1189 1185 1177 1173 1169 1165 1153 1149 1145 1141 1141 1145 1149
    1153 1157 1157 1161 1165 1169 1169 1177 1181 1181 1185 1185 1189
    1197 1202 1202 1202 1210 1223 1232 1232 1232 1241 1241 1245 1250
    1255 1259 1268 1273 1273 1273 1273 3238 3238 3238 3238 3238 1219
    1219 1214 1210 1202 1202 1197 1193 1189 1185 1181 1173 1169 1165
    1153 1149 1145 1141 1141 1141 1149 1153 1153 1153 1157 1161 1165
    1169 1173 1177 1181 1181 1185 1185 1193 1197 1202 1202 1206 1223
    1232 1232 1232 1241 1241 1241 1245 1255 1259 1268 1268 1273 1268
    1268 3238 3238 3238 3238 0 1219 1219 1214 1210 1202 1197 1197 1193
    1185 1185 1181 1177 1169 1165 1153 1149 1145 1141 1141 1141 1149
    1153 1153 1153 1157 1161 1165 1169 1173 1177 1181 1181 1185 1185
    1193 1197 1202 1202 1202 1219 1227 1232 1232 1236 1236 1241 1245
    1255 1259 1264 1268 1273 1268 1268 3238 3238 3238 3238 3208 1219
    1219 1214 1210 1202 1197 1197 1193 1185 1181 1181 1177 1169 1165
    1153 1149 1149 1141 1141 1141 1145 1153 1153 1153 1157 1161 1165
    1165 1169 1173 1177 1181 1181 1185 1193 1197 1197 1202 1202 1214
    1227 1232 1232 1236 1236 1241 1245 1255 1259 1264 1268 1268 1273
    1273 3238 3238 3208 3208 3208 1219 1219 1214 1210 1206 1202 1197
    1193 1185 1181 1177 1177 1169 1157 1153 1149 1149 1141 1141 1141
    1145 1149 1153 1157 1157 1161 1165 1165 1169 1173 1177 1181 1181
    1185 1193 1193 1197 1202 1206 1214 1227 1232 1232 1236 1236 1241
    1245 1255 1259 1259 1264 1268 1273 1273 3238 3208 3208 3149 3149
    3149 1214 1214 1210 1206 1202 1197 1189 1185 1181 1177 1177 1169
    1157 1153 1149 1149 1145 1141 1141 1145 1145 1149 1153 1153 1157
    1161 1161 1165 1169 1177 1181 1181 1185 1193 1193 1197 1197 1206
    1214 1219 1223 1223 1232 1232 1255 1255 1255 1259 1259 1264 1268
    1268 1273 3208 3178 3178 3149 3149 3149 1214 1214 1210 1206 1202
    1197 1189 1185 1181 1181 1177 1169 1161 1153 1149 1149 1145 1141
    1141 1145 1145 1149 1153 1153 1153 1157 1161 1165 1165 1169 1177
    1177 1185 1189 1193 1193 1197 1210 1214 1219 1219 1219 1232 1232
    3064 3064 1259 1259 1268 1268 1268 1268 2170 3208 3178 3178 3149
    3149 3149 1214 1214 1214 1210 1202 1197 1189 1185 1185 1181 1177
    1173 1161 1157 1153 1149 1149 1145 1145 1145 1149 1149 1153 1153
    1153 1153 1161 1161 1165 1169 1173 1177 1181 1185 1189 1193 1193
    1210 1214 1219 1219 1219 2933 2933 2933 2933 2984 3037 3037 2212
    2184 2184 2170 3208 3208 3208 3178 3178 3178 1219 1219 1214 1210
    1206 1197 1193 1189 1185 1181 1177 1173 1161 1157 1153 1149 1149
    1145 1141 1141 1145 1149 1149 1149 1149 1153 1157 1157 1161 1165
    1173 1177 1181 1185 1185 1189 1193 1210 1219 1219 2933 2933 2908
    2908 2933 2933 2958 2984 3010 3037 2184 2184 2143 3238 3208 3178
    3149 3149 3149 1219 1219 1214 1210 1206 1197 1193 1189 1185 1181
    1177 1173 1161 1157 1153 1149 1149 1145 1141 1141 1145 1149 1149
    1149 1149 1149 1153 1153 1161 1165 1177 1177 1185 1185 1185 1185
    1202 1219 1223 1223 2908 2908 2908 2908 2908 2908 2933 2958 2958
    3010 2170 2156 2143 3208 3178 3149 3120 3064 3037 1210 1210 1214
    1210 1202 1197 1193 1189 1185 1181 1177 1169 1161 1157 1153 1149
    1145 1145 1141 1141 1149 1149 1149 1149 1149 1149 1153 1153 1161
    1169 1177 1177 1181 1181 1185 1185 1241 1232 1232 1232 2908 2908
    2908 2908 2908 2908 2933 2933 2933 2958 2156 2156 2143 3149 3120
    3064 3037 3037 3037 1197 1197 1206 1206 1202 1197 1193 1185 1185
    1181 1177 1169 1161 1157 1153 1149 1145 1141 1141 1141 1145 1149
    1149 1149 1149 1149 1153 1153 1165 1169 1177 1177 1181 1181 1185
    1185 1236 1232 1232 1232 2859 2908 2908 2908 2908 2908 2933 2933
    2933 2170 2156 2143 2143 3092 3092 3037 3037 3037 3010 1197 1197
    1206 1202 1202 1197 1189 1185 1181 1181 1177 1169 1161 1157 1153
    1149 1145 1141 1138 1138 1141 1145 1145 1149 1149 1149 1153 1157
    1173 1173 1177 1177 1181 1181 1185 1185 1236 1232 1232 2859 2859
    2908 2908 2908 2908 2908 2933 2933 2933 2170 2170 2143 2143 3064
    3037 3037 3010 3010 3010 3010 2984 1206 1202 1202 1197 1189 1185
    1181 1177 1177 1169 1165 1157 1153 1149 1145 1141 1138 1138 1141
    1145 1145 1149 1149 1149 1153 1161 1181 1177 1177 1177 1181 1181
    2859 2859 1241 1236 1236 2859 2859 2908 2908 2908 2908 2908 2933
    2933 2933 2958 2170 2156 2143 3037 3037 3037 3010 3010 3010 3010
    2958 2883 1202 1202 1193 1189 1185 1181 1177 1177 1169 1165 1157
    1153 1149 1145 1141 1138 1138 1138 1141 1141 1145 1149 1149 1149
    1189 1189 1185 1185 1193 1197 1197 1241 1241 1236 1236 1236 2859
    2859 2883 2883 2883 2908 2908 2933 2933 2933 2933 2170 2156 2143
    3037 3037 3037 3037 3010 3010 3010 2933 2883 2835 2835 1193 1189
    1185 1181 1181 1177 1169 1165 1157 1153 1149 1145 1141 1138 1138
    1138 1141 1141 1141 1145 1145 1145 1193 1193 1193 1193 1193 1197
    1278 1278 1241 1236 1236 1236 2859 2859 2859 2883 2883 2908 2908
    2933 2933 2933 2933 2156 2156 2143 3037 3037 3037 3037 3037 3010
    2984 2933 2859 2835 2835 2812 1189 1185 1185 1181 1177 1169 1165
    1157 1153 1149 1145 1141 1138 1138 1138 1138 1138 1138 1145 1145
    1149 1202 1197 1197 1197 1197 1197 1273 1278 1278 1241 1241 1241
    1241 2859 2859 2883 2883 2908 2908 2933 2933 2933 2933 2156 2156
    2143 3037 3037 3037 3037 3037 3010 2984 2933 2859 2835 2812 2789
    2789 1193 1185 1181 1169 1165 1165 1157 1153 1149 1145 1141 1138
    1134 1134 1134 1134 1138 1141 1141 1145 1145 1197 1197 1197 1197
    1197 1268 1255 1250 1241 1241 1241 1236 1236 1236 2933 2933 2933
    2933 2933 2933 2933 2933 2170 2156 2143 3037 3037 3037 3037 3037
    3010 3010 2933 2859 2835 2812 2789 2789 2789 1185 1181 1169 1157
    1157 1161 1157 1153 1149 1141 1138 1134 1134 1134 1134 1134 1138
    1138 1145 0 1197 1197 1197 1197 1197 1259 1255 1250 1241 1241 1241
    1236 1232 1232 1236 1236 1241 2958 2958 2933 2933 2933 2170 2156
    2143</data></Depth9774>
</opencv_storage>
