<?xml version="1.0"?>
<opencv_storage>
<Depth5898 type_id="opencv-matrix">
  <rows>58</rows>
  <cols>47</cols>
  <dt>w</dt>
  <data>
    3064 3037 3037 4405 4349 1696 1696 1696 1696 1696 1705 1705 1713
    1731 1731 1731 1731 1731 1731 1731 1731 1739 1748 1748 1748 1757
    1757 1766 1766 1776 1776 1776 1785 1785 1794 1785 1785 1785 1785
    4582 4582 4582 4582 4645 4582 4582 4645 3064 1757 1757 1757 1696
    1688 1688 1688 1688 1696 1696 1696 1713 1722 1722 1722 1722 1722
    1731 1731 1739 1739 1739 1748 1748 1757 1757 1766 1766 1766 1766
    1776 1785 1785 1794 1794 1785 1785 1785 4582 4582 4582 4582 4645
    4582 4582 4645 3064 1757 1757 1731 1696 1688 1688 1688 1688 1696
    1696 1696 1713 1722 1722 1722 1722 1722 1731 1731 1739 1739 1739
    1739 1739 1748 1757 1757 1757 1766 1766 1776 1776 1785 1794 1794
    1794 1794 1794 4582 4582 4582 4582 4645 4645 4645 4645 3092 1748
    1731 1731 1696 1696 1688 1688 1688 1696 1696 1696 1705 1722 1722
    1722 1722 1722 1731 1731 1739 1739 1739 1739 1739 1748 1757 1757
    1757 1766 1766 1766 1776 1785 1785 1794 1794 1794 1794 1794 4582
    4582 4582 4582 4582 4582 4645 1731 1731 1731 1722 1705 1696 1696
    1696 1696 1696 1696 1696 1705 1713 1722 1722 1722 1722 1731 1731
    1731 1739 1739 1739 1739 1748 1757 1757 1757 1766 1766 1766 1766
    1776 1776 1785 1785 1794 1794 1794 4582 4582 4582 4582 4582 4582
    4645 1731 1731 1731 1722 1705 1696 1696 1696 1696 1696 1696 1696
    1705 1713 1713 1722 1722 1722 1731 1731 1731 1731 1731 1739 1748
    1748 1757 1757 1757 1766 1766 1766 1766 1776 1776 1785 1785 1794
    1794 1794 4522 4522 4522 4582 4582 4582 4582 1739 1739 1731 1722
    1713 1696 1696 1696 1688 1688 1696 1696 1705 1705 1705 1713 1722
    1722 1731 1731 1731 1731 1731 1739 1748 1748 1748 1757 1757 1766
    1766 1766 1766 1766 1776 1785 1785 1794 1794 1794 4522 4522 4522
    4582 4582 4582 4582 1748 1739 1731 1722 1713 1696 1696 1696 1688
    1688 1696 1696 1705 1705 1705 1713 1713 1722 1722 1731 1731 1731
    1731 1731 1748 1748 1748 1757 1757 1757 1766 1766 1766 1766 1776
    1785 1785 1794 1794 1794 1794 4522 4522 4582 4582 4582 4582 1748
    1748 1739 1731 1713 1696 1696 1696 1696 1696 1696 1696 1696 1705
    1705 1713 1713 1722 1722 1731 1731 1731 1731 1731 1739 1739 1739
    1748 1757 1757 1766 1766 1766 1766 1776 1785 1785 1794 1794 1794
    1794 4582 4582 4582 4582 4582 4582 1757 1748 1739 1731 1713 1705
    1696 1688 1688 1688 1696 1696 1696 1705 1705 1713 1713 1722 1722
    1722 1731 1739 1739 1739 1739 1739 1739 1748 1757 1757 1766 1766
    1766 1766 1766 1776 1776 1785 1794 1794 1794 4522 4522 4522 4582
    4582 4582 1766 1757 1739 1731 1713 1705 1696 1688 1688 1688 1688
    1696 1696 1705 1705 1713 1713 1713 1713 1722 1731 1739 1739 1739
    1739 1739 1739 1748 1757 1757 1766 1766 1766 1766 1766 1776 1776
    1785 1785 1794 1813 1813 4522 4522 4582 4645 4582 1776 1766 1748
    1731 1722 1713 1696 1688 1688 1688 1688 1696 1696 1696 1705 1713
    1713 1713 1713 1722 1731 1739 1739 1739 1739 1739 1739 1748 1757
    1757 1766 1766 1766 1766 1766 1766 1776 1776 1785 1794 1813 1813
    4582 4582 4582 4582 4582 1776 1766 1757 1739 1722 1713 1696 1688
    1688 1688 1688 1696 1696 1696 1705 1705 1705 1705 1713 1713 1722
    1731 1739 1739 1739 1739 1739 1748 1757 1757 1757 1757 1766 1766
    1766 1766 1776 1776 1785 1785 1804 1804 4582 4582 4582 4582 4582
    1776 1766 1748 1739 1731 1722 1696 1696 1688 1688 1688 1696 1696
    1696 1696 1705 1705 1705 1713 1713 1722 1731 1739 1739 1731 1731
    1739 1748 1757 1757 1757 1757 1757 1766 1766 1766 1766 1776 1776
    1776 1794 1794 4522 4522 4522 4522 4582 1757 1757 1748 1739 1731
    1722 1705 1696 1688 1688 1688 1696 1696 1696 1696 1705 1705 1713
    1713 1713 1722 1722 1731 1731 1731 1731 1731 1748 1748 1757 1757
    1757 1757 1766 1766 1766 1766 1776 1776 1776 1785 1785 4522 4522
    4522 4522 4582 1748 1748 1739 1739 1731 1722 1705 1688 1688 1688
    1688 1688 1688 1696 1696 1705 1705 1705 1713 1713 1713 1722 1731
    1731 1731 1731 1731 1739 1748 1757 1757 1757 1766 1766 1766 1766
    1766 1766 1776 1776 1785 1785 4582 4582 4522 4522 4522 1748 1748
    1739 1739 1731 1713 1705 1688 1688 1688 1688 1688 1688 1696 1696
    1696 1705 1705 1713 1713 1713 1722 1722 1731 1731 1731 1731 1739
    1757 1757 1757 1757 1757 1766 1766 1766 1766 1766 1776 1776 1785
    1785 4582 4582 4582 4582 4522 3037 1748 1748 1739 1731 1713 1705
    1688 1688 1688 1688 1688 1688 1696 1696 1696 1705 1705 1713 1713
    1713 1722 1722 1731 1731 1731 1731 1739 1757 1757 1757 1757 1757
    1766 1766 1766 1766 1766 1776 1776 1785 1785 4582 4582 4582 4582
    4582 3037 1748 1748 1748 1731 1722 1705 1688 1688 1688 1688 1688
    1688 1696 1696 1696 1696 1705 1713 1713 1713 1722 1722 1722 1731
    1731 1731 1731 1748 1757 1757 1757 1757 1757 1757 1766 1766 1766
    1776 1776 1785 1794 4582 4582 4522 4522 4582 3064 1757 1757 1748
    1731 1722 1705 1688 1680 1680 1688 1688 1688 1688 1696 1696 1696
    1696 1705 1713 1713 1722 1722 1722 1731 1731 1731 1731 1739 1748
    1757 1757 1757 1757 1757 1757 1766 1766 1766 1766 1785 1794 1794
    4582 4522 4522 4582 3064 1766 1757 1748 1731 1722 1705 1688 1680
    1680 1680 1680 1688 1688 1696 1696 1696 1696 1705 1713 1713 1713
    1722 1722 1731 1731 1731 1731 1739 1748 1748 1757 1757 1757 1757
    1757 1757 1766 1766 1766 1776 1785 1785 4522 4522 4522 4582 3092
    3092 1766 1748 1731 1722 1713 1688 1680 1680 1680 1680 1688 1688
    1688 1696 1696 1696 1696 1705 1713 1713 1722 1722 1731 1731 1731
    1731 1731 1731 1739 1748 1748 1757 1757 1757 1757 1757 1757 1766
    1776 1776 1776 4522 4522 4522 4582 3092 3092 1766 1757 1731 1722
    1705 1688 1680 1680 1680 1680 1688 1688 1688 1688 1688 1696 1696
    1705 1705 1713 1722 1722 1731 1731 1731 1731 1731 1731 1739 1739
    1748 1757 1757 1757 1757 1757 1757 1766 1776 1776 1776 1776 4582
    4582 4582 3092 3092 1766 1757 1731 1731 1705 1696 1688 1680 1680
    1680 1680 1688 1688 1688 1688 1688 1696 1696 1705 1713 1722 1722
    1731 1731 1731 1731 1731 1731 1731 1731 1739 1757 1757 1757 1757
    1757 1766 1766 1776 1776 1776 1776 4582 4582 4582 3092 3092 1766
    1757 1739 1731 1713 1696 1688 1680 1680 1680 1680 1688 1688 1688
    1688 1688 1696 1696 1705 1705 1713 1722 1722 1731 1731 1731 1731
    1731 1731 1731 1739 1757 1757 1757 1757 1757 1766 1766 1776 1776
    1785 1804 4582 4582 4582 3037 3037 1757 1757 1748 1731 1713 1696
    1688 1680 1680 1680 1680 1680 1688 1688 1688 1696 1696 1696 1696
    1696 1705 1713 1713 1722 1731 1731 1731 1731 1731 1731 1748 1757
    1757 1757 1757 1766 1766 1766 1776 1776 1794 1804 1804 4582 4582
    3037 3037 1757 1757 1748 1731 1713 1705 1688 1680 1680 1680 1680
    1680 1688 1688 1688 1696 1696 1696 1696 1696 1705 1713 1713 1722
    1722 1731 1731 1731 1731 1731 1748 1748 1757 1757 1757 1766 1766
    1766 1776 1776 1785 1794 1794 4522 4522 2984 2984 2984 1757 1748
    1731 1722 1705 1688 1680 1680 1680 1680 1680 1688 1688 1688 1696
    1696 1696 1696 1696 1705 1705 1713 1722 1722 1722 1722 1731 1731
    1739 1748 1748 1748 1748 1757 1757 1757 1757 1776 1776 1785 1794
    4295 4295 4522 2984 2984 2984 1757 1748 1731 1713 1705 1688 1680
    1680 1680 1688 1688 1688 1688 1688 1688 1696 1696 1696 1696 1705
    1705 1713 1713 1722 1722 1722 1731 1731 1731 1748 1748 1748 1748
    1748 1757 1757 1757 1766 1776 1776 1785 4295 4295 4405 2984 2984
    2984 1757 1748 1731 1713 1713 1696 1680 1680 1680 1688 1688 1688
    1688 1688 1688 1688 1696 1696 1696 1705 1705 1713 1713 1713 1722
    1722 1722 1722 1731 1739 1748 1748 1748 1748 1757 1757 1757 1766
    1776 1776 1785 1794 4405 4405 3010 3010 3010 1757 1748 1731 1722
    1713 1696 1688 1680 1680 1688 1688 1688 1688 1688 1688 1688 1688
    1696 1696 1696 1705 1713 1713 1713 1722 1722 1722 1722 1731 1739
    1739 1748 1748 1748 1757 1757 1757 1766 1776 1776 1785 1785 1785
    4463 3010 3010 3010 1748 1748 1731 1713 1705 1696 1688 1671 1671
    1680 1688 1688 1688 1688 1688 1688 1688 1696 1696 1696 1705 1713
    1713 1713 1722 1722 1722 1722 1731 1731 1739 1748 1748 1748 1757
    1757 1757 1766 1766 1776 1776 1776 1776 4463 3064 3064 3064 1766
    1748 1731 1713 1705 1696 1688 1671 1671 1680 1680 1680 1680 1680
    1688 1688 1688 1696 1696 1696 1705 1713 1713 1713 1713 1722 1722
    1722 1722 1731 1731 1739 1748 1748 1748 1757 1757 1766 1766 1776
    1776 1776 1776 4522 3064 3010 3010 1766 1748 1731 1713 1705 1696
    1680 1680 1671 1671 1680 1680 1680 1680 1680 1688 1688 1696 1696
    1696 1705 1713 1713 1713 1713 1722 1722 1722 1722 1722 1722 1739
    1748 1748 1748 1757 1757 1766 1766 1766 1766 1766 1766 4522 3064
    3010 3010 1766 1748 1731 1722 1705 1696 1680 1680 1671 1671 1680
    1680 1680 1680 1680 1688 1688 1696 1696 1696 1696 1705 1705 1713
    1722 1722 1722 1722 1722 1722 1722 1739 1739 1739 1748 1757 1757
    1766 1766 1766 1766 1766 1766 4522 3064 3064 3064 1766 1748 1731
    1722 1705 1696 1688 1680 1671 1671 1680 1680 1680 1680 1688 1688
    1688 1688 1688 1696 1696 1696 1705 1713 1713 1713 1713 1713 1722
    1722 1731 1739 1731 1731 1739 1757 1757 1766 1766 1766 1766 1766
    1766 4463 3064 3064 3092 1766 1748 1731 1722 1705 1696 1688 1680
    1671 1671 1671 1671 1671 1680 1680 1680 1688 1688 1688 1688 1688
    1696 1705 1713 1713 1713 1713 1713 1722 1722 1731 1731 1731 1731
    1739 1748 1748 1766 1766 1766 1766 1766 1766 4463 3037 3037 3037
    3037 1757 1731 1731 1713 1696 1688 1680 1671 1671 1671 1671 1671
    1680 1680 1680 1688 1688 1688 1688 1688 1696 1696 1713 1713 1722
    1713 1713 1722 1722 1731 1731 1731 1731 1731 1748 1748 1766 1766
    1766 1766 1766 1766 4405 3037 3037 3037 3037 1739 1731 1731 1713
    1696 1688 1680 1671 1663 1663 1671 1671 1680 1680 1688 1688 1688
    1688 1688 1688 1696 1696 1705 1713 1713 1722 1722 1722 1722 1731
    1731 1731 1731 1731 1739 1748 1757 1757 1766 1766 1766 1766 4405
    3037 3037 3010 3010 1739 1731 1731 1713 1696 1688 1680 1671 1663
    1663 1671 1671 1680 1680 1680 1688 1688 1688 1688 1688 1696 1705
    1705 1713 1713 1722 1722 1722 1722 1722 1731 1731 1731 1739 1739
    1748 1757 1757 1766 1766 1766 1766 4405 3037 3010 2958 2958 1748
    1739 1731 1722 1705 1696 1680 1671 1671 1671 1671 1671 1680 1680
    1680 1688 1688 1688 1688 1688 1696 1696 1705 1705 1713 1722 1722
    1722 1722 1722 1731 1731 1731 1739 1739 1748 1757 1766 1757 1757
    1757 1757 4405 3010 2984 2958 2958 1748 1739 1731 1722 1705 1688
    1680 1671 1671 1671 1671 1671 1680 1680 1680 1688 1688 1688 1688
    1688 1696 1696 1696 1705 1705 1722 1722 1722 1722 1722 1731 1731
    1731 1739 1739 1748 1757 1766 1757 1757 1757 1757 1757 2933 2908
    2883 2883 2883 1748 1731 1722 1705 1688 1680 1671 1671 1671 1671
    1671 1671 1680 1680 1688 1688 1688 1688 1688 1696 1696 1696 1696
    1696 1722 1722 1722 1722 1722 1722 1731 1731 1731 1739 1757 1757
    1766 1766 1766 1757 1757 1757 2908 2908 2883 2883 2883 1748 1731
    1722 1713 1688 1680 1671 1671 1671 1671 1671 1671 1680 1680 1680
    1688 1688 1688 1696 1696 1696 1696 1696 1696 1722 1722 1722 1722
    1722 1722 1731 1731 1731 1731 1757 1757 1757 1757 1757 1757 1757
    1757 2908 2908 2908 2908 2908 1748 1731 1722 1713 1696 1680 1671
    1663 1663 1663 1671 1671 1671 1671 1680 1688 1688 1688 1688 1688
    1696 1696 1705 1713 1722 1722 1722 1722 1722 1722 1731 1731 1731
    1731 1739 1748 1748 1757 1757 1757 1757 1757 2908 2908 2908 2908
    2908 1739 1739 1731 1713 1696 1680 1671 1663 1663 1663 1663 1663
    1663 1671 1680 1680 1688 1688 1688 1688 1696 1696 1705 1713 1713
    1722 1722 1722 1722 1722 1731 1731 1731 1731 1739 1748 1748 1757
    1757 1766 1766 1766 2933 2908 2908 2908 2908 1739 1739 1731 1722
    1696 1688 1671 1663 1663 1663 1663 1663 1663 1671 1671 1671 1680
    1688 1688 1688 1688 1696 1696 1705 1705 1713 1713 1713 1713 1722
    1722 1731 1731 1731 1739 1748 1748 1757 1757 1766 1766 1766 2933
    2908 2908 2908 2908 1748 1739 1739 1722 1696 1688 1680 1663 1663
    1663 1655 1655 1663 1663 1671 1671 1671 1680 1688 1688 1688 1696
    1696 1705 1705 1713 1713 1713 1713 1722 1722 1722 1731 1731 1739
    1748 1748 1757 1757 1766 1757 1757 2933 2908 2883 2883 2908 1748
    1748 1739 1722 1696 1688 1680 1671 1663 1663 1655 1655 1655 1663
    1663 1671 1671 1671 1680 1680 1688 1696 1696 1705 1705 1713 1713
    1713 1713 1722 1722 1722 1731 1731 1739 1748 1748 1757 1757 1766
    1757 1757 2908 2883 2883 2883 2883 2883 1748 1739 1731 1696 1696
    1680 1671 1663 1663 1655 1655 1655 1663 1663 1671 1671 1671 1671
    1680 1688 1688 1696 1705 1705 1713 1713 1713 1713 1722 1722 1722
    1731 1731 1739 1748 1748 1757 1766 1766 1757 1757 2883 2859 2859
    2883 2883 2883 1748 1739 1722 1705 1696 1688 1671 1671 1663 1663
    1663 1655 1655 1663 1671 1671 1671 1671 1680 1688 1688 1696 1696
    1705 1705 1713 1713 1722 1722 1722 1722 1722 1722 1739 1739 1748
    1757 1766 1766 1766 1766 2883 2859 2835 2835 2883 2883 1748 1739
    1722 1705 1696 1688 1680 1671 1663 1663 1655 1655 1655 1663 1671
    1671 1671 1671 1680 1688 1688 1696 1696 1696 1705 1713 1713 1722
    1722 1722 1731 1722 1722 1731 1731 1748 1766 1766 1766 4405 4405
    2883 2859 2835 2835 2835 1757 1757 1739 1731 1713 1696 1688 1680
    1663 1663 1655 1655 1655 1655 1663 1671 1671 1680 1680 1680 1688
    1688 1696 1696 1696 1705 1713 1713 1722 1722 1722 1731 1731 1731
    1731 1731 4405 4463 4405 4405 4405 4405 2908 2883 2859 2859 2859
    2984 1739 1739 1731 1722 1696 1688 1680 1663 1655 1655 1655 1655
    1655 1663 1663 1671 1680 1688 1688 1688 1688 1696 1696 1705 1713
    1722 1722 1722 1722 1722 1731 4349 4349 4349 4349 4349 4405 4405
    4405 4405 4463 2958 2933 2908 2908 2984 2984 3010 1739 1731 1731
    1713 1696 1688 1671 1655 1655 1655 1655 1655 1655 1655 1655 1680
    1688 1688 1688 1696 1696 1696 1696 1696 1731 1731 1731 1731 1731
    4349 4349 4349 4349 4349 4349 4405 4405 4405 4463 4463 2984 2984
    2984 2984 2984 2984 3010 1739 1739 1731 1722 1696 1688 1671 1655
    1655 1655 1655 1655 1655 1655 1655 1688 1688 1696 1705 1705 1696
    1696 1696 0 0 4349 4349 4349 1731 1731 4349 4349 4349 4349 4349 4405
    4463 4463 4463 4463 3010 3010 3010 3010 3010 3010 3010 1739 1739
    1731 1722 1713 1713 1713 1713 3010 3010 0 0 0 0 0 0 0 1722 1713 1713
    1705 1705 1705 0 0 4349 4349 4349 1731 1731 4349 4349 4349 4349 4349
    4405 4463 4463 4463 4463 3010 3010 3010 3010 3037 3010 3010 3010
    3037 3037 1731 1731 1731 3010 3010 3010 0 0 0 0 0 0 0 0 1722 1722
    1722 1722 1722 1722 0 0 4349 4349 1731 1731 1731 4349 4349 4349 4349
    4349 4405 4405 4405 4405 4463</data></Depth5898>
</opencv_storage>
