<?xml version="1.0"?>
<opencv_storage>
<Depth1693 type_id="opencv-matrix">
  <rows>81</rows>
  <cols>51</cols>
  <dt>w</dt>
  <data>
    3503 3468 3468 3468 3468 3433 3433 3433 3399 3399 3399 3399 3399
    3399 3399 3365 3333 3333 3333 3333 3333 3300 3300 3269 3269 3269
    3238 3238 3269 3238 1292 1288 1288 1278 1278 1278 1283 1288 1302
    1302 3092 1338 1338 3092 3092 3092 3010 3010 3010 3010 3010 3503
    3468 3468 3468 3433 3433 3433 3399 3399 3399 3365 3365 3399 3399
    3399 3365 3333 3333 3333 3333 3300 3269 3269 1322 1317 1312 1307
    1302 1292 1292 1292 1288 1288 1278 1278 1278 1283 1288 1302 1302
    1307 1317 1328 1333 1333 2958 2958 2958 3010 3010 3010 3503 3468
    3468 3468 3433 3433 3433 3399 3399 3365 3365 3365 3399 3399 3399
    3333 3333 3333 3333 3333 1338 1333 1328 1322 1317 1312 1307 1302
    1292 1292 1292 1288 1288 1278 1278 1283 1288 1292 1297 1302 1307
    1317 1328 1328 1328 1338 1343 2958 3010 2984 2984 3468 3468 3468
    3468 3468 3468 3433 3399 3399 3365 3365 3365 3399 3365 3365 1365
    1359 1354 1354 1349 1338 1333 1328 1322 1317 1312 1312 1307 1297
    1292 1292 1292 1288 1283 1283 1283 1288 1297 1297 1302 1307 1312
    1317 1322 1322 1338 1343 1343 2984 2984 2984 3468 3468 3433 3433
    1445 1445 1445 1439 1439 3399 3399 3399 1376 1370 1370 1365 1359
    1354 1354 1349 1338 1328 1328 1322 1322 1317 1312 1307 1297 1292
    1292 1288 1288 1283 1283 1283 1292 1297 1297 1302 1307 1312 1317
    1322 1322 1338 1338 1338 2984 2984 2984 1433 1445 1445 1439 1439
    1433 1427 1410 1398 1392 1387 1381 1376 1370 1370 1365 1359 1354
    1354 1343 1338 1328 1328 1322 1317 1312 1312 1307 1302 1292 1292
    1288 1288 1283 1283 1283 1292 1297 1302 1302 1307 1312 1322 1322
    1322 1333 1338 1338 1338 3010 3010 1433 1433 1433 1439 1433 1427
    1415 1404 1398 1392 1387 1381 1376 1370 1370 1365 1359 1359 1354
    1343 1338 1328 1328 1322 1317 1312 1307 1307 1302 1297 1292 1288
    1283 1283 1283 1283 1288 1297 1302 1302 1307 1312 1322 1322 1322
    1333 1338 1338 1343 3010 3010 1433 1433 1433 1433 1421 1421 1415
    1404 1398 1392 1392 1381 1376 1370 1370 1370 1365 1359 1354 1343
    1338 1333 1328 1322 1317 1312 1307 1307 1302 1297 1292 1283 1283
    1283 1283 1283 1288 1297 1302 1302 1307 1312 1322 1322 1328 1333
    1338 1343 1343 3010 3010 1439 1433 1433 1433 1421 1421 1415 1404
    1398 1392 1392 1387 1381 1376 1370 1370 1365 1359 1354 1343 1338
    1333 1328 1328 1317 1312 1312 1307 1307 1302 1292 1283 1283 1283
    1283 1283 1288 1297 1302 1302 1307 1317 1322 1322 1328 1333 1338
    1343 1343 3010 3010 1439 1439 1439 1433 1421 1421 1410 1398 1398
    1392 1392 1387 1381 1376 1370 1370 1365 1354 1349 1343 1338 1333
    1333 1328 1322 1312 1312 1307 1307 1302 1292 1283 1283 1283 1283
    1283 1288 1297 1302 1302 1307 1312 1317 1322 1328 1333 1338 1343
    1343 3010 3010 1445 1445 1445 1433 1421 1421 1410 1398 1398 1392
    1392 1387 1381 1376 1370 1370 1365 1354 1349 1343 1338 1333 1333
    1328 1322 1312 1312 1307 1307 1297 1292 1283 1283 1283 1283 1283
    1288 1292 1297 1302 1307 1312 1317 1322 1322 1328 1333 1333 1333
    3010 3010 1452 1452 1445 1433 1427 1415 1410 1398 1398 1392 1392
    1387 1381 1376 1370 1370 1359 1354 1349 1343 1338 1333 1333 1328
    1322 1312 1312 1307 1302 1297 1292 1283 1278 1278 1283 1283 1288
    1292 1297 1302 1307 1312 1317 1322 1322 1328 1333 1333 1333 2984
    2984 1452 1452 1439 1433 1427 1415 1410 1398 1398 1392 1392 1387
    1376 1376 1370 1370 1359 1354 1349 1349 1338 1338 1333 1328 1322
    1312 1312 1307 1302 1297 1288 1283 1278 1278 1278 1283 1288 1288
    1292 1302 1307 1312 1317 1322 1322 1328 1333 1338 1338 2984 2984
    1445 1445 1439 1433 1427 1415 1410 1404 1398 1392 1392 1381 1376
    1376 1370 1370 1365 1354 1349 1349 1338 1338 1333 1328 1322 1312
    1312 1307 1302 1297 1288 1283 1278 1278 1278 1283 1288 1288 1292
    1302 1307 1312 1317 1322 1322 1328 1333 1338 1338 3010 2984 1439
    1439 1433 1433 1427 1415 1410 1404 1398 1392 1392 1381 1376 1376
    1370 1370 1365 1354 1349 1343 1338 1333 1333 1328 1322 1312 1312
    1307 1307 1297 1288 1283 1283 1283 1278 1278 1283 1288 1292 1302
    1302 1307 1317 1322 1322 1328 1333 1333 3010 3010 3010 1439 1439
    1433 1433 1427 1415 1410 1404 1398 1392 1392 1387 1376 1376 1370
    1370 1365 1354 1349 1343 1338 1333 1333 1328 1322 1312 1312 1307
    1307 1297 1288 1288 1283 1283 1278 1278 1283 1288 1292 1297 1302
    1307 1317 1322 1322 1328 1333 1333 3064 3064 3037 1433 1433 1433
    1427 1427 1415 1410 1404 1398 1398 1392 1387 1381 1376 1370 1370
    1365 1354 1349 1343 1338 1333 1328 1328 1322 1317 1312 1307 1302
    1297 1292 1288 1283 1283 1278 1278 1283 1288 1292 1297 1302 1307
    1312 1322 1322 1328 1333 1333 1333 3092 3037 0 1433 1427 1427 1421
    1415 1415 1410 1398 1398 1392 1392 1381 1376 1370 1370 1365 1354
    1349 1343 1338 1333 1328 1328 1322 1317 1312 1307 1302 1297 1292
    1288 1283 1283 1278 1278 1283 1288 1292 1302 1302 1307 1312 1317
    1322 1328 1328 1328 1328 3037 3037 0 0 1427 1427 1421 1415 1415 1410
    1398 1398 1392 1387 1381 1376 1370 1370 1365 1354 1354 1343 1338
    1333 1333 1328 1322 1317 1312 1307 1302 1292 1292 1288 1283 1283
    1278 1278 1283 1288 1292 1297 1302 1307 1312 1317 1322 1328 1328
    1328 1333 1333 3037 0 1427 1427 1427 1421 1415 1415 1410 1404 1398
    1392 1387 1381 1376 1376 1370 1365 1354 1354 1343 1338 1333 1333
    1328 1322 1317 1312 1307 1302 1292 1292 1288 1283 1283 1283 1283
    1283 1288 1292 1297 1302 1307 1312 1317 1322 1328 1328 1328 1333
    1333 2984 0 1433 1433 1427 1421 1415 1415 1410 1404 1398 1392 1387
    1376 1376 1376 1370 1354 1354 1354 1349 1338 1333 1333 1328 1322
    1317 1312 1307 1302 1292 1292 1288 1283 1283 1278 1278 1278 1288
    1292 1297 1302 1307 1312 1317 1322 1322 1328 1333 1338 1338 2958 0
    1433 1433 1427 1421 1415 1415 1404 1398 1398 1392 1387 1376 1376
    1370 1370 1354 1354 1354 1349 1338 1333 1333 1328 1322 1317 1312
    1307 1302 1292 1288 1288 1283 1283 1278 1278 1278 1283 1292 1297
    1302 1307 1312 1317 1322 1322 1328 1333 1333 2958 2958 3503 1439
    1439 1433 1427 1415 1415 1404 1398 1398 1392 1387 1376 1376 1370
    1370 1354 1354 1354 1349 1343 1338 1333 1328 1322 1317 1312 1307
    1302 1292 1288 1288 1283 1278 1273 1273 1278 1283 1292 1297 1302
    1307 1312 1317 1322 1322 1328 1333 1333 2984 2984 3503 1445 1445
    1439 1427 1415 1415 1404 1398 1398 1392 1392 1381 1376 1370 1370
    1354 1354 1354 1349 1343 1338 1333 1328 1322 1317 1312 1307 1302
    1292 1288 1288 1283 1278 1273 1273 1273 1288 1292 1297 1302 1307
    1312 1317 1322 1322 1328 1333 1333 2984 2984 3503 1445 1445 1439
    1433 1421 1415 1410 1398 1398 1392 1392 1381 1376 1370 1370 1365
    1354 1354 1349 1343 1333 1333 1328 1328 1317 1312 1312 1302 1292
    1292 1288 1283 1278 1273 1273 1273 1288 1292 1297 1302 1307 1312
    1317 1322 1322 1328 1333 1333 2984 2984 1439 1439 1439 1439 1427
    1421 1415 1410 1404 1398 1392 1392 1387 1376 1370 1370 1365 1354
    1354 1349 1343 1333 1333 1328 1328 1322 1312 1312 1307 1302 1292
    1288 1283 1278 1273 1273 1273 1288 1292 1297 1302 1307 1312 1317
    1322 1322 1328 1333 1333 2984 2984 1439 1439 1433 1433 1427 1421
    1415 1410 1404 1398 1392 1392 1387 1376 1376 1370 1365 1354 1354
    1349 1338 1333 1328 1328 1328 1317 1312 1312 1307 1302 1292 1288
    1283 1278 1273 1273 1278 1283 1288 1292 1297 1302 1312 1317 1322
    1322 1328 1328 1333 1333 2984 1433 1433 1427 1427 1427 1421 1415
    1410 1404 1398 1392 1392 1387 1381 1376 1370 1370 1354 1349 1343
    1338 1333 1328 1328 1322 1317 1312 1312 1307 1302 1292 1288 1283
    1278 1273 1273 1278 1283 1288 1288 1292 1302 1307 1317 1322 1322
    1328 1328 1333 1333 3010 1433 1433 1427 1427 1421 1421 1415 1410
    1404 1398 1392 1392 1387 1381 1376 1370 1370 1354 1349 1343 1338
    1333 1328 1328 1322 1317 1312 1307 1307 1302 1292 1288 1283 1278
    1273 1273 1278 1283 1288 1288 1292 1302 1307 1312 1322 1322 1328
    1328 1333 1333 3010 1445 1427 1427 1427 1421 1421 1415 1410 1404
    1398 1392 1392 1387 1381 1376 1370 1370 1354 1349 1349 1338 1333
    1333 1328 1322 1317 1312 1307 1307 1292 1292 1288 1283 1278 1273
    1273 1278 1283 1288 1288 1292 1302 1307 1312 1322 1322 1328 1333
    1338 1338 3010 1445 1445 1427 1427 1421 1421 1415 1415 1404 1398
    1398 1392 1387 1381 1376 1370 1370 1354 1349 1349 1343 1333 1333
    1328 1322 1317 1312 1307 1307 1292 1292 1288 1283 1278 1273 1273
    1278 1283 1288 1292 1297 1302 1307 1312 1317 1322 1328 1333 1338
    1338 3010 0 1445 1433 1427 1421 1421 1415 1415 1410 1398 1398 1392
    1387 1381 1376 1370 1370 1354 1349 1349 1343 1333 1333 1328 1322
    1317 1312 1307 1307 1292 1292 1288 1283 1278 1273 1273 1278 1283
    1288 1292 1297 1302 1307 1312 1317 1322 1328 1333 1343 1343 3010
    3539 1439 1439 1433 1427 1421 1415 1415 1410 1398 1398 1392 1387
    1381 1376 1370 1370 1354 1354 1349 1343 1338 1333 1328 1322 1317
    1312 1307 1307 1292 1292 1288 1283 1278 1273 1273 1278 1283 1288
    1292 1297 1302 1307 1312 1317 1322 1322 1333 1343 1343 3010 0 1439
    1439 1433 1427 1421 1415 1415 1410 1404 1398 1392 1387 1381 1376
    1370 1370 1354 1354 1349 1349 1338 1333 1328 1328 1317 1312 1307
    1307 1292 1292 1288 1283 1278 1273 1273 1278 1283 1288 1292 1297
    1302 1307 1307 1312 1322 1322 1333 1338 1349 1349 0 1439 1439 1433
    1427 1421 1415 1415 1410 1404 1398 1392 1387 1376 1376 1370 1370
    1354 1354 1354 1349 1343 1333 1328 1328 1322 1317 1312 1307 1292
    1292 1288 1283 1278 1273 1273 1278 1283 1288 1292 1297 1302 1302
    1307 1312 1317 1322 1328 1338 1338 1338 0 1421 1439 1439 1427 1421
    1421 1415 1410 1404 1398 1392 1387 1376 1376 1370 1370 1354 1354
    1349 1349 1343 1333 1328 1328 1322 1317 1312 1307 1292 1288 1288
    1283 1278 1273 1273 1273 1283 1288 1292 1297 1302 1302 1307 1312
    1317 1322 1328 1333 1338 1338 1452 1421 1421 1421 1433 1421 1421
    1415 1410 1404 1398 1392 1387 1376 1376 1370 1370 1354 1354 1349
    1349 1338 1333 1333 1328 1322 1317 1312 1307 1292 1288 1288 1283
    1278 1273 1273 1273 1278 1288 1292 1297 1302 1302 1307 1312 1317
    1322 1328 1333 1338 1338 1452 1452 1421 1421 1433 1421 1421 1415
    1410 1404 1398 1392 1387 1376 1376 1370 1370 1354 1354 1349 1343
    1338 1333 1333 1328 1322 1317 1312 1307 1292 1292 1288 1288 1278
    1273 1273 1273 1278 1283 1292 1297 1302 1302 1307 1312 1322 1322
    1328 1328 1333 1333 1458 1452 1439 1433 1433 1421 1415 1415 1404
    1398 1398 1392 1387 1381 1376 1370 1370 1365 1354 1349 1343 1338
    1333 1333 1328 1322 1317 1312 1307 1302 1292 1288 1288 1278 1273
    1273 1273 1278 1283 1288 1292 1302 1302 1307 1317 1322 1322 1328
    1328 1333 1333 1458 1452 1439 1433 1433 1421 1415 1415 1404 1398
    1398 1392 1387 1381 1376 1370 1370 1365 1354 1349 1343 1338 1333
    1333 1328 1322 1317 1312 1307 1302 1292 1288 1288 1283 1273 1273
    1273 1278 1283 1288 1292 1302 1302 1307 1312 1322 1322 1328 1328
    1328 1328 1458 1452 1445 1439 1433 1421 1415 1415 1410 1398 1398
    1392 1387 1381 1376 1370 1370 1359 1354 1349 1343 1338 1333 1333
    1328 1322 1317 1312 1307 1307 1292 1288 1288 1283 1278 1278 1278
    1283 1283 1288 1292 1302 1302 1307 1307 1322 1322 1328 1328 1328 0
    1464 1464 1439 1439 1427 1421 1415 1415 1410 1398 1398 1392 1392
    1381 1376 1370 1370 1359 1354 1349 1343 1343 1333 1328 1328 1322
    1312 1312 1307 1307 1292 1288 1288 1283 1278 1278 1278 1278 1283
    1288 1292 1297 1302 1307 1307 1317 1322 1328 1328 1328 0 3238 1439
    1439 1439 1427 1421 1415 1415 1404 1398 1398 1392 1392 1381 1376
    1370 1370 1359 1354 1349 1343 1343 1333 1328 1328 1317 1312 1312
    1307 1307 1292 1292 1288 1288 1278 1278 1278 1278 1283 1288 1292
    1297 1302 1307 1307 1317 1322 1328 1328 1328 0 3238 3238 1439 1439
    1427 1421 1415 1415 1404 1398 1398 1392 1392 1381 1376 1370 1370
    1365 1354 1354 1349 1343 1338 1333 1328 1317 1312 1312 1307 1302
    1292 1292 1288 1288 1278 1278 1278 1278 1283 1288 1292 1297 1302
    1307 1307 1317 1322 1328 1333 1333 0 3238 3238 1439 1439 1427 1421
    1415 1410 1404 1398 1398 1392 1392 1387 1376 1376 1370 1359 1354
    1349 1349 1338 1333 1333 1328 1322 1312 1312 1307 1302 1292 1292
    1288 1288 1278 1278 1283 1283 1283 1288 1288 1297 1302 1307 1312
    1317 1328 1328 1333 1333 1333 3365 3365 1439 1439 1427 1421 1415
    1410 1404 1398 1398 1392 1392 1387 1376 1376 1370 1359 1354 1349
    1349 1338 1333 1333 1328 1322 1317 1312 1312 1302 1297 1292 1288
    1288 1278 1278 1283 1283 1283 1288 1288 1297 1302 1307 1312 1322
    1322 1328 1333 1333 1333 3539 0 1445 1445 1427 1421 1415 1415 1404
    1398 1392 1392 1392 1387 1381 1376 1370 1359 1354 1349 1343 1338
    1333 1333 1328 1328 1322 1317 1312 1307 1297 1292 1288 1288 1278
    1278 1283 1283 1288 1288 1292 1297 1302 1307 1312 1322 1322 1328
    1328 1333 1333 0 0 1433 1433 1427 1421 1415 1410 1404 1398 1392 1392
    1392 1387 1381 1370 1365 1365 1354 1349 1343 1338 1333 1333 1328
    1328 1322 1317 1312 1307 1297 1292 1288 1288 1278 1278 1283 1283
    1288 1288 1297 1297 1302 1307 1312 1317 1322 1322 1328 1343 1343 0
    1445 1433 1433 1427 1421 1415 1410 1404 1398 1398 1392 1392 1387
    1381 1370 1365 1365 1359 1354 1343 1338 1333 1333 1328 1328 1322
    1317 1307 1302 1297 1292 1288 1288 1278 1278 1283 1283 1288 1292
    1297 1302 1302 1307 1312 1317 1322 1322 1333 1338 1338 0 1445 1445
    1439 1427 1421 1415 1415 1404 1398 1398 1392 1392 1392 1381 1370
    1370 1365 1359 1354 1349 1343 1333 1333 1333 1328 1322 1317 1307
    1302 1297 1292 1288 1288 1278 1278 1283 1283 1288 1292 1297 1297
    1302 1307 1312 1322 1322 1322 1333 1338 1338 3503 1445 1445 1439
    1427 1421 1415 1415 1404 1398 1398 1392 1392 1392 1381 1370 1370
    1359 1354 1349 1349 1343 1338 1333 1333 1328 1322 1317 1307 1302
    1297 1292 1292 1288 1278 1278 1278 1283 1288 1292 1292 1297 1302
    1307 1312 1317 1322 1328 1333 1338 1338 3503 1445 1439 1439 1427
    1421 1421 1415 1404 1398 1398 1392 1392 1392 1381 1370 1370 1359
    1354 1349 1349 1343 1338 1338 1333 1328 1322 1317 1307 1302 1297
    1292 1292 1288 1273 1273 1278 1283 1288 1288 1292 1297 1302 1307
    1312 1317 1322 1328 1333 1333 1333 3503 1445 1445 1439 1427 1421
    1421 1415 1410 1398 1398 1392 1392 1387 1376 1370 1370 1359 1354
    1349 1349 1343 1338 1338 1333 1328 1322 1317 1307 1307 1297 1292
    1292 1288 1273 1273 1278 1283 1288 1288 1292 1297 1302 1302 1307
    1317 1322 1328 1333 1333 0 3468 3468 1445 1439 1433 1421 1421 1415
    1410 1404 1398 1392 1392 1387 1376 1370 1365 1359 1354 1349 1349
    1343 1338 1333 1333 1328 1322 1317 1302 1302 1297 1297 1292 1288
    1278 1278 1278 1283 1283 1288 1292 1297 1302 1302 1307 1317 1322
    1328 1338 1338 1343 3433 3433 1445 1439 1433 1421 1421 1415 1415
    1404 1398 1392 1392 1381 1376 1370 1365 1359 1359 1349 1349 1343
    1338 1333 1333 1328 1322 1312 1302 1302 1297 1292 1292 1288 1278
    1278 1278 1278 1283 1288 1292 1297 1302 1302 1307 1317 1322 1328
    1338 1343 1343 3433 3433 1439 1439 1433 1427 1421 1415 1410 1404
    1398 1392 1392 1381 1376 1370 1365 1359 1359 1354 1349 1343 1338
    1333 1333 1328 1328 1312 1302 1302 1297 1292 1292 1288 1278 1278
    1273 1273 1278 1288 1292 1297 1297 1302 1307 1317 1322 1328 1338
    1343 1343 3503 1439 1439 1433 1433 1427 1421 1415 1410 1404 1398
    1398 1392 1387 1376 1370 1365 1359 1354 1349 1343 1343 1338 1333
    1333 1328 1328 1312 1307 1302 1297 1292 1292 1288 1278 1278 1273
    1273 1278 1288 1292 1297 1297 1302 1307 1317 1322 1333 1343 1343
    1343 3539 1439 1439 1433 1433 1427 1421 1415 1410 1404 1398 1398
    1392 1387 1376 1370 1365 1359 1354 1349 1343 1343 1338 1333 1333
    1328 1322 1312 1307 1302 1297 1297 1292 1288 1278 1278 1278 1278
    1278 1288 1292 1297 1297 1302 1307 1317 1322 1333 1338 1343 1343
    3539 1427 1427 1427 1427 1427 1421 1415 1415 1404 1398 1398 1392
    1387 1376 1370 1365 1359 1354 1349 1349 1343 1338 1338 1333 1328
    1322 1312 1307 1302 1297 1297 1292 1288 1278 1278 1278 1278 1278
    1288 1292 1297 1302 1302 1307 1317 1322 1333 1338 1338 1343 3576
    1427 1427 1427 1427 1421 1421 1415 1415 1410 1404 1398 1392 1387
    1376 1370 1370 1365 1354 1349 1349 1343 1343 1338 1333 1328 1317
    1312 1307 1302 1302 1292 1292 1292 1283 1278 1278 1278 1283 1288
    1292 1297 1302 1302 1307 1312 1322 1328 1338 1343 1343 3653 3653
    1427 1427 1427 1421 1421 1415 1415 1410 1404 1398 1392 1387 1376
    1370 1370 1365 1354 1354 1349 1349 1343 1338 1333 1328 1317 1312
    1307 1302 1297 1292 1292 1292 1278 1278 1278 1278 1283 1288 1292
    1297 1302 1302 1307 1312 1322 1328 1338 1343 1343 3653 3653 1433
    1433 1427 1421 1421 1415 1415 1410 1404 1398 1392 1381 1376 1376
    1370 1365 1354 1354 1349 1349 1343 1333 1333 1328 1317 1312 1312
    1307 1297 1292 1292 1292 1278 1278 1278 1278 1278 1283 1288 1297
    1302 1302 1307 1312 1322 1328 1338 1343 1343 3614 3614 1439 1439
    1427 1427 1421 1415 1415 1410 1398 1398 1392 1381 1376 1376 1370
    1359 1354 1354 1349 1349 1343 1333 1333 1328 1317 1312 1312 1307
    1302 1292 1292 1292 1283 1278 1278 1278 1278 1283 1288 1297 1297
    1302 1307 1317 1322 1328 1338 1338 3010 3503 3503 1445 1445 1433
    1427 1421 1415 1415 1410 1398 1392 1392 1381 1376 1376 1370 1359
    1354 1354 1349 1349 1343 1338 1333 1328 1317 1312 1312 1307 1302
    1297 1292 1292 1283 1278 1278 1278 1283 1288 1292 1297 1297 1302
    1307 1317 1322 1328 1333 1338 1338 3503 3503 1445 1445 1439 1433
    1421 1415 1410 1404 1398 1392 1392 1381 1376 1370 1370 1359 1354
    1354 1349 1349 1343 1338 1333 1328 1312 1312 1312 1307 1302 1297
    1292 1292 1283 1278 1278 1278 1283 1288 1292 1297 1297 1302 1307
    1317 1322 1328 1333 1338 1349 3539 3539 1445 1445 1433 1433 1421
    1415 1410 1404 1398 1392 1392 1381 1376 1370 1370 1359 1354 1354
    1349 1343 1343 1338 1333 1322 1312 1312 1312 1307 1302 1297 1292
    1288 1278 1278 1278 1278 1283 1283 1292 1297 1297 1302 1307 1317
    1322 1328 1333 1338 1349 3539 3539 1445 1445 1433 1427 1421 1415
    1410 1404 1398 1398 1392 1381 1376 1370 1370 1365 1359 1354 1349
    1343 1338 1338 1333 1322 1317 1312 1312 1307 1302 1297 1292 1288
    1278 1278 1278 1278 1278 1283 1288 1297 1297 1302 1307 1317 1322
    1328 1333 1333 1349 3539 3539 1439 1439 1433 1427 1421 1415 1415
    1404 1398 1398 1392 1387 1376 1370 1370 1365 1359 1354 1349 1343
    1338 1333 1333 1322 1317 1312 1312 1307 1302 1297 1292 1288 1278
    1278 1278 1278 1278 1283 1288 1292 1297 1302 1312 1317 1322 1328
    1333 1333 1333 3539 3539 1439 1439 1433 1427 1421 1415 1415 1404
    1398 1398 1392 1387 1376 1370 1370 1365 1359 1354 1349 1343 1338
    1333 1333 1322 1317 1312 1312 1307 1302 1297 1292 1288 1278 1273
    1273 1278 1278 1283 1288 1292 1297 1302 1312 1317 1322 1328 1333
    1333 1333 3539 3539 3539 1433 1433 1427 1421 1421 1415 1410 1398
    1398 1392 1387 1376 1370 1370 1370 1365 1354 1354 1343 1338 1333
    1333 1328 1317 1312 1312 1307 1302 1297 1292 1288 1283 1273 1273
    1278 1278 1283 1288 1297 1297 1302 1312 1322 1328 1328 1333 1328
    1328 3539 3539 3468 1433 1433 1427 1421 1421 1415 1415 1410 1398
    1392 1387 1376 1370 1370 1370 1365 1354 1354 1349 1338 1338 1333
    1328 1317 1312 1312 1307 1302 1297 1292 1288 1283 1278 1278 1278
    1278 1283 1292 1297 1297 1302 1307 1317 1328 1328 1333 1328 1328
    3539 3539 3468 3468 1433 1427 1421 1421 1415 1410 1410 1398 1392
    1387 1376 1370 1370 1370 1359 1354 1354 1343 1333 1333 1333 1328
    1317 1317 1312 1307 1307 1297 1292 1288 1283 1273 1273 1273 1278
    1288 1292 1302 1302 1302 1307 1312 1328 1328 1333 1333 3010 3539
    3539 3468 3468 1439 1433 1421 1421 1415 1410 1410 1398 1392 1387
    1381 1376 1370 1370 1359 1354 1354 1343 1333 1333 1333 1328 1322
    1317 1312 1307 1307 1297 1292 1288 1278 1273 1273 1273 1278 1283
    1288 1292 1302 1302 1307 1312 3120 3120 3092 3037 3010 3539 3539
    3503 3503 3503 3468 1421 1421 1421 1415 1415 3399 1392 1387 1381
    1376 1370 1370 1370 1365 1365 1365 1343 1338 1333 1333 1328 1322
    1312 1307 1302 1297 1292 1283 1278 1278 1273 1273 1278 1283 1288
    1292 3120 3120 3120 3120 3092 3064 3064 3037 3037 3539 3539 3503
    3503 3503 3468 3433 3433 1421 1421 3399 3399 3399 3365 3365 3399
    3365 1376 1376 1376 1387 1387 3333 3333 1333 1333 1338 1328 1312
    1307 1302 1302 1292 1283 1283 1283 1283 1283 1283 1283 3149 3120
    3120 3120 3092 3092 3092 3064 3064 3037 3037 3539 3539 3539 3503
    3503 3468 3433 3433 3399 3399 3399 3399 3399 3365 3365 3399 3365
    3365 1398 1392 1392 1392 3269 3269 3269 3300 1349 1343 1317 1312
    1312 3238 3238 3208 3178 3178 3178 3149 3149 3149 3120 3120 3092
    3092 3092 3092 3092 3064 3064 3037 3037 3539 3539 3539 3503 3503
    3468 3433 3433 3433 3399 3399 3399 3399 3399 3399 3399 3365 1421
    1410 1398 1398 1398 3269 3269 3269 3269 1349 1349 1349 3238 3238
    3238 3238 3208 3208 3178 3178 3149 3149 3120 3120 3120 3092 3092
    3092 3092 3092 3092 3064 3037 3037 3539 3503 3503 3468 3468 3468
    3468 3433 3433 3433 3399 3399 3399 3399 3433 3399 3365 1415 1410
    1410 3365 3365 3365 3269 3269 1354 1349 1349 1349 3238 3238 3238
    3238 3238 3208 3178 3178 3120 3120 3120 3120 3120 3092 3092 3092
    3092 3092 3092 3064 3037 3037 3539 3503 3503 3468 3468 3468 3468
    3468 3468 3433 3433 3399 3399 3399 3399 3399 3365 1415 1410 1410
    1415 1415 3365 3269 3269 1354 1349 1349 1349 3238 3238 3238 3238
    3238 3208 3178 3149 3120 3120 3120 3120 3120 3092 3092 3092 3092
    3092 3092 3064 3037 3037 3539 3503 3503 3468 3468 3468 3468 3468
    3468 3433 3433 3399 3399 3433 3399 3365 3365 1421 1415 1415 1415
    3365 3365 3269 3269 1354 1349 1349 1349 3238 3238 3238 3238 3238
    3208 3208 3149 3092 3092 3092 3092 3120 3092 3092 3092 3092 3092
    3092 3064 3064 3037 3539 3503 3503 3503 3503 3503 3468 3468 3468
    3433 3399 3399 3399 3399 3399 3365 3365 3365 3365 3365 3365 3365
    3365 3333 3300 1354 1354 1354 1354 3208 3208 3208 3238 3208 3208
    3208 3149 3092 3092 3092 3092 3120 3120 3092 3092 3092 3092 3092
    3092 3064 3037</data></Depth1693>
</opencv_storage>
