<?xml version="1.0"?>
<opencv_storage>
<Depth17284 type_id="opencv-matrix">
  <rows>154</rows>
  <cols>84</cols>
  <dt>w</dt>
  <data>
    0 0 0 0 0 0 0 0 0 0 717 707 706 706 0 0 0 0 0 0 0 0 0 0 0 0 0 0 0 0
    0 0 0 0 0 0 0 0 0 0 0 0 0 0 0 0 0 0 0 0 0 0 0 0 0 2835 2835 2835
    2835 0 0 0 0 0 0 0 0 2744 2744 2723 2723 2744 2744 2723 2701 2680
    2680 2680 0 0 0 0 0 0 0 0 0 0 0 0 0 0 0 719 717 710 706 704 704 0 0
    0 0 0 0 0 621 615 613 613 0 0 0 0 0 0 0 0 0 0 0 0 0 0 0 0 0 0 0 0 0
    0 0 0 0 0 0 0 0 2835 2835 2859 2859 2859 0 0 0 0 0 0 0 0 2744 2723
    2723 2744 2744 2744 2723 2701 2701 2701 0 0 0 0 0 0 0 0 0 0 0 0 0 0
    0 717 716 710 706 704 704 0 0 0 0 0 0 0 621 615 612 610 610 0 0 0 0
    0 0 0 0 549 549 0 0 0 0 0 0 0 0 0 0 0 0 0 0 0 0 0 0 2835 2835 2859
    2859 0 0 0 0 0 0 0 0 0 0 0 0 0 0 0 0 0 0 0 0 0 0 0 0 0 0 0 0 0 0 0 0
    0 0 716 713 710 706 704 704 0 0 0 0 0 0 0 0 615 612 609 609 0 0 0 0
    0 0 558 555 549 549 544 544 545 545 0 0 0 0 0 0 0 0 0 0 0 0 0 0 0 0
    549 549 0 0 0 0 0 0 0 0 0 0 0 0 0 0 0 0 0 0 0 0 0 0 0 0 0 0 0 0 0 0
    0 0 0 736 716 711 708 706 704 704 0 0 0 0 0 0 0 620 615 613 609 609
    599 597 597 0 0 0 558 555 551 546 544 544 544 544 544 0 0 0 546 546
    0 0 0 0 0 0 0 0 0 0 0 0 0 0 0 0 0 0 0 0 0 0 0 0 0 0 0 0 0 0 0 0 563
    563 562 561 561 0 0 0 0 0 0 0 739 736 716 711 708 706 704 704 0 0 0
    0 0 0 0 620 616 613 609 609 599 594 586 586 0 0 558 555 554 546 545
    545 544 541 541 541 540 540 540 545 545 545 545 544 544 544 544 544
    546 548 549 549 549 549 549 550 0 0 554 554 554 0 0 554 555 559 559
    558 558 559 559 562 562 562 562 561 561 0 0 0 0 0 0 0 739 739 739
    711 708 708 704 704 0 0 0 0 0 0 0 621 619 614 610 610 599 594 586
    586 0 558 558 555 554 547 545 545 544 541 541 541 540 540 540 540
    544 545 545 544 544 544 544 544 546 548 549 549 549 549 549 550 550
    551 554 554 554 554 554 554 555 556 558 558 558 559 559 561 561 561
    562 563 563 0 0 0 0 0 0 742 739 739 739 711 708 708 704 704 0 0 655
    655 0 0 0 622 620 616 616 601 599 599 599 577 576 576 576 547 547
    547 545 545 544 541 541 543 541 540 540 540 544 545 545 546 545 545
    545 545 547 548 549 549 550 550 550 550 550 551 554 554 554 554 554
    554 555 556 558 559 559 559 559 561 561 561 562 563 564 0 0 0 0 0 0
    742 739 739 738 711 710 708 708 708 0 655 655 655 655 0 0 624 621
    616 616 601 600 600 600 577 576 576 576 574 547 547 546 545 544 541
    541 543 542 541 541 541 544 545 546 546 546 545 545 546 547 548 549
    549 550 551 551 551 552 553 554 554 554 555 554 554 555 557 558 559
    559 559 559 561 561 562 562 563 564 0 0 0 0 0 0 742 741 738 738 711
    710 708 708 708 0 657 657 654 654 654 0 625 621 616 603 601 600 600
    600 576 576 574 574 574 549 549 546 546 544 543 543 543 542 541 541
    541 543 545 546 546 546 546 546 547 548 549 549 550 551 552 551 551
    552 554 554 554 556 557 555 555 556 558 558 559 559 560 560 562 562
    563 563 563 563 0 0 0 0 0 0 744 741 736 717 713 710 708 708 708 663
    657 657 654 652 652 652 625 621 615 603 602 600 598 598 576 576 574
    574 574 552 549 547 546 544 544 544 544 543 542 542 543 543 546 546
    546 547 547 547 548 548 549 549 550 551 552 553 553 554 554 554 554
    557 558 558 558 558 559 559 559 561 561 562 563 563 563 563 563 563
    0 0 0 0 0 759 750 741 736 717 713 711 711 711 711 663 663 657 654
    652 652 652 624 624 614 606 602 599 596 596 577 577 576 576 576 552
    550 547 546 544 544 544 544 544 543 543 544 544 546 546 546 548 548
    548 548 548 549 551 551 552 553 554 554 554 554 554 554 558 558 559
    559 559 559 559 560 561 562 563 564 564 565 563 563 563 0 0 0 0 762
    759 750 742 738 717 713 708 708 708 706 661 661 658 655 654 654 654
    618 618 613 604 602 597 593 593 578 576 574 574 574 553 548 546 545
    544 544 544 544 544 544 544 544 545 547 547 547 548 548 549 549 549
    550 551 551 551 553 554 554 554 555 555 558 558 558 559 559 559 559
    560 560 561 562 563 564 564 565 565 565 565 0 0 0 0 762 759 746 741
    741 717 713 708 706 706 706 661 661 658 655 654 654 654 615 615 613
    604 602 596 592 583 578 576 574 574 574 548 548 546 545 544 544 544
    544 544 544 545 546 547 547 548 549 549 549 549 549 551 551 551 551
    551 553 554 554 554 555 555 559 558 558 559 559 559 559 560 560 562
    563 563 564 564 565 565 565 567 0 0 0 0 0 759 744 738 731 728 717
    708 704 704 704 666 662 658 655 647 647 647 621 615 614 614 606 596
    592 583 577 576 572 572 572 548 548 546 545 544 544 544 544 544 545
    545 546 546 547 548 549 549 550 551 551 551 551 551 551 552 553 554
    554 554 555 558 559 559 559 559 559 560 560 560 560 562 563 563 565
    565 565 565 566 567 0 0 0 0 0 0 742 736 730 727 727 727 694 694 694
    666 663 661 657 646 642 642 621 616 613 611 611 600 600 600 577 576
    572 569 566 565 565 546 546 545 544 544 544 544 545 545 546 546 548
    549 549 550 550 551 552 552 552 552 552 552 553 554 554 554 557 558
    559 559 559 559 559 560 560 561 561 562 562 564 565 565 566 566 567
    567 0 0 0 0 0 744 741 736 730 727 727 727 694 694 694 667 667 662
    662 644 641 637 621 616 613 611 611 611 585 583 578 576 572 568 564
    564 565 547 547 545 544 544 544 544 546 546 547 548 549 549 550 550
    551 551 552 552 552 553 553 554 554 555 555 555 558 558 559 559 559
    559 560 560 561 561 561 562 562 564 565 565 566 566 567 0 0 0 0 0 0
    742 741 738 730 727 727 727 704 704 670 670 668 662 662 644 641 637
    621 616 614 611 594 590 585 583 579 576 572 568 563 563 563 546 546
    545 545 545 545 545 546 547 547 547 549 549 550 551 552 552 552 552
    552 554 554 555 555 555 556 556 558 558 559 559 559 559 560 561 563
    563 563 563 563 564 565 565 566 566 566 0 0 0 0 0 0 742 741 741 731
    727 717 706 704 704 682 674 670 662 657 648 641 638 638 618 614 611
    594 589 587 584 579 576 571 568 563 563 565 546 546 546 546 546 545
    545 546 547 547 547 550 550 551 551 552 552 552 553 553 554 554 555
    556 556 557 557 558 559 559 559 559 559 562 563 564 564 564 564 564
    565 565 566 567 566 566 566 0 0 0 0 0 744 742 739 731 728 717 706
    704 704 680 674 670 661 655 648 648 648 625 619 614 614 614 589 589
    584 581 577 571 568 565 565 565 546 546 546 546 546 546 546 546 548
    549 550 550 551 552 552 552 552 552 554 554 554 555 556 556 557 557
    558 559 559 559 559 561 562 563 563 564 564 564 564 565 566 566 568
    568 566 566 566 0 0 0 0 0 0 742 739 730 728 717 704 701 701 680 675
    663 659 655 648 647 647 625 621 610 610 610 592 592 586 584 584 571
    567 565 565 551 546 546 546 546 546 546 546 547 550 550 551 551 552
    552 552 552 552 553 554 554 554 556 556 556 557 558 558 559 560 560
    561 562 563 563 564 564 565 565 565 565 566 567 568 568 568 567 567
    0 0 0 0 0 0 744 741 730 728 727 704 701 701 680 675 663 659 655 648
    647 647 625 621 610 610 610 610 585 585 585 585 585 567 565 565 551
    549 548 547 547 546 546 546 548 551 551 552 552 552 552 552 552 552
    553 555 555 556 557 557 557 558 558 558 559 559 560 562 563 563 564
    564 565 565 565 565 566 567 568 569 568 568 567 567 0 0 0 0 0 0 757
    749 730 727 725 706 701 701 680 676 676 659 655 655 647 647 625 621
    613 613 613 0 0 584 584 584 584 568 565 565 565 549 548 547 547 547
    547 549 552 552 552 552 552 553 552 552 553 553 553 557 557 557 557
    557 557 559 559 559 559 559 560 563 564 564 564 565 565 565 565 565
    566 568 569 569 569 568 568 0 0 0 0 0 0 761 752 747 730 727 725 707
    707 0 0 0 0 659 655 655 655 625 625 622 619 619 619 0 585 584 584
    584 584 568 565 565 552 550 548 547 547 547 547 549 553 553 553 553
    553 554 554 554 554 554 555 556 557 557 557 558 558 560 561 560 560
    560 561 564 565 565 565 565 565 565 566 566 566 567 569 569 569 569
    0 0 0 0 0 0 767 761 752 747 731 728 720 707 707 0 0 0 0 0 0 0 0 625
    625 622 619 619 619 614 585 585 582 579 574 568 566 565 552 549 548
    547 547 548 548 550 554 553 553 553 553 554 554 554 555 555 555 556
    557 557 558 558 558 560 561 561 561 561 562 564 565 565 565 565 565
    566 566 566 566 567 568 569 569 569 0 0 0 0 0 0 767 762 750 747 731
    727 711 711 713 0 0 0 0 0 0 0 0 628 625 623 619 614 614 614 585 585
    581 578 574 568 565 565 552 549 548 547 547 548 548 549 553 554 554
    554 554 554 555 555 555 555 555 556 558 558 559 559 559 560 561 562
    562 563 564 565 565 565 565 566 566 566 566 566 566 567 568 569 570
    572 0 0 0 0 0 0 767 764 749 747 747 727 710 710 0 0 0 0 0 0 0 0 0
    628 625 620 619 612 612 612 585 585 581 577 573 569 565 565 552 550
    548 548 548 548 549 549 553 554 554 554 554 555 556 556 556 556 556
    557 559 559 559 559 561 561 562 563 563 565 565 565 565 566 566 566
    566 567 567 567 567 568 569 570 570 572 576 0 0 0 0 0 769 766 749
    742 742 727 710 710 716 0 0 0 0 0 0 0 0 0 0 620 619 612 612 593 591
    586 584 577 573 570 570 570 554 552 550 549 548 548 549 552 553 554
    554 554 555 555 556 557 557 557 557 558 559 560 560 560 561 562 562
    563 563 565 565 565 566 566 567 567 567 568 568 568 569 569 569 570
    571 573 575 0 0 0 0 0 771 769 747 742 742 727 720 716 716 0 0 0 0 0
    0 0 0 0 0 0 612 612 612 593 591 588 584 577 574 570 570 570 554 552
    551 551 550 550 551 552 553 554 554 554 555 556 556 557 558 558 558
    559 559 560 560 561 562 563 564 564 565 565 565 565 566 567 567 567
    567 569 570 570 571 570 570 573 574 574 575 0 0 0 0 774 771 767 747
    742 733 727 722 717 714 714 0 0 0 0 0 0 0 0 625 625 625 621 621 588
    588 588 588 577 573 570 570 570 554 554 552 552 552 552 552 553 554
    554 554 555 556 556 557 557 558 558 559 559 560 560 561 562 562 563
    564 564 565 565 565 566 567 567 567 568 568 570 571 571 570 570 571
    574 574 574 0 0 0 0 0 774 769 761 747 742 733 728 719 716 714 714 0
    0 0 0 0 0 0 0 625 623 621 621 621 610 588 588 583 577 571 570 570
    570 554 554 552 552 552 552 552 553 554 554 555 555 556 557 557 558
    559 559 559 559 560 560 562 563 563 564 565 565 565 565 566 567 568
    568 568 569 569 570 571 571 570 570 572 574 574 574 0 0 0 0 0 774
    769 759 749 741 731 730 719 708 704 704 0 0 0 0 0 0 0 628 625 623
    621 610 610 610 587 587 583 577 571 570 567 567 555 554 552 552 552
    552 552 554 555 555 555 556 556 557 558 558 559 559 560 560 561 562
    562 563 564 564 565 565 565 566 567 568 568 569 569 570 570 571 572
    572 573 573 574 574 574 574 0 0 0 0 0 774 774 757 750 741 731 730
    719 708 704 704 0 0 0 0 0 0 0 628 625 623 621 610 610 606 592 587
    583 579 571 571 567 567 554 554 552 552 552 552 553 554 555 555 555
    556 557 558 558 559 559 559 560 561 562 562 563 564 565 565 565 565
    565 567 567 568 569 569 569 570 570 571 572 572 573 573 574 575 574
    574 574 0 0 0 0 0 0 757 747 742 739 731 717 707 704 704 0 0 0 0 0 0
    630 628 625 623 616 610 608 606 591 588 584 580 572 571 566 557 554
    554 552 552 552 552 554 555 555 555 555 556 557 558 558 559 560 561
    561 561 562 562 564 565 565 565 566 566 566 568 569 569 569 569 569
    570 570 572 573 573 574 574 575 575 574 574 574 0 0 0 0 0 0 0 747
    742 742 742 711 707 704 704 690 690 0 0 0 0 630 628 625 623 616 610
    608 608 591 588 584 580 577 577 566 556 555 554 553 553 553 554 554
    555 556 555 555 557 558 558 559 560 560 561 562 562 563 564 565 565
    566 566 566 566 566 568 569 569 569 569 570 570 570 572 573 574 574
    574 575 575 575 574 574 0 0 0 0 0 0 0 747 744 741 741 710 707 704
    693 690 690 0 682 0 0 631 629 628 623 615 611 609 608 592 589 585
    581 577 577 577 556 555 554 554 554 554 554 554 555 556 556 556 557
    559 559 559 560 560 562 562 563 564 565 565 566 566 566 566 567 567
    568 569 569 569 569 570 570 570 572 573 574 574 574 575 576 576 577
    0 0 0 0 0 0 0 0 747 744 741 741 710 704 704 693 690 690 682 682 0
    634 634 631 630 627 615 612 609 607 592 590 587 583 571 571 571 556
    555 554 554 554 554 555 556 556 556 556 556 558 559 559 559 561 561
    563 563 563 565 565 565 566 566 566 566 567 567 568 569 570 570 571
    571 571 571 572 572 575 575 575 576 577 578 578 0 0 0 0 0 0 0 0 749
    744 741 734 711 704 697 693 690 686 682 682 682 634 634 632 631 630
    615 612 607 604 601 590 587 583 571 570 570 570 555 554 554 554 555
    555 556 556 556 556 558 559 560 560 560 562 562 563 564 564 565 565
    565 566 566 567 567 567 568 568 569 570 571 572 572 572 572 572 572
    575 576 576 577 576 576 0 0 0 0 0 0 0 0 0 749 746 739 731 722 706
    697 693 690 684 682 682 682 636 636 632 631 629 615 613 607 600 595
    590 588 583 571 570 570 570 557 555 555 555 555 556 556 556 556 557
    559 560 561 562 562 562 563 564 564 564 565 565 565 566 566 567 567
    568 569 569 570 571 572 573 573 573 573 573 573 576 577 577 578 576
    576 0 0 0 0 0 0 0 0 0 749 746 739 731 723 717 696 693 690 682 682
    662 659 657 636 635 631 627 615 613 609 599 595 590 587 582 572 572
    572 557 557 555 555 555 555 556 557 559 559 559 561 561 561 562 563
    563 564 564 564 565 565 566 567 567 567 568 568 569 569 569 571 572
    572 573 573 573 573 573 574 578 578 579 578 578 578 0 0 0 0 0 0 0 0
    0 750 747 739 731 723 719 696 693 688 678 672 662 658 654 654 635
    631 625 619 613 609 599 595 591 587 582 573 573 573 560 558 556 555
    555 556 556 558 560 560 562 562 562 562 562 563 564 565 565 565 565
    566 566 567 568 568 569 569 570 570 570 572 572 573 573 574 574 574
    574 575 580 580 579 578 578 0 0 0 0 0 0 783 780 773 773 750 747 739
    731 722 711 707 693 688 676 672 672 658 654 654 635 632 625 618 614
    609 598 595 592 588 581 573 573 575 560 559 557 556 556 557 558 559
    560 561 562 562 562 562 563 563 564 565 565 566 566 567 568 568 569
    570 570 570 570 570 571 572 572 573 574 575 575 575 575 575 580 580
    580 579 579 0 0 0 0 0 0 783 780 771 771 771 741 741 733 722 711 707
    694 691 674 672 670 658 654 653 634 631 625 618 615 610 598 595 592
    586 581 577 574 574 560 559 557 557 557 557 558 559 561 562 563 563
    563 563 563 563 564 565 566 566 566 567 569 570 570 570 570 571 571
    572 572 573 573 574 575 575 575 576 576 577 579 579 580 580 580 581
    0 0 0 0 0 783 780 771 771 771 741 741 734 720 711 707 694 691 674
    671 664 658 654 653 632 631 623 618 615 611 599 595 592 586 581 577
    574 574 560 559 558 558 558 558 559 559 562 563 563 563 564 564 565
    565 565 567 567 567 567 567 570 570 571 571 571 571 572 572 573 574
    574 575 575 575 576 576 577 578 579 579 580 580 581 581 0 0 0 0 0
    783 781 780 780 750 747 746 734 717 711 707 694 691 672 671 663 658
    654 654 632 631 623 618 615 609 599 595 592 586 581 577 574 574 560
    559 559 559 559 559 559 560 562 563 563 564 565 565 565 565 566 567
    567 567 568 569 570 571 571 572 572 572 573 573 573 574 574 575 575
    576 577 577 578 579 580 580 581 581 581 582 0 0 0 0 0 787 783 780
    766 750 744 742 731 717 711 707 693 690 672 671 663 658 655 654 632
    631 624 618 615 609 599 595 591 586 581 578 573 573 564 561 560 559
    559 559 560 561 563 564 564 565 565 565 565 565 566 567 567 568 569
    569 570 571 572 572 573 573 573 574 574 574 575 576 576 577 578 578
    578 579 580 581 582 582 583 0 0 0 0 0 0 787 783 783 764 750 744 742
    730 728 714 708 693 690 679 679 663 661 657 657 632 631 624 621 614
    610 601 595 591 586 582 579 573 566 565 562 560 560 560 560 560 562
    563 563 564 565 565 565 565 565 565 567 567 568 569 570 570 571 572
    573 573 574 574 575 575 576 576 577 577 578 579 579 579 580 581 582
    582 583 584 0 0 0 0 0 0 785 783 783 764 749 746 746 730 727 711 706
    693 688 679 679 663 659 657 657 634 632 624 622 614 610 602 595 593
    585 582 580 576 566 564 562 561 560 560 560 560 562 563 563 565 565
    565 565 566 565 565 567 567 568 569 570 571 572 572 573 574 574 575
    575 576 577 577 577 578 579 579 580 580 580 581 582 582 583 584 0 0
    0 0 0 0 785 778 778 780 747 744 739 733 717 711 706 693 688 679 676
    663 658 657 657 634 632 625 622 614 607 602 597 586 585 582 580 574
    566 564 562 561 560 560 561 561 563 564 564 564 565 565 566 567 566
    566 567 567 569 570 572 572 573 573 574 574 574 576 577 577 578 578
    578 579 580 580 581 581 581 581 582 583 583 584 0 0 0 0 0 0 790 778
    778 780 747 744 739 736 717 714 713 693 688 679 676 671 658 658 658
    641 634 625 622 613 607 602 597 586 585 581 579 574 565 564 563 562
    561 561 562 562 563 564 564 564 565 565 566 567 566 566 568 568 570
    571 572 573 573 573 574 574 575 576 576 577 578 578 578 579 580 580
    581 581 582 582 583 584 584 584 0 0 0 0 0 0 790 778 778 766 749 744
    739 738 717 714 714 694 691 683 678 671 661 661 661 642 632 629 629
    613 608 602 598 589 585 581 579 577 565 564 563 563 562 562 562 563
    564 565 565 565 565 565 567 568 568 569 569 570 571 571 573 573 573
    574 574 575 575 576 576 577 578 579 579 580 580 581 581 582 582 583
    584 585 585 585 0 0 0 0 0 0 792 792 774 764 757 746 739 738 717 716
    716 694 693 683 676 668 663 663 663 640 632 629 629 613 608 602 599
    589 585 581 579 578 565 565 564 563 563 563 563 564 565 565 565 565
    567 567 568 568 569 569 570 570 572 572 573 574 574 574 575 575 575
    576 577 577 578 579 580 581 581 581 582 582 584 585 585 585 585 0 0
    0 0 0 0 0 792 792 774 762 757 752 741 738 717 716 716 694 693 684
    676 668 662 662 662 640 632 629 629 629 608 603 599 589 589 582 580
    566 565 565 565 564 564 564 564 564 565 565 567 567 568 568 569 569
    570 570 570 571 572 573 574 574 575 575 575 576 576 577 578 578 579
    580 580 582 582 582 582 583 586 586 586 586 586 0 0 0 0 0 0 0 792
    792 776 762 757 755 755 738 738 716 716 694 693 684 676 676 662 662
    662 638 634 629 619 619 608 604 600 589 588 586 584 566 565 565 565
    564 564 565 565 565 565 566 567 567 568 569 570 570 571 571 572 572
    572 573 574 575 575 575 576 577 577 578 578 579 579 580 580 582 582
    582 583 583 586 587 587 587 587 0 0 0 0 0 0 0 0 0 774 764 757 757
    757 757 734 734 706 694 693 684 676 672 672 672 647 637 634 630 619
    619 608 603 599 589 587 586 569 568 566 565 565 565 565 565 565 565
    566 567 568 568 568 569 570 570 571 572 573 573 573 573 575 575 576
    576 577 578 578 578 579 579 580 581 581 582 582 583 584 585 587 587
    588 588 588 0 0 0 0 0 0 0 0 0 766 764 764 764 746 733 733 733 704
    696 693 686 675 672 670 670 647 637 634 634 619 619 608 603 599 589
    587 585 569 569 567 566 565 565 565 565 566 566 567 568 568 569 569
    569 570 571 572 572 573 573 573 574 575 575 576 577 578 578 578 579
    579 580 581 581 582 582 583 583 585 585 587 587 588 589 589 589 0 0
    0 0 0 0 0 766 766 764 764 750 746 746 728 728 704 698 693 686 674
    671 667 661 647 638 634 634 619 619 618 603 599 590 587 585 584 569
    567 566 566 565 565 566 567 567 567 569 569 570 570 570 571 572 572
    573 573 574 574 574 575 576 577 578 578 578 579 579 579 580 581 582
    582 582 583 584 585 586 587 587 588 589 589 589 0 0 0 0 0 0 0 766
    766 764 754 750 746 742 728 728 703 698 693 686 674 670 666 661 642
    640 634 627 620 620 618 603 597 592 588 586 585 569 568 567 566 566
    566 566 567 567 568 569 570 570 570 570 572 573 573 573 573 574 574
    575 576 577 577 578 579 579 580 580 581 582 582 582 583 583 585 586
    586 587 587 589 589 589 590 0 0 0 0 0 0 0 0 0 769 766 754 750 747
    742 727 727 701 700 697 687 674 670 666 663 642 640 634 627 620 620
    618 618 597 592 589 587 585 569 568 567 567 566 566 566 567 568 569
    570 570 570 570 571 572 573 573 574 574 575 576 576 577 578 578 579
    580 580 581 581 582 582 583 583 583 584 586 586 587 587 587 589 590
    590 590 0 0 0 0 0 0 0 0 0 778 773 754 750 747 736 727 727 701 700
    697 679 674 670 667 664 641 637 635 628 624 620 619 619 597 592 589
    587 585 570 568 567 567 567 567 567 567 568 569 571 571 571 572 573
    573 573 573 574 574 576 577 577 578 578 579 580 581 581 582 582 583
    583 583 583 584 585 586 587 587 588 588 590 590 590 591 0 0 0 0 0 0
    0 0 785 778 774 754 750 746 736 723 723 723 700 698 679 674 671 667
    664 641 637 635 628 625 621 621 621 596 593 591 588 581 570 569 568
    568 567 567 567 568 569 571 572 572 572 572 574 574 574 574 575 575
    577 578 578 578 578 580 581 581 582 582 583 583 584 584 585 586 586
    587 587 587 588 588 590 590 590 591 0 0 0 0 0 0 0 0 783 773 762 759
    759 746 738 723 723 723 698 693 686 674 671 667 664 641 637 636 628
    625 625 625 596 596 594 592 588 581 571 570 569 568 568 568 568 569
    570 571 572 572 572 573 574 575 575 575 575 577 578 578 578 579 580
    581 581 582 582 582 583 583 584 585 586 586 587 587 588 588 588 589
    590 590 590 591 0 0 0 0 0 0 0 0 783 773 762 759 749 746 728 722 719
    719 698 690 684 675 671 668 664 664 637 636 629 627 627 627 600 597
    594 592 589 587 571 570 569 569 569 569 569 569 570 571 572 573 573
    574 575 575 575 576 577 578 578 578 578 579 581 581 582 582 583 583
    583 584 585 586 586 587 588 588 588 589 589 590 591 591 591 0 0 0 0
    0 0 0 0 0 785 774 766 759 749 747 727 722 719 719 719 690 684 675
    671 667 667 647 638 636 629 627 627 627 600 597 594 592 585 580 572
    571 570 570 570 570 570 570 570 571 572 573 573 574 575 575 575 576
    578 578 578 578 578 579 581 582 582 582 583 583 584 585 585 586 587
    587 588 589 589 589 590 591 591 591 592 0 0 0 0 0 0 0 803 798 785
    774 767 759 750 747 725 723 720 720 694 690 686 676 672 667 667 647
    640 636 632 628 627 606 601 599 595 592 585 580 573 571 570 570 570
    570 570 570 570 571 572 573 574 575 575 576 576 577 578 578 578 579
    579 580 581 582 583 583 584 585 585 586 586 586 587 587 589 589 589
    590 590 591 592 593 595 595 0 0 0 0 0 0 800 796 794 773 767 759 750
    747 725 725 722 722 694 691 686 678 675 675 675 647 640 637 635 631
    625 606 601 599 595 592 586 583 574 572 571 570 570 571 571 571 572
    573 573 574 574 575 576 577 577 577 578 578 579 579 580 581 582 583
    584 585 585 585 586 586 586 587 587 588 589 590 590 590 591 593 593
    594 595 595 0 0 0 0 0 0 800 796 794 773 767 767 754 749 725 723 720
    720 694 691 686 678 675 672 668 648 642 638 635 632 625 607 601 599
    596 593 586 583 574 573 571 571 571 572 572 572 573 573 574 574 574
    575 576 577 577 577 578 579 579 580 582 582 583 583 584 585 585 586
    587 587 587 587 587 588 590 590 590 590 591 593 594 594 595 595 0 0
    0 0 0 0 800 796 794 794 794 764 764 725 725 723 719 713 711 691 686
    678 675 672 668 648 642 638 632 629 625 608 601 598 595 592 590 587
    573 573 572 571 571 572 572 573 573 574 574 574 575 576 577 577 577
    578 579 579 581 581 582 582 583 584 585 585 586 586 587 587 587 588
    588 589 590 590 590 590 592 593 594 594 595 0 0 0 0 0 0 0 800 796
    792 792 792 764 764 764 728 723 714 710 710 693 686 678 675 674 674
    648 646 631 630 628 625 610 601 598 595 592 590 572 572 573 572 572
    572 572 572 573 573 574 575 575 575 577 577 578 578 578 579 580 581
    582 582 583 584 584 585 586 586 587 588 588 588 588 589 590 590 591
    591 591 592 594 594 595 595 0 0 0 0 0 0 0 800 794 790 790 790 764
    764 764 728 728 713 707 701 696 687 676 675 674 674 648 646 631 630
    627 623 621 601 599 596 592 590 572 572 573 572 572 572 572 572 574
    574 575 576 576 577 577 577 578 578 579 580 581 582 582 582 583 584
    585 585 586 587 588 588 589 589 589 590 590 590 591 591 592 594 594
    595 595 595 0 0 0 0 0 0 0 803 794 785 780 767 766 766 766 731 728
    713 707 701 697 693 676 675 674 674 649 647 646 646 625 619 614 607
    601 597 596 596 577 574 573 573 573 573 573 573 574 574 576 576 576
    577 577 578 578 579 581 581 581 582 582 582 583 585 585 586 586 587
    588 589 589 590 590 590 590 591 591 592 593 594 595 596 596 596 0 0
    0 0 0 0 0 803 796 785 771 767 766 766 766 733 728 722 707 703 700
    700 676 674 674 674 652 646 646 631 625 619 609 607 602 598 598 596
    576 576 575 574 574 573 573 573 575 576 577 577 577 577 577 578 579
    580 581 581 582 582 583 583 585 585 586 586 587 588 589 589 590 590
    590 591 591 593 593 593 594 596 596 596 596 596 0 0 0 0 0 0 0 0 0
    785 771 769 766 754 747 733 728 722 707 704 700 679 676 674 672 672
    652 646 641 631 627 610 608 606 603 599 597 596 576 576 576 575 575
    575 575 575 576 577 578 578 578 578 579 580 580 580 581 582 582 583
    583 584 585 586 587 587 587 588 589 590 590 590 591 591 592 593 593
    594 594 596 596 597 597 0 0 0 0 0 0 0 0 0 0 785 774 769 766 752 747
    739 728 720 714 706 688 679 676 674 671 671 652 647 640 631 627 610
    608 606 603 599 597 595 593 577 576 575 575 576 576 577 577 577 578
    578 579 580 581 581 581 581 581 582 583 584 585 585 586 586 587 588
    588 589 589 590 591 591 591 591 592 593 594 595 595 597 597 597 597
    0 0 0 0 0 0 0 0 0 0 785 778 771 766 752 747 739 727 720 713 707 688
    686 678 674 671 661 654 643 640 631 628 622 608 607 603 600 597 594
    593 577 576 576 576 576 576 577 577 577 578 579 579 580 581 581 582
    583 584 584 585 585 585 586 586 587 588 589 589 590 590 591 592 592
    592 592 593 594 594 595 596 598 598 597 597 0 0 0 0 0 0 0 0 0 0 783
    780 776 776 752 747 747 727 727 713 706 690 686 684 684 662 659 654
    643 640 632 628 624 608 607 603 600 597 594 592 577 577 576 576 576
    577 577 578 578 579 579 580 581 581 582 582 583 585 585 585 586 586
    586 587 588 588 589 589 590 590 592 593 593 593 593 593 594 594 595
    597 598 598 598 598 0 0 0 0 0 0 0 0 0 785 783 781 776 776 752 747
    747 747 747 706 706 691 687 686 686 662 658 655 644 641 632 628 624
    610 608 603 600 597 595 592 578 577 577 577 577 577 577 578 579 580
    580 581 582 582 582 583 585 585 585 585 586 586 587 588 589 590 590
    590 590 591 592 593 593 593 594 594 594 595 595 598 598 599 598 598
    0 0 0 0 0 0 0 0 0 785 783 781 778 778 778 747 747 747 733 706 706
    691 684 683 680 680 657 649 644 641 632 629 625 611 609 604 600 597
    595 595 579 578 577 577 577 578 578 580 581 581 581 582 582 582 583
    583 585 585 586 586 586 587 588 589 589 590 590 590 591 592 593 593
    594 594 595 595 595 595 595 598 598 599 599 599 0 0 0 0 0 0 0 0 0 0
    785 781 774 764 757 750 741 733 733 733 708 683 683 682 680 680 655
    648 643 641 634 629 622 612 608 603 600 598 596 595 580 578 578 578
    578 578 579 581 582 582 582 582 583 583 584 584 585 585 586 586 587
    588 589 589 590 590 590 590 592 593 593 594 594 595 596 596 596 597
    597 598 600 600 600 600 0 0 0 0 0 0 0 0 0 0 785 781 774 762 757 750
    738 725 725 725 708 706 682 680 680 680 655 648 643 642 635 629 622
    613 608 603 600 598 596 581 581 579 579 579 579 579 580 581 582 582
    583 583 583 583 584 585 586 586 586 586 588 589 590 590 590 591 591
    591 592 593 593 594 595 596 596 597 597 597 598 599 600 601 601 601
    0 0 0 0 0 0 0 0 0 0 792 781 769 762 755 752 734 725 725 707 707 704
    680 679 678 678 678 649 643 641 635 629 620 613 608 602 600 598 596
    581 581 580 580 579 579 579 580 581 582 582 583 583 583 584 585 586
    586 587 587 587 589 589 590 591 591 592 592 592 593 594 595 595 595
    596 596 597 598 598 599 600 601 601 601 601 0 0 0 0 0 0 0 0 0 0 792
    783 769 764 755 752 734 730 730 707 706 704 680 679 678 678 661 658
    643 640 634 629 619 613 608 602 600 598 596 581 581 580 580 579 579
    580 580 581 582 582 583 583 585 585 585 587 587 587 588 589 590 590
    591 591 592 592 592 593 594 595 596 596 596 597 597 598 598 599 600
    601 601 601 601 602 0 0 0 0 0 0 0 0 0 0 794 792 792 764 764 744 736
    734 734 706 704 703 682 680 679 679 661 658 650 638 634 629 619 613
    609 606 601 598 584 581 581 581 580 579 579 580 581 582 582 582 583
    584 586 585 585 587 588 588 588 589 590 590 591 592 593 593 593 593
    594 596 596 596 597 597 597 598 599 599 600 601 602 601 601 0 0 0 0
    0 0 0 0 0 0 0 796 794 794 764 764 744 738 734 734 706 704 701 683
    682 680 680 661 659 650 638 634 630 619 614 610 603 600 599 584 581
    581 581 580 580 580 581 582 582 582 583 584 585 586 586 587 587 588
    588 589 589 590 592 593 593 593 593 593 594 595 597 597 597 597 597
    598 599 599 600 601 602 603 602 602 0 0 0 0 0 0 0 0 0 0 0 0 0 789
    769 744 744 739 739 719 710 706 701 701 683 666 663 659 652 648 642
    634 628 619 613 610 603 600 599 598 581 581 581 580 580 581 582 582
    583 583 584 585 586 586 586 587 587 588 589 590 590 591 592 593 593
    593 593 593 594 596 597 597 598 598 598 599 599 600 600 601 602 603
    603 603 0 0 0 0 0 0 0 0 0 0 0 0 792 789 769 762 742 739 739 719 711
    708 704 704 686 666 663 659 652 648 644 634 628 619 613 610 606 601
    599 599 581 581 581 581 581 581 582 583 584 585 586 586 586 586 587
    587 588 589 590 590 590 591 592 593 593 593 593 594 595 596 597 597
    598 599 599 600 600 601 601 602 603 604 603 603 604 0 0 0 0 0 0 0 0
    0 0 0 789 771 767 762 742 738 731 731 711 708 707 690 686 667 666
    661 652 649 646 632 628 619 614 610 606 601 600 598 582 581 581 581
    581 582 582 583 585 586 586 586 586 586 587 588 589 589 590 590 590
    591 592 593 594 594 594 596 597 597 598 598 598 600 600 600 601 601
    602 603 604 606 604 604 604 0 0 0 0 0 0 0 0 0 803 790 789 771 767
    764 744 738 731 731 713 708 707 686 684 670 667 663 653 650 650 632
    629 621 616 612 606 602 601 585 582 581 581 581 582 582 583 584 585
    586 587 587 587 587 588 588 589 590 590 590 591 591 593 594 595 596
    596 597 597 597 598 598 599 600 601 601 601 601 602 604 606 606 606
    606 606 0 0 0 0 0 0 0 0 0 803 790 790 771 766 761 744 739 731 722
    713 710 707 686 684 680 668 666 653 650 638 635 630 621 616 613 607
    603 601 585 585 584 584 583 583 584 584 585 585 586 587 587 588 588
    589 590 590 590 591 591 591 591 594 595 596 596 596 597 597 598 598
    599 600 601 601 601 602 602 604 606 606 607 607 607 607 0 0 0 0 0 0
    0 0 815 803 800 790 771 766 759 746 741 725 722 714 710 693 690 686
    668 667 664 653 650 638 635 631 622 618 611 607 604 603 586 586 585
    584 584 584 585 586 587 587 587 587 587 588 588 589 590 590 591 591
    591 593 593 594 595 596 597 597 597 598 598 598 600 601 601 601 601
    602 602 606 606 607 607 607 607 607 0 0 0 0 0 0 0 817 805 803 800
    792 769 764 757 746 741 723 722 719 714 693 690 687 668 667 664 653
    650 638 635 631 622 616 611 607 606 604 586 586 586 585 585 585 586
    586 587 588 588 589 589 589 590 590 591 592 592 592 592 593 594 595
    596 596 597 597 597 598 598 598 600 601 602 602 602 602 604 606 607
    607 607 608 609 609 0 0 0 0 0 0 0 817 805 803 800 796 767 764 757
    752 746 723 720 717 714 693 690 690 690 667 662 653 650 638 635 632
    622 616 610 608 606 585 585 586 587 586 586 586 586 586 587 588 588
    589 589 590 591 592 592 592 593 593 593 594 595 595 596 597 597 598
    598 598 599 600 601 602 602 602 602 602 604 606 607 607 607 608 610
    0 0 0 0 0 0 0 0 817 813 803 798 796 767 766 757 752 746 746 720 717
    711 694 693 690 690 667 661 653 650 638 635 632 620 615 610 608 606
    584 584 586 586 586 586 586 586 587 587 589 589 590 590 591 592 592
    592 593 593 593 594 595 596 596 596 597 598 599 599 599 600 601 602
    602 602 602 602 603 604 607 607 608 608 608 610 0 0 0 0 0 0 0 0 0
    811 811 796 796 767 767 759 754 749 749 722 716 708 703 700 700 700
    666 661 658 654 638 636 632 619 614 611 609 606 584 584 586 586 586
    586 586 587 587 587 589 590 591 591 592 592 592 592 593 594 594 596
    597 597 597 597 598 599 600 600 600 600 602 602 602 602 603 604 604
    606 607 608 608 609 610 610 0 0 0 0 0 0 0 0 0 811 811 796 796 767
    766 761 754 742 736 736 711 707 704 693 690 690 663 662 659 657 638
    636 632 619 614 611 609 606 604 586 586 586 587 587 587 588 588 588
    589 591 592 593 593 593 592 592 594 594 595 596 597 598 598 598 599
    600 601 601 601 602 603 603 603 603 604 606 606 607 608 609 610 610
    610 610 611 613 0 0 0 0 0 0 0 821 796 796 794 767 766 761 754 742
    734 730 711 707 704 693 690 690 663 662 659 657 641 637 632 629 614
    612 609 606 604 586 586 586 587 588 588 589 589 589 590 592 592 593
    593 593 593 593 594 595 595 597 598 598 598 598 600 601 601 601 602
    602 603 604 604 606 606 606 607 608 608 610 610 610 611 611 611 613
    0 0 0 0 0 0 823 821 809 796 789 771 767 759 750 742 731 727 720 708
    704 693 690 690 664 662 659 659 642 636 632 630 625 613 609 607 604
    588 587 587 588 588 589 589 589 589 591 592 593 593 593 593 593 594
    595 596 596 597 598 598 598 600 601 601 601 602 602 602 603 604 606
    606 607 607 608 609 610 611 611 611 611 611 611 0 0 0 0 0 0 0 823
    819 809 794 787 776 769 759 750 742 730 725 720 710 704 693 690 690
    666 663 661 661 638 636 632 629 622 622 609 607 604 589 588 588 589
    589 589 590 590 590 591 592 593 594 594 594 595 595 596 596 597 597
    598 598 599 600 601 601 602 602 603 603 604 606 606 607 607 608 609
    610 610 611 611 612 612 614 0 0 0 0 0 0 0 0 823 819 809 792 787 778
    769 757 754 741 730 725 720 714 708 693 690 690 667 663 661 661 638
    636 632 629 621 614 609 607 604 589 588 588 589 589 590 590 591 591
    592 593 593 594 594 594 595 596 596 597 597 598 598 598 599 601 601
    602 602 603 603 604 606 606 607 607 609 609 610 610 611 611 612 613
    614 614 0 0 0 0 0 0 0 0 825 821 805 792 787 780 773 757 754 736 730
    723 720 714 708 693 693 693 668 667 661 661 638 637 635 629 621 614
    610 607 604 589 589 589 589 590 590 591 591 591 593 593 593 594 594
    595 596 596 597 597 597 598 598 599 600 601 602 602 602 603 604 606
    606 606 607 608 610 610 611 611 611 612 613 614 614 614 0 0 0 0 0 0
    0 0 827 821 805 794 787 780 773 762 754 736 730 723 720 711 698 694
    694 676 671 667 661 649 638 637 635 629 620 614 610 607 607 589 589
    589 590 590 591 592 592 592 593 593 594 594 595 596 597 597 597 598
    598 598 599 600 601 602 602 602 603 606 606 607 607 607 608 609 610
    611 611 611 611 613 614 614 614 614 0 0 0 0 0 0 0 0 827 821 815 794
    785 778 774 762 754 738 731 727 719 711 698 694 693 674 671 667 657
    649 643 638 636 630 618 614 611 607 607 590 589 589 590 590 591 593
    593 594 594 595 595 595 596 597 597 597 598 598 599 600 600 600 601
    602 603 603 604 606 607 607 607 608 609 610 611 611 611 611 613 614
    614 614 614 614 0 0 0 0 0 0 0 0 0 0 0 0 785 778 774 767 754 736 731
    727 719 711 698 694 693 674 671 667 657 649 646 642 637 632 618 614
    612 607 606 593 591 591 591 591 592 594 594 595 595 595 596 596 596
    597 597 598 598 599 599 600 600 600 601 603 603 606 606 607 607 608
    608 609 610 611 611 611 611 612 613 614 614 615 614 614 0 0 0 0 0 0
    0 0 0 0 0 0 789 778 773 764 754 736 733 728 719 711 698 693 693 674
    671 667 659 652 646 642 637 632 619 614 612 607 595 593 592 592 592
    592 593 594 594 595 595 596 596 596 597 597 598 598 599 599 600 600
    600 601 603 604 606 606 607 607 607 608 609 609 610 611 611 612 612
    613 614 614 615 615 615 615 0 0 0 0 0 0 0 2503 0 0 0 794 789 783 773
    764 754 741 734 728 722 714 710 693 693 674 671 668 661 652 647 642
    637 631 620 615 613 608 595 593 592 592 593 593 594 595 595 596 596
    596 597 597 598 598 598 600 600 600 601 601 601 602 604 606 607 607
    607 608 608 609 609 610 610 611 612 612 613 613 614 614 615 615 615
    0 0 0 0 0 0 0 0 2503 0 0 0 794 787 781 771 766 755 742 736 728 723
    717 717 694 694 674 672 668 657 650 647 643 638 627 621 619 616 616
    595 593 593 593 593 594 594 595 595 596 596 596 597 597 598 598 599
    600 601 601 601 602 602 603 606 606 607 607 607 608 609 609 610 610
    611 611 612 613 613 614 614 615 615 615 615 0 0 0 0 0 0 0 0 2503 0 0
    0 794 787 781 771 766 755 741 736 728 719 717 701 701 701 678 672
    668 657 648 646 644 638 625 622 620 618 618 595 594 593 593 594 594
    595 596 596 597 597 597 597 598 599 600 600 601 601 601 602 602 603
    604 606 607 607 607 608 608 609 610 610 611 611 611 612 613 614 614
    615 615 615 615 615 0 0 0 0 0 0 0 0 2485 0 0 0 796 789 783 771 766
    755 741 736 728 719 707 701 701 701 678 674 670 662 648 646 644 638
    625 622 621 618 597 595 594 594 594 594 595 595 597 597 598 597 597
    598 599 600 600 601 601 601 602 602 603 604 604 606 607 607 608 609
    610 610 610 611 611 612 612 612 613 614 614 615 616 616 616 618 0 0
    0 0 0 0 0 0 2450 0 0 0 0 790 783 774 766 755 741 736 730 727 706 701
    701 701 678 674 671 661 648 647 643 640 625 622 619 616 597 596 595
    595 595 595 595 596 597 598 598 598 600 600 601 601 601 601 601 602
    602 603 603 604 606 607 608 608 609 610 610 611 611 612 612 612 612
    613 614 614 615 615 618 618 619 620 0 0 0 0 0 0 0 0 2432 0 0 0 0 0
    781 774 766 755 741 736 731 727 706 700 700 701 678 672 671 652 648
    647 642 638 627 622 619 615 614 597 596 596 596 596 596 597 597 598
    599 599 600 600 601 601 601 602 603 603 604 604 604 606 606 608 609
    610 610 611 611 611 612 612 613 613 613 614 615 615 616 618 619 619
    619 620 0 0 0 0 0 0 0 0 2415 0 0 0 0 0 781 774 767 767 741 736 731
    727 704 700 700 700 700 672 671 652 650 647 642 638 627 623 619 615
    597 597 596 596 596 597 597 598 598 598 599 600 601 601 601 601 602
    602 603 603 604 606 606 607 608 609 610 610 610 611 611 612 613 613
    614 614 614 615 615 616 618 619 619 620 620 620 0 0 0 0 0 0 0 0 2381
    0 0 0 794 794 780 774 771 767 738 734 731 723 704 700 700 700 700
    672 670 653 650 649 642 629 628 623 619 615 597 597 597 597 597 597
    598 598 599 599 600 601 601 601 602 602 602 603 604 604 606 606 607
    607 608 610 610 611 611 612 612 613 614 614 615 615 615 615 616 616
    618 619 620 620 620 620 0 0 0 0 0 0 0 2365 2365 0 0 796 794 789 778
    774 771 767 738 734 731 722 711 701 701 703 682 672 670 653 650 649
    643 629 627 624 619 615 597 597 597 597 597 598 598 598 599 600 601
    601 602 602 602 602 603 604 606 606 606 607 607 607 609 610 611 611
    611 612 613 614 615 615 616 616 616 616 616 618 619 620 620 620 621
    0 0 0 0 0 0 0 0 2365 2365 0 0 796 792 787 778 774 769 769 739 733
    728 720 711 706 703 683 680 674 668 654 652 649 644 628 625 624 620
    616 615 613 598 598 598 598 598 598 600 600 602 602 602 602 602 603
    604 606 607 607 607 607 607 608 609 611 611 611 612 613 614 615 615
    615 616 618 618 618 619 619 619 620 621 621 620 620 0 0 0 0 0 0 0
    1785 1785 0 0 0 792 785 780 771 769 769 741 731 728 720 717 707 704
    683 680 678 668 657 652 650 646 628 625 623 621 618 614 610 600 599
    598 598 598 599 601 601 602 602 602 603 603 604 606 607 607 607 607
    608 609 609 610 611 611 611 612 614 615 615 615 616 616 618 619 619
    620 620 621 621 621 621 620 620 0 0 0 0 0 0 1785 1776 1776 0 0 0 0
    783 783 771 771 771 741 731 728 720 717 707 704 683 682 679 675 657
    652 650 644 628 624 623 620 618 614 610 601 599 599 599 599 600 601
    601 602 602 602 603 603 604 606 607 607 608 608 609 610 610 611 611
    612 612 614 615 615 616 616 616 618 618 619 620 621 621 622 623 623
    622 622 0 0 0 0 0 0 0 1785 1766 1757 0 0 0 0 783 783 783 761 744 744
    734 728 719 711 707 704 684 682 679 675 659 653 652 644 629 624 623
    620 618 614 612 601 599 599 600 600 601 602 602 602 603 603 603 604
    606 607 607 608 609 610 610 610 611 611 612 612 613 615 615 616 618
    618 618 619 619 619 620 622 622 623 624 624 623 623 625 0 0 0 0 0 0
    1785 1748 1748 0 0 0 0 0 0 0 761 761 744 738 728 719 710 707 704 686
    683 679 672 659 653 650 647 632 627 623 620 618 614 612 601 599 599
    600 600 601 602 603 603 604 604 606 607 607 608 608 608 610 610 610
    611 611 611 612 612 614 615 616 616 618 618 619 619 620 620 621 622
    623 623 624 624 624 624 625 0 0 0 0 0 0 1739 1731 1731 0 0 0 0 0 0 0
    759 750 744 738 731 727 708 707 696 688 684 676 671 662 653 649 647
    634 627 623 620 618 615 612 601 600 600 601 601 602 603 603 604 606
    606 606 607 608 609 609 609 610 610 611 611 611 612 613 613 614 615
    616 618 619 619 620 620 620 621 622 622 623 623 624 625 625 627 627
    0 0 0 0 0 1713 1713 1713 1713 0 0 0 0 0 0 0 759 750 744 738 731 727
    708 707 696 688 686 676 668 663 657 649 647 634 629 623 620 619 616
    603 602 600 600 601 601 602 604 604 606 606 607 607 608 609 609 610
    610 610 611 611 611 612 612 613 614 615 616 618 618 619 619 620 621
    621 622 622 623 623 624 624 625 627 628 0 0 0 0 0 0 1705 1705 1705
    1705 0 0 0 0 0 0 0 761 750 744 738 734 727 710 710 690 688 686 678
    667 662 659 650 646 634 629 624 621 619 616 603 602 600 600 601 602
    604 606 606 606 606 607 608 609 610 610 611 611 611 611 612 612 613
    613 614 615 616 618 619 619 619 620 621 622 622 623 623 623 624 624
    625 628 628 629 0 0 0 0 0 1713 1705 1705 1705 1705 0 0 0 0 0 0 0 0
    750 742 741 734 727 719 713 688 687 684 679 667 662 657 650 646 635
    629 624 622 621 618 604 602 601 601 602 603 606 606 606 607 607 608
    608 609 610 610 611 611 612 613 613 613 614 614 615 615 618 619 620
    620 620 621 622 622 623 623 623 624 625 627 628 628 629 0 0 0 0 0 0
    1713 1705 1705 1705 1705 0 0 0 0 0 0 0 0 0 741 741 739 727 711 710
    688 687 684 679 667 662 657 653 647 635 631 625 623 621 607 604 602
    601 601 603 604 606 607 607 607 608 608 609 610 610 610 611 612 613
    613 614 614 615 615 615 616 619 620 620 620 621 621 622 623 623 623
    624 624 627 627 628 628 628 0 0 0 0 0 0 1713 1705 1705 1705 1705
    1863 0 0 0 0 0 0 0 0 741 739 739 725 711 710 710 687 684 679 671 661
    657 654 647 635 631 627 624 622 607 606 602 602 603 604 606 607 607
    607 608 608 608 609 610 611 611 612 612 614 614 614 614 615 615 615
    618 620 620 621 621 622 622 622 623 623 624 625 627 628 628 628 628
    628 0 0 0 0 0 1722 1713 1705 1705 1705 1705 1853 0 0 0 0 0 0 0 0 741
    739 728 723 711 707 704 704 683 679 671 661 657 654 647 635 631 629
    627 627 607 606 604 603 603 604 606 607 607 609 609 609 610 610 611
    611 611 612 612 614 614 615 615 615 615 616 619 620 620 621 622 623
    623 623 623 624 625 627 627 628 628 628 629 0 0 0 0 0 1731 1722 1713
    1713 1713 1713 1713 1843 0 0 0 0 0 0 0 0 0 0 728 723 711 706 704 704
    683 675 671 663 658 654 647 635 631 629 627 627 627 606 604 604 604
    606 606 607 608 609 610 610 610 611 611 611 612 612 613 614 614 615
    615 616 616 619 619 620 620 621 622 623 623 624 624 625 627 628 628
    628 629 629 0 0 0 0 0 0 1731 1722 1713 1713 1713 1713 1713 1823 1823
    0 0 0 0 0 0 0 0 0 727 722 711 704 703 700 700 674 670 663 659 654
    647 635 631 629 627 627 608 606 604 604 604 606 606 607 608 610 611
    611 611 611 611 611 612 612 613 614 615 615 615 616 618 619 620 620
    621 621 622 623 624 624 625 627 627 628 628 629 629 629 0 0 0 0 0 0
    1731 1731 1722 1722 1731 1713 1713 1813 1813 0 0 0 0 0 0 0 0 0 727
    722 719 701 701 700 700 674 667 664 661 654 647 635 632 629 627 623
    608 606 604 604 604 606 606 607 609 611 611 611 611 612 613 613 613
    613 614 615 615 616 616 618 619 620 620 621 622 622 623 623 624 625
    627 627 628 628 629 629 630 630 0 0 0 0 0 0 1739 1731 1731 1731 1722
    1722 1722 1804 1804 0 0 0 0 0 0 0 0 0 0 723 723 700 700 698 698 672
    664 664 659 654 649 635 632 629 627 623 609 607 606 606 606 607 607
    609 611 611 611 612 612 612 614 614 614 614 615 616 616 618 618 619
    619 620 621 622 622 622 623 624 625 625 627 628 628 629 629 630 630
    630 0 0 0 0 0 0 1739 1739 1731 1731 1722 1722 1713 1794 1785 1785 0
    0 0 0 0 0 0 0 0 0 0 700 698 697 694 672 664 664 659 654 650 635 632
    629 627 625 610 607 606 606 606 607 609 610 611 612 612 613 613 614
    614 614 615 615 615 618 618 619 619 620 620 622 623 623 623 623 623
    625 627 627 628 628 629 629 630 630 630 631 0 0 0 0 0 0 1731 1731
    1739 1722 1722 1722 1713 1794 1785 1785 0 0 0 0 0 0 0 0 0 0 0 0 698
    694 691 688 664 661 658 654 652 634 631 629 627 610 610 607 607 607
    607 609 610 610 611 613 613 613 613 614 614 614 615 616 616 619 619
    619 620 621 622 623 623 623 624 624 624 627 628 628 628 628 629 629
    630 631 631 631 0 0 0 0 0 0 1731 1731 1739 1722 1722 1722 1713 1776
    1776 1785 0 0 0 0 0 0 0 0 0 0 0 0 698 694 690 688 688 659 657 655
    652 634 631 629 627 610 610 608 608 608 608 610 610 611 611 613 613
    613 614 614 615 615 615 618 618 619 619 620 621 622 623 623 623 624
    624 625 627 629 629 629 629 629 629 630 630 631 632 632 0 0 0 0 0 0
    1731 1731 1739 1722 1722 1722 1713 1757 1757 1785 0 0 0 0 0 0 0 0 0
    0 0 0 698 694 690 690 690 659 657 654 647 641 631 629 627 625 610
    609 609 609 609 610 610 611 611 614 614 614 614 615 615 615 616 619
    619 619 620 620 621 623 623 623 624 624 625 627 627 629 629 629 630
    630 630 630 631 632 634 635 637 0 0 0 0 0 1731 1731 1731 1731 1722
    1722 1722 1739 1739 1739 0 0 0 0 0 0 0 0 0 0 771 771 771 693 690 687
    687 687 658 648 647 641 635 629 627 625 610 609 609 609 609 611 611
    612 613 614 614 614 615 615 616 616 618 619 620 620 620 621 622 623
    623 624 624 625 625 627 628 629 630 631 631 631 632 632 632 634 634
    636 637 0 0 0 0 0 1739 1731 1731 1731 1722 1722 1722 1722 1731 1739
    0 0 0 0 0 0 0 0 0 0 771 769 769 693 690 679 679 679 648 648 644 641
    634 631 628 625 611 610 610 610 610 611 612 613 614 615 615 615 615
    616 616 618 619 620 620 620 620 621 623 624 624 625 625 625 627 627
    628 629 630 631 632 632 632 634 634 635 636 637 637 0 0 0 0 0 0 1731
    1731 1739 1731 1731 1731 1713 1731 1739 1739 802 802 802 802 803 0 0
    0 0 771 769 769 690 686 679 679 679 648 648 644 641 634 631 629 627
    612 610 610 610 611 611 612 614 614 615 615 615 615 618 618 619 620
    620 620 621 622 622 623 624 625 625 625 627 627 628 628 630 631 632
    632 632 632 634 634 636 636 637 637 0 0 0 0 0 0 0 0 1696 1680 1722
    1722 1713 1713 796 796 798 798 800 800 800 802 800 800 803 771 771
    771 690 679 679 676 676 676 676 641 641 634 631 629 628 613 612 611
    611 611 612 613 614 615 615 615 616 616 618 618 619 620 620 621 622
    622 623 623 624 625 625 625 627 627 628 629 631 632 632 632 632 634
    634 635 636 637 637 637 0 0 0 0 0 0 1696 1696 1696 1680 1688 1688
    796 796 794 794 796 796 796 796 796 796 794 792 792 773 771 771 774
    678 678 676 676 676 0 641 641 632 631 629 628 612 612 611 611 611
    612 614 615 615 616 616 618 618 619 619 620 620 621 622 622 622 623
    623 624 625 625 625 627 628 629 630 632 632 632 632 634 635 635 636
    637 637 638 638 0 0 0 0 0 1671 1671 1680 1680 1680 1688 1688 0 796
    794 794 792 792 792 790 790 790 790 790 789 774 773 773 774 676 676
    676 678 678 0 642 642 632 631 629 613 612 612 612 612 612 613 614
    615 616 616 618 618 619 619 620 620 621 621 622 623 623 624 624 625
    625 625 627 628 629 630 631 632 632 632 632 634 635 636 636 637 638
    638 0 0 0 0 0 0 1671 1671 1671 1671 1671 1680 1680 0 794 792 790 789
    787 785 785 785 787 787 785 783 776 776 776 776 676 676 676 676 676
    641 636 636 632 631 629 613 613 613 613 612 612 613 615 615 616 618
    619 619 619 620 620 620 621 621 622 623 623 624 625 627 627 628 628
    628 629 630 632 632 632 634 634 636 636 637 637 637 638 638 640 0 0
    0 0 0 1680 1671 1663 1663 1671 1671 1671 0 792 792 789 785 783 781
    781 781 781 783 783 780 776 776 776 776 780 778 778 778 774 641 641
    636 632 631 627 614 613 613 613 613 613 613 616 616 618 619 619 619
    620 620 620 621 621 622 622 623 624 624 625 627 627 628 629 629 630
    630 632 632 634 634 635 636 637 637 637 638 638 638 640 0 0 0 0 0 0
    1647 1647 1655 1655 1663 1671 796 792 790 785 781 780 780 780 780
    780 778 778 780 776 776 776 778 776 776 774 774 774 641 641 637 634
    629 623 618 614 614 613 613 613 614 618 618 619 619 619 620 620 621
    621 621 622 622 622 624 624 625 625 627 627 628 629 629 630 631 632
    634 634 635 636 637 637 637 638 638 640 640 640 0 0 0 0 0 0 1639
    1639 1647 1647 1655 1663 796 794 790 783 778 774 774 774 773 773 773
    773 773 774 773 773 773 773 773 774 774 774 774 637 637 635 627 622
    619 616 614 614 614 614 614 618 619 619 619 620 620 620 621 622 622
    622 622 623 624 624 627 627 628 628 629 629 629 630 631 634 635 635
    636 637 637 638 638 640 641 641 640 640 0 0 0 0 0 0 1624 1624 1624
    1624 1632 1624 803 798 790 781 776 773 769 769 769 769 769 769 769
    771 771 769 769 769 769 769 773 773 771 636 636 634 627 622 619 618
    616 614 614 614 615 619 619 619 619 620 621 621 622 622 623 623 623
    624 625 627 628 628 628 629 630 630 630 631 634 635 636 636 637 637
    638 640 640 640 641 642 641 641 0 0 0 0 0 0 1616 1616 1616 1616 1616
    1609 803 802 789 778 771 766 764 764 764 764 766 767 767 769 767 767
    766 764 764 766 769 771 771 638 636 634 627 624 619 618 618 615 615
    615 616 619 619 619 619 620 621 621 622 622 623 624 624 625 627 628
    628 628 628 630 631 631 631 632 634 635 636 636 637 638 638 640 640
    641 642 642 641 641 0 0 0 0 0 1616 1616 1616 1616 1616 1609 1609 805
    802 789 778 766 762 761 761 761 761 761 766 766 767 766 764 762 762
    762 762 766 771 771 638 636 634 628 625 620 618 618 618 616 616 619
    620 620 620 620 620 621 621 622 623 624 624 625 627 628 628 628 628
    630 630 631 631 632 632 635 635 636 637 637 638 638 640 642 642 642
    642 642 0 0 0 0 0 0 1609 1609 1609 1609 1609 1609 1601 813 813 790
    789 764 761 759 759 757 755 755 755 755 755 757 757 757 757 759 759
    762 762 638 638 636 635 630 625 620 619 618 618 616 616 620 620 621
    621 621 622 622 623 624 624 624 625 627 628 628 628 629 629 631 631
    631 631 632 634 635 636 637 637 638 638 640 641 642 642 643 643 643
    0 0 0 0 0 0 1609 1609 1609 1609 1601 1601 1601 796 796 790 789 764
    761 757 755 754 752 752 752 750 750 752 752 752 752 750 749 749 749
    749 635 635 635 632 628 622 620 619 619 618 618 620 620 621 622 622
    622 622 623 624 627 627 627 628 628 629 629 629 631 632 632 632 632
    632 634 636 637 637 638 638 638 641 642 643 643 643 643 643 0 0 0 0
    0 0 1609 1594 1594 1594 1594 1594 1594 0 796 792 789 764 759 755 754
    750 749 749 749 747 747 749 749 749 749 749 747 747 747 0 634 634
    634 632 628 621 620 619 619 619 619 621 621 623 623 623 623 623 624
    624 627 627 628 629 629 630 630 630 631 632 632 632 632 634 636 637
    637 638 638 640 640 641 642 643 643 643 643 643 0 0 0 0 0 1586 1579
    1579 1579 1579 1586 1586 1586 0 794 794 794 778 759 755 750 747 746
    746 744 744 742 742 742 746 746 742 742 742 742 0 634 634 632 631
    627 621 620 619 619 619 619 622 622 623 623 623 623 623 624 625 628
    628 628 629 629 630 630 632 632 632 632 632 634 635 636 636 637 638
    638 641 641 641 642 643 643 643 644 0 0 0 0 0 0 1586 1579 1579 1579
    1579 1579 1579 1579 0 0 0 0 778 757 755 750 746 744 742 742 741 739
    739 741 741 741 741 741 742 0 0 0 0 631 631 627 621 620 619 619 619
    620 623 623 623 623 623 624 624 625 627 628 628 629 629 630 630 632
    632 632 634 634 634 634 635 636 636 637 638 638 641 641 641 642 643
    0 0 0 0 0 0 0 0 0 0 1579 1579 1579 1579 1572 1564 1564 0 0 0 0 0 755
    754 749 742 741 739 738 738 736 736 738 738 736 736 736 742 0 0 0 0
    631 631 624 621 620 620 619 619 620 623 623 623 623 624 624 624 625
    628 629 629 629 629 630 631 634 632 632 634 634 634 636 636 0 0 0 0
    642 642 642 642 0 0 0 0 0 0 0 0 0 0 0 0 1579 1579 1579 1579 1564
    1557 1550 0 0 0 0 0 752 752 747 741 736 734 734 734 734 734 733 733
    733 733 734 0 0 0 0 0 0 0 624 622 621 620 619 619 621 623 623 623
    623 624 624 625 627 628 630 629 629 630 631 632 635 635 634 634 0 0
    0 0 0 0 0 0 0 0 0 0 0 0 0 0 0 0 0 0 0 0 0 0 0 1586 1586 1579 1564
    1550 1543 0 0 0 0 0 752 747 746 741 734 733 731 731 731 730 730 730
    730 730 730 0 0 0 0 0 0 0 0 0 622 620 620 620 621 623 623 623 623
    624 624 625 0 0 0 0 0 0 0 0 0 0 0 0 0 0 0 0 0 0 0 0 0 0 0 0 0 0 0 0
    0 0 0 0 0 0 0 0 0 0 0 0 0 1550 1536</data></Depth17284>
</opencv_storage>
