<?xml version="1.0"?>
<opencv_storage>
<Depth14233 type_id="opencv-matrix">
  <rows>12</rows>
  <cols>35</cols>
  <dt>w</dt>
  <data>
    5210 5132 5132 5132 5132 5132 5132 5132 5132 5132 4983 4983 5056
    5056 5056 4983 4911 4842 4774 4774 4842 4911 4911 4911 4842 4842
    4842 4842 3692 3692 3692 3653 3614 3614 3576 5210 5132 5132 5132
    5132 5132 5132 5132 5132 5132 5056 4983 4983 5056 5056 5056 4911
    4842 4774 4774 4842 4911 3653 3653 3653 3653 3653 3692 3692 3692
    3692 3653 3614 3614 3576 5132 5132 5056 5056 5132 5210 5374 5374
    5210 5132 5056 4983 3948 3948 3994 3948 3903 3903 3903 3816 3816
    3774 3653 3653 3653 3653 3653 3692 3692 3692 3692 3653 3614 3614
    3576 5132 5132 4089 4089 4089 4089 4041 4041 3994 3994 3994 3948
    3948 3948 3948 3903 3859 3859 3816 3816 3774 3774 3692 3653 3653
    3653 3653 3692 3653 3653 3653 3614 3614 3614 3576 2116 4139 4089
    4089 4089 4089 4041 4041 3994 3948 3948 3948 3948 3948 3948 3903
    3859 3859 3816 3816 3774 3774 3774 3732 3732 3692 3692 3692 3653
    3653 3653 3614 3614 3614 3614 2103 4139 4089 4089 4089 4089 4041
    4041 3994 3948 3948 3948 3948 3948 3948 3948 3903 3859 3816 3816
    3774 3774 3774 3774 3732 3732 3732 3692 3653 3653 3653 3614 3614
    3614 3614 2103 4139 4139 4089 4089 4089 4041 4041 3994 3994 3994
    3948 3948 3948 3948 3948 3903 3903 3859 3816 3816 3816 3816 3774
    3774 3732 3732 3692 3653 3653 3653 3614 3614 3614 3614 4190 4139
    4139 4139 4089 4089 4089 4041 4041 3994 3994 3994 3948 3948 3948
    3948 3903 3903 3859 3816 3816 3816 3816 3774 3774 3732 3692 3653
    3653 3653 3653 3614 3614 3614 3614 4190 4139 4139 4139 4089 4089
    4089 4041 4041 4041 3994 3994 3948 3948 3948 3948 3903 3903 3903
    3816 3816 3816 3774 3774 3774 3732 3692 3653 3653 3653 3692 3692
    3692 3774 0 4190 4139 4139 4139 4089 4089 4089 4041 3994 3994 3994
    3994 3994 3994 3948 3948 3948 3948 3859 3816 3816 3816 3774 3774
    3774 3692 3653 3653 3653 0 0 0 0 0 0 4190 4190 4139 4139 4089 4089
    4089 4041 3994 3994 3994 3994 3994 3994 3948 3948 3948 3948 3859
    3816 3816 3816 3774 3774 3774 3692 3653 3653 3653 2241 0 0 0 0 0
    4190 4190 4139 4139 4089 4089 4089 4041 3994 3994 3994 3948 3948
    3994 3948 3948 3948 3948 3948 3859 3816 3816 3774 3774 3774 3774
    2241 2241 2241 0 0 0 0 0 0</data></Depth14233>
</opencv_storage>
