<?xml version="1.0"?>
<opencv_storage>
<Depth11705 type_id="opencv-matrix">
  <rows>19</rows>
  <cols>62</cols>
  <dt>w</dt>
  <data>
    3859 3859 3859 3816 3774 3774 3732 3732 3732 3732 3732 3732 3732
    3692 3692 3692 3732 3732 3692 3692 3692 3692 3732 3732 3774 3774
    3774 3774 3774 3774 3816 3859 3859 3859 3859 3859 3859 3859 3859
    3994 4089 4089 4089 4041 4041 4041 4041 4041 4190 4190 3149 3120
    3120 3120 3120 3120 3092 3064 3064 3064 3064 1483 3859 3816 3816
    3816 3774 3732 3692 3692 3692 3692 3692 3692 3692 3692 3692 3692
    3692 3692 3692 3692 3692 3692 3692 3692 3732 3732 3732 3774 3774
    3774 3859 3859 3859 3859 3859 3859 3859 3859 2908 2908 4139 2984
    2984 3064 3037 3037 3064 3064 3092 3092 3064 3064 3092 3092 3092
    3120 3092 3064 3064 3064 3064 3064 3774 3774 3774 3732 3732 3692
    3653 3653 3653 3653 3653 3653 3692 3692 3692 3692 3692 3692 3692
    3692 3692 3692 3692 3692 3037 3037 3732 2984 2984 3010 3010 3010
    3010 3010 3010 3010 2984 2958 2908 2908 2984 2984 2984 3064 3037
    3037 3064 3064 3037 3037 3037 3037 3064 3064 3064 3092 3064 3064
    3064 3064 3064 3064 3692 3692 3692 3692 3692 3692 3653 3653 3653
    3653 3653 3653 3692 3692 3692 3692 3692 3692 3692 3692 3692 2958
    2958 3037 3037 2958 2958 2958 2958 2984 3010 3010 3010 3010 3010
    3010 2984 2958 2958 2958 2984 2984 2984 3037 3037 2958 2958 2958
    3010 3037 3037 3037 3064 3064 3064 3092 3064 3064 3064 3064 3092
    3092 3653 3653 3653 3653 3653 3692 3653 3653 3614 3614 3653 3653
    3692 3692 3692 3692 3692 3692 3692 3692 3692 2958 2958 3010 3010
    2958 2958 2958 2958 2984 2984 2984 3010 3010 3010 3010 3010 3010
    3010 3010 2958 2958 3010 3010 3037 2958 2958 2958 3010 3037 3037
    3037 3064 3037 3037 3064 3064 3064 3064 3064 3064 3120 3653 3653
    3653 3653 3653 3692 3653 3653 3614 2933 2933 2933 2958 2958 2984
    2908 2908 2908 2908 2908 2933 2933 2933 2958 2958 2933 2933 2933
    2958 2958 2984 2984 2984 2984 2984 2984 2984 3010 3010 3010 2958
    2958 3010 3010 3010 3037 3037 3037 3037 3037 3037 3037 3064 3037
    3037 3064 3064 3064 3064 3064 3064 3120 3653 3653 3653 2984 2984
    3653 3692 3692 2933 2933 2908 2908 2933 2933 2958 2908 2883 2883
    2908 2908 2908 2933 2933 2933 2933 2933 2933 2933 2958 2958 2984
    2984 2984 2984 2984 2958 2958 2984 3010 3010 3010 3037 3037 3010
    3010 3037 3037 3037 3037 3064 3064 3064 3064 3037 3037 3037 3064
    3064 3064 3064 3064 3092 2933 2933 2933 2933 2933 3653 3653 2984
    2984 2933 2908 2908 2933 2933 2933 2908 2859 2859 2859 2908 2908
    2908 2933 2933 2933 2933 2933 2933 2958 2958 2984 2984 2984 2984
    2984 2958 2958 2984 2984 3010 3010 3037 3037 3037 3037 3037 3037
    3037 3037 3037 3064 3064 3064 3037 3037 3037 3037 3064 3064 3064
    3064 3064 2933 2933 2933 2908 2908 2908 2908 2984 2984 2883 2883
    2908 2908 2908 2908 2883 2859 2859 2859 2908 2908 2908 2933 2933
    2958 2933 2933 2958 2958 2958 2958 2984 2984 2984 2984 2984 2984
    2984 2984 3010 3010 3037 3037 3037 3037 3037 3037 3037 3037 3037
    3037 3037 3064 3064 3064 3037 3037 3037 3037 3064 3037 3037 2908
    2908 2908 2908 2908 2908 2908 2908 2859 2859 2859 2908 2908 2908
    2908 2883 2883 2883 2883 2908 2908 2908 2933 2933 2958 2933 2933
    2958 2958 2958 2958 2984 2984 2984 2984 2984 2984 3010 3010 3010
    3010 3037 3037 3037 3037 3037 3037 3037 3037 3037 3037 3037 3064
    3064 3037 3037 3037 3037 3037 3064 3037 3037 2908 2908 2908 2908
    2908 2908 2908 2908 2859 2859 2859 2908 2908 2908 2908 2883 2883
    2908 2908 2908 2933 2908 2908 2933 2958 2933 2933 2958 2958 2958
    2984 2984 3010 3010 3010 3010 3010 3010 3010 3010 3010 3037 3037
    3037 3037 3037 3037 3037 3037 3037 3037 3064 3064 0 3037 3037 3037
    3037 3037 0 0 0 2883 2883 2883 2908 2908 2908 2908 2908 2908 2883
    2883 2908 2908 2908 2908 2908 2908 2908 2908 2933 2933 2908 2908
    2933 2958 2958 2958 2958 2958 2958 3010 3010 3010 2984 2984 2984
    2984 3010 3010 3037 3010 3010 3010 3010 3037 3037 3037 2984 2984
    3037 3037 0 0 0 0 0 0 0 0 0 0 0 2883 2859 2859 2859 2859 2859 2933
    2933 2908 2908 2908 2908 2908 2908 2908 2908 2933 2933 2933 2933
    2933 2908 2908 2933 2958 2958 2984 2958 2958 2984 3010 3037 3010
    2984 2984 2958 2958 2984 3010 3010 2984 2958 2958 3010 0 0 0 2984
    2984 3037 0 0 0 0 0 0 0 0 0 0 0 0 2859 2812 2812 2812 2812 2812 2933
    2933 2933 2908 2908 2908 2908 2908 2908 2908 2933 2933 2933 2933
    2933 2908 2908 2933 2984 2984 2984 2984 2984 3010 3037 3010 2984
    2984 2958 2958 2958 2984 3010 3010 2984 2883 2883 0 0 0 0 0 0 0 0 0
    0 0 0 0 0 0 0 0 0 0 2789 2767 2767 2767 2767 2767 2933 2933 2933
    2933 2908 2908 2908 2908 2908 2933 2933 2933 2933 2933 2933 2933
    2933 2958 2984 2984 2984 2984 2984 3010 3010 2958 2958 2984 2958
    2958 2984 2984 0 0 0 2883 2883 0 0 0 0 0 0 0 0 0 0 0 0 0 0 0 0 0 0 0
    2789 2767 2767 2767 2767 2767 2812 2908 2908 2933 2908 2908 2908
    2908 2908 2933 2933 2933 2908 2908 2908 2908 2933 2984 2984 3037
    3037 3037 3010 2958 2958 2958 2958 0 0 0 0 0 0 0 0 0 0 0 0 0 0 0 0 0
    0 0 0 0 0 0 0 0 0 0 0 0 2789 2789 2767 2767 2767 2767 2812 2908 2908
    2933 2933 2933 2908 2908 2908 2933 2933 2933 2908 2908 2908 2908
    2933 2984 2984 3037 0 0 3010 2958 2958 2958 0 0 0 0 0 0 0 0 0 0 0 0
    0 0 0 0 0 0 0 0 0 0 0 0 0 0 0 0 0 0 2789 2789 2789 0 0 2812 2812
    2859 2933 2933 2933 2933 2908 2908 2908 2933 2933 2958 2933 2908
    2908 2908 2958 3010 3010 3037 0 0 0 0 0 0 0 0 0 0 0 0 0 0 0 0 0 0 0
    0 0 0 0 0 0 0 0 0 0 0 0 0 0 0 0 0 2812 0 0 0 0 2812 2812 2835 2908
    2933 2984 0 0 0 0 0 0 2984 2984 0 0 0 0 0 0 0 0 0 0 0 0 0 0 0 0 0 0
    0 0 0 0 0 0 0 0 0 0 0 0 0 0 0 0 0 0 0 0 0 0 0 0 0</data></Depth11705>
</opencv_storage>
