<?xml version="1.0"?>
<opencv_storage>
<Depth17363 type_id="opencv-matrix">
  <rows>90</rows>
  <cols>54</cols>
  <dt>w</dt>
  <data>
    4041 4041 4089 4089 4139 4139 1189 1189 1189 1193 1197 4139 4139
    1214 1214 4241 4241 4241 4349 4349 4349 4349 4349 4405 4405 4463
    4463 4522 4522 4522 4522 4522 4582 4582 4582 4582 4522 4522 4522
    4522 4522 4522 4463 4463 4405 4405 4405 4349 4349 4349 4349 4349
    4349 4295 4041 4041 4089 4089 4139 1189 1189 1189 1189 1193 1197
    1210 1214 1214 1210 1210 1210 1210 1210 1210 1210 1210 1210 4405
    4405 4463 4463 4522 4522 4522 4522 4582 4582 4582 4582 4582 4522
    4522 4522 4522 4522 4522 4463 4463 4405 4405 4405 4349 4349 4349
    4349 4349 4349 4295 4041 4041 4089 1193 1193 1189 1189 1185 1185
    1189 1193 1206 1206 1210 1206 1206 1206 1206 1206 1206 1206 1206
    1206 1206 1177 1185 1185 1177 1177 4405 4405 4582 4582 4582 4582
    4582 4522 4522 4522 4522 4522 4522 4463 4463 4405 4405 4405 4349
    4349 4349 4349 4349 4349 4295 4041 4041 1193 1193 1189 1185 1185
    1181 1181 1185 1189 1189 1202 1202 1202 1197 1197 1197 1197 1197
    1197 1193 1193 1177 1177 1173 1173 1173 1165 1165 4405 1145 1145
    4582 4582 4522 4522 4522 4522 4463 4463 4522 4522 4463 4463 4405
    4405 4405 4349 4349 4349 4349 4349 4349 1181 1181 1185 1185 1181
    1181 1181 1181 1181 1181 1189 1189 1189 1197 1193 1185 1185 1185
    1189 1185 1185 1165 1165 1169 1169 1169 1165 1161 1145 1141 1141
    1141 1134 1126 1123 1119 1119 4522 4522 4463 4463 4463 4463 4463
    4463 4405 4405 4405 4405 4349 4349 4349 4349 4349 1181 1181 1181
    1181 1177 1177 1177 1173 1141 1138 1138 1134 1134 1197 1193 1181
    1181 1181 1177 1169 1165 1165 1165 1161 1161 1161 1141 1138 1138
    1141 1138 1134 1130 1115 1112 1112 1108 1108 1112 1112 1112 4463
    4463 4522 1060 1060 4405 4405 4405 4911 4405 4405 4349 4349 1181
    1181 1181 1177 1173 1169 1165 1138 1134 1130 1130 1126 1126 1126
    1119 1115 1115 1115 1115 1169 1165 1165 1165 1161 1161 1115 1115
    1119 1112 1112 1119 1112 1112 1108 1108 1105 1101 1094 1094 1087
    1084 1070 1067 1063 1060 1054 1054 1054 4911 4911 4911 4405 4349
    4295 1185 1185 1181 1177 1173 1165 1161 1138 1134 1126 1123 1119
    1119 1115 1115 1108 1101 1094 1090 1087 1080 1077 1070 1070 1073
    1115 1105 1105 1101 1101 1101 1101 1101 1097 1097 1097 1087 1087
    1087 1084 1080 1070 1067 1060 1057 1054 1054 1050 1050 1050 4405
    4405 4349 4295 1185 1185 1181 1177 1169 1165 1157 1141 1130 1123
    1115 1115 1112 1108 1108 1090 1087 1087 1080 1080 1080 1077 1070
    1067 1063 1060 1057 1047 1047 1097 1094 1094 1094 1090 1087 1080
    1080 1080 1077 1073 1073 1070 1067 1060 1054 1054 1050 1050 1050
    1057 1060 1060 4295 4295 1189 1185 1181 1177 1169 1165 1157 1145
    1130 1123 1115 1112 1108 1105 1094 1087 1084 1084 1070 1070 1067
    1067 1063 1057 1057 1057 1057 1047 1047 1028 1025 1019 1016 1016
    1077 1077 1070 1070 1070 1070 1070 1067 1063 1054 1050 1050 1050
    1050 1054 1057 1057 0 1057 1044 1193 1185 1181 1173 1165 1161 1157
    1145 1130 1123 1115 1112 1108 1105 1094 1087 1080 1077 1067 1063
    1050 1050 1047 1038 1034 1031 1016 1016 1025 1022 1019 1019 1016
    1016 1016 1022 1031 1034 1038 1038 1038 1038 1054 1050 1050 1050
    1050 1050 1054 1057 1057 1057 1044 0 1197 1185 1181 1173 1165 1161
    1157 1145 1130 1123 1119 1115 1108 1101 1094 1087 1077 1067 1063
    1060 1050 1044 1038 1034 1031 1022 1013 1010 1010 1013 1013 1016
    1016 1016 1016 1022 1025 1031 1034 1034 1038 1038 1041 1044 1047
    1050 1050 1050 1050 1054 1044 1044 1044 0 1197 1189 1181 1173 1165
    1161 1149 1145 1130 1123 1119 1115 1108 1101 1097 1087 1077 1067
    1063 1060 1050 1044 1038 1034 1028 1019 1013 1010 1010 1010 1010
    1013 1013 1016 1016 1022 1025 1028 1031 1031 1034 1038 1041 1044
    1047 1047 1050 1050 1050 1054 1044 1044 1044 0 1197 1185 1181 1173
    1165 1161 1145 1141 1130 1126 1119 1115 1108 1101 1094 1090 1080
    1067 1063 1060 1050 1044 1038 1034 1028 1019 1013 1010 1010 1010
    1010 1010 1013 1016 1019 1022 1025 1028 1031 1031 1034 1038 1041
    1044 1044 1047 1050 1050 1050 1057 1054 1054 0 0 1193 1185 1181 1177
    1165 1157 1145 1141 1134 1126 1119 1112 1105 1101 1094 1090 1080
    1067 1063 1057 1050 1047 1038 1034 1028 1019 1013 1010 1007 1007
    1007 1010 1013 1016 1022 1022 1025 1028 1028 1031 1034 1038 1041
    1044 1044 1047 1047 1050 1054 1060 1060 0 0 0 1181 1181 1181 1177
    1165 1157 1145 1141 1134 1126 1119 1112 1105 1101 1094 1090 1084
    1067 1063 1057 1050 1047 1041 1034 1028 1019 1013 1010 1007 1007
    1007 1010 1013 1016 1022 1025 1025 1025 1028 1031 1034 1038 1041
    1044 1044 1047 1047 1050 1054 1060 1060 0 0 0 1181 1181 1181 1177
    1165 1161 1153 1141 1134 1126 1119 1112 1108 1101 1094 1090 1084
    1070 1063 1057 1050 1047 1041 1034 1028 1019 1013 1010 1010 1010
    1010 1010 1013 1016 1022 1022 1025 1025 1025 1031 1034 1038 1041
    1044 1044 1047 1047 1050 1050 1060 1060 0 0 0 1181 1181 1181 1177
    1165 1161 1153 1141 1134 1126 1119 1115 1108 1101 1094 1090 1080
    1073 1067 1057 1050 1047 1041 1034 1031 1019 1013 1010 1010 1010
    1010 1010 1013 1016 1022 1022 1022 1025 1025 1031 1034 1034 1038
    1041 1044 1047 1047 1050 1050 1057 1060 0 0 0 0 1185 1181 1177 1165
    1161 1153 1141 1134 1130 1119 1112 1108 1101 1094 1090 1077 1070
    1067 1057 1050 1047 1041 1034 1025 1019 1016 1010 1010 1010 1010
    1010 1013 1016 1022 1022 1022 1025 1025 1031 1034 1034 1038 1041
    1044 1047 1047 1050 1054 1057 1060 0 0 0 0 1185 1181 1177 1165 1161
    1145 1141 1134 1130 1119 1112 1105 1101 1094 1090 1077 1070 1063
    1060 1050 1044 1041 1034 1025 1022 1016 1013 1010 1010 1010 1010
    1016 1016 1022 1022 1022 1025 1025 1031 1034 1038 1038 1041 1044
    1047 1047 1050 1054 1057 1060 0 0 0 0 1185 1181 1177 1165 1161 1145
    1141 1134 1130 1123 1115 1105 1101 1097 1090 1077 1067 1063 1060
    1050 1044 1041 1034 1025 1022 1016 1013 1013 1010 1010 1013 1016
    1019 1022 1022 1022 1025 1028 1031 1034 1038 1038 1041 1044 1047
    1047 1050 1054 1057 1060 0 0 0 0 1185 1181 1177 1169 1165 1145 1138
    1134 1126 1119 1112 1105 1101 1097 1090 1073 1067 1063 1060 1057
    1047 1041 1034 1025 1019 1016 1013 1010 1010 1010 1013 1016 1019
    1022 1022 1022 1025 1031 1031 1034 1038 1038 1041 1044 1047 1047
    1050 1054 1057 1060 0 0 0 1193 1185 1181 1177 1169 1165 1145 1138
    1134 1126 1119 1112 1105 1101 1097 1090 1073 1063 1063 1060 1057
    1047 1041 1034 1025 1019 1013 1010 1010 1010 1010 1013 1016 1019
    1022 1022 1022 1025 1028 1031 1034 1038 1038 1041 1044 1047 1047
    1050 1054 1060 1060 0 0 0 1193 1189 1181 1177 1169 1165 1145 1141
    1134 1126 1119 1112 1108 1101 1094 1080 1077 1063 1063 1060 1057
    1047 1041 1034 1025 1019 1013 1010 1010 1010 1010 1013 1016 1019
    1022 1022 1022 1025 1028 1034 1034 1038 1038 1041 1044 1047 1050
    1050 1054 1060 1060 1067 0 0 1193 1189 1181 1177 1173 1165 1145 1141
    1138 1126 1119 1112 1108 1101 1094 1080 1077 1067 1063 1060 1054
    1047 1041 1034 1025 1019 1013 1010 1010 1010 1010 1010 1013 1019
    1022 1022 1022 1025 1025 1034 1034 1038 1038 1041 1044 1047 1050
    1050 1054 1057 1057 1063 0 0 1193 1189 1181 1177 1165 1161 1145 1141
    1138 1130 1123 1115 1108 1101 1094 1084 1077 1070 1063 1060 1054
    1047 1041 1034 1025 1019 1013 1010 1010 1010 1010 1010 1013 1019
    1022 1022 1022 1025 1025 1031 1034 1034 1038 1041 1044 1047 1050
    1050 1054 1057 1057 1063 0 0 1193 1181 1181 1177 1165 1161 1145 1141
    1134 1130 1123 1115 1108 1101 1094 1084 1080 1073 1067 1060 1054
    1047 1041 1034 1025 1019 1016 1013 1010 1010 1010 1010 1013 1016
    1022 1022 1022 1025 1025 1031 1034 1034 1038 1041 1044 1047 1047
    1050 1054 1057 1057 1063 0 0 0 1181 1177 1173 1165 1157 1149 1141
    1134 1130 1123 1115 1108 1105 1090 1084 1080 1073 1067 1060 1054
    1047 1044 1038 1025 1019 1016 1013 1010 1010 1010 1010 1013 1016
    1019 1022 1022 1025 1025 1028 1034 1034 1038 1041 1044 1047 1047
    1054 1054 1060 1060 1063 0 0 0 1177 1177 1173 1165 1157 1149 1141
    1134 1130 1123 1115 1108 1105 1090 1084 1080 1073 1067 1060 1054
    1047 1044 1038 1028 1022 1016 1013 1010 1010 1010 1013 1013 1019
    1019 1022 1022 1025 1025 1028 1034 1038 1041 1041 1044 1047 1047
    1057 1057 1060 1060 1063 0 0 0 1177 1177 1173 1165 1161 1149 1141
    1134 1130 1123 1115 1108 1105 1090 1084 1077 1073 1067 1060 1054
    1050 1044 1038 1028 1022 1016 1013 1010 1010 1010 1013 1016 1019
    1022 1022 1025 1025 1028 1031 1031 1038 1041 1044 1044 1047 1047
    1054 1057 1060 1060 1063 0 0 0 1189 1177 1177 1169 1161 1149 1141
    1134 1126 1123 1115 1108 1101 1090 1084 1077 1073 1063 1060 1054
    1050 1044 1038 1028 1022 1016 1013 1010 1010 1010 1013 1016 1019
    1022 1022 1025 1028 1028 1031 1031 1034 1041 1044 1047 1047 1050
    1054 1057 1060 1060 0 0 0 0 1193 1181 1177 1169 1157 1149 1141 1134
    1126 1123 1115 1108 1101 1087 1084 1077 1073 1063 1060 1057 1050
    1044 1038 1028 1022 1016 1013 1010 1010 1010 1013 1016 1019 1022
    1022 1022 1025 1031 1031 1031 1034 1038 1044 1047 1047 1050 1054
    1057 1060 1063 1067 0 0 1193 1189 1181 1177 1169 1153 1149 1141 1134
    1126 1123 1115 1108 1101 1087 1084 1077 1073 1063 1063 1057 1050
    1041 1038 1034 1022 1016 1013 1010 1010 1010 1013 1016 1019 1022
    1022 1022 1025 1031 1031 1034 1038 1038 1041 1047 1047 1050 1054
    1060 1060 1063 1067 0 0 1193 1185 1181 1177 1169 1153 1149 1141 1134
    1130 1123 1115 1112 1094 1090 1084 1077 1073 1063 1060 1057 1050
    1041 1038 1028 1022 1016 1013 1010 1010 1010 1013 1019 1019 1019
    1022 1025 1025 1031 1031 1034 1038 1041 1041 1047 1047 1050 1054
    1060 1060 1063 1067 0 0 0 1181 1181 1177 1169 1157 1149 1141 1134
    1130 1123 1115 1112 1094 1090 1084 1080 1073 1067 1060 1057 1050
    1047 1034 1028 1025 1013 1013 1010 1010 1010 1016 1019 1019 1019
    1022 1025 1025 1028 1031 1034 1038 1041 1044 1047 1047 1050 1054
    1057 1060 1063 1067 0 0 0 1181 1181 1177 1169 1157 1149 1141 1134
    1130 1123 1115 1112 1094 1087 1087 1077 1073 1067 1063 1054 1050
    1047 1034 1025 1025 1013 1013 1010 1010 1013 1013 1019 1019 1019
    1022 1025 1025 1028 1031 1031 1038 1041 1041 1044 1050 1050 1054
    1057 1060 1063 1067 0 0 0 1181 1181 1177 1169 1157 1149 1141 1134
    1130 1123 1115 1112 1094 1087 1084 1077 1073 1070 1060 1054 1050
    1047 1038 1025 1022 1013 1013 1010 1010 1013 1013 1016 1016 1019
    1022 1025 1025 1028 1028 1031 1038 1041 1041 1044 1050 1050 1054
    1060 1060 1063 1067 0 0 1193 1181 1181 1177 1165 1157 1149 1141 1134
    1130 1119 1115 1112 1101 1090 1084 1077 1073 1070 1060 1054 1050
    1047 1038 1025 1022 1019 1013 1013 1013 1013 1013 1013 1016 1019
    1022 1025 1025 1028 1028 1031 1038 1041 1044 1047 1050 1050 1054
    1060 1060 1063 1067 0 0 1193 1181 1181 1177 1165 1157 1153 1141 1134
    1130 1119 1115 1105 1097 1090 1084 1077 1073 1070 1060 1054 1050
    1044 1038 1025 1022 1019 1016 1013 1013 1013 1013 1013 1016 1022
    1022 1025 1025 1028 1028 1031 1038 1041 1044 1047 1050 1050 1054
    1060 1060 1063 1067 0 0 0 1181 1181 1177 1161 1157 1149 1145 1138
    1130 1126 1115 1105 1097 1090 1084 1077 1073 1067 1060 1054 1050
    1044 1038 1025 1022 1019 1016 1013 1013 1013 1013 1016 1016 1022
    1022 1025 1025 1028 1031 1034 1038 1041 1044 1047 1050 1050 1050
    1060 1063 1063 1067 1067 0 1189 1181 1181 1177 1161 1157 1145 1145
    1134 1130 1123 1115 1105 1097 1094 1087 1080 1073 1067 1060 1054
    1050 1044 1038 1028 1025 1019 1016 1013 1013 1013 1013 1016 1019
    1022 1022 1025 1025 1031 1034 1034 1038 1041 1044 1047 1050 1050
    1050 1060 1060 1063 1063 1063 0 1189 1185 1181 1173 1165 1153 1145
    1141 1134 1130 1123 1115 1105 1097 1090 1087 1080 1073 1070 1063
    1057 1050 1044 1038 1034 1025 1022 1016 1013 1013 1013 1013 1013
    1019 1022 1022 1025 1025 1031 1034 1034 1038 1041 1044 1047 1050
    1050 1054 1060 1060 1063 1063 1063 0 1193 1185 1181 1173 1161 1153
    1149 1138 1134 1126 1123 1119 1105 1101 1090 1087 1080 1073 1070
    1063 1057 1050 1044 1041 1034 1025 1022 1013 1010 1010 1010 1013
    1013 1019 1022 1022 1025 1025 1031 1034 1034 1038 1041 1044 1047
    1050 1050 1054 1060 1060 1063 1067 0 0 1193 1185 1181 1173 1161 1157
    1149 1138 1134 1126 1123 1119 1105 1101 1094 1090 1077 1073 1070
    1060 1057 1050 1047 1038 1028 1022 1019 1013 1010 1010 1010 1013
    1013 1019 1022 1022 1025 1025 1028 1031 1034 1038 1038 1044 1047
    1050 1050 1054 1060 1060 1063 1063 0 0 1193 1189 1185 1173 1165 1153
    1149 1141 1134 1130 1123 1119 1105 1101 1094 1090 1077 1073 1067
    1060 1057 1050 1047 1038 1028 1022 1019 1013 1010 1010 1010 1013
    1013 1019 1022 1022 1025 1025 1028 1031 1034 1038 1038 1044 1047
    1050 1050 1057 1060 1060 1063 1063 0 0 1193 1189 1185 1169 1165 1153
    1149 1141 1138 1130 1126 1119 1105 1101 1094 1084 1077 1073 1067
    1060 1057 1050 1047 1041 1028 1022 1016 1013 1010 1010 1010 1013
    1016 1022 1022 1022 1025 1025 1028 1031 1034 1034 1038 1044 1047
    1050 1050 1057 1060 1060 1063 1063 1063 0 1193 1185 1177 1169 1165
    1157 1149 1145 1138 1130 1126 1119 1105 1101 1094 1084 1077 1073
    1067 1060 1057 1050 1047 1041 1028 1022 1016 1013 1013 1010 1010
    1013 1016 1019 1022 1022 1025 1025 1028 1031 1034 1034 1038 1044
    1047 1050 1050 1057 1060 1060 1063 1063 0 0 1193 1185 1177 1169 1161
    1157 1149 1141 1138 1130 1126 1119 1105 1101 1094 1084 1077 1073
    1067 1060 1057 1050 1047 1041 1031 1022 1016 1013 1013 1010 1010
    1013 1016 1019 1022 1022 1025 1025 1028 1034 1034 1034 1038 1047
    1047 1050 1050 1054 1060 1060 1063 1067 0 0 1193 1185 1177 1169 1161
    1161 1149 1141 1138 1130 1126 1119 1115 1101 1094 1087 1080 1073
    1070 1063 1060 1054 1044 1034 1031 1025 1016 1013 1013 1010 1010
    1013 1016 1019 1022 1025 1025 1025 1028 1034 1034 1034 1038 1047
    1050 1050 1050 1054 1060 1060 1063 1067 0 0 1189 1185 1177 1169 1161
    1153 1149 1141 1138 1134 1126 1119 1112 1101 1090 1084 1080 1073
    1070 1063 1060 1054 1044 1034 1031 1025 1019 1016 1013 1013 1013
    1013 1016 1019 1022 1022 1025 1025 1028 1031 1034 1034 1038 1047
    1047 1050 1054 1057 1060 1060 1063 1067 0 0 1189 1185 1177 1169 1161
    1153 1149 1141 1138 1130 1126 1119 1105 1101 1090 1084 1077 1073
    1067 1060 1057 1054 1047 1034 1034 1025 1019 1016 1013 1013 1013
    1013 1016 1019 1022 1022 1025 1025 1031 1031 1034 1034 1038 1047
    1047 1050 1054 1057 1060 1060 1063 1067 0 0 1189 1189 1177 1169 1165
    1157 1149 1141 1138 1130 1126 1115 1105 1101 1094 1084 1077 1073
    1067 1060 1057 1054 1047 1034 1031 1025 1019 1013 1013 1013 1013
    1013 1016 1019 1022 1022 1022 1025 1031 1031 1034 1038 1038 1044
    1047 1050 1054 1057 1060 1060 1063 1067 0 0 1193 1189 1185 1177 1165
    1157 1153 1145 1141 1130 1126 1115 1105 1101 1094 1087 1077 1073
    1070 1060 1057 1050 1047 1034 1028 1025 1022 1013 1010 1010 1010
    1013 1016 1019 1022 1022 1022 1025 1034 1034 1038 1038 1044 1044
    1047 1050 1054 1057 1060 1060 1063 1067 0 0 1197 1189 1185 1177 1165
    1157 1153 1145 1141 1134 1126 1115 1105 1101 1094 1090 1077 1073
    1070 1060 1060 1050 1041 1034 1028 1025 1022 1016 1010 1010 1010
    1013 1016 1019 1022 1022 1022 1025 1034 1034 1038 1038 1044 1047
    1050 1054 1054 1057 1060 1060 1063 1067 1067 0 1197 1185 1181 1177
    1165 1157 1149 1145 1141 1134 1126 1119 1105 1101 1094 1090 1080
    1073 1070 1063 1060 1054 1041 1034 1028 1025 1022 1016 1013 1010
    1010 1010 1013 1019 1022 1022 1022 1028 1031 1034 1038 1038 1044
    1047 1050 1050 1050 1054 1060 1063 1063 1070 0 0 1197 1185 1181 1173
    1165 1157 1149 1145 1141 1134 1126 1119 1105 1101 1094 1090 1080
    1073 1070 1063 1060 1054 1041 1034 1028 1025 1019 1013 1013 1010
    1010 1010 1013 1019 1022 1022 1025 1031 1031 1034 1034 1038 1044
    1047 1047 1050 1050 1054 1060 1063 1063 1070 0 0 1197 1189 1181 1173
    1165 1157 1149 1145 1141 1130 1126 1119 1112 1101 1094 1087 1084
    1077 1070 1063 1060 1054 1041 1034 1028 1025 1019 1013 1013 1010
    1010 1013 1013 1019 1022 1022 1025 1031 1031 1034 1034 1038 1044
    1047 1047 1050 1050 1057 1060 1063 1063 1070 0 1067 1197 1185 1181
    1173 1165 1161 1153 1145 1138 1130 1126 1119 1112 1101 1094 1087
    1084 1073 1073 1067 1063 1054 1041 1034 1028 1025 1019 1016 1013
    1013 1013 1013 1016 1022 1022 1025 1025 1031 1031 1034 1034 1044
    1047 1047 1047 1050 1050 1057 1060 1063 1067 1067 1067 1067 1197
    1185 1185 1177 1165 1161 1153 1145 1138 1130 1126 1119 1112 1101
    1097 1090 1084 1073 1073 1063 1060 1054 1041 1034 1028 1025 1022
    1016 1013 1013 1013 1013 1016 1019 1022 1025 1025 1031 1031 1034
    1034 1044 1047 1047 1050 1050 1050 1057 1060 1063 1067 1067 1067
    1067 0 1189 1185 1177 1165 1161 1153 1145 1138 1130 1126 1119 1112
    1101 1097 1090 1084 1077 1073 1063 1060 1050 1044 1038 1031 1025
    1022 1016 1013 1013 1013 1013 1016 1019 1022 1025 1028 1031 1031
    1034 1034 1044 1047 1047 1047 1050 1050 1057 1060 1063 1063 1070
    1067 1067 1197 1189 1185 1177 1169 1161 1157 1149 1138 1130 1126
    1119 1115 1101 1094 1090 1084 1077 1070 1067 1060 1047 1044 1038
    1031 1025 1022 1019 1013 1013 1013 1013 1016 1019 1022 1025 1028
    1031 1031 1034 1034 1041 1047 1047 1047 1050 1050 1057 1060 1063
    1063 1070 1067 1067 1197 1193 1181 1173 1169 1161 1153 1145 1141
    1134 1126 1119 1108 1101 1094 1090 1084 1077 1070 1067 1060 1047
    1041 1038 1031 1025 1022 1019 1013 1013 1013 1013 1016 1019 1022
    1025 1028 1031 1031 1034 1034 1041 1047 1047 1047 1050 1050 1060
    1060 1063 1063 1070 0 1070 1193 1193 1181 1173 1169 1161 1153 1145
    1141 1134 1126 1119 1108 1101 1094 1090 1084 1080 1073 1067 1060
    1047 1041 1038 1031 1025 1022 1019 1013 1013 1013 1013 1016 1019
    1022 1025 1028 1031 1031 1034 1034 1041 1047 1047 1050 1050 1050
    1060 1060 1063 1063 1070 0 0 1193 1193 1181 1173 1169 1161 1153 1145
    1141 1138 1126 1119 1108 1101 1094 1090 1087 1080 1073 1067 1057
    1047 1041 1038 1031 1028 1025 1016 1013 1013 1013 1013 1016 1019
    1022 1022 1028 1028 1031 1031 1038 1041 1044 1047 1050 1050 1050
    1060 1060 1063 1063 1070 0 0 1197 1189 1181 1177 1169 1161 1153 1145
    1141 1134 1130 1119 1108 1101 1094 1090 1087 1080 1073 1067 1054
    1047 1041 1038 1034 1028 1025 1016 1013 1013 1013 1013 1016 1019
    1022 1022 1025 1028 1031 1031 1038 1041 1044 1047 1050 1050 1050
    1057 1060 1063 1063 1070 0 0 0 1189 1181 1177 1173 1161 1153 1145
    1141 1134 1130 1119 1108 1101 1094 1090 1087 1080 1073 1067 1054
    1047 1041 1038 1034 1025 1022 1016 1013 1013 1013 1013 1016 1019
    1022 1025 1025 1031 1031 1034 1038 1041 1044 1050 1050 1050 1050
    1057 1060 1063 1067 1070 0 0 0 1189 1181 1177 1173 1161 1153 1145
    1141 1134 1130 1123 1108 1101 1094 1090 1087 1080 1073 1067 1050
    1047 1041 1038 1031 1025 1022 1016 1013 1013 1013 1013 1019 1022
    1022 1025 1025 1031 1031 1034 1038 1041 1044 1047 1050 1050 1054
    1057 1060 1063 1067 1070 1070 0 0 1189 1181 1177 1173 1161 1157 1145
    1141 1134 1130 1115 1108 1101 1097 1090 1087 1080 1073 1070 1050
    1047 1041 1038 1031 1025 1022 1019 1013 1013 1013 1016 1019 1022
    1022 1025 1028 1031 1031 1034 1038 1044 1047 1047 1050 1050 1054
    1057 1060 1063 1067 1070 1070 0 1197 1197 1181 1177 1173 1161 1157
    1149 1145 1134 1130 1115 1108 1101 1097 1090 1087 1080 1077 1070
    1054 1047 1041 1038 1031 1028 1025 1019 1016 1016 1016 1016 1022
    1022 1025 1025 1028 1031 1031 1038 1038 1044 1047 1047 1050 1050
    1054 1060 1063 1067 1070 1077 1077 0 1197 1197 1185 1181 1169 1161
    1157 1153 1145 1134 1130 1115 1105 1101 1097 1087 1084 1080 1077
    1063 1054 1050 1041 1038 1031 1028 1022 1019 1013 1013 1013 1013
    1019 1025 1025 1028 1028 1034 1034 1038 1038 1044 1047 1047 1050
    1050 1057 1060 1067 1070 1070 1077 1077 0 1193 1189 1185 1177 1169
    1161 1157 1153 1145 1138 1130 1115 1105 1101 1097 1087 1084 1080
    1077 1063 1057 1050 1044 1038 1031 1028 1022 1019 1013 1013 1013
    1013 1016 1022 1025 1028 1028 1034 1034 1038 1038 1044 1047 1047
    1050 1054 1057 1060 1067 1070 1070 1073 1073 0 1189 1189 1181 1177
    1169 1165 1157 1149 1141 1134 1130 1115 1108 1101 1097 1087 1084
    1080 1073 1060 1057 1050 1044 1038 1031 1028 1025 1019 1013 1013
    1013 1013 1016 1022 1025 1028 1028 1031 1034 1038 1041 1044 1047
    1050 1050 1054 1057 1060 1067 1070 1070 1073 1073 0 1185 1185 1181
    1177 1169 1165 1157 1149 1141 1134 1123 1115 1108 1105 1097 1090
    1084 1077 1073 1060 1057 1050 1044 1038 1034 1028 1025 1019 1016
    1013 1013 1013 1016 1022 1025 1028 1028 1031 1034 1038 1041 1044
    1047 1050 1054 1057 1060 1060 1063 1070 1070 1073 1073 0 1185 1185
    1181 1177 1169 1161 1157 1149 1141 1138 1123 1115 1108 1105 1097
    1090 1084 1077 1073 1060 1057 1050 1047 1038 1034 1028 1025 1022
    1016 1013 1013 1016 1016 1022 1025 1025 1028 1031 1034 1038 1041
    1044 1047 1050 1057 1057 1060 1060 1063 1067 1070 1073 1073 0 1189
    1189 1181 1177 1169 1161 1157 1149 1141 1138 1126 1119 1108 1101
    1094 1090 1084 1080 1073 1063 1057 1050 1047 1038 1034 1031 1025
    1022 1019 1016 1016 1016 1016 1022 1025 1025 1028 1028 1034 1038
    1041 1044 1047 1050 1054 1057 1060 1060 1063 1067 1067 1073 1073 0
    1189 1189 1181 1177 1169 1161 1157 1149 1141 1134 1130 1119 1108
    1101 1094 1090 1084 1080 1073 1063 1057 1050 1047 1041 1034 1031
    1025 1019 1016 1016 1016 1016 1016 1025 1025 1025 1028 1028 1034
    1038 1038 1041 1044 1050 1054 1057 1060 1060 1060 1063 1067 1073
    1073 0 0 1185 1181 1177 1169 1165 1161 1149 1145 1134 1130 1119 1108
    1101 1097 1090 1084 1080 1073 1063 1057 1050 1047 1044 1034 1031
    1022 1019 1016 1013 1013 1013 1016 1025 1025 1025 1028 1031 1034
    1038 1038 1038 1044 1047 1050 1054 1057 1060 1060 1063 1063 1070
    1070 0 1185 1185 1181 1177 1165 1161 1161 1149 1145 1134 1130 1119
    1108 1105 1097 1090 1087 1077 1063 1063 1060 1050 1047 1041 1034
    1031 1022 1019 1016 1013 1013 1013 1016 1025 1025 1028 1028 1031
    1034 1034 1038 1038 1044 1047 1050 1054 1057 1057 1060 1063 1063
    1070 1070 0 1185 1185 1181 1173 1165 1161 1157 1149 1145 1130 1126
    1119 1112 1105 1097 1090 1087 1077 1063 1063 1060 1050 1047 1041
    1034 1031 1025 1019 1016 1013 1013 1013 1019 1025 1025 1028 1028
    1031 1034 1034 1038 1041 1044 1047 1050 1054 1054 1057 1060 1063
    1063 1070 1067 1067 1197 1189 1181 1173 1165 1161 1157 1149 1145
    1130 1123 1119 1112 1105 1097 1090 1087 1080 1073 1063 1060 1050
    1047 1041 1034 1031 1025 1019 1016 1016 1016 1016 1019 1025 1025
    1028 1031 1034 1034 1034 1038 1041 1047 1047 1050 1054 1054 1057
    1060 1063 1063 1070 1067 1067 1197 1193 1181 1173 1165 1161 1153
    1149 1145 1130 1123 1119 1115 1105 1097 1090 1087 1080 1073 1063
    1057 1050 1047 1041 1034 1031 1025 1022 1016 1016 1016 1016 1019
    1025 1025 1028 1031 1034 1034 1038 1041 1044 1047 1047 1050 1054
    1054 1057 1060 1063 1067 1070 1067 1067 1193 1193 1181 1177 1165
    1161 1153 1149 1134 1130 1123 1119 1115 1108 1097 1090 1087 1080
    1073 1063 1057 1054 1047 1041 1034 1028 1025 1022 1019 1016 1016
    1016 1022 1022 1025 1028 1031 1034 1034 1038 1044 1047 1047 1050
    1050 1054 1057 1060 1063 1063 1067 1070 1070 1070 1181 1181 1181
    1177 1165 1161 1153 1149 1134 1130 1123 1119 1115 1105 1094 1090
    1087 1080 1073 1063 1057 1054 1047 1041 1034 1028 1025 1022 1019
    1019 1019 1019 1022 1022 1025 1028 1031 1034 1034 1038 1044 1047
    1047 1050 1054 1057 1060 1060 1063 1067 1067 1073 1070 1070 1181
    1181 1181 1177 1169 1161 1157 1149 1138 1130 1126 1119 1112 1105
    1094 1087 1087 1080 1073 1063 1060 1057 1050 1041 1034 1031 1025
    1022 1019 1016 1016 1016 1022 1022 1025 1025 1028 1031 1038 1038
    1044 1047 1047 1050 1054 1057 1060 1060 1063 1063 1067 1073 1070
    1070 1387 1185 1181 1177 1169 1161 1157 1149 1138 1130 1126 1119
    1112 1101 1094 1087 1087 1080 1073 1063 1060 1057 1050 1041 1038
    1031 1025 1022 1019 1016 1016 1016 1022 1022 1025 1025 1028 1031
    1034 1038 1041 1044 1047 1050 1054 1057 1060 1060 1063 1063 1067
    1077 1073 1073 1381 1387 1181 1177 1169 1161 1157 1149 1138 1134
    1126 1119 1112 1101 1094 1090 1087 1080 1073 1063 1060 1054 1050
    1041 1038 1034 1028 1022 1016 1013 1013 1016 1022 1025 1025 1025
    1028 1031 1034 1038 1041 1044 1047 1050 1054 1057 1060 1060 1063
    1067 1070 1077 1073 1073 1376 1381 1392 1404 1404 1157 1153 1149
    1138 1134 1130 1119 1112 1105 1097 1090 1087 1080 1073 1063 1060
    1054 1050 1044 1038 1034 1028 1022 1016 1013 1013 1016 1022 1025
    1025 1025 1028 1031 1034 1038 1041 1044 1047 1050 1054 1057 1060
    1060 1063 1067 1070 1077 1073 1073 1376 1381 1387 1404 1410 1153
    1149 1141 1138 1134 1126 1119 1115 1108 1097 1090 1087 1080 1077
    1063 1060 1054 1050 1044 1038 1034 1028 1022 1016 1013 1013 1016
    1022 1025 1025 1025 1031 1031 1034 1038 1044 1044 1047 1050 1054
    1057 1060 1060 1063 1067 1070 1077 1073 1073 1370 1381 1387 1404
    1410 1153 1145 1141 1138 1134 1126 1119 1115 1112 1101 1094 1087
    1084 1077 1063 1060 1054 1050 1044 1038 1034 1028 1022 1019 1013
    1013 1016 1022 1025 1025 1028 1031 1031 1034 1041 1044 1044 1047
    1050 1054 1057 1060 1060 1063 1067 1067 1073 1073 1073 1370 1376
    1387 1410 1410 1415 1145 1138 1134 1130 1123 1119 1115 1112 1105
    1094 1087 1084 1077 1073 1060 1054 1050 1044 1038 1031 1025 1022
    1019 1013 1013 1016 1022 1025 1025 1028 1028 1031 1034 1041 1044
    1044 1047 1050 1050 1054 1060 1060 1063 1067 1067 1073 1073 1073</data></Depth17363>
</opencv_storage>
