<?xml version="1.0"?>
<opencv_storage>
<Depth19822 type_id="opencv-matrix">
  <rows>92</rows>
  <cols>59</cols>
  <dt>w</dt>
  <data>
    3732 3732 3692 3653 3614 3539 3503 3468 3433 3433 3433 3399 3365
    3365 3333 3333 3333 3333 3333 3333 3333 3300 3269 3269 3238 3208
    3208 3208 1119 1115 1115 1115 1115 1115 5291 5291 5291 5210 5210
    5210 5210 5210 5291 5210 5210 5210 5210 5210 5210 5210 5132 5132
    5132 5132 5132 5132 5132 5210 5210 3732 3732 3692 3653 3576 3539
    3503 3468 3433 3433 3399 3365 3365 3333 3333 3333 3333 3333 3333
    3333 3300 3300 3269 3269 3269 3238 3208 3208 1119 1115 1115 1112
    1108 1101 1101 1101 1101 1101 5210 5210 5210 5210 5291 5210 5210
    5210 5210 5210 5210 5132 5132 5132 5132 5132 5132 5132 5132 5210
    5210 3732 3732 3692 3653 3576 3539 3503 3468 3433 3433 3399 3365
    3365 3333 3333 3333 3333 3333 3333 3300 1126 1126 1126 1126 3300
    3238 3238 1115 1112 1112 1112 1112 1108 1101 1101 1101 1101 1090
    1090 1090 1090 5291 5291 5210 5210 5210 5210 5210 5210 5132 5132
    5132 5132 5132 5132 5132 5132 5210 5210 3732 3732 3692 3653 3576
    3539 3503 3468 3433 3433 3399 3399 3365 3365 3365 3333 3333 3333
    1126 1126 1123 1119 1119 1119 1119 1119 1112 1108 1108 1105 1105
    1105 1105 1105 1101 1097 1097 1090 1090 1090 1090 1090 5210 5210
    5210 5210 5210 5210 5210 5132 5132 5132 5132 5132 5132 5132 5132
    5210 5210 3732 3732 3692 3653 3576 3539 3503 3468 3433 3433 3399
    3365 3365 3365 3365 1115 1115 1119 1119 1119 1115 1115 1115 1115
    1112 1112 1105 1101 1101 1097 1097 1101 1097 1097 1097 1094 1094
    1090 1090 1090 1090 1090 5210 5210 5210 5210 5210 5210 5210 5132
    5132 5132 5132 5132 5132 5132 5132 5210 5210 3732 3732 3692 3653
    3576 3539 3468 3468 3468 3433 1126 1123 1115 1115 1115 1115 1115
    1115 1115 1112 1112 1108 1105 1105 1108 1105 1101 1097 1097 1097
    1097 1097 1097 1097 1094 1090 1090 1090 1090 1090 1087 1087 1087
    1087 5210 5210 5210 5210 5210 5132 5132 5132 5132 5132 5132 5132
    5132 5132 5132 3732 3732 3732 3692 3576 3539 3468 3468 3468 3433
    1126 1123 1115 1115 1112 1112 1112 1105 1105 1101 1101 1097 1097
    1101 1101 1097 1097 1097 1097 1097 1097 1097 1094 1094 1090 1090
    1090 1090 1090 1090 1087 1087 1087 0 5210 0 5210 5210 5210 5132 5132
    5132 5132 5132 5132 5132 5132 5132 5132 3732 3732 3732 3692 3614
    3539 3468 3468 3468 3433 1130 1126 1119 1115 1105 1101 1101 1101
    1097 1097 1094 1094 1097 1097 1097 1097 1097 1097 1097 1097 1097
    1097 1094 1094 1090 1090 1090 1090 1090 1090 1087 1080 1080 0 0 5210
    5210 5210 5210 5210 5210 5210 5210 5210 5210 5132 5132 5132 5132
    3732 3732 3732 3692 3692 3692 3692 3692 1130 1130 1130 1126 1123
    1115 1105 1101 1097 1097 1097 1094 1090 1090 1090 1094 1094 1094
    1094 1094 1097 1097 1097 1097 1094 1090 1090 1090 1090 1090 1094
    1090 1087 1077 1077 0 0 5210 0 5210 5210 5210 5210 5210 5210 5210
    5210 5132 5132 5132 5132 3732 1278 1278 3732 3732 3732 3732 0 0 1134
    1134 1126 1123 1115 1105 1101 1097 1094 1094 1094 1090 1090 1090
    1094 1094 1090 1090 1090 1094 1097 1097 1097 1094 1090 1090 1087
    1087 1090 1090 1090 1087 1077 1077 0 0 0 0 0 5210 5210 5210 5210
    5210 5132 5132 5132 5132 5132 5132 3732 1278 1278 1278 1297 1241
    1241 0 1169 1138 1138 1134 1126 1112 1105 1101 1097 1094 1094 1094
    1094 1094 1094 1094 1094 1090 1090 1090 1090 1090 1090 1094 1090
    1090 1087 1087 1087 1087 1087 1087 1084 1080 1080 0 0 0 0 0 5132
    5132 5210 5132 5132 5132 5132 5132 5132 5132 5132 1322 1288 1288
    1297 1297 1241 1241 1241 1169 1169 1141 1138 1126 1112 1105 1101
    1097 1094 1090 1090 1094 1094 1094 1094 1094 1090 1090 1087 1087
    1090 1090 1090 1090 1090 1087 1087 1087 1087 1087 1087 1084 1080
    1080 1080 0 0 0 0 5132 5132 5132 5132 5132 5132 5132 5132 5132 5132
    5132 1322 1297 1297 1288 1255 1241 1241 1241 1169 1169 1145 1141
    1130 1115 1105 1101 1097 1094 1090 1090 1094 1094 1094 1090 1087
    1087 1087 1087 1084 1084 1084 1090 1090 1090 1090 1087 1087 1087
    1084 1084 1084 1084 1080 1080 0 0 0 0 0 5210 5132 5132 5132 5132
    5132 5132 5132 5132 5132 1322 1302 1297 1273 1255 1241 1227 1210
    1193 1169 1145 1141 1130 1115 1105 1101 1097 1097 1094 1094 1090
    1087 1087 1087 1087 1087 1087 1087 1084 1084 1084 1090 1090 1090
    1090 1087 1087 1087 1084 1084 1080 1080 1077 1077 0 0 0 0 0 5210
    5210 5132 5132 5132 5132 5132 5132 5132 5132 1317 1307 1292 1273
    1255 1241 1227 1210 1193 1173 1161 1141 1130 1119 1105 1101 1097
    1097 1090 1090 1090 1087 1087 1087 1087 1087 1084 1084 1084 1084
    1084 1090 1090 1090 1087 1087 1087 1087 1084 1084 1077 1077 1077
    1077 0 0 0 0 0 5210 5210 5132 5132 5132 5132 5132 5132 5132 5132
    1317 1307 1292 1273 1259 1245 1227 1214 1197 1193 1165 1145 1138
    1126 1105 1097 1097 1094 1090 1090 1090 1090 1087 1087 1087 1087
    1084 1084 1084 1084 1084 1087 1090 1090 1087 1087 1087 1087 1084
    1080 1077 1077 1077 1073 1073 0 0 0 0 5291 5132 5132 5132 5132 5132
    5132 5132 5132 5132 1322 1317 1297 1278 1259 1245 1232 1223 1206
    1193 1173 1145 1145 1130 1105 1097 1097 1094 1090 1090 1090 1090
    1087 1087 1087 1087 1084 1084 1084 1084 1084 1087 1087 1087 1087
    1087 1084 1084 1080 1080 1077 1077 1077 1073 1073 0 0 0 0 0 5132
    5132 5132 5132 5132 5132 5132 5132 5056 3948 1322 1302 1278 1264
    1250 1232 1223 1210 1197 1177 1145 1145 1130 1112 1105 1101 1097
    1090 1090 1090 1087 1087 1084 1084 1084 1084 1084 1084 1084 1084
    1087 1087 1087 1087 1087 1084 1080 1080 1077 1077 1077 1073 1070
    1070 0 0 0 0 0 5210 5132 5132 5132 5132 5132 5132 5132 5056 3859
    1322 1288 1278 1273 1259 1241 1227 1210 1202 1177 1153 1141 1130
    1115 1108 1101 1097 1094 1094 1087 1087 1087 1084 1084 1084 1084
    1084 1084 1084 1084 1087 1087 1087 1087 1087 1080 1080 1077 1077
    1077 1077 1073 1070 1070 0 0 0 0 0 5210 5132 5132 5132 5132 5132
    5132 5132 5056 3859 1328 1288 1278 1273 1264 1241 1227 1210 1202
    1189 1153 1141 1134 1119 1112 1101 1097 1094 1090 1084 1084 1084
    1084 1084 1084 1084 1084 1084 1084 1084 1084 1084 1084 1077 1077
    1077 1080 1077 1077 1077 1077 1077 1073 1073 0 0 0 0 0 5210 5132
    5132 5132 5132 5132 5132 5132 5056 3903 1322 1307 1283 1273 1264
    1255 1232 1214 1202 1193 1157 1145 1134 1123 1112 1101 1097 1094
    1090 1084 1084 1084 1084 1084 1084 1080 1080 1080 1080 1080 1080
    1080 1080 1077 1077 1077 1077 1077 1077 1077 1077 1073 1073 1073 0 0
    0 0 0 5210 5132 5132 5132 5132 5132 5132 5132 5056 3903 1317 1312
    1288 1278 1264 1255 1241 1219 1202 1193 1161 1145 1138 1126 1115
    1105 1097 1094 1090 1084 1084 1084 1084 1084 1084 1077 1077 1080
    1080 1080 1080 1080 1080 1080 1080 1080 1077 1077 1077 1077 1077
    1073 1070 1070 1070 0 0 0 0 5210 5056 5056 5132 5132 5132 5132 5132
    5132 3903 1317 1312 1292 1278 1264 1255 1236 1219 1206 1197 1161
    1149 1138 1126 1119 1105 1097 1090 1087 1084 1084 1084 1084 1084
    1084 1077 1077 1077 1077 1077 1080 1080 1080 1077 1077 1080 1077
    1077 1077 1073 1073 1073 1070 1067 1067 1067 0 0 0 0 5056 5056 5056
    5132 5132 5132 5132 5132 3859 1312 1312 1302 1278 1264 1255 1236
    1223 1210 1189 1161 1149 1141 1126 1119 1108 1097 1090 1087 1087
    1084 1084 1084 1080 1080 1077 1077 1077 1077 1077 1077 1077 1077
    1077 1077 1080 1077 1073 1073 1073 1073 1073 1070 1067 1067 1067
    1067 0 0 0 0 5056 5056 5056 5056 5132 5132 5132 3816 3816 1312 1302
    1278 1264 1259 1241 1223 1210 1189 1173 1145 1130 1126 1119 1112
    1097 1090 1087 1087 1084 1084 1084 1080 1080 1077 1077 1077 1077
    1077 1077 1077 1077 1077 1077 1080 1077 1073 1073 1073 1073 1073
    1070 1070 1067 1067 1067 0 0 0 0 5056 5056 5056 5056 5132 5056 5056
    3774 3774 1307 1302 1283 1264 1259 1245 1223 1214 1202 1193 1145
    1130 1126 1119 1112 1101 1090 1087 1087 1087 1084 1084 1080 1080
    1077 1077 1077 1077 1077 1077 1073 1073 1077 1077 1080 1077 1073
    1073 1073 1070 1070 1070 1070 1070 1070 1070 0 0 0 0 5056 5056 5056
    5132 5132 5056 5056 3774 3774 1307 1302 1288 1264 1259 1245 1223
    1214 1202 1181 1149 1138 1130 1123 1112 1101 1090 1080 1080 1087
    1084 1084 1080 1077 1077 1073 1073 1073 1077 1077 1073 1073 1073
    1073 1077 1077 1073 1073 1070 1070 1070 1070 1070 1070 1067 1067 0 0
    0 0 0 5056 5056 5132 5132 5132 5132 3732 3732 1312 1302 1292 1273
    1264 1245 1236 1214 1202 1181 1149 1138 1130 1123 1112 1101 1090
    1080 1080 1084 1084 1084 1080 1077 1073 1073 1073 1073 1073 1073
    1073 1073 1073 1073 1077 1077 1073 1073 1070 1063 1063 1070 1067
    1067 1067 1067 0 0 0 0 0 5056 5056 5132 5132 5132 5132 3692 3692
    1312 1307 1292 1278 1264 1245 1236 1223 1206 1177 1153 1141 1134
    1126 1112 1101 1087 1080 1080 1080 1080 1080 1077 1077 1073 1073
    1073 1070 1070 1073 1073 1077 1077 1077 1073 1073 1070 1070 1067
    1063 1063 1063 1067 1067 1067 1063 1063 0 0 0 0 5056 5056 5132 5132
    5132 5132 3692 3692 1312 1307 1288 1273 1264 1250 1241 1227 1189
    1177 1165 1145 1134 1126 1123 1101 1087 1080 1077 1077 1073 1073
    1077 1077 1073 1073 1070 1070 1070 1073 1073 1077 1077 1077 1073
    1073 1070 1070 1067 1063 1063 1063 1067 1067 1063 1060 1060 0 0 0 0
    5132 5132 5132 5132 5132 5132 3653 3653 1312 1292 1283 1273 1264
    1255 1245 1227 1189 1181 1165 1149 1138 1126 1115 1101 1087 1080
    1077 1073 1073 1073 1073 1073 1073 1073 1070 1070 1070 1073 1073
    1073 1073 1073 1073 1070 1070 1070 1067 1067 1063 1063 1067 1067
    1063 1057 1057 0 0 0 0 5132 5132 5132 5132 5132 5132 3653 3653 1312
    1288 1283 1273 1264 1259 1245 1227 1189 1181 1169 1153 1138 1126
    1115 1101 1087 1084 1080 1073 1073 1073 1073 1073 1073 1070 1070
    1070 1070 1073 1073 1073 1073 1073 1073 1070 1067 1067 1067 1067
    1067 1067 1067 1067 1063 1057 1057 1057 0 0 0 5210 5132 5132 5132
    5132 5132 3653 3653 3732 1288 1283 1278 1264 1259 1245 1227 1219
    1185 1173 1153 1141 1130 1119 1101 1087 1084 1080 1073 1073 1073
    1073 1073 1073 1070 1070 1070 1070 1073 1073 1073 1073 1073 1073
    1070 1067 1067 1067 1067 1063 1063 1067 1067 1063 1057 1057 0 0 0 0
    5210 5132 5132 5132 5132 5132 3692 3692 3732 1288 1283 1278 1268
    1259 1250 1232 1219 1189 1173 1161 1145 1134 1119 1105 1090 1084
    1077 1073 1073 1073 1073 1073 1073 1070 1070 1070 1070 1073 1073
    1073 1073 1073 1073 1070 1070 1067 1067 1063 1063 1063 1063 1063
    1063 1057 1057 0 0 0 5132 5132 5132 5132 5056 5056 5132 3732 3692
    3692 3692 1292 1278 1268 1259 1250 1236 1223 1189 1181 1173 1145
    1134 1119 1101 1090 1087 1077 1073 1073 1073 1073 1073 1073 1070
    1070 1067 1067 1070 1070 1070 1070 1070 1070 1067 1067 1067 1063
    1063 1063 1063 1063 1063 1060 1060 1060 0 0 0 0 5132 5132 5132 5056
    5056 5132 3653 3653 3692 3692 1292 1278 1268 1259 1250 1236 1223
    1189 1181 1173 1157 1138 1119 1101 1094 1087 1077 1073 1073 1073
    1073 1073 1073 1070 1070 1067 1067 1070 1070 1067 1067 1070 1070
    1067 1067 1067 1063 1063 1063 1063 1060 1060 1060 1060 1060 1060 0 0
    0 5132 5056 5056 5056 5056 5056 3653 3653 3653 3653 1288 1278 1268
    1259 1255 1241 1227 1206 1181 1177 1157 1141 1126 1105 1094 1087
    1077 1073 1073 1070 1070 1070 1070 1070 1070 1067 1067 1070 1070
    1067 1067 1070 1070 1067 1067 1063 1063 1063 1060 1060 1060 1060
    1060 1060 1060 1060 0 1057 0 5056 5056 5056 5056 5056 5056 3653 3614
    3614 3614 1283 1278 1268 1259 1255 1245 1227 1206 1185 1177 1161
    1141 1126 1115 1094 1087 1077 1073 1070 1070 1070 1070 1070 1067
    1067 1063 1063 1067 1067 1067 1067 1067 1067 1067 1067 1063 1063
    1063 1060 1060 1060 1060 1060 1060 1060 1057 1057 0 0 0 5056 5056
    5056 5056 5056 3653 3614 3614 3653 1278 1278 1273 1264 1259 1245
    1232 1210 1189 1181 1161 1145 1134 1119 1094 1087 1077 1073 1070
    1070 1070 1070 1070 1067 1067 1063 1063 1067 1067 1067 1067 1067
    1067 1067 1067 1063 1063 1060 1060 1057 1057 1057 1060 1060 1057
    1057 1057 0 0 0 0 5056 5056 5132 5132 3653 3614 3614 3653 1278 1278
    1273 1264 1259 1250 1236 1214 1206 1181 1161 1145 1134 1119 1097
    1087 1080 1073 1070 1070 1070 1070 1070 1067 1067 1063 1063 1067
    1067 1067 1067 1067 1067 1067 1067 1063 1060 1060 1060 1057 1057
    1057 1060 1057 1057 1054 1054 1054 0 0 0 5056 5056 5132 5132 3653
    3614 3614 3653 1278 1278 1273 1268 1259 1250 1241 1219 1210 1181
    1165 1149 1134 1123 1101 1090 1084 1073 1070 1070 1070 1067 1067
    1063 1063 1063 1063 1067 1067 1067 1067 1067 1067 1063 1063 1063
    1060 1060 1060 1060 1060 1057 1057 1057 1057 1054 1050 1050 1050 0
    5132 5132 5132 5132 5132 3653 3614 3614 3614 1283 1278 1278 1273
    1264 1250 1241 1227 1210 1181 1169 1153 1134 1123 1101 1090 1084
    1077 1073 1070 1067 1063 1063 1063 1063 1063 1063 1063 1063 1067
    1067 1063 1063 1063 1063 1063 1063 1060 1060 1057 1057 1057 1054
    1054 1050 1050 1050 1050 1050 0 5132 0 5132 5056 5056 3692 3653 3653
    3614 1288 1283 1278 1278 1264 1250 1241 1227 1193 1181 1173 1153
    1134 1123 1105 1090 1084 1077 1073 1070 1067 1063 1063 1063 1060
    1060 1063 1063 1063 1063 1063 1063 1063 1063 1063 1063 1063 1060
    1060 1057 1057 1057 1054 1054 1050 1050 1047 1047 1047 0 0 5132 5132
    5056 5056 3692 3653 3653 3614 3614 1283 1283 1278 1264 1255 1241
    1236 1193 1181 1173 1161 1138 1119 1115 1094 1084 1077 1073 1070
    1063 1060 1060 1063 1060 1060 1063 1063 1063 1063 1063 1063 1063
    1063 1060 1060 1063 1060 1060 1057 1057 1057 1057 1054 1050 1050
    1047 1047 0 1047 0 2212 5056 5056 5056 3732 3732 3692 3614 3614 1283
    1278 1273 1264 1255 1245 1236 1197 1185 1177 1165 1141 1119 1115
    1097 1084 1077 1073 1070 1063 1060 1060 1063 1063 1063 1063 1063
    1063 1063 1063 1063 1063 1063 1060 1060 1060 1060 1060 1057 1057
    1057 1054 1054 1050 1050 1047 1047 1047 1047 0 2212 2212 2170 2156
    3692 3732 3653 3653 3653 1283 1278 1268 1264 1255 1245 1236 1206
    1189 1177 1169 1161 1119 1115 1097 1084 1077 1073 1070 1063 1063
    1063 1063 1063 1063 1063 1063 1063 1063 1063 1063 1063 1060 1060
    1060 1060 1060 1060 1057 1057 1057 1054 1054 1050 1050 1047 1047
    1047 1047 1038 0 2198 2170 2156 3692 3692 3653 3614 3614 3614 1278
    1264 1259 1255 1245 1236 1210 1193 1177 1165 1157 1134 1115 1097
    1084 1077 1073 1070 1063 1060 1060 1063 1063 1060 1060 1060 1060
    1060 1060 1063 1060 1060 1060 1060 1057 1057 1057 1057 1057 1054
    1054 1054 1050 1050 1044 1041 1038 1038 1038 0 2198 2184 2156 3692
    3653 3653 3614 3614 3614 3614 1264 1259 1255 1245 1236 1210 1202
    1181 1161 1153 1134 1119 1101 1087 1077 1073 1070 1063 1060 1060
    1063 1063 1060 1060 1060 1060 1060 1060 1060 1060 1060 1057 1057
    1057 1057 1057 1057 1057 1050 1050 1050 1050 1050 1044 1038 1038
    1038 0 0 2143 2143 2116 3653 3653 3653 3614 3614 3653 3653 1264 1259
    1255 1245 1236 1210 1202 1185 1161 1153 1134 1123 1101 1094 1080
    1073 1070 1063 1060 1060 1060 1060 1060 1060 1060 1060 1060 1060
    1060 1060 1060 1057 1057 1057 1057 1057 1057 1054 1050 1047 1047
    1047 1047 1044 1038 1038 1038 1038 0 2078 2078 2090 3653 3653 3653
    3653 3653 3653 3653 1264 1259 1255 1245 1227 1210 1202 1189 1161
    1153 1134 1123 1101 1097 1084 1073 1070 1063 1060 1060 1060 1060
    1060 1060 1060 1060 1060 1060 1060 1060 1060 1057 1057 1057 1057
    1057 1057 1054 1050 1047 1047 1044 1044 1044 1038 1038 1038 1038
    2065 2065 2065 2065 3692 3692 3614 3614 3614 3653 3653 1264 1259
    1255 1250 1223 1210 1202 1193 1165 1157 1134 1123 1105 1094 1084
    1073 1070 1067 1063 1060 1060 1060 1060 1060 1060 1060 1060 1060
    1060 1060 1060 1057 1057 1054 1054 1054 1050 1050 1050 1047 1047
    1044 1044 1047 1041 1041 1041 0 2065 2065 2065 2053 3653 3653 3614
    3614 3614 3653 3653 1264 1259 1259 1250 1223 1210 1206 1197 1185
    1161 1153 1126 1119 1094 1080 1077 1070 1070 1063 1060 1060 1060
    1060 1060 1057 1057 1057 1057 1057 1057 1057 1057 1057 1054 1054
    1050 1050 1050 1050 1047 1047 1044 1044 1047 1044 1044 1044 0 2053
    2053 2053 2040 3653 3653 3614 3614 3614 3614 3653 1264 1259 1259
    1255 1227 1214 1206 1197 1185 1165 1153 1141 1123 1090 1080 1077
    1070 1070 1063 1060 1060 1060 1060 1057 1057 1054 1054 1054 1050
    1050 1054 1054 1054 1050 1050 1050 1050 1050 1050 1047 1047 1044
    1044 1047 1044 1044 1044 1038 2040 2040 2028 2016 3653 3614 3614
    3614 3614 3614 3614 1264 1259 1259 1255 1232 1219 1206 1197 1185
    1165 1153 1141 1105 1090 1084 1077 1073 1067 1060 1060 1057 1057
    1057 1057 1057 1054 1054 1054 1050 1050 1054 1054 1054 1050 1050
    1050 1050 1050 1050 1047 1047 1044 1044 1044 1041 1038 1038 1038
    2040 2040 2028 2016 3653 3614 3614 3614 3614 3614 3614 1264 1259
    1259 1255 1236 1227 1214 1197 1181 1169 1157 1145 1105 1097 1084
    1080 1070 1067 1060 1057 1054 1054 1057 1057 1057 1054 1054 1054
    1054 1054 1054 1054 1054 1050 1050 1050 1050 1050 1050 1047 1047
    1044 1038 1038 1038 1034 1034 1034 0 2028 2028 2005 3692 3653 3614
    3614 3614 3653 3653 3692 1264 1259 1259 1241 1227 1219 1202 1181
    1169 1161 1149 1112 1108 1094 1084 1070 1070 1063 1057 1054 1054
    1054 1054 1057 1054 1054 1054 1054 1050 1050 1050 1050 1050 1050
    1050 1050 1050 1050 1047 1047 1041 1038 1038 1038 1034 1034 1034
    1034 2028 2028 2005 3732 3692 3614 3614 3614 3614 3614 3653 1264
    1264 1259 1241 1227 1223 1210 1189 1173 1161 1153 1112 1112 1097
    1084 1073 1070 1060 1057 1054 1054 1054 1054 1057 1057 1054 1054
    1054 1050 1050 1050 1050 1050 1050 1050 1050 1050 1047 1047 1047
    1038 1038 1038 1038 1034 1034 1034 1034 1981 1981 1981 3732 3692
    3653 3614 3614 3614 3539 3539 1268 1264 1259 1241 1227 1219 1210
    1202 1173 1161 1153 1115 1105 1097 1087 1073 1070 1060 1060 1057
    1054 1054 1057 1057 1054 1054 1050 1050 1050 1050 1050 1050 1050
    1050 1050 1050 1047 1047 1047 1047 1038 1038 1038 1038 1034 1034
    1034 1034 1981 1981 1981 3692 3653 3653 3614 3614 3614 3539 3503
    3503 1264 1259 1241 1227 1219 1210 1202 1173 1165 1153 1119 1105
    1097 1090 1073 1070 1060 1060 1054 1054 1054 1057 1054 1050 1050
    1047 1047 1047 1047 1047 1047 1047 1047 1050 1047 1047 1047 1047
    1047 1038 1038 1038 1038 1034 1034 1034 1034 1981 1970 1970 3653
    3653 3653 3614 3614 3576 3539 3503 3503 1268 1259 1241 1232 1219
    1210 1202 1185 1165 1157 1115 1105 1101 1094 1077 1070 1067 1060
    1054 1054 1054 1057 1054 1050 1050 1047 1047 1047 1047 1044 1044
    1047 1047 1047 1047 1047 1047 1044 1044 1038 1038 1038 1038 1034
    1034 1034 1034 1981 1981 1970 3653 3653 3653 3614 3614 3576 3539
    3503 3503 1273 1264 1255 1232 1219 1210 1202 1185 1173 1161 1115
    1105 1101 1094 1080 1070 1067 1060 1054 1054 1054 1050 1050 1050
    1050 1047 1047 1047 1047 1044 1044 1047 1047 1047 1047 1047 1047
    1044 1044 1038 1038 1038 1038 1038 1038 1038 1038 1981 1981 1970
    3653 3653 3653 3614 3614 3576 3576 3576 3576 1273 1264 1255 1232
    1223 1214 1202 1185 1177 1169 1119 1112 1105 1097 1084 1070 1067
    1057 1054 1047 1047 1050 1050 1050 1050 1050 1047 1047 1047 1044
    1044 1047 1047 1047 1047 1044 1044 1044 1041 1038 1038 1038 1038
    1038 1038 1038 1038 1970 1970 1970 3692 3692 3653 3614 3614 3576
    3576 3576 3576 1273 1259 1255 1232 1227 1219 1206 1185 1177 1169
    1123 1115 1108 1097 1084 1073 1067 1057 1054 1047 1047 1050 1050
    1050 1047 1047 1047 1047 1047 1044 1044 1044 1044 1044 1047 1044
    1044 1041 1038 1034 1034 1034 1034 1038 1038 1038 1038 1959 1959
    1959 3732 3692 3653 3614 3614 3576 3576 3576 3576 3576 1259 1255
    1232 1227 1219 1206 1189 1177 1169 1141 1115 1108 1097 1087 1077
    1070 1060 1050 1047 1047 1050 1050 1050 1047 1047 1047 1047 1044
    1044 1044 1044 1044 1044 1044 1044 1041 1038 1038 1034 1034 1034
    1034 1038 1034 1034 1034 1034 1959 1959 3692 3692 3614 3614 3614
    3576 3576 3576 3539 3539 1259 1259 1232 1227 1223 1210 1193 1181
    1169 1145 1123 1112 1097 1087 1077 1070 1060 1050 1047 1047 1050
    1047 1047 1047 1047 1047 1047 1044 1044 1041 1041 1041 1041 1044
    1041 1041 1038 1038 1038 1038 1034 1034 1038 1034 1031 1031 1031
    1959 1959 3692 3653 3614 3614 3576 3576 3576 3539 3503 3433 1259
    1259 1232 1227 1223 1210 1193 1185 1169 1145 1130 1112 1097 1087
    1077 1070 1063 1050 1047 1047 1050 1047 1047 1047 1047 1047 1047
    1044 1044 1041 1041 1041 1041 1044 1041 1038 1034 1034 1034 1034
    1031 1031 1034 1034 1031 1031 1031 1959 1959 3653 3614 3614 3614
    3576 3576 3576 3539 3503 3433 1259 1255 1241 1232 1223 1210 1197
    1189 1173 1141 1130 1115 1101 1090 1077 1070 1063 1047 1044 1044
    1047 1050 1047 1047 1044 1044 1044 1044 1044 1044 1041 1041 1041
    1044 1041 1038 1034 1034 1034 1031 1031 1031 1031 1028 1028 1025
    1025 1025 1959 3614 3614 3614 3614 3576 3539 3539 3539 3539 3468
    1259 1255 1250 1236 1223 1210 1202 1193 1181 1141 1138 1123 1105
    1090 1080 1073 1067 1047 1044 1044 1047 1050 1050 1047 1044 1044
    1044 1044 1044 1044 1041 1041 1041 1044 1038 1038 1034 1034 1034
    1031 1031 1028 1028 1028 1028 1025 1025 1025 1025 3614 3614 3614
    3576 3539 3539 3539 3503 3503 3503 3503 1250 1250 1236 1223 1214
    1202 1193 1181 1145 1138 1123 1105 1094 1084 1077 1060 1047 1044
    1044 1050 1050 1047 1047 1044 1044 1041 1041 1041 1041 1041 1041
    1041 1038 1038 1034 1034 1038 1034 1031 1028 1028 1028 1028 1028
    1028 1025 1025 1025 3614 3614 3614 3576 3539 3503 3503 3503 3503
    3503 3503 1245 1241 1236 1223 1210 1206 1193 1189 1145 1141 1126
    1108 1094 1087 1077 1060 1050 1047 1047 1047 1047 1047 1047 1044
    1041 1041 1038 1038 1038 1041 1038 1038 1038 1038 1034 1034 1034
    1034 1031 1028 1028 1028 1025 1025 1025 1022 1019 1019 3614 3614
    3576 3576 3503 3503 3503 3468 3468 3468 3468 1245 1241 1236 1223
    1210 1206 1193 1189 1161 1145 1126 1112 1097 1090 1084 1060 1050
    1047 1047 1047 1047 1044 1044 1044 1041 1041 1038 1038 1038 1038
    1038 1038 1038 1038 1038 1038 1034 1034 1031 1028 1028 1028 1025
    1025 1025 1022 1016 1016 3614 3614 3576 3539 3503 3503 3503 3468
    3468 3399 3399 1250 1241 1236 1223 1210 1206 1197 1189 1169 1145
    1126 1115 1101 1090 1084 1057 1050 1047 1047 1044 1044 1044 1044
    1044 1041 1038 1038 1034 1034 1038 1038 1038 1038 1038 1034 1034
    1034 1031 1031 1028 1025 1025 1025 1022 1022 1019 1013 1013 3614
    3614 3576 3539 3503 3503 3468 3468 3433 3399 3399 3399 1255 1241
    1227 1210 1206 1197 1185 1169 1145 1126 1123 1105 1094 1080 1057
    1054 1047 1047 1044 1044 1041 1041 1044 1041 1038 1038 1034 1034
    1038 1038 1038 1038 1038 1034 1034 1034 1031 1031 1028 1025 1025
    1025 1022 1022 1019 1013 1010 3614 3614 3576 3539 3503 3468 3468
    3433 3433 3365 3333 3333 1255 1245 1232 1219 1210 1202 1185 1169
    1161 1130 1126 1105 1090 1080 1060 1054 1047 1047 1044 1044 1041
    1041 1044 1041 1038 1038 1034 1034 1034 1038 1038 1038 1034 1034
    1034 1034 1031 1031 1028 1025 1025 1022 1022 1019 1016 1013 1010
    3614 3614 3576 3503 3503 3468 3468 3433 3399 3365 3333 3333 1255
    1245 1232 1223 1214 1202 1185 1169 1161 1138 1126 1108 1090 1080
    1063 1060 1047 1047 1047 1044 1044 1044 1044 1044 1041 1038 1034
    1034 1034 1034 1034 1038 1034 1034 1031 1031 1028 1028 1025 1025
    1022 1022 1022 1019 1016 1013 1010 3614 3614 3576 3503 3468 3468
    3433 3399 3399 3365 3269 3269 1255 1245 1236 1227 1214 1202 1189
    1169 1165 1141 1126 1108 1094 1087 1077 1060 1050 1047 1047 1044
    1044 1044 1044 1041 1038 1038 1034 1034 1034 1034 1034 1034 1031
    1031 1031 1031 1028 1028 1025 1022 1022 1022 1019 1019 1016 1013
    1010 3614 3614 3576 3503 3468 3433 3433 3399 3365 3269 3269 3269
    1255 1245 1241 1227 1214 1202 1189 1177 1165 1138 1126 1112 1097
    1087 1080 1063 1050 1047 1047 1044 1044 1041 1041 1041 1038 1038
    1034 1034 1034 1031 1031 1034 1028 1028 1028 1028 1028 1028 1022
    1022 1022 1019 1019 1019 1016 1013 1010 3614 3614 3539 3468 3468
    3433 3433 3399 3365 3269 3269 3269 1255 1245 1241 1227 1214 1202
    1193 1181 1169 1138 1126 1112 1101 1090 1077 1063 1050 1047 1047
    1044 1041 1038 1038 1038 1038 1038 1034 1034 1034 1031 1031 1028
    1028 1025 1025 1028 1025 1025 1022 1022 1022 1019 1019 1019 1016
    1013 1010 3614 3576 3539 3468 3468 3433 3433 3399 3365 3333 3269
    3238 1259 1255 1245 1227 1214 1202 1193 1185 1169 1149 1130 1123
    1108 1090 1077 1070 1050 1050 1047 1041 1038 1038 1038 1038 1038
    1038 1034 1031 1031 1031 1031 1028 1028 1025 1025 1025 1025 1025
    1022 1022 1022 1019 1019 1016 1016 1013 1010 3614 3576 3539 3468
    3468 3433 3433 3333 3333 3269 3269 3208 3208 1255 1250 1227 1214
    1206 1197 1189 1173 1149 1134 1126 1105 1094 1080 1073 1054 1050
    1047 1041 1038 1038 1038 1038 1038 1038 1034 1028 1028 1031 1031
    1028 1028 1025 1025 1025 1025 1025 1022 1022 1022 1019 1016 1016
    1016 1013 1010 3653 3614 3576 3503 3433 3399 3365 3333 3333 3269
    3238 3208 3208 3208 1245 1227 1219 1206 1197 1189 1177 1157 1138
    1130 1105 1094 1084 1073 1057 1054 1047 1041 1038 1038 1038 1038
    1038 1034 1031 1028 1028 1028 1031 1028 1028 1025 1025 1025 1025
    1025 1025 1022 1019 1016 1013 1013 1013 1010 1010 3614 3614 3576
    3468 3433 3399 3365 3333 3333 3300 3238 3238 3238 1245 1245 1241
    1227 1210 1197 1193 1181 1161 1145 1130 1105 1097 1087 1077 1057
    1054 1047 1041 1038 1038 1038 1038 1034 1034 1031 1028 1028 1028
    1028 1028 1028 1025 1025 1025 1025 1025 1025 1022 1019 1013 1013
    1013 1013 1010 1007 3614 3614 3576 3468 3433 3433 3365 3333 3300
    3300 3238 3238 3238 1245 1241 1241 1232 1214 1197 1193 1189 1161
    1153 1126 1105 1101 1090 1077 1060 1057 1047 1041 1038 1038 1038
    1034 1034 1034 1031 1028 1028 1028 1025 1025 1025 1025 1022 1022
    1022 1022 1022 1022 1016 1013 1010 1007 1007 1007 1007 3576 3539
    3503 3468 3433 3399 3365 3333 3300 3300 3269 3269 3300 3300 1241
    1236 1227 1214 1206 1193 1189 1169 1157 1119 1108 1101 1090 1077
    1060 1057 1044 1041 1038 1034 1034 1034 1034 1034 1031 1028 1025
    1025 1025 1025 1025 1025 1022 1022 1019 1019 1019 1019 1016 1013
    1010 1007 1004 1004 1001 3576 3539 3468 3468 3433 3399 3365 3333
    3300 3300 3300 3300 3269 3269 3269 1232 1227 1214 1210 1197 1181
    1173 1157 1115 1108 1101 1090 1080 1063 1057 1044 1041 1038 1034
    1034 1034 1034 1034 1031 1025 1025 1025 1025 1025 1025 1022 1022
    1022 1019 1019 1019 1016 1013 1013 1013 1010 1004 1004 1001 3653
    3576 3468 3468 3433 3399 3365 3333 3300 3300 3300 3269 3269 3269
    3269 1232 1227 1219 1214 1206 1177 1165 1153 1115 1108 1101 1094
    1084 1063 1057 1044 1044 1038 1034 1034 1034 1034 1034 1031 1025
    1025 1025 1025 1025 1022 1022 1022 1019 1019 1019 1016 1013 1013
    1013 1010 1010 1004 1001 1001 3614 3576 3539 3503 3468 3399 3365
    3333 3300 3300 3300 3269 3238 3238 3238 1227 1227 1219 1214 1206
    1173 1165 1153 1153 1108 1105 1097 1087 1077 1054 1047 1044 1038
    1034 1034 1031 1031 1034 1028 1025 1025 1025 1025 1022 1022 1019
    1019 1019 1019 1016 1016 1013 1010 1010 1010 1007 1004 1001 1001
    3614 3576 3539 3503 3433 3399 3365 3333 3333 3300 3269 3269 3208
    3208 3208 1227 1227 1223 1219 1214 1173 1165 1153 1145 1112 1105
    1097 1087 1080 1054 1047 1044 1038 1031 1028 1028 1028 1028 1025
    1022 1022 1022 1022 1019 1019 1016 1016 1013 1013 1016 1013 1013
    1010 1010 1007 1004 1001 1001 1001 3614 3576 3539 3468 3433 3365
    3365 3333 3333 3269 3269 3269 3208 3208 3208 3208 1227 1227 1223
    1223 1173 1165 1157 1145 1115 1108 1101 1090 1080 1057 1050 1044
    1038 1031 1028 1025 1025 1025 1025 1022 1022 1019 1016 1016 1016
    1013 1013 1013 1010 1010 1010 1010 1010 1010 1007 1004 1001 998 998
    3614 3576 3539 3468 3433 3365 3333 3333 3333 3269 3269 3238 3238
    3208 3208 3208 0 3208 0 1177 1177 1169 1161 1149 1119 1108 1101 1094
    1084 1057 1047 1041 1038 1031 1028 1025 1025 1025 1022 1019 1019
    1016 1013 1010 1010 1010 1010 1013 1010 1010 1010 1007 1007 1007
    1007 1004 1001 998 998 3614 3576 3503 3468 3399 3365 3333 3333 3333
    3300 3269 3238 3238 3208 3208 3208 0 0 0 0 0 1169 1165 1153 1126
    1108 1101 1097 1087 1057 1047 1038 1034 1031 1025 1025 1025 1025
    1022 1019 1016 1013 1013 1010 1010 1010 1010 1010 1010 1010 1007
    1007 1007 1007 1007 1007 1007 1001 1001 3614 3576 3503 3468 3399
    3365 3333 3333 3333 3300 3269 3269 3269 3269 3269 3269 3300 0 0 0 0
    1169 1165 1153 1153 1108 1101 1097 1090 1054 1044 1038 1034 1031
    1025 1025 1025 1025 1022 1019 1016 1013 1013 1010 1010 1010 1010
    1010 1010 1010 1007 1007 1007 1010 1010 1010 1007 1004 1001</data></Depth19822>
</opencv_storage>
