<?xml version="1.0"?>
<opencv_storage>
<Depth3741 type_id="opencv-matrix">
  <rows>67</rows>
  <cols>50</cols>
  <dt>w</dt>
  <data>
    4295 4349 4349 4349 4349 4295 4241 4241 4241 4582 4582 4582 4645
    4582 4582 1609 1609 1609 0 4842 4842 4842 4842 1663 1632 1624 1624
    1632 1632 5132 5132 5132 5056 5056 5056 5056 5056 5056 5056 5132
    5132 4774 4708 4645 4645 4645 4645 4645 4645 4645 4295 4349 4349
    4349 4349 4349 4295 4295 4295 0 4582 4582 4582 4582 4582 4405 4405
    4405 0 0 4842 4842 4842 4842 1632 1609 1609 1632 1632 5056 5056 5056
    5056 5056 5056 5056 5056 5056 5056 5132 5132 5056 4842 4708 4708
    4645 4645 4645 4645 4645 4241 4295 4349 4349 4349 4349 4349 4349
    4349 4349 4582 4582 4582 4582 4582 4405 4405 4405 0 0 4842 4842 4842
    4842 1632 1609 1601 1601 1601 5056 5056 5056 5056 5056 5132 5056
    5056 5132 5132 5132 5210 5132 5132 4911 4774 4708 4645 4645 4645
    4645 4241 4295 4349 4349 4349 4349 4349 4349 4349 4349 4582 4582
    4582 4522 1632 1632 4522 0 1601 1601 4842 4842 4842 4842 1639 1616
    1601 1601 1601 5132 5132 5056 5056 5056 5132 5056 5056 5132 5132
    5132 5210 5132 5132 4911 4842 4774 4708 4708 4708 4708 4241 4295
    4349 4349 4349 4349 4349 4405 4405 4405 4582 4582 4582 4522 1632
    1624 1609 1601 1601 1601 0 4911 4911 1655 1639 1624 1624 1624 5132
    5132 5132 5056 5056 5056 5132 5132 5132 5210 1655 1655 1655 5210
    5132 4983 4842 4842 4708 4708 4708 4708 4241 4295 4349 4349 4349
    4349 4349 4405 4405 4405 4582 4582 4582 4522 1632 1624 1609 1579
    1579 1579 1601 4911 4911 1655 1639 1624 1624 1624 1624 1624 5056
    5056 5056 5056 5132 1663 1663 1655 1647 1647 1647 1663 1663 5056
    4911 4911 4842 4774 4774 4774 4241 4295 4349 4349 4349 4349 4405
    4405 4463 4463 4582 1572 1572 1601 1601 1624 1601 1579 1579 1601
    1601 1624 1624 1624 1624 1624 1624 1624 1624 1624 1616 1616 1624
    1624 1639 1639 1655 1655 1647 1647 1647 1655 1655 5056 5056 5056
    4983 4911 4911 4911 4241 4295 4349 4349 4349 4349 4349 4405 4463
    1572 1572 1572 1572 1579 1579 1586 1586 1586 1586 1594 1601 1609
    1609 1609 1616 1616 1616 1624 1624 1624 1616 1616 1624 1624 1639
    1639 1655 1655 1647 1647 1655 1655 1655 5210 5210 5132 5132 5132
    5056 5056 4241 4241 4349 4349 4349 4349 1572 1572 1572 1572 1572
    1572 1572 1572 1579 1579 1586 1586 1586 1594 1601 1601 1601 1609
    1609 1616 1616 1624 1624 1624 1624 1624 1624 1632 1639 1639 1655
    1655 1655 1655 1647 1647 1647 5132 5132 5132 5132 5132 5132 5132
    4241 1550 1550 1550 1550 1550 1557 1564 1564 1572 1572 1572 1572
    1572 1579 1579 1586 1586 1594 1594 1601 1601 1601 1601 1609 1609
    1616 1616 1616 1624 1624 1624 1624 1632 1639 1639 1655 1655 1655
    1655 1647 1647 1647 5132 5132 5132 5132 5132 5132 5132 1543 1543
    1543 1543 1550 1550 1557 1557 1557 1564 1572 1572 1572 1572 1579
    1579 1586 1586 1594 1594 1601 1601 1601 1601 1601 1609 1609 1616
    1616 1624 1624 1624 1632 1632 1639 1639 1655 1655 1655 1655 1655
    1655 1655 5132 5132 5132 5132 5056 5056 5056 1543 1543 1543 1543
    1550 1550 1557 1557 1557 1564 1572 1572 1572 1572 1579 1586 1586
    1586 1594 1594 1601 1601 1601 1601 1601 1609 1609 1616 1616 1624
    1624 1632 1632 1632 1639 1639 1647 1655 1655 1655 1655 1655 1655
    5132 5132 5132 5132 5056 5056 5056 1586 1557 1550 1550 1550 1550
    1557 1557 1557 1564 1572 1572 1572 1572 1579 1586 1586 1586 1586
    1594 1594 1601 1601 1601 1601 1609 1609 1616 1616 1624 1624 1632
    1632 1632 1639 1647 1647 1655 1655 1655 1655 1655 1655 5132 5132
    5132 5132 5132 5132 5056 1586 1572 1564 1564 1557 1557 1557 1564
    1564 1564 1572 1572 1572 1572 1579 1586 1586 1586 1586 1594 1594
    1601 1601 1601 1601 1609 1609 1616 1616 1624 1624 1632 1632 1632
    1639 1647 1647 1655 1655 1655 1663 1663 1663 5210 5210 5132 5132
    5132 5132 5132 1579 1572 1564 1564 1564 1564 1564 1564 1564 1564
    1572 1572 1572 1572 1579 1586 1586 1594 1594 1594 1594 1601 1601
    1601 1601 1609 1609 1616 1616 1616 1624 1624 1632 1632 1632 1639
    1647 1655 1655 1655 1663 1663 1663 5210 5210 5210 5132 5132 5132
    5132 1579 1572 1564 1557 1557 1557 1564 1564 1564 1564 1564 1572
    1572 1572 1579 1586 1586 1594 1594 1594 1594 1601 1601 1601 1609
    1609 1609 1609 1616 1616 1624 1624 1632 1632 1632 1639 1647 1655
    1655 1655 1663 1663 1663 1663 5291 5210 5210 5210 5132 5132 1579
    1579 1564 1557 1557 1557 1557 1557 1564 1564 1564 1564 1572 1579
    1586 1586 1586 1594 1594 1594 1594 1601 1601 1601 1609 1609 1609
    1609 1616 1616 1624 1624 1632 1632 1632 1639 1647 1655 1655 1655
    1663 1655 1655 1655 5210 5210 5210 5210 5132 5132 1579 1579 1572
    1564 1557 1557 1557 1557 1564 1564 1564 1564 1572 1579 1586 1586
    1586 1594 1594 1601 1601 1601 1601 1601 1609 1609 1609 1616 1616
    1624 1624 1624 1632 1632 1639 1647 1647 1647 1655 1655 1655 1655
    1655 1655 1655 5210 5210 5210 5132 5132 1616 1616 1572 1564 1557
    1557 1564 1564 1564 1564 1564 1572 1572 1579 1579 1586 1586 1594
    1601 1601 1601 1601 1601 1601 1609 1609 1609 1616 1624 1624 1624
    1632 1632 1632 1639 1639 1639 1647 1655 1655 1655 1655 1655 1655
    1655 5210 5210 5210 5210 5132 1609 1586 1586 1564 1564 1564 1564
    1564 1564 1564 1564 1572 1572 1572 1579 1586 1594 1594 1594 1601
    1601 1601 1601 1609 1609 1616 1616 1616 1624 1624 1624 1632 1632
    1632 1639 1639 1639 1647 1647 1655 1663 1655 1655 1655 1655 5291
    5291 5210 5210 5132 1609 1609 1601 1579 1572 1564 1564 1564 1564
    1564 1564 1572 1572 1572 1572 1579 1594 1594 1594 1601 1601 1601
    1601 1609 1609 1616 1616 1616 1624 1624 1624 1632 1632 1632 1639
    1639 1639 1647 1647 1655 1655 1663 1663 1663 1663 5210 5210 5210
    5210 5132 1609 1609 1601 1586 1572 1572 1564 1564 1564 1564 1564
    1572 1572 1572 1572 1579 1594 1594 1594 1594 1601 1601 1609 1609
    1609 1616 1616 1616 1624 1624 1624 1632 1632 1632 1639 1639 1647
    1647 1655 1655 1655 1663 1663 1663 1663 5132 5132 5132 5210 5132
    1624 1616 1601 1579 1572 1564 1564 1564 1564 1564 1572 1572 1572
    1572 1572 1579 1586 1586 1594 1594 1601 1601 1601 1609 1609 1609
    1616 1616 1624 1624 1632 1632 1632 1639 1639 1639 1647 1655 1655
    1655 1655 1663 1663 1663 1663 5132 5132 5132 5210 5210 1624 1624
    1609 1579 1564 1557 1557 1557 1564 1564 1572 1572 1572 1572 1579
    1586 1586 1586 1594 1594 1601 1601 1601 1601 1609 1609 1616 1616
    1624 1624 1632 1632 1632 1639 1639 1639 1647 1655 1655 1655 1655
    1655 1655 1663 1663 5210 5210 5210 5210 5210 1624 1624 1609 1579
    1564 1557 1557 1557 1564 1564 1572 1572 1572 1572 1579 1586 1586
    1586 1594 1594 1601 1601 1601 1601 1609 1609 1616 1616 1624 1624
    1632 1632 1632 1639 1639 1647 1655 1655 1655 1655 1655 1655 1655
    1655 1663 1663 5374 5291 5210 5210 1624 1624 1616 1579 1572 1557
    1557 1557 1564 1564 1572 1572 1572 1572 1579 1586 1586 1586 1594
    1594 1601 1601 1601 1601 1609 1609 1616 1616 1624 1624 1632 1632
    1632 1639 1647 1647 1655 1655 1655 1655 1655 1655 1655 1655 1663
    1663 5210 5210 5210 5210 1624 1624 1616 1579 1572 1557 1557 1557
    1564 1564 1572 1572 1572 1572 1579 1586 1586 1594 1594 1594 1601
    1601 1601 1601 1609 1616 1616 1616 1624 1624 1632 1632 1632 1639
    1647 1655 1655 1655 1655 1655 1655 1655 1655 1663 1663 1663 5210
    5210 5210 5210 1624 1624 1601 1601 1572 1564 1564 1564 1564 1564
    1572 1572 1572 1572 1572 1586 1586 1594 1594 1594 1601 1609 1609
    1609 1609 1616 1616 1616 1624 1624 1632 1632 1639 1639 1647 1647
    1647 1655 1655 1655 1655 1655 1655 1663 1663 1663 5132 5132 5132
    5132 4139 1601 1601 1594 1579 1564 1564 1564 1564 1564 1572 1572
    1572 1572 1572 1586 1594 1594 1594 1594 1601 1601 1609 1609 1616
    1616 1616 1624 1624 1624 1632 1632 1639 1639 1647 1647 1647 1655
    1655 1655 1655 1655 1663 1663 1671 1680 1680 5132 5132 5132 4139
    1594 1594 1586 1572 1564 1564 1564 1564 1564 1572 1572 1572 1572
    1579 1586 1594 1594 1594 1601 1601 1601 1609 1609 1616 1616 1616
    1624 1624 1624 1632 1632 1639 1647 1647 1647 1647 1655 1655 1655
    1655 1655 1663 1671 1671 1680 1680 5132 5132 5132 4139 1594 1594
    1586 1572 1564 1564 1564 1564 1564 1572 1572 1579 1579 1579 1586
    1594 1594 1594 1601 1601 1609 1609 1616 1616 1616 1624 1624 1624
    1624 1632 1632 1647 1647 1647 1647 1647 1655 1655 1655 1663 1663
    1663 1671 1671 1680 1680 5132 5132 5132 4089 1601 1601 1586 1572
    1564 1564 1564 1564 1564 1572 1572 1572 1579 1579 1586 1594 1594
    1594 1601 1601 1609 1609 1616 1616 1616 1624 1624 1624 1624 1624
    1624 1647 1647 1647 1647 1647 1655 1655 1655 1663 1663 1663 1671
    1671 1680 1680 1680 5132 5132 4139 4139 1609 1594 1572 1572 1564
    1564 1564 1564 1572 1572 1572 1586 1586 1586 1594 1594 1594 1601
    1601 1601 1601 1609 1616 1616 1624 1624 1624 1624 1624 1624 1639
    1647 1647 1647 1647 1655 1655 1663 1663 1663 1663 1663 1663 1680
    1680 1680 5132 5132 4139 4139 1616 1616 1586 1579 1564 1564 1564
    1564 1572 1572 1572 1586 1586 1586 1594 1594 1594 1601 1601 1601
    1601 1609 1616 1616 1616 1624 1624 1624 1632 1639 1639 1647 1647
    1647 1655 1655 1663 1663 1663 1663 1663 1663 1663 1671 1680 1680
    5132 5132 4190 4190 1616 1616 1594 1594 1564 1564 1572 1572 1572
    1572 1572 1579 1579 1586 1594 1594 1594 1601 1601 1601 1601 1609
    1616 1616 1616 1624 1624 1624 1632 1639 1647 1647 1647 1647 1655
    1655 1663 1663 1663 1663 1663 1663 1663 1663 1663 1663 5132 5132
    4190 4190 1609 1609 1586 1586 1572 1572 1572 1572 1572 1572 1572
    1579 1579 1586 1594 1594 1594 1594 1594 1601 1601 1609 1616 1616
    1616 1624 1624 1624 1624 1632 1632 1647 1647 1647 1655 1655 1655
    1655 1663 1663 1663 1663 1663 1663 1663 1663 5132 5132 4190 4190
    1609 1609 1586 1586 1572 1572 1572 1572 1572 1572 1572 1579 1579
    1579 1586 1594 1594 1594 1594 1601 1601 1609 1616 1616 1616 1624
    1624 1624 1624 1632 1632 1647 1647 1647 1655 1655 1655 1655 1663
    1671 1671 1671 1671 1663 1663 1663 5132 5132 4190 4190 1624 1624
    1616 1594 1579 1572 1572 1572 1572 1572 1572 1579 1579 1579 1586
    1594 1594 1601 1601 1601 1601 1609 1616 1616 1624 1624 1624 1632
    1632 1632 1632 1647 1647 1647 1655 1655 1655 1655 1663 1671 1671
    1671 1671 1663 1663 1663 5132 5132 4139 4139 1632 1632 1616 1601
    1579 1572 1572 1572 1572 1579 1579 1579 1579 1579 1586 1594 1594
    1601 1601 1601 1609 1616 1616 1616 1624 1624 1624 1624 1632 1632
    1632 1639 1655 1647 1647 1647 1655 1655 1663 1671 1671 1671 1671
    1671 1671 1671 5210 5210 4139 4139 1632 1632 1616 1601 1579 1572
    1572 1572 1572 1579 1579 1579 1586 1586 1594 1594 1594 1601 1601
    1601 1609 1616 1616 1624 1624 1632 1624 1624 1632 1632 1632 1639
    1655 1647 1647 1647 1655 1655 1663 1671 1671 1671 1671 1671 1671
    1671 5210 5210 4139 0 1639 1639 1624 1601 1594 1579 1572 1572 1572
    1579 1579 1579 1586 1586 1594 1594 1601 1601 1601 1601 1616 1616
    1616 1624 1624 1624 1624 1624 1624 1632 1632 1639 1647 1647 1647
    1647 1655 1655 1663 1663 1671 1671 1671 1671 1671 1671 5210 5210
    4089 4089 4089 1601 1601 1601 1594 1579 1572 1572 1572 1579 1586
    1586 1586 1594 1594 1594 1601 1601 1601 1609 1616 1616 1616 1624
    1624 1624 1624 1624 1624 1632 1632 1639 1647 1647 1647 1647 1655
    1655 1663 1663 1663 1671 1671 1671 1671 1671 1671 5291 4089 4089
    4089 0 1579 1579 1579 1572 1572 1572 1572 1572 1586 1586 1594 1594
    1594 1594 1601 1601 1601 1601 1601 1616 1616 1624 1624 1624 1624
    1624 1624 1632 1632 1639 1647 1647 1647 1647 1655 1655 1663 1663
    1663 1663 1671 1671 1671 1671 1671 5291 4089 4089 4089 0 0 0 1572
    1572 1572 1572 1572 1572 1586 1586 1594 1594 1594 1594 1594 1601
    1601 1601 1601 1616 1624 1624 1624 1624 1624 1624 1624 1632 1632
    1639 1647 1655 1655 1655 1655 1655 1663 1663 1663 1663 1671 1671
    1680 1680 1680 5210 4089 4089 4089 4190 0 1572 1572 1572 1572 1572
    1572 1579 1579 1579 1594 1594 1594 1594 1594 1601 1601 1601 1601
    1609 1624 1624 1616 1616 1624 1624 1624 1632 1632 1639 1647 1655
    1655 1655 1655 1655 1663 1663 1663 1663 1663 1680 1680 1680 1680
    5132 4139 4139 4190 0 0 0 1579 1572 1572 1572 1572 1579 1579 1579
    1586 1586 1594 1594 1594 1601 1601 1601 1601 1609 1616 1624 1616
    1616 1624 1632 1632 1632 1632 1639 1647 1655 1655 1655 1655 1663
    1663 1663 1663 1663 1663 1680 1680 1680 1680 5132 4139 4190 4190 0 0
    0 1594 1572 1572 1572 1572 1579 1579 1579 1586 1586 1594 1594 1594
    1601 1601 1601 1601 1609 1616 1624 1624 1624 1624 1632 1632 1632
    1632 1639 1647 1655 1655 1655 1655 1663 1663 1663 1663 1663 1663
    1680 1680 1680 1688 1688 4139 4190 4190 0 0 0 1564 1564 1572 1572
    1572 1579 1579 1579 1586 1586 1594 1594 1594 1601 1601 1601 1609
    1609 1616 1616 1624 1624 1624 1632 1632 1632 1632 1639 1647 1655
    1655 1655 1663 1663 1663 1663 1663 1671 1671 1680 1680 1688 1688
    1688 4190 4190 4190 4190 0 1564 1564 1564 1572 1572 1572 1579 1579
    1579 1586 1586 1594 1594 1601 1601 1601 1601 1609 1609 1616 1616
    1624 1624 1632 1632 1632 1632 1632 1647 1655 1655 1655 1655 1663
    1663 1663 1663 1663 1671 1671 1680 1680 1688 1688 1688 4190 4190
    4190 4190 0 1564 1564 1564 1572 1572 1572 1579 1579 1579 1586 1586
    1594 1594 1601 1601 1601 1609 1609 1609 1616 1624 1624 1632 1632
    1632 1632 1632 1632 1647 1655 1655 1655 1655 1663 1663 1663 1663
    1663 1671 1671 1680 1680 1688 1680 1680 4190 4139 4139 4139 0 1564
    1564 1564 1579 1579 1579 1579 1579 1579 1586 1594 1594 1594 1601
    1601 1601 1609 1609 1609 1624 1624 1624 1632 1632 1632 1632 1632
    1632 1647 1647 1647 1655 1655 1655 1663 1663 1663 1663 1671 1671
    1680 1688 1688 1680 1680 4190 4139 4139 4139 4139 4139 1594 1579
    1579 1572 1572 1579 1579 1586 1586 1586 1594 1594 1594 1601 1601
    1616 1609 1609 1624 1624 1624 1632 1632 1632 1632 1632 1632 1647
    1647 1647 1655 1655 1655 1663 1663 1663 1663 1671 1671 1680 1688
    1688 1680 1680 4190 4190 4139 4139 4139 0 1594 1594 1579 1572 1572
    1579 1586 1586 1586 1586 1586 1594 1594 1601 1601 1616 1616 1616
    1624 1624 1624 1624 1632 1632 1632 1632 1639 1647 1655 1655 1655
    1655 1655 1663 1663 1663 1663 1671 1680 1680 1688 1688 1680 1680
    4190 4190 4139 4139 4139 0 1586 1586 1579 1572 1572 1579 1579 1586
    1586 1586 1586 1586 1594 1601 1601 1609 1616 1616 1624 1624 1624
    1624 1632 1632 1632 1639 1639 1647 1655 1655 1655 1655 1655 1663
    1663 1663 1671 1671 1680 1688 1688 1688 1688 1688 4139 4190 4139
    4139 4139 0 1586 1586 1586 1572 1572 1572 1579 1586 1586 1586 1586
    1586 1594 1601 1601 1601 1609 1616 1624 1624 1624 1624 1632 1632
    1632 1639 1639 1647 1655 1655 1655 1655 1655 1663 1663 1663 1671
    1671 1680 1680 1688 1688 1688 1688 4139 4139 4139 4190 4190 0 1601
    1601 1586 1572 1572 1572 1586 1586 1586 1594 1594 1594 1594 1601
    1601 1601 1601 1609 1616 1616 1624 1632 1632 1632 1632 1639 1639
    1647 1647 1655 1655 1655 1663 1663 1663 1663 1671 1671 1671 1680
    1688 1688 1688 1688 4139 4139 4139 4139 4295 0 1616 1616 1601 1579
    1572 1572 1586 1586 1586 1594 1594 1594 1594 1601 1601 1601 1601
    1609 1616 1616 1624 1632 1632 1632 1632 1639 1639 1639 1647 1647
    1647 1655 1655 1663 1663 1663 1671 1671 1671 1680 1688 1688 1688
    1688 4139 4139 4190 4295 4295 4190 1616 1616 1601 1594 1579 1579
    1586 1594 1594 1594 1594 1594 1594 1601 1601 1601 1609 1609 1616
    1616 1624 1632 1632 1632 1632 1639 1639 1639 1647 1647 1647 1655
    1655 1663 1663 1663 1671 1671 1671 1680 1688 1688 1688 1688 4190
    4190 4190 4190 4190 4190 1624 1624 1609 1594 1579 1579 1586 1586
    1594 1594 1594 1594 1601 1601 1601 1601 1609 1609 1616 1616 1632
    1632 1632 1632 1632 1639 1647 1647 1655 1655 1655 1655 1663 1663
    1671 1671 1671 1671 1680 1680 1688 1680 1680 1680 4190 4190 4190
    4139 3859 3859 0 1601 1601 1594 1586 1586 1586 1586 1594 1594 1594
    1594 1601 1601 1601 1609 1609 1609 1616 1624 1632 1632 1632 1632
    1632 1639 1639 1647 1647 1647 1655 1655 1663 1663 1663 1671 1671
    1671 1671 1680 1688 1680 1680 1680 4190 4190 4190 4139 3859 3859 0
    1601 1601 1594 1586 1586 1594 1594 1594 1594 1594 1594 1601 1601
    1601 1601 1601 1601 1616 1624 1632 1632 1632 1632 1632 1639 1639
    1647 1639 1639 1655 1655 1663 1663 1663 1671 1671 1671 1671 1680
    1688 1680 1680 1680 4139 4139 4190 4139 3948 3948 3948 1609 1609
    1586 1586 1586 1586 1594 1594 1594 1594 1594 1601 1601 1601 1601
    1601 1601 1616 1624 1632 1632 1632 1632 1632 1639 1639 1647 1639
    1639 1655 1663 1663 1663 1663 1671 1671 1671 1671 1680 1688 1680
    1680 1680 4139 4139 4190 4139 4139 4139 4139 1586 1586 1586 1586
    1586 1586 1594 1594 1594 1594 1594 1601 1601 1601 1601 1601 1601
    1609 1624 1624 1624 1624 1632 1632 1639 1639 1639 1639 1639 1655
    1663 1663 1663 1671 1663 1663 1663 1663 1688 1696 1696 5460 5291
    4190 4190 4190 4190 4139 4139 4139 0 1594 1594 1586 1579 1579 1579
    1586 1594 1594 1594 1601 1601 1601 1601 1601 1601 1609 1624 1624
    1624 1624 1632 1632 1632 1632 1639 1639 1639 5132 5210 5210 1671
    1671 1663 1663 1663 1663 5291 5374 5374 5460 5374 4190 4190 4190
    4190 4139 4139 4139 4139 1601 1601 1586 1579 1579 1579 1586 1586
    1594 1594 1601 1601 1601 1601 1601 1609 1609 1616 1624 1624 1624
    1632 1632 1632 1632 5056 5132 5132 5132 5210 5210 5210 5210 5210
    5210 5291 5291 5291 5374 5374 5374 5374 4190 4190 4190 4190 4190
    4139 4139 4139 1601 1601 1594 1586 1579 1579 1586 1586 1594 1601
    1601 1601 1601 1601 1601 1601 1616 1616 1624 1624 1624 1632 4911
    4911 4983 5056 5132 5132 5132 5210 5210 5210 5291 5291 5291 5291
    5291 5291 5374 5374 5374 5374 4139 4190 4190 4190 4190 4139 4139
    4190 4190 1632 1609 1594 1594 1601 1601 1601 1601 1609 1609 4582
    1601 1601 1601 1601 1632 1624 1624 4842 4842 4911 4911 4911 4983
    5132 5132 5210 5210 5210 5210 5210 5291 5291 5374 5374 5374 5374
    5374 5374 5460 5374</data></Depth3741>
</opencv_storage>
