<?xml version="1.0"?>
<opencv_storage>
<Depth9435 type_id="opencv-matrix">
  <rows>93</rows>
  <cols>62</cols>
  <dt>w</dt>
  <data>
    4190 4190 4190 4190 4190 4190 4190 4190 4190 4190 1214 1214 1214
    1214 1232 4190 4190 4190 4190 4139 4139 4139 4139 4089 4089 4089
    4089 4089 4089 4041 4041 4041 4041 4041 4041 4041 4041 4041 4041
    4041 4041 4089 4041 4041 4041 4041 4041 4041 4041 4041 4041 4041
    3994 3948 3948 3948 3948 3948 3948 3903 3903 3948 4190 4190 4190
    4190 4190 4190 4190 4190 4190 1214 1214 1214 1214 1214 1223 1250
    1255 1255 4190 4139 4139 4089 4089 4089 4089 4139 4089 4089 4089
    4041 4041 4041 4041 4041 4041 4041 4041 4041 4041 4041 4041 4041
    4041 4041 4041 4041 4041 4041 4041 4041 4041 4041 4041 3994 3948
    3948 3948 3948 3948 3903 3903 3948 4241 4241 4241 4241 4241 0 1210
    1210 1210 1210 1210 1210 1210 1210 1210 1210 1255 1255 1255 1202
    4089 4089 4089 4139 4139 4139 4089 1232 1223 1223 1223 4041 4041
    4041 4041 4089 4041 4041 3994 3994 3994 4041 4041 4041 4041 4041
    4041 4041 4041 4041 4041 4041 4041 3994 3948 3948 3948 3903 3903
    3903 3948 3948 4241 4241 4241 4241 0 1210 1210 1210 1210 1206 1206
    1206 1206 1202 1202 1202 1202 1202 1202 1202 1202 1214 1214 4241
    4241 1185 1219 1219 1214 1214 1214 1214 1214 4139 4139 4089 4041
    4041 3994 3994 3994 4041 4041 4041 4041 4041 4041 4041 4041 4041
    4041 4041 4041 3994 3948 3948 3948 3903 3903 3903 0 3948 4241 0 4241
    0 0 0 1206 1206 1206 1206 1202 1202 1206 1202 1202 1202 1197 1197
    1197 1197 1197 1197 1197 1197 1193 1185 1185 1189 1210 1210 1206
    1206 1202 1202 1197 1197 1197 1185 3994 3994 3994 4041 4041 4041
    4041 4041 4041 4041 4041 4041 4041 3994 3994 3948 3948 3948 3948
    3903 3903 3903 3903 3903 4241 0 0 0 0 0 1206 1206 1206 1206 1202
    1202 1206 1202 1202 1197 1197 1197 1197 1193 1193 1193 1189 1189
    1185 1185 1185 1185 1185 1189 1193 1189 1189 1193 1185 1185 1189
    1185 1181 1181 1181 1181 1181 1177 1177 1177 1157 1157 1157 4041
    4041 3994 3948 3903 3903 3903 3859 3859 1157 1157 0 0 4241 0 0 0 0 0
    1202 1202 1202 1202 1202 1202 1202 1202 1202 1197 1197 1197 1197
    1193 1193 1193 1189 1189 1185 1185 1185 1185 1181 1181 1185 1185
    1185 1185 1185 1185 1185 1185 1181 1181 1181 1181 1177 1177 1177
    1177 1157 1157 1157 1173 1173 3948 3948 3903 3859 3859 3859 0 0 0 0
    0 4241 0 0 0 0 1197 1197 1202 1202 1202 1202 1202 1202 1202 1202
    1202 1197 1197 1197 1193 1193 1193 1189 1189 1185 1185 1185 1181
    1181 1181 1185 1185 1185 1185 1181 1181 1181 1181 1181 1181 1181
    1177 1177 1177 1177 1177 1173 1173 1173 1173 1173 1173 1173 1169
    1169 3859 3859 1157 1157 1157 1161 0 4241 0 0 0 0 1197 1197 1202
    1206 1206 1206 1206 1202 1202 1202 1202 1197 1197 1197 1193 1193
    1193 1189 1189 1185 1185 1185 1181 1181 1181 1185 1185 1185 1181
    1181 1181 1181 1181 1181 1181 1177 1173 1173 1173 1173 1173 1173
    1173 1173 1173 1173 1169 1169 1165 1165 1165 1165 1157 1157 1157
    1161 1161 0 0 0 0 0 1202 1202 1206 1210 1206 1206 1206 1202 1202
    1202 1202 1197 1197 1197 1197 1193 1193 1193 1189 1189 1185 1185
    1185 1185 1185 1185 1185 1185 1181 1181 1181 1181 1181 1181 1181
    1177 1173 1173 1173 1173 1169 1169 1169 1169 1169 1169 1169 1165
    1165 1165 1161 1161 1157 1153 1153 1157 1157 0 0 0 0 0 0 1206 1206
    1210 1206 1206 1206 1202 1202 1202 1202 1197 1197 1197 1197 1197
    1197 1193 1193 1189 1189 1185 1185 1185 1185 1185 1181 1181 1181
    1181 1181 1181 1181 1181 1181 1181 1177 1177 1173 1173 1169 1169
    1169 1169 1169 1169 1165 1165 1165 1165 1161 1161 1157 1153 1153
    1157 1157 0 0 0 0 0 1214 1210 1210 1210 1210 1210 1206 1206 1202
    1202 1197 1197 1197 1197 1197 1197 1197 1193 1193 1193 1189 1189
    1185 1185 1185 1185 1181 1181 1181 1181 1181 1181 1181 1177 1177
    1181 1177 1177 1173 1169 1169 1169 1169 1169 1169 1165 1165 1165
    1161 1161 1157 1157 1157 1153 1153 1153 1153 0 0 0 0 0 1214 1210
    1210 1210 1206 1206 1206 1202 1202 1202 1197 1197 1197 1197 1197
    1197 1197 1193 1193 1193 1189 1185 1185 1185 1185 1185 1181 1181
    1181 1181 1181 1181 1181 1177 1177 1177 1177 1177 1173 1169 1169
    1169 1169 1169 1169 1165 1165 1165 1161 1161 1157 1157 1157 1157
    1153 1153 1153 0 0 0 0 0 1214 1210 1210 1210 1206 1206 1206 1202
    1202 1202 1197 1197 1197 1197 1197 1197 1197 1193 1193 1193 1189
    1185 1185 1185 1185 1185 1181 1181 1181 1181 1181 1181 1181 1177
    1177 1177 1177 1177 1173 1173 1169 1169 1169 1169 1169 1165 1165
    1165 1165 1161 1161 1157 1157 1157 1157 1153 1153 0 0 0 0 0 1214
    1210 1210 1210 1210 1210 1206 1202 1202 1202 1202 1197 1197 1197
    1197 1197 1197 1193 1189 1189 1189 1185 1185 1185 1185 1185 1181
    1181 1181 1181 1181 1181 1181 1177 1177 1177 1177 1177 1173 1173
    1173 1169 1169 1169 1169 1165 1161 1161 1161 1161 1157 1157 1157
    1157 1157 1157 1157 0 0 0 0 0 1214 1210 1210 1210 1210 1210 1206
    1202 1202 1202 1202 1202 1197 1197 1197 1197 1197 1193 1189 1189
    1189 1185 1185 1185 1185 1185 1181 1181 1181 1181 1181 1181 1181
    1177 1177 1177 1177 1177 1173 1173 1173 1169 1169 1169 1165 1165
    1161 1161 1161 1157 1157 1157 1157 1157 1157 1157 1157 0 0 0 0 0
    1214 1210 1210 1210 1210 1210 1206 1206 1202 1202 1202 1202 1202
    1197 1197 1197 1197 1197 1193 1193 1189 1185 1185 1185 1185 1185
    1181 1181 1181 1181 1181 1181 1181 1181 1177 1177 1173 1173 1173
    1173 1173 1169 1169 1165 1165 1165 1165 1161 1161 1157 1157 1157
    1157 1157 1157 1157 1157 0 0 0 0 0 1214 1210 1210 1210 1210 1210
    1206 1206 1202 1202 1202 1202 1202 1197 1197 1197 1197 1197 1193
    1193 1189 1185 1185 1185 1185 1185 1181 1181 1181 1181 1181 1181
    1181 1181 1177 1177 1173 1173 1173 1173 1173 1169 1169 1165 1165
    1165 1165 1161 1161 1157 1157 1157 1157 1157 1157 1157 1157 0 0 0 0
    0 1210 1210 1210 1210 1210 1210 1206 1206 1202 1202 1202 1202 1202
    1197 1197 1197 1197 1197 1193 1193 1189 1185 1185 1185 1185 1185
    1181 1181 1181 1181 1181 1185 1181 1181 1181 1177 1177 1173 1173
    1173 1173 1169 1169 1169 1169 1169 1165 1165 1161 1161 1157 1157
    1157 1157 1157 1157 1157 0 0 0 0 0 1210 1210 1210 1210 1210 1210
    1210 1206 1202 1202 1202 1202 1202 1202 1197 1197 1197 1193 1193
    1193 1189 1189 1185 1185 1185 1185 1181 1181 1181 1181 1181 1185
    1181 1181 1181 1177 1177 1173 1173 1173 1173 1169 1169 1169 1169
    1169 1169 1165 1161 1161 1157 1157 1157 1157 1157 1157 0 0 0 0 0 0
    1210 1210 1210 1210 1210 1210 1210 1206 1202 1202 1202 1202 1202
    1202 1197 1197 1197 1193 1193 1193 1189 1189 1185 1185 1185 1185
    1185 1185 1181 1181 1181 1185 1185 1185 1181 1181 1177 1173 1173
    1173 1173 1173 1173 1169 1169 1169 1169 1165 1161 1161 1161 1161
    1157 1157 1157 1157 0 0 0 0 0 0 1214 1214 1214 1214 1214 1210 1210
    1206 1206 1202 1202 1197 1197 1197 1197 1197 1197 1197 1193 1193
    1189 1189 1185 1185 1185 1185 1185 1185 1181 1181 1181 1185 1181
    1181 1181 1181 1177 1177 1173 1173 1173 1173 1173 1169 1169 1169
    1169 1165 1161 1161 1161 1161 1157 1157 1157 1157 0 0 0 0 0 0 1219
    1219 1214 1214 1214 1210 1206 1206 1206 1206 1202 1197 1197 1197
    1197 1197 1197 1197 1193 1193 1189 1189 1185 1185 1185 1185 1185
    1181 1181 1181 1181 1181 1181 1181 1181 1177 1177 1177 1173 1173
    1173 1173 1169 1169 1169 1169 1169 1165 1157 1157 1157 1157 1157
    1157 1157 0 0 0 0 0 0 0 1219 1219 1214 1214 1214 1210 1206 1206 1206
    1206 1202 1202 1197 1197 1197 1197 1193 1193 1193 1193 1189 1189
    1185 1185 1185 1185 1181 1181 1181 1177 1177 1181 1181 1181 1181
    1177 1177 1177 1173 1173 1173 1169 1169 1169 1169 1169 1169 1165
    1157 1157 1157 1157 1157 1157 1157 0 0 0 0 0 0 1223 1219 1219 1214
    1214 1210 1210 1206 1206 1206 1206 1202 1202 1197 1197 1197 1197
    1193 1193 1193 1193 1193 1189 1189 1185 1185 1185 1181 1181 1181
    1177 1177 1185 1181 1181 1181 1177 1177 1177 1177 1177 1173 1169
    1169 1169 1169 1169 1169 1165 1157 1157 1157 1157 1157 1161 1161 0 0
    0 0 0 0 1223 1219 1219 1214 1214 1210 1210 1206 1206 1206 1206 1202
    1202 1202 1197 1197 1197 1193 1193 1193 1193 1193 1193 1189 1189
    1185 1185 1185 1185 1181 1181 1181 1185 1185 1185 1181 1177 1177
    1177 1177 1173 1173 1173 1169 1169 1169 1169 1169 1169 1161 1157
    1157 1157 1157 1161 1161 1161 0 0 0 0 0 1219 1219 1219 1214 1214
    1210 1210 1210 1206 1206 1206 1202 1202 1202 1197 1197 1197 1193
    1193 1193 1189 1189 1193 1189 1185 1185 1185 1185 1185 1181 1181
    1181 1185 1185 1185 1181 1177 1177 1177 1173 1173 1173 1173 1169
    1169 1169 1169 1169 1165 1161 1161 1157 1157 1157 1157 1157 1157 0 0
    0 0 0 1219 1219 1214 1214 1214 1210 1210 1210 1210 1206 1206 1202
    1202 1202 1202 1197 1197 1193 1193 1193 1189 1189 1193 1189 1185
    1185 1185 1185 1181 1181 1181 1181 1185 1185 1185 1185 1181 1177
    1177 1173 1173 1173 1173 1173 1173 1169 1169 1169 1165 1161 1161
    1157 1157 1157 1157 1157 1157 0 0 0 0 0 1219 1219 1214 1214 1214
    1214 1214 1210 1210 1206 1206 1202 1202 1202 1202 1197 1197 1197
    1197 1193 1193 1193 1193 1189 1189 1185 1185 1185 1181 1181 1181
    1181 1185 1185 1185 1181 1181 1177 1177 1173 1173 1173 1173 1173
    1173 1169 1169 1165 1165 1161 1161 1157 1157 1157 1157 1157 1157
    3948 0 0 0 0 1219 1219 1214 1214 1214 1214 1214 1206 1206 1206 1206
    1202 1202 1202 1202 1202 1197 1197 1197 1197 1197 1193 1189 1189
    1189 1185 1185 1185 1185 1181 1181 1181 1185 1185 1185 1181 1181
    1177 1173 1173 1173 1173 1169 1169 1169 1169 1169 1165 1165 1161
    1161 1157 1157 1157 1157 1157 1157 3948 0 0 0 0 1219 1219 1214 1214
    1214 1214 1210 1206 1206 1206 1206 1202 1202 1202 1202 1202 1202
    1197 1197 1197 1197 1197 1189 1189 1185 1185 1185 1185 1185 1181
    1181 1181 1185 1185 1185 1185 1181 1177 1173 1173 1173 1173 1169
    1169 1169 1169 1169 1169 1165 1161 1161 1161 1161 1161 1157 1157
    1157 3903 0 0 0 1219 1219 1219 1214 1214 1214 1214 1210 1206 1206
    1206 1206 1206 1202 1202 1202 1202 1197 1197 1197 1197 1197 1197
    1189 1189 1185 1185 1185 1185 1185 1181 1181 1181 1185 1185 1185
    1185 1181 1177 1173 1173 1173 1173 1173 1173 1173 1169 1169 1165
    1165 1161 1161 1161 1161 1161 1165 1165 1165 3903 0 0 0 1214 1214
    1214 1214 1214 1214 1214 1214 1210 1210 1206 1206 1206 1202 1202
    1202 1202 1197 1197 1197 1197 1193 1193 1189 1189 1185 1185 1185
    1185 1185 1181 1181 1181 1185 1185 1185 1185 1185 1177 1173 1173
    1173 1173 1173 1173 1169 1169 1169 1165 1165 1161 1161 1161 1161
    1161 1165 1165 0 3903 0 0 0 1214 1214 1214 1214 1214 1214 1214 1214
    1214 1210 1210 1206 1206 1202 1202 1202 1197 1197 1193 1193 1193
    1193 1193 1193 1189 1189 1185 1185 1185 1185 1181 1181 1181 1185
    1185 1185 1185 1185 1181 1177 1173 1173 1173 1173 1173 1169 1169
    1169 1165 1165 1165 1165 1165 1157 1157 1157 1157 0 3903 0 0 0 1214
    1214 1214 1219 1219 1219 1214 1214 1214 1210 1210 1206 1206 1206
    1202 1202 1197 1197 1193 1193 1193 1193 1193 1193 1193 1189 1189
    1185 1185 1185 1181 1181 1181 1185 1185 1185 1181 1177 1177 1177
    1173 1173 1173 1173 1173 1169 1169 1169 1165 1165 1165 1165 1165
    1157 1153 1153 1153 0 3903 0 0 0 1214 1214 1214 1219 1219 1219 1214
    1210 1210 1210 1210 1206 1206 1206 1202 1202 1202 1197 1197 1197
    1197 1197 1197 1193 1193 1189 1189 1185 1185 1185 1181 1181 1181
    1185 1185 1185 1181 1177 1177 1177 1177 1173 1173 1173 1173 1169
    1169 1169 1165 1165 1165 1165 1161 1157 1153 1153 1153 0 3948 0 0 0
    1214 1214 1214 1219 1219 1219 1214 1210 1210 1210 1210 1210 1206
    1206 1202 1202 1202 1197 1197 1197 1197 1197 1197 1193 1193 1189
    1189 1185 1185 1185 1181 1181 1181 1185 1185 1185 1181 1177 1177
    1177 1177 1173 1173 1173 1173 1169 1169 1169 1169 1165 1165 1165
    1161 1161 1153 1153 1153 0 3903 0 0 0 1219 1219 1219 1214 1214 1214
    1214 1210 1210 1210 1210 1206 1206 1206 1202 1202 1202 1197 1197
    1197 1197 1197 1197 1193 1189 1189 1185 1185 1185 1185 1181 1181
    1181 1185 1185 1185 1181 1177 1177 1177 1177 1173 1173 1173 1173
    1173 1169 1169 1169 1165 1165 1161 1161 1161 1157 1157 1157 3859
    3903 0 0 1232 1219 1219 1219 1214 1214 1214 1214 1210 1210 1210 1206
    1206 1206 1206 1202 1202 1202 1197 1197 1197 1197 1197 1197 1197
    1189 1189 1185 1185 1185 1185 1181 1181 1181 1185 1185 1185 1181
    1177 1177 1173 1173 1173 1173 1173 1173 1173 1169 1169 1169 1165
    1165 1161 1157 1157 1161 1161 1161 3859 3859 0 0 1232 1223 1219 1219
    1214 1214 1214 1214 1214 1214 1210 1206 1206 1202 1202 1202 1202
    1202 1197 1197 1197 1197 1197 1197 1197 1193 1189 1189 1185 1185
    1185 1181 1181 1181 1185 1185 1185 1181 1181 1177 1173 1173 1173
    1173 1173 1173 1173 1173 1169 1169 1165 1165 1161 1157 1157 1161
    1161 1161 3859 3859 0 0 0 1223 1219 1219 1214 1214 1214 1214 1214
    1214 1210 1210 1206 1202 1202 1202 1202 1202 1197 1197 1197 1197
    1197 1197 1197 1193 1193 1189 1185 1185 1185 1185 1181 1181 1185
    1185 1185 1185 1181 1177 1177 1173 1173 1173 1173 1173 1173 1173
    1169 1169 1165 1165 1161 1157 1157 1165 1165 0 3903 3903 0 0 0 1223
    1219 1219 1214 1214 1214 1214 1214 1214 1210 1210 1210 1206 1206
    1206 1202 1202 1202 1197 1197 1197 1197 1197 1197 1193 1193 1189
    1185 1185 1185 1185 1185 1185 1189 1185 1185 1181 1177 1177 1177
    1177 1173 1173 1173 1173 1173 1173 1169 1169 1169 1165 1161 1161
    1161 1165 1165 0 3948 3948 0 0 0 1227 1223 1219 1219 1214 1214 1214
    1214 1214 1214 1214 1210 1206 1206 1202 1202 1202 1202 1197 1197
    1197 1197 1197 1197 1193 1189 1189 1185 1185 1185 1185 1185 1185
    1185 1185 1185 1181 1177 1177 1177 1177 1177 1177 1173 1173 1173
    1169 1169 1169 1165 1165 1161 1161 1161 1165 1165 0 3948 3948 0 0 0
    1223 1223 1219 1219 1214 1214 1214 1214 1214 1214 1214 1210 1206
    1206 1202 1202 1202 1202 1197 1197 1197 1197 1197 1197 1193 1189
    1189 1185 1185 1185 1185 1185 1185 1185 1185 1185 1181 1177 1177
    1177 1177 1177 1177 1173 1173 1173 1169 1169 1169 1165 1165 1161
    1161 1161 1165 0 3903 3903 3903 0 0 0 1219 1219 1219 1219 1219 1214
    1214 1214 1214 1214 1210 1210 1210 1206 1206 1202 1202 1202 1197
    1197 1197 1197 1197 1197 1193 1189 1189 1185 1185 1185 1185 1185
    1185 1185 1185 1185 1181 1181 1181 1181 1177 1177 1177 1173 1173
    1173 1169 1169 1165 1165 1165 1161 1161 1161 1165 0 3903 3903 3903 0
    0 0 1219 1219 1219 1219 1219 1214 1214 1214 1210 1210 1210 1210 1210
    1206 1206 1202 1202 1202 1197 1197 1197 1197 1197 1197 1193 1189
    1189 1185 1185 1185 1185 1185 1185 1185 1185 1185 1181 1181 1181
    1181 1181 1181 1177 1173 1173 1173 1169 1169 1165 1165 1165 1161
    1161 1161 1161 1161 3903 3903 3903 0 0 0 1223 1223 1219 1219 1219
    1219 1214 1214 1210 1210 1210 1210 1210 1206 1206 1206 1202 1202
    1202 1202 1197 1197 1197 1197 1193 1189 1189 1189 1189 1185 1185
    1185 1185 1189 1189 1185 1181 1181 1181 1181 1181 1181 1177 1173
    1173 1173 1169 1169 1165 1165 1165 1161 1161 1161 1161 1161 3903
    3903 3903 0 0 1227 1223 1223 1219 1219 1219 1219 1214 1214 1210 1210
    1210 1210 1210 1206 1206 1206 1202 1202 1202 1202 1197 1197 1197
    1197 1193 1189 1189 1189 1189 1185 1185 1185 1185 1189 1189 1185
    1181 1181 1181 1181 1181 1181 1177 1177 1173 1173 1173 1169 1169
    1165 1165 1165 1165 1157 1157 1157 1157 3903 3903 0 0 1227 1227 1227
    1219 1219 1214 1214 1214 1214 1214 1210 1210 1210 1210 1206 1202
    1202 1202 1202 1202 1202 1202 1202 1197 1197 1193 1189 1189 1185
    1185 1185 1185 1185 1185 1189 1189 1185 1181 1181 1181 1181 1181
    1181 1177 1177 1177 1173 1173 1169 1169 1169 1169 1169 1165 1157
    1157 1157 3903 3903 3903 0 1219 1219 1223 1223 1223 1219 1214 1214
    1214 1214 1214 1210 1210 1210 1210 1206 1202 1202 1202 1202 1202
    1202 1202 1202 1197 1197 1193 1189 1189 1185 1185 1185 1185 1185
    1185 1189 1185 1185 1185 1185 1181 1181 1181 1181 1177 1177 1173
    1173 1173 1169 1169 1169 1169 1169 1165 1161 1161 1161 0 3903 3903 0
    1219 1219 1219 1223 1223 1219 1214 1214 1214 1214 1214 1214 1210
    1210 1210 1206 1206 1206 1202 1202 1202 1202 1202 1202 1197 1197
    1193 1189 1189 1185 1185 1185 1185 1185 1185 1189 1185 1185 1185
    1185 1181 1181 1181 1177 1177 1173 1173 1173 1173 1173 1169 1169
    1169 1169 1165 1165 1165 1165 3859 3859 3859 0 1214 1214 1219 1223
    1223 1219 1214 1214 1214 1214 1214 1214 1214 1214 1210 1210 1210
    1206 1202 1202 1202 1202 1202 1202 1197 1197 1193 1193 1189 1189
    1189 1189 1185 1185 1185 1189 1185 1185 1185 1185 1181 1181 1177
    1177 1173 1173 1173 1173 1173 1169 1169 1169 1169 1165 1165 1165
    1165 0 3732 3732 3732 0 1214 1214 1219 1223 1219 1219 1214 1214 1214
    1214 1214 1214 1214 1214 1214 1214 1210 1206 1206 1202 1202 1202
    1202 1202 1197 1197 1197 1193 1193 1189 1189 1189 1185 1185 1185
    1189 1185 1185 1185 1185 1181 1181 1177 1177 1173 1173 1173 1173
    1173 1169 1169 1169 1165 1165 1165 1165 1165 0 3732 3732 3732 1232
    1223 1219 1219 1223 1219 1219 1219 1219 1219 1214 1214 1214 1214
    1214 1214 1210 1210 1206 1206 1202 1202 1202 1202 1202 1197 1197
    1193 1193 1193 1189 1189 1189 1189 1185 1185 1189 1185 1185 1185
    1185 1181 1181 1177 1173 1173 1173 1173 1173 1173 1169 1169 1169
    1165 1165 1165 1165 1165 0 3816 3816 3816 1232 1227 1219 1219 1223
    1223 1219 1219 1219 1219 1214 1214 1214 1214 1214 1210 1210 1206
    1206 1206 1202 1202 1202 1202 1197 1193 1193 1193 1193 1189 1189
    1185 1185 1185 1189 1189 1189 1185 1185 1185 1185 1181 1181 1177
    1173 1173 1173 1173 1173 1173 1169 1169 1169 1169 1165 1161 1161 0 0
    0 3903 3903 1232 1232 1223 1223 1223 1219 1219 1219 1219 1214 1214
    1214 1214 1214 1210 1210 1210 1206 1202 1202 1202 1202 1202 1202
    1197 1193 1193 1193 1193 1189 1189 1185 1185 1185 1189 1189 1189
    1189 1185 1185 1185 1181 1181 1181 1177 1173 1173 1173 1173 1173
    1169 1169 1169 1169 1165 1157 1157 0 0 0 3948 3948 1236 1232 1227
    1227 1223 1219 1219 1219 1219 1214 1214 1214 1214 1214 1210 1210
    1210 1206 1202 1202 1202 1202 1202 1202 1197 1193 1193 1193 1193
    1193 1189 1189 1189 1189 1189 1189 1189 1189 1185 1185 1185 1181
    1181 1181 1177 1177 1173 1173 1173 1173 1169 1169 1169 1169 1165
    1157 1157 1157 0 3948 3948 3948 1236 1232 1227 1227 1223 1219 1219
    1219 1219 1214 1214 1214 1214 1214 1210 1210 1210 1206 1206 1202
    1202 1202 1202 1202 1197 1197 1197 1197 1197 1197 1193 1189 1189
    1189 1189 1189 1189 1189 1185 1185 1185 1185 1185 1181 1177 1173
    1173 1173 1173 1173 1169 1169 1169 1169 1169 1153 1153 1153 0 4089
    3994 3994 1236 1232 1227 1227 1223 1223 1219 1219 1219 1214 1214
    1214 1214 1214 1214 1214 1210 1210 1206 1206 1202 1202 1202 1202
    1197 1197 1197 1197 1197 1197 1193 1189 1189 1189 1189 1189 1189
    1189 1185 1185 1185 1185 1185 1181 1177 1173 1173 1173 1173 1173
    1169 1169 1169 1169 1169 1153 1153 1153 0 4089 4089 3994 1232 1232
    1227 1227 1227 1223 1219 1219 1219 1219 1219 1214 1214 1214 1214
    1214 1214 1210 1210 1206 1202 1202 1202 1202 1202 1197 1197 1197
    1197 1197 1193 1189 1189 1189 1189 1189 1189 1189 1185 1185 1185
    1185 1185 1185 1181 1177 1177 1173 1173 1173 1169 1169 1169 1169
    1169 1161 1161 1161 3903 4041 4041 4041 1232 1232 1227 1227 1227
    1223 1219 1219 1219 1219 1219 1214 1214 1214 1214 1214 1210 1210
    1210 1206 1202 1202 1202 1202 1202 1197 1197 1197 1197 1193 1189
    1189 1189 1189 1189 1189 1189 1189 1185 1185 1185 1185 1185 1181
    1181 1181 1181 1177 1173 1173 1169 1169 1169 1169 1169 1161 1161
    1161 3903 3903 3903 4041 1232 1232 1232 1227 1227 1223 1219 1219
    1219 1219 1219 1214 1214 1214 1214 1214 1210 1210 1210 1206 1206
    1206 1202 1202 1202 1197 1197 1197 1197 1193 1189 1189 1189 1189
    1189 1189 1189 1189 1185 1185 1185 1185 1185 1181 1181 1181 1181
    1177 1173 1173 1169 1169 1169 1169 1169 1169 1169 1169 3859 3859
    3859 3994 1232 1232 1227 1227 1227 1223 1223 1219 1219 1219 1219
    1214 1214 1214 1214 1214 1210 1210 1210 1206 1206 1202 1202 1202
    1202 1197 1197 1197 1197 1197 1193 1193 1193 1193 1193 1193 1189
    1189 1189 1185 1185 1185 1185 1181 1181 1181 1181 1177 1173 1173
    1173 1173 1173 1173 1169 1169 1169 3120 3149 3149 3149 3149 1232
    1232 1227 1227 1227 1223 1223 1219 1219 1219 1219 1214 1214 1214
    1214 1214 1210 1210 1210 1206 1206 1202 1202 1202 1202 1202 1202
    1197 1197 1197 1197 1193 1193 1193 1189 1189 1189 1189 1189 1185
    1185 1185 1181 1181 1181 1177 1177 1177 1177 1173 1173 1173 1173
    1169 1169 1169 1169 3120 3120 3120 3120 3149 1236 1236 1232 1227
    1227 1223 1219 1219 1219 1219 1219 1214 1214 1214 1214 1214 1210
    1210 1210 1206 1206 1202 1202 1202 1202 1202 1202 1197 1197 1197
    1193 1193 1193 1193 1189 1189 1189 1189 1189 1185 1185 1185 1181
    1181 1181 1177 1177 1177 1173 1173 1173 1173 1169 1169 1169 1169
    1169 3092 3092 3064 3064 3064 1236 1232 1232 1227 1223 1223 1219
    1219 1219 1219 1219 1214 1214 1214 1210 1210 1214 1214 1210 1206
    1202 1202 1202 1202 1202 1202 1202 1197 1197 1197 1193 1193 1193
    1193 1193 1189 1189 1189 1189 1185 1185 1185 1185 1185 1181 1177
    1173 1173 1173 1173 1173 1169 1169 1169 1165 1165 1165 3064 3064
    3064 3037 3037 1236 1232 1232 1227 1223 1219 1219 1219 1219 1219
    1219 1214 1214 1214 1210 1210 1214 1214 1210 1206 1202 1202 1202
    1202 1202 1202 1197 1197 1197 1193 1193 1193 1189 1189 1193 1189
    1189 1185 1185 1185 1185 1185 1185 1185 1181 1177 1173 1173 1173
    1173 1173 1169 1169 1169 1165 1165 1165 3037 3037 3037 3037 3037
    1232 1232 1232 1232 1223 1219 1219 1219 1219 1219 1219 1219 1214
    1214 1214 1214 1214 1214 1214 1210 1206 1202 1202 1202 1202 1202
    1197 1197 1197 1193 1193 1193 1189 1189 1189 1189 1189 1185 1185
    1185 1185 1185 1185 1185 1185 1177 1173 1173 1173 1173 1173 1173
    1169 1169 1165 1165 1165 3064 3037 3037 3037 3037 1232 1232 1232
    1232 1223 1219 1219 1219 1219 1219 1219 1219 1214 1214 1214 1214
    1214 1214 1210 1206 1206 1202 1202 1202 1202 1202 1197 1197 1197
    1193 1193 1193 1189 1189 1189 1189 1189 1189 1189 1185 1185 1185
    1185 1185 1181 1181 1177 1173 1173 1173 1173 1173 1169 1169 1169
    1169 3064 3064 3037 3037 3037 3037 1232 1232 1232 1232 1227 1223
    1223 1223 1219 1219 1219 1219 1219 1214 1214 1214 1210 1210 1210
    1206 1206 1202 1202 1202 1202 1202 1197 1197 1197 1197 1193 1193
    1189 1189 1189 1189 1189 1189 1185 1185 1185 1185 1185 1185 1181
    1181 1177 1173 1173 1173 1173 1173 1169 1169 1169 1169 3064 3064
    3037 3037 3037 3010 1232 1232 1232 1227 1227 1223 1223 1223 1219
    1219 1219 1219 1219 1214 1214 1210 1210 1210 1206 1206 1202 1202
    1202 1202 1202 1197 1197 1197 1197 1197 1193 1193 1189 1189 1193
    1193 1189 1189 1185 1185 1185 1185 1185 1185 1181 1181 1181 1177
    1173 1173 1173 1173 1169 1169 1169 1169 3064 3064 3064 3037 3037
    3010 1232 1232 1232 1227 1227 1227 1223 1223 1223 1219 1219 1219
    1219 1214 1214 1210 1210 1206 1206 1202 1202 1202 1202 1202 1202
    1197 1197 1197 1197 1197 1193 1193 1193 1193 1193 1193 1189 1189
    1185 1185 1185 1185 1185 1185 1181 1181 1181 1177 1173 1173 1173
    1173 1169 1169 1169 1169 3064 3064 3064 3037 3037 3010 1232 1232
    1232 1227 1227 1227 1227 1223 1223 1219 1219 1219 1214 1214 1214
    1210 1210 1206 1206 1202 1202 1202 1202 1202 1202 1197 1197 1197
    1197 1193 1193 1189 1189 1193 1193 1189 1189 1189 1185 1185 1189
    1189 1185 1185 1181 1177 1177 1177 1173 1173 1173 1173 1173 1169
    1169 1169 0 3064 3064 3037 3037 3010 1232 1232 1232 1227 1223 1223
    1223 1223 1219 1219 1219 1219 1214 1214 1214 1210 1210 1210 1206
    1206 1202 1202 1202 1202 1202 1202 1202 1202 1197 1193 1193 1189
    1189 1189 1189 1189 1189 1189 1189 1189 1189 1189 1185 1185 1181
    1177 1177 1173 1173 1173 1173 1173 1173 1157 1157 0 0 3064 3037 3037
    3037 3037 1232 1232 1232 1227 1223 1219 1219 1219 1219 1219 1219
    1219 1219 1214 1214 1210 1210 1210 1206 1206 1206 1202 1202 1202
    1202 1202 1202 1197 1197 1193 1193 1189 1189 1189 1189 1189 1189
    1189 1189 1189 1189 1189 1185 1185 1181 1177 1177 1173 1173 1173
    1173 1173 1161 1153 1153 0 0 3037 3037 3037 3037 3037 1232 1232 1232
    1223 1219 1219 1219 1219 1219 1219 1219 1219 1219 1214 1214 1214
    1210 1210 1210 1206 1206 1202 1202 1202 1202 1202 1202 1197 1197
    1193 1193 1189 1189 1189 1189 1189 1189 1189 1189 1185 1185 1189
    1185 1185 1181 1177 1177 1173 1173 1173 1173 1173 1157 1153 1153 0 0
    0 3037 3037 3037 3037 1232 1232 1232 1223 1219 1219 1219 1219 1219
    1219 1219 1219 1214 1214 1214 1214 1210 1206 1206 1206 1206 1202
    1202 1202 1202 1202 1202 1197 1197 1197 1193 1193 1193 1193 1189
    1189 1189 1189 1185 1185 1185 1185 1185 1185 1181 1177 1177 1173
    1173 1173 1169 1169 1157 1157 0 0 0 0 0 0 0 3037 1232 1232 1227 1223
    1219 1219 1219 1219 1219 1219 1219 1219 1214 1214 1214 1210 1210
    1206 1206 1206 1206 1202 1202 1202 1202 1202 1202 1197 1197 1197
    1193 1193 1193 1193 1189 1189 1189 1185 1185 1185 1185 1185 1185
    1181 1181 1181 1177 1173 1173 1173 1169 1169 1169 1169 0 0 0 0 0 0 0
    0 1236 1232 1227 1223 1219 1219 1219 1219 1219 1219 1219 1219 1219
    1214 1214 1210 1210 1206 1206 1206 1206 1202 1202 1202 1202 1202
    1202 1197 1197 1197 1193 1193 1193 1193 1189 1189 1189 1185 1185
    1185 1185 1185 1185 1181 1181 1177 1173 1173 1173 1173 1169 1169
    1165 1165 0 0 0 0 0 0 0 0 0 0 1227 1223 1223 1223 1219 1219 1219
    1219 1219 1219 1214 1214 1214 1210 1210 1210 1210 1210 1206 1202
    1202 1202 1202 1202 1202 1202 1197 1197 1193 1193 1193 1189 1189
    1189 1189 1185 1185 1185 1185 1185 1185 1181 1177 1177 1173 1173
    1173 1173 1169 1169 1165 1165 0 0 0 0 0 0 0 0 0 0 0 1232 1232 1232
    1223 1223 1219 1219 1219 1219 1214 1214 1214 1214 1214 1214 1214
    1210 1206 1202 1202 1202 1202 1202 1202 1202 1197 1197 1193 1193
    1193 1185 1185 1185 1185 1185 1185 1185 1185 1185 1185 1181 1177
    1177 1173 1173 1173 1173 1173 1169 1169 1169 0 0 0 0 0 0 0 0 0 0 0 0
    0 0 0 1232 1219 1219 1219 1202 1202 1214 1219 1219 1219 1219 1214
    1214 1202 1202 1202 1202 1202 1202 1202 1202 1197 1197 1193 1193
    1193 1185 1185 1185 1185 1189 1185 1185 1185 1185 1185 1181 1177
    1177 1173 1173 1173 1173 1173 1169 1169 1169 0 0 0 0 0 0 0 0 0 0 0 0
    0 0 0 0 0 0 0 1202 1202 1219 1219 1223 1223 1219 1219 1214 1202 1197
    1197 1197 1197 1197 1202 1202 1197 1197 1193 1193 1189 1189 1189
    1185 1185 1189 1185 1185 1185 1185 1185 1185 1181 1177 1177 1177
    1177 1173 1173 1169 1169 0 0 0 0 0 0 0 0 0 0 0 0 0 0 0 0 0 0 0 0 0 0
    0 1223 1223 1223 1223 1219 1214 1202 1197 1197 1197 1197 1197 1202
    1202 1197 1197 1193 1193 1189 1189 1189 1193 1189 1189 1189 1189
    1185 1185 1185 1181 1181 1177 1177 1177 1177 1173 1173 1169 1169 0 0
    0 0 0 0 0 0 0 0 0 0 0 0 0 0 0 0 0 0 0 0 0 0 1214 1214 1214 1219 1219
    1219 1307 1307 1307 1312 1202 1202 1202 1202 1202 1202 1197 1189
    1189 1189 1193 1189 1189 1189 1189 1185 1185 1185 1181 1181 1177
    1177 1177 1177 1173 1173 1169 1169 0 0 0 0 0 0 0 0 0 0 0 0 0 0 0 0 0
    0 0 0 0 0 0 1202 1202 1214 1214 1219 1219 1219 1307 1307 1307 1307
    1307 1307 1307 1307 1219 1219 1193 1193 1185 1185 1189 1189 1185
    1185 1189 1185 1185 1185 1181 1177 1177 1177 1177 1177 1173 1173
    1169 1169 0 0 0 0 0 0 0 0 0 0 0 0 0 0 0 0 0 0 0 0 0 0 1302 1202 1202
    1307 1307 1307 1307 1307 1297 1297 1302 1307 1307 1307 1307 1307
    1219 1219 1214 1214 1185 1185 1189 1189 1185 1185 1189 1185 1185
    1185 1181 1173 1173 1173 1181 1177 1177 1173 1169 1169 0 0 0 0 0 0 0
    0 0 0 0 0 0 0 0 0 0 0 0 0 0 1297 1297 1292 1292 1297 1297 1297 1302
    1302 1297 1297 1297 1302 1302 1302 1302 1302 1219 1219 1214 1214
    1214 1214 1214 1288 1185 0 0 1185 1185 1185 0 1173 1173 1173 1181
    1181 1177 1177 1173 1173 0 0 0 0 0 0 0 0 0 0 0 0 0 0 0 0 0 0 0 0 0
    1292 1292 1288 1288 1292 1292 1297 1297 1292 1292 1292 1292 1292
    1297 1292 1292 1292 1292 1223 1219 1219 1219 1219 1288 0 0 0 0 0 0 0
    0 0 0 0 1181 1181 1177 1173 1173 1177 0 0 0 0 0 0 0 0 0 0 0 0 0 0 0
    0 0 0 0 0 1292 1288 1288 1283 1283 1259 1245 1245 1273 1273 1288
    1288 1288 1288 1288 1288 1288 1288 1288 1223 1219 1219 1219 1288
    1288 1283 1283 0 0 0 0 0 0 0 0 0 0 0 1177 1173 1173 0 0 0 0 0 0 0 0
    0 0 0 0 0 0 0 0 0 0 0 0 0 1292 1278 1273 1268 1259 1255 1245 1245
    1250 1268 1278 1278 1278 1278 1278 1278 1283 1283 1232 1232 1232
    1232 1283 1278 1278 1283 1283 1283 0 0 0 0 0 0 0 0 0 0 0 0 0 0 0 0 0
    0 0 0 0 0 0 0 0 0 0 0 0 0 0 0 0 0 1264 1259 1255 1255 1255 1250 1245
    1245 1250 1264 1268 1268 1268 1268 1268 1268 1273 1273 1232 1232
    1232 1268 1268 1273 1273 1283 1273 1273 1273 0 0 0 0 0 0 0 0 0 0 0 0
    0 0 0 0 0 0 0 0 0 0 0 0 0 0 0 0 0 0 0 0 1268 1255 1255 1250 1250
    1250 1250 1250 1245 1245 1245 1255 1264 1259 1259 1250 1250 1250
    1241 1232 1232 1236 1255 1259 1264 1268 1273 1273 1273 1273 0 0 0 0
    0 0 0 0 0 0 0 0 0 0 0 0 0 0 0 0 0 0</data></Depth9435>
</opencv_storage>
