<?xml version="1.0"?>
<opencv_storage>
<Depth15243 type_id="opencv-matrix">
  <rows>49</rows>
  <cols>32</cols>
  <dt>w</dt>
  <data>
    3300 3300 0 0 0 0 0 0 0 0 0 2005 0 2005 4190 4190 2005 2005 2005
    2005 2005 2016 2028 2040 2040 2040 4405 4405 4405 4405 4405 4405
    3300 0 0 0 0 0 0 0 0 2053 2040 2005 2005 2005 2005 2005 1993 1993
    2005 2005 2005 2016 2028 2040 2040 2040 2053 4522 4405 4405 4405
    4405 3300 3300 0 2090 0 2090 2090 2078 2065 2053 2028 2005 2005 2005
    1981 1981 1993 1993 1993 2005 2016 2028 2028 2040 2040 2040 2053
    2053 4522 4463 4405 4405 3269 3269 0 2090 2090 2090 2090 2078 2065
    2053 2028 2016 2016 2005 1981 1981 1981 1993 1993 1993 2005 2016
    2028 2040 2040 2040 2053 2053 2053 4463 4405 4405 2116 2103 2103
    2090 2090 2090 2078 2078 2065 2053 2028 2016 2016 2005 1993 1981
    1981 1993 1993 1993 2005 2016 2028 2040 2040 2040 2053 2053 2053
    4463 4405 4405 2116 2103 2103 2090 2090 2090 2078 2078 2065 2053
    2040 2028 2016 2005 1993 1981 1981 1993 1993 1993 2005 2005 2028
    2040 2040 2040 2053 2053 2053 4463 4463 4463 2103 2103 2090 2090
    2090 2090 2078 2078 2065 2053 2040 2040 2028 2016 2005 1993 1993
    1993 1993 2005 2005 2005 2028 2040 2040 2040 2040 2040 2053 2053
    4522 4522 2103 2103 2090 2090 2090 2090 2078 2078 2065 2053 2040
    2040 2028 2028 2005 1993 1993 1993 2005 2005 2005 2005 2016 2028
    2028 2040 2040 2040 2053 4774 4522 4522 2116 2103 2103 2090 2090
    2090 2078 2078 2065 2053 2040 2040 2028 2028 1993 1993 1993 1993
    2005 2005 2005 2005 2016 2016 2028 2040 2053 2053 2053 4774 4463
    4463 2116 2116 2103 2090 2090 2090 2090 2078 2053 2053 2040 2040
    2040 2028 1993 1993 1993 1993 2005 2005 2005 2016 2016 2016 2028
    2040 2053 2053 2053 4405 4405 4405 2129 2116 2103 2090 2090 2090
    2078 2078 2053 2053 2053 2040 2040 2028 1993 1981 1981 1993 1993
    2005 2005 2016 2016 2028 2028 2028 2040 2053 2053 2053 4405 4405
    2129 2116 2103 2090 2090 2090 2078 2065 2053 2053 2053 2040 2040
    2028 1993 1981 1981 1993 1993 2005 2016 2016 2016 2028 2028 2028
    2040 2053 2053 2053 4522 4463 2129 2116 2116 2103 2103 2103 2078
    2065 2053 2053 2053 2040 2040 2028 2005 1993 1993 1993 2005 2005
    2016 2016 2028 2028 2028 2040 2053 2053 2053 2053 4522 4522 2129
    2129 2116 2103 2103 2103 2090 2078 2053 2053 2053 2053 2040 2028
    2005 1993 1993 2005 2005 2005 2016 2016 2028 2028 2040 2040 2053
    2053 2053 2053 4582 4522 2129 2129 2116 2103 2103 2090 2090 2090
    2065 2065 2053 2053 2040 2028 2005 2005 2005 2005 2005 2005 2016
    2016 2016 2028 2040 2040 2053 2053 2053 2053 4582 4522 2129 2129
    2116 2103 2103 2090 2090 2090 2078 2078 2065 2053 2040 2028 2005
    2005 2005 2005 2005 2016 2016 2016 2016 2028 2040 2040 2053 2053
    2053 2053 2053 4522 2129 2129 2116 2103 2103 2090 2090 2078 2078
    2078 2065 2053 2053 2028 2016 2005 2005 2005 2005 2005 2016 2016
    2016 2028 2040 2040 2053 2053 2065 2065 2065 4463 2129 2129 2129
    2103 2103 2090 2090 2078 2078 2078 2065 2053 2053 2028 2016 2005
    2005 2005 2005 2005 2016 2016 2016 2028 2028 2040 2053 2053 2053
    2065 2065 4463 2143 2129 2129 2103 2103 2090 2090 2078 2065 2065
    2065 2053 2053 2028 2016 2005 2005 2005 2005 2005 2005 2016 2028
    2028 2028 2040 2053 2053 2053 2065 2065 4522 3269 2116 2103 2103
    2116 2103 2103 2078 2065 2065 2065 2053 2040 2028 2016 2005 2005
    2005 2005 2005 2005 2016 2028 2040 2040 2040 2053 2053 2053 2053
    2053 4522 3300 2116 2103 2103 2129 2103 2103 2090 2078 2065 2065
    2065 2040 2028 2016 2005 2005 2005 2005 2005 2005 2016 2016 2028
    2040 2040 2053 2053 2053 2053 2053 4522 3300 2129 2116 2116 2129
    2116 2116 2103 2090 2078 2078 2065 2040 2028 2016 2005 2005 2005
    2005 2005 2005 2016 2016 2028 2040 2040 2053 2053 2053 2065 2065
    4522 2129 2129 2129 2129 2129 2116 2116 2103 2090 2078 2078 2065
    2040 2028 2016 2016 2005 2005 2005 2005 2005 2016 2016 2028 2040
    2040 2053 2053 2065 2065 2065 4522 2129 2129 2129 2129 2129 2116
    2116 2103 2090 2090 2078 2065 2053 2040 2040 2028 2016 2005 2005
    2005 2005 2016 2016 2028 2040 2040 2053 2053 2065 2065 2065 4522
    3269 2129 2129 2129 2129 2116 2116 2103 2090 2090 2078 2053 2053
    2040 2040 2028 2016 2005 2005 2005 2005 2016 2028 2040 2040 2053
    2053 2053 2053 2065 2078 4522 3269 2129 2129 2129 2129 2116 2103
    2103 2103 2090 2090 2053 2053 2053 2040 2028 2016 2005 2005 2005
    2005 2028 2028 2040 2053 2053 2053 2053 2053 2065 2065 2065 3269
    2143 2143 2129 2129 2129 2103 2103 2103 2103 2090 2065 2053 2040
    2040 2028 2016 2005 2005 2005 2005 2028 2040 2040 2040 2053 2053
    2053 2053 2065 2065 2065 3269 2143 2143 2129 2129 2129 2103 2103
    2103 2103 2090 2053 2040 2040 2040 2028 2016 2005 2005 2016 2016
    2028 2040 2040 2040 2040 2053 2053 2053 2053 2078 2078 3269 2143
    2143 2129 2129 2129 2103 2103 2103 2090 2090 2053 2040 2040 2040
    2040 2016 2016 2005 2005 2016 2016 2028 2040 2040 2040 2053 2053
    2053 2053 2065 2065 3269 2143 2143 2129 2129 2143 2129 2116 2103
    2090 2090 2053 2040 2040 2040 2040 2016 2016 2005 2005 2016 2016
    2028 2040 2040 2040 2053 2053 2053 2053 2065 2065 3269 2143 2143
    2129 2129 2143 2129 2116 2103 2090 2090 2078 2065 2065 2040 2040
    2016 2016 2016 2016 2016 2028 2028 2040 2040 2040 2053 2053 2053
    2053 2053 2053 3269 3300 2143 2143 2143 2143 2129 2116 2103 2090
    2090 2078 2065 2065 2053 2040 2028 2028 2016 2016 2016 2028 2028
    2040 2040 2040 2053 2053 2053 2053 2053 2053 3269 3269 2143 2129
    2129 2143 2129 2116 2116 2090 2090 2090 2065 2065 2065 2040 2040
    2028 2016 2016 2016 2016 2028 2028 2040 2040 2053 2053 2053 2065
    2065 2065 3238 3269 2143 2129 2129 2143 2129 2116 2116 2103 2090
    2090 2090 2065 2065 2053 2040 2028 2028 2016 2016 2016 2016 2028
    2040 2040 2053 2053 2053 2078 2078 2078 3238 3269 2143 2143 2143
    2143 2129 2103 2103 2103 2090 2090 2090 2078 2053 2053 2053 2040
    2028 2016 2016 2016 2016 2028 2040 2040 2053 2053 2053 2078 2078
    2078 3269 3269 2143 2143 2143 2143 2129 2103 2103 2090 2090 2090
    2090 2078 2053 2053 2040 2040 2028 2016 2016 2016 2016 2016 2040
    2040 2040 2053 2065 2078 2090 2090 3238 3238 2156 2143 2143 2143
    2129 2103 2103 2090 2090 2090 2078 2078 2053 2053 2040 2040 2028
    2016 2016 2016 2016 2016 2040 2040 2040 2053 2053 2078 2090 2090
    3238 3269 2156 2143 2143 2143 2143 2143 2129 2103 2090 2090 2078
    2078 2065 2053 2053 2040 2040 2028 2016 2016 2016 2028 2040 2040
    2040 2053 2053 2078 2090 2090 3269 3269 2170 2143 2143 2143 2143
    2143 2129 2103 2090 2090 2090 2078 2053 2053 2053 2040 2040 2028
    2028 2028 2028 2028 2040 2040 2053 2053 2053 2078 2090 2103 3269
    3269 2170 2156 2156 2156 2143 2143 2129 2103 2090 2090 2090 2078
    2053 2053 2053 2040 2040 2040 2040 2028 2028 2040 2053 2053 2053
    2053 2053 2078 2090 2103 3269 3269 2184 2156 2156 2156 2143 2143
    2143 2103 2103 2090 2090 2078 2053 2053 2053 2040 2040 2028 2028
    2028 2028 2040 2040 2053 2053 2053 2053 2078 2078 2090 3269 3300
    2184 2156 2156 2156 2143 2143 2143 2103 2103 2090 2090 2090 2065
    2065 2053 2040 2028 2028 2028 2028 2028 2040 2040 2053 2053 2053
    2065 2078 2078 2090 3300 3269 2184 2156 2156 2156 2156 2143 2143
    2116 2103 2103 2090 2090 2065 2065 2053 2040 2028 2028 2028 2016
    2016 2028 2040 2053 2053 2053 2065 2078 2090 2090 3300 3269 3269
    2156 2156 2156 2156 2156 2156 2143 2103 2103 2090 2090 2078 2065
    2053 2053 2040 2028 2028 2016 2016 2028 2040 2040 2053 2065 2078
    2078 2090 2090 3300 3300 3300 3300 2156 2156 2156 2156 2156 2143
    2116 2103 2090 2090 2078 2053 2053 2053 2040 2028 2028 2016 2016
    2016 2028 2040 2053 2078 2078 2078 2090 2090 3300 3300 3269 3269
    2156 2156 2156 2156 2156 2143 2116 2103 2090 2090 2078 2053 2053
    2040 2040 2028 2028 2016 2016 2016 2028 2040 2053 2078 2078 2078
    2090 2090 3300 3300 3269 3269 2170 2156 2156 2156 2156 2143 2116
    2103 2090 2090 2065 2053 2040 2040 2040 2028 2016 2016 2016 2016
    2040 2040 2040 2065 2078 2078 2090 4645 3300 3300 3269 3269 2170
    2170 2170 2156 2143 2143 2116 2103 2090 2090 2065 2053 2040 2040
    2040 2028 2016 2016 2028 2028 2040 2040 2040 2065 4522 4582 4582
    4582 3300 3300 3300 3300 2184 2170 2156 2143 2143 2143 2129 2129
    2129 2129 3576 3576 2053 2053 2040 2040 2040 4405 4405 4405 4522
    4522 4522 4522 4522 4522 4582 4582</data></Depth15243>
</opencv_storage>
