<?xml version="1.0"?>
<opencv_storage>
<Depth15846 type_id="opencv-matrix">
  <rows>143</rows>
  <cols>67</cols>
  <dt>w</dt>
  <data>
    6889 6889 6889 6889 6889 6889 6889 6753 6753 6753 6753 6753 6753
    6889 6889 6889 6753 6753 6753 6622 6622 6622 6622 6753 6753 6753
    6622 6622 6622 6497 6497 6497 6497 6497 6497 6497 6497 6497 6889
    6889 6889 6753 6622 6622 6622 6622 6622 6622 6497 6497 738 736 736
    731 730 727 727 6497 6497 6497 6497 6497 0 0 0 6375 6375 6889 6889
    6889 6889 6753 6753 6753 6753 6753 6753 6753 6753 6753 6753 6753
    6753 6753 6753 6753 6622 6622 6753 6753 6753 6753 6622 6622 6622
    6622 6497 6497 6497 6497 6497 6622 6622 6622 6622 6622 6753 6753
    6753 6753 6622 6622 6622 6622 6622 6497 6497 738 736 734 731 730 727
    727 6622 6497 6497 6497 0 0 0 0 0 6259 6889 6889 6753 6753 6622 6622
    6622 6753 6753 6622 6622 6753 6753 827 827 0 6753 6753 6753 6622
    6622 6753 6889 6889 6753 6622 6622 6497 6497 6497 6497 6497 6497
    6497 6497 6622 6622 6622 710 0 6753 6753 6753 6622 6622 6622 6622
    6622 6497 6497 739 736 734 731 731 725 723 723 723 723 0 725 728 730
    0 0 6259 6889 6889 6753 6622 6622 6622 6622 6889 6889 6622 6622 6622
    827 827 827 785 781 6753 6753 6622 6622 6753 6889 6889 6753 6753
    6622 6497 6497 6622 6497 6497 6622 717 713 710 710 710 710 708 708
    710 6622 6622 6622 6622 714 714 716 717 6497 6497 731 727 723 723
    723 723 723 723 723 725 728 730 0 0 0 6889 6889 6889 6622 6622 6622
    854 854 843 837 827 827 827 796 796 785 781 781 781 781 746 741 7178
    7178 6889 6753 6622 6497 706 704 704 706 704 704 706 706 706 707 707
    708 708 710 711 713 713 713 713 714 714 717 719 719 722 722 723 723
    722 722 723 723 723 725 728 728 728 0 0 6889 906 903 903 903 851 851
    851 839 835 827 821 807 796 794 785 781 781 781 781 746 741 739 739
    739 6753 6753 6753 704 703 703 701 701 701 704 704 706 706 707 707
    708 710 711 711 713 713 713 714 714 717 719 719 720 720 722 723 722
    722 723 723 723 727 728 725 725 0 0 0 906 903 903 903 851 851 849
    839 835 829 821 807 800 794 785 781 781 762 757 746 741 739 734 725
    717 711 704 703 703 703 701 701 701 704 704 706 706 707 707 708 710
    711 711 713 713 713 714 714 717 719 719 720 720 722 722 723 723 723
    725 725 727 728 725 725 725 0 0 906 898 889 885 878 878 849 837 833
    827 823 807 803 798 785 781 781 762 757 752 744 739 733 725 717 711
    704 703 703 703 703 703 703 704 704 706 706 707 707 708 710 711 711
    713 713 714 714 714 717 719 719 720 720 722 722 723 723 723 725 727
    728 728 725 725 725 0 0 906 898 889 882 878 878 847 837 831 827 823
    807 803 800 800 800 776 757 757 750 747 741 733 725 720 711 707 704
    703 703 703 703 703 704 704 706 707 708 708 710 711 711 711 713 713
    714 716 716 717 719 719 720 720 722 723 723 723 725 727 728 728 728
    727 725 725 0 910 906 901 889 882 878 867 847 841 831 827 823 817
    805 802 781 778 776 776 776 750 747 741 733 725 720 711 706 704 703
    703 704 704 704 706 706 707 707 708 708 710 711 711 711 713 713 714
    716 717 717 719 719 720 722 723 723 723 725 725 725 728 730 728 727
    725 725 0 910 906 901 889 882 878 867 847 841 833 827 825 819 805
    805 781 778 774 769 762 750 747 747 747 725 722 711 706 704 703 703
    703 704 704 706 706 707 708 710 711 711 711 711 713 713 713 714 717
    717 717 719 719 720 722 723 723 723 725 725 725 728 730 728 727 727
    0 0 913 906 901 891 885 878 869 847 841 835 829 825 821 813 792 783
    778 774 769 762 750 746 741 736 725 722 719 706 704 703 703 703 704
    704 706 707 707 710 710 711 711 713 713 713 713 713 716 717 717 717
    719 719 722 722 723 723 723 723 725 727 730 730 728 725 725 0 0 915
    908 903 891 887 880 869 862 845 835 829 827 821 813 790 787 781 776
    769 764 750 746 741 736 730 723 719 706 704 703 703 703 704 704 707
    707 707 710 710 711 711 713 713 713 713 714 716 717 719 719 720 720
    722 723 723 723 723 723 725 727 730 730 728 723 723 0 0 915 910 901
    891 887 882 869 862 847 837 829 827 819 811 790 787 781 776 771 764
    752 744 741 736 730 723 711 707 704 703 703 704 704 706 707 707 708
    710 710 711 711 713 713 713 713 714 716 717 719 720 720 720 722 723
    723 723 723 725 725 727 730 730 728 723 723 0 0 915 910 898 891 887
    882 869 860 847 837 829 827 819 811 792 789 783 778 771 759 752 744
    739 734 731 725 711 707 704 704 704 704 704 706 707 707 708 710 710
    711 711 713 713 713 714 716 716 719 719 720 720 720 722 723 723 723
    725 725 725 727 730 730 730 725 725 0 0 915 910 898 891 887 882 869
    860 847 839 829 825 819 811 796 789 781 776 773 759 752 746 739 734
    731 727 710 708 704 704 704 704 704 706 708 708 710 710 711 711 713
    713 713 713 714 716 716 719 719 720 720 722 722 723 723 725 725 725
    725 727 730 730 730 728 728 0 0 915 910 898 891 889 885 869 856 843
    835 831 825 819 813 798 789 781 776 773 759 752 749 741 736 730 727
    710 708 706 706 704 704 706 706 707 710 710 711 711 711 713 713 713
    713 714 716 716 719 719 719 720 722 722 723 725 725 725 725 725 727
    730 730 730 730 730 0 0 913 908 901 894 889 882 869 856 843 835 829
    827 819 807 800 790 781 776 773 761 752 746 741 736 730 727 711 708
    706 706 704 704 706 706 707 710 710 711 711 711 713 713 714 714 714
    716 716 719 719 719 720 722 723 723 725 725 725 725 727 727 730 730
    730 730 730 0 0 913 908 903 898 889 882 871 858 845 835 829 827 821
    805 800 794 781 776 774 759 752 746 741 738 731 727 711 710 708 706
    704 704 704 704 706 708 710 711 711 711 713 713 714 714 714 716 717
    719 719 720 720 723 723 723 725 725 725 727 727 728 730 730 730 730
    730 0 0 913 908 903 898 891 882 873 858 849 835 829 827 821 803 800
    794 783 776 774 759 755 746 739 736 731 727 719 710 708 706 704 704
    704 704 706 708 710 711 711 711 713 713 714 714 716 716 717 719 719
    720 720 723 723 725 725 725 725 727 728 728 730 730 730 731 731 0 0
    915 908 903 898 891 882 875 858 851 835 831 827 823 803 800 794 783
    778 774 757 754 746 739 736 731 727 722 710 708 706 704 704 704 704
    706 708 710 711 711 711 713 713 714 716 716 717 717 719 719 720 722
    723 723 725 725 725 727 727 728 728 730 730 730 731 731 0 0 918 910
    903 898 891 885 864 858 851 841 831 827 823 807 802 796 783 780 776
    757 754 747 741 736 731 728 722 711 708 706 704 704 704 706 707 710
    711 711 713 713 713 714 714 716 716 717 719 719 719 720 722 723 723
    725 725 725 727 728 728 728 730 731 731 731 731 0 0 923 913 901 896
    891 885 864 858 851 845 833 827 825 815 803 796 783 780 778 757 754
    750 744 736 731 730 719 711 708 706 704 704 706 707 708 710 711 711
    713 713 713 714 714 716 717 717 719 719 720 720 722 723 723 725 725
    727 728 727 727 728 730 731 731 731 0 0 0 923 913 901 896 891 885
    864 860 854 849 835 827 825 815 805 796 783 780 778 759 755 750 742
    738 731 728 717 711 707 706 706 706 706 707 710 711 711 711 713 713
    714 714 714 716 717 717 719 719 720 720 722 723 723 725 725 725 727
    727 727 728 730 733 731 731 731 0 0 923 915 901 896 891 885 869 862
    854 845 835 827 821 815 805 792 783 781 778 761 757 754 742 736 731
    728 717 711 707 706 704 704 706 706 708 710 711 711 713 713 713 714
    714 716 717 717 719 719 720 720 722 723 725 725 725 725 727 728 728
    728 730 733 731 731 731 0 0 920 913 901 896 891 882 871 864 854 845
    835 827 821 813 807 792 783 780 778 762 759 755 742 736 731 728 719
    713 707 706 704 704 704 706 708 710 711 711 713 713 713 714 714 716
    717 717 719 719 720 722 723 723 725 725 725 725 727 728 728 730 730
    733 731 731 733 0 0 915 913 903 896 891 882 873 867 854 843 835 829
    821 813 807 794 783 780 776 766 759 755 747 738 733 727 720 713 707
    706 704 704 704 706 708 710 711 711 713 713 714 714 714 716 717 717
    719 719 720 722 723 725 725 725 725 725 727 728 730 730 730 731 733
    731 731 0 0 915 910 906 898 894 878 873 864 854 843 835 829 821 815
    807 794 785 780 776 766 761 755 749 738 733 725 720 711 708 706 706
    706 706 706 710 710 711 713 713 714 714 716 716 716 717 717 719 719
    720 722 723 725 725 725 725 725 727 728 730 730 731 731 733 731 731
    0 0 918 910 906 901 894 878 875 862 854 845 837 829 821 813 807 798
    787 781 776 766 761 755 747 741 733 725 720 711 708 706 706 706 706
    706 710 711 713 713 713 714 714 716 717 717 717 719 719 720 722 723
    725 725 725 725 725 725 728 728 730 730 731 731 731 731 731 0 0 0
    910 906 903 896 878 878 862 856 847 837 829 823 813 803 796 790 781
    776 766 761 755 747 741 733 725 720 711 708 707 706 706 706 707 710
    711 713 713 713 714 714 716 717 717 717 719 720 722 723 723 725 725
    725 725 725 727 728 730 730 730 731 731 731 731 731 731 0 0 913 908
    903 896 878 878 862 856 847 839 829 825 815 803 796 789 781 776 771
    762 755 746 741 736 725 719 713 710 708 707 707 707 708 711 713 713
    714 714 714 714 716 717 717 719 720 720 722 723 723 725 725 725 725
    727 727 728 730 730 731 731 731 731 731 731 731 0 925 915 908 903
    896 887 875 862 856 849 839 829 825 815 805 798 789 780 776 771 762
    754 746 741 738 727 719 713 710 708 707 707 708 708 711 713 713 714
    714 714 716 716 717 717 720 720 722 722 723 723 725 725 725 725 727
    727 728 730 730 731 731 733 733 733 733 733 0 925 918 910 903 896
    887 875 862 856 847 839 831 825 815 807 798 790 780 776 773 762 754
    746 742 739 728 719 713 711 710 708 708 710 710 711 713 713 714 714
    714 716 717 717 719 720 720 722 723 723 725 725 725 725 727 727 728
    728 730 730 731 731 733 734 734 733 733 0 925 920 908 903 896 887
    873 867 856 847 839 831 825 813 809 800 790 780 776 773 762 754 747
    742 739 733 719 713 711 710 710 710 710 710 711 713 713 714 714 716
    716 717 717 719 720 720 722 723 723 725 725 725 725 727 727 728 728
    730 730 731 731 731 733 733 733 0 0 928 923 908 903 898 887 873 867
    856 847 839 833 819 813 809 800 790 785 776 773 762 755 749 744 738
    731 728 713 711 710 710 710 710 710 711 713 713 714 716 716 716 717
    717 717 720 722 723 723 723 725 725 725 727 728 728 730 730 730 731
    731 731 731 733 731 731 0 0 928 923 915 906 896 887 873 864 858 847
    839 835 819 815 807 800 790 785 778 773 762 755 750 746 738 728 727
    714 711 710 710 710 710 710 713 713 714 716 716 717 717 717 717 717
    720 722 723 723 725 725 725 727 728 730 730 730 731 731 731 731 731
    731 733 731 731 733 0 928 925 920 906 896 878 871 864 860 854 839
    835 819 815 805 800 790 785 781 774 762 757 750 746 738 728 723 716
    713 710 708 708 708 710 713 714 714 716 716 717 717 717 717 717 720
    722 723 723 725 725 725 727 727 728 730 730 731 731 731 731 731 733
    733 733 733 733 0 928 925 920 910 898 878 871 864 860 856 839 835
    821 815 805 800 790 787 781 776 762 757 752 746 739 727 723 716 713
    710 708 708 708 710 714 714 714 716 716 717 717 717 717 719 720 722
    723 723 725 725 725 727 727 728 730 730 731 731 731 731 731 733 734
    734 734 734 0 930 928 915 910 903 894 873 864 862 858 839 835 825
    817 805 800 792 787 780 776 762 755 749 744 741 727 723 717 714 710
    708 708 708 710 714 714 714 716 716 717 717 717 719 720 722 723 723
    723 725 725 725 727 728 728 730 730 731 731 731 731 731 733 736 736
    736 736 0 930 925 915 910 906 891 873 867 862 860 839 837 825 817
    807 802 796 789 780 776 764 754 749 744 741 727 723 717 716 711 708
    708 710 711 714 714 714 716 716 717 717 717 719 720 722 723 723 723
    725 725 725 727 728 728 730 730 730 731 731 731 733 733 736 736 736
    738 0 933 925 915 910 906 891 873 867 862 858 841 837 825 819 811
    803 798 790 783 771 764 754 749 744 741 728 723 717 714 711 710 710
    710 711 713 714 714 716 716 717 717 717 719 720 722 723 723 725 725
    727 727 728 728 728 730 730 730 731 731 733 733 734 736 736 736 0 0
    935 930 915 910 906 891 878 869 862 858 845 837 825 819 811 803 798
    790 783 771 762 761 749 744 741 734 725 719 713 711 710 710 710 711
    713 714 714 717 717 717 719 719 719 720 722 722 723 725 725 727 728
    728 730 730 730 730 730 730 731 733 733 734 736 736 736 0 0 935 935
    915 910 906 894 878 869 864 858 845 837 825 819 813 805 798 790 783
    771 762 759 752 746 741 734 725 717 713 711 710 710 710 711 713 714
    716 717 717 717 719 719 719 722 722 722 723 725 727 728 728 728 730
    730 730 730 730 730 731 733 734 734 736 736 736 0 0 0 0 915 903 903
    896 878 869 864 858 847 841 821 817 815 809 798 790 785 771 762 757
    754 749 741 734 723 717 713 711 711 711 711 711 714 714 717 717 717
    717 719 719 720 722 722 722 723 725 727 728 728 730 730 730 730 730
    730 730 731 733 734 736 736 736 736 0 0 0 0 915 903 901 896 878 871
    864 858 847 843 821 817 813 809 798 792 783 773 762 757 754 749 741
    728 723 719 714 711 711 711 711 711 714 714 716 717 719 719 719 719
    720 722 722 723 723 725 727 728 728 730 730 730 731 731 731 731 731
    733 734 736 736 736 736 0 0 0 0 915 906 901 896 878 871 864 858 847
    843 823 819 813 807 798 792 783 774 769 759 755 752 739 728 725 720
    714 713 711 711 711 711 714 714 716 717 719 719 719 719 720 722 723
    723 725 725 727 728 728 730 730 730 731 731 731 731 731 734 736 736
    738 738 738 0 0 0 0 915 910 903 896 878 871 864 860 847 843 825 821
    811 805 798 792 778 771 767 759 755 749 739 738 725 720 716 713 713
    711 711 711 714 714 717 719 719 719 719 719 720 722 723 723 725 727
    728 730 730 730 730 730 731 731 733 733 734 734 736 738 738 738 738
    0 0 0 0 915 913 903 896 887 871 864 860 849 845 825 821 811 805 798
    792 778 771 767 764 757 749 741 736 725 720 716 713 711 711 711 711
    714 716 717 719 719 719 719 719 722 723 723 725 727 727 728 730 730
    730 731 731 731 733 734 734 734 734 736 738 738 738 738 0 0 0 928
    915 913 906 896 882 871 864 860 849 845 825 821 817 805 798 792 781
    771 767 766 759 749 741 736 728 719 716 713 711 711 711 711 714 716
    717 719 719 719 720 720 722 723 723 725 725 727 728 730 730 730 731
    731 731 733 734 736 736 736 736 738 738 738 738 0 0 0 928 918 915
    908 898 882 871 864 860 851 845 825 821 817 807 800 794 780 773 767
    766 759 749 741 736 728 719 716 713 711 711 711 713 716 717 717 719
    719 719 720 722 722 723 723 725 725 727 728 730 730 731 731 731 731
    733 733 736 736 736 736 738 738 738 739 0 0 0 0 920 915 908 898 880
    871 864 860 851 843 825 821 817 807 800 794 780 773 769 766 759 749
    742 738 728 720 716 713 713 713 713 713 717 717 717 719 719 719 720
    722 722 723 723 725 725 727 728 730 730 731 731 731 731 733 733 734
    736 736 738 738 738 738 741 0 0 0 0 918 915 910 898 880 873 867 860
    851 843 827 821 817 809 802 794 780 774 769 767 761 749 742 738 730
    722 717 714 713 713 713 713 717 717 717 719 719 719 720 722 723 723
    723 723 725 727 728 730 730 731 731 731 731 733 733 734 736 736 738
    738 738 739 741 0 0 0 928 918 918 913 903 880 873 867 860 851 845
    839 821 817 811 805 794 780 774 769 767 761 749 742 738 731 722 717
    716 714 713 713 714 717 717 717 719 719 719 720 722 723 723 723 723
    725 727 728 730 730 731 731 731 731 733 734 736 736 736 738 738 738
    738 739 0 0 0 928 920 918 915 887 880 873 867 860 851 843 839 823
    819 815 809 792 781 774 771 767 761 750 742 738 733 722 719 716 714
    713 713 714 716 717 719 720 720 720 720 723 723 723 723 725 725 728
    728 730 730 731 731 731 731 733 734 736 736 736 738 738 738 738 738
    738 0 0 933 923 920 915 887 882 878 869 860 851 843 839 823 819 817
    811 792 781 776 771 766 759 752 744 736 734 722 717 716 716 713 713
    714 716 717 719 720 720 720 720 723 723 725 725 725 727 730 730 730
    730 731 731 733 733 734 736 736 736 736 738 738 738 738 738 736 736
    0 933 925 920 915 889 887 878 869 862 851 845 841 825 821 819 811
    792 781 776 771 766 759 752 744 736 733 720 717 716 714 714 714 714
    716 717 719 720 720 720 722 723 723 725 725 725 727 728 730 730 731
    731 731 733 733 734 736 736 736 736 738 738 738 738 736 736 736 0
    933 925 918 913 889 887 878 871 862 854 845 841 827 819 813 809 792
    781 776 771 764 759 754 747 739 731 720 717 716 714 713 713 714 716
    719 719 720 720 720 722 723 723 725 725 725 727 728 730 730 731 731
    731 733 734 734 736 736 736 736 738 738 738 738 736 736 0 0 0 928
    918 910 891 887 878 871 862 856 845 841 829 815 813 809 805 781 776
    771 764 759 754 747 739 731 722 717 716 714 713 713 714 716 719 719
    720 720 720 722 723 723 725 725 725 727 728 730 730 731 731 731 733
    734 734 736 734 734 736 738 738 739 739 739 0 0 0 0 925 920 910 894
    887 880 871 864 856 845 841 831 815 813 807 802 785 778 771 767 759
    754 749 739 731 725 717 716 714 714 714 714 717 719 719 719 720 720
    723 723 723 725 725 725 727 727 730 730 731 731 731 733 734 736 736
    734 734 736 738 739 739 739 739 0 0 0 935 925 920 903 896 889 880
    871 864 862 845 839 831 815 813 805 800 785 780 773 769 759 754 746
    739 731 725 719 717 716 714 714 714 717 719 719 719 720 720 723 723
    725 725 725 725 727 727 730 730 731 731 731 733 734 736 736 736 736
    736 738 739 739 739 739 0 0 0 935 930 923 903 896 891 882 869 867
    862 862 835 831 815 813 805 798 790 781 774 769 759 754 744 739 733
    725 720 717 716 716 716 716 717 719 719 719 720 720 723 723 725 725
    725 727 727 728 730 730 731 731 731 733 734 736 736 736 736 736 738
    739 741 741 741 0 0 0 935 928 925 915 898 891 880 869 867 862 851
    835 831 825 813 809 794 790 781 774 769 764 755 744 738 733 727 722
    719 717 716 716 716 719 719 720 722 722 723 723 723 725 725 727 727
    728 728 730 731 731 731 731 733 734 736 736 736 736 736 738 738 741
    741 741 0 0 935 935 928 925 915 898 891 880 873 869 860 851 835 831
    825 815 809 794 790 781 774 769 764 759 744 738 733 727 722 719 717
    716 716 716 719 720 722 722 722 723 725 725 725 727 727 728 730 730
    730 731 731 731 731 733 734 736 738 738 736 736 738 738 741 741 741
    0 0 935 933 928 925 918 898 891 880 875 869 860 849 837 831 823 815
    809 796 790 783 776 769 764 759 744 738 734 728 722 719 717 716 716
    716 719 720 722 722 722 723 723 725 725 727 727 728 730 730 731 731
    731 731 733 734 734 736 736 738 738 738 738 738 741 741 741 0 0 0
    933 928 923 918 901 891 885 878 869 858 849 839 831 823 817 811 798
    790 783 776 769 764 759 746 736 734 728 723 719 717 717 717 717 719
    719 722 722 722 723 723 725 725 727 727 728 730 730 731 731 731 731
    733 734 734 736 736 738 738 738 738 738 741 739 739 0 0 0 935 928
    923 918 901 891 887 885 869 858 849 841 831 825 819 811 798 790 785
    778 771 766 755 752 736 733 728 723 719 717 717 717 717 719 719 722
    723 723 723 725 725 727 725 725 727 730 730 731 731 731 731 733 734
    736 736 736 738 738 739 739 741 741 739 739 0 0 0 0 928 925 918 901
    894 887 880 875 875 843 839 831 825 819 813 800 792 785 778 773 767
    755 752 738 733 728 725 720 717 717 717 717 720 720 722 723 723 723
    725 727 727 725 725 727 730 731 731 731 733 733 734 734 736 736 736
    738 738 739 739 742 742 741 741 0 0 0 0 928 925 918 901 894 882 880
    873 873 841 839 831 823 819 813 803 792 785 776 773 769 755 746 739
    734 730 725 720 719 717 717 717 720 722 722 723 723 723 725 727 727
    727 727 727 730 731 731 731 733 733 734 736 736 736 738 738 739 739
    739 742 742 741 741 741 0 0 0 928 925 918 903 891 882 880 873 871
    841 837 831 823 817 813 803 792 785 776 773 767 762 746 741 734 730
    725 720 719 717 717 717 720 722 722 723 723 725 725 725 727 727 727
    728 730 731 731 731 733 733 734 736 736 736 738 738 738 738 739 742
    742 742 741 741 0 0 0 930 925 915 908 891 880 873 873 871 841 837
    831 825 817 813 805 794 783 778 773 767 759 746 741 736 731 725 720
    719 717 717 717 720 722 722 723 723 725 725 725 725 727 727 730 730
    731 731 733 734 734 734 736 736 738 738 738 738 738 739 742 742 742
    741 741 0 0 0 933 925 915 908 891 880 873 873 869 841 837 831 823
    817 813 807 796 783 778 773 767 757 754 742 736 731 727 722 719 717
    717 717 720 722 723 723 725 725 725 725 725 727 727 730 730 731 731
    733 734 734 736 736 738 738 738 738 738 738 741 742 742 742 741 741
    0 0 0 938 933 918 910 891 885 878 873 869 843 837 833 823 817 813
    807 796 785 780 774 767 757 754 742 736 731 727 722 720 719 717 717
    720 722 723 723 725 725 725 725 725 727 727 730 730 731 731 733 733
    734 736 736 738 738 738 738 738 739 742 744 744 744 744 744 0 0 943
    938 933 923 910 898 885 880 875 869 845 839 835 827 819 813 807 796
    783 778 776 769 757 754 742 736 731 727 723 720 719 717 717 720 722
    723 723 725 725 725 725 727 727 727 730 730 730 731 731 733 734 736
    736 738 738 738 738 738 739 742 744 744 744 744 744 0 0 943 938 933
    923 913 898 887 880 875 869 845 841 837 831 819 813 807 789 783 776
    776 771 757 752 742 738 731 727 723 722 719 719 719 720 722 723 723
    725 725 725 725 727 727 727 730 730 730 731 731 733 734 734 736 738
    738 738 738 738 741 744 744 744 746 746 746 0 0 0 938 933 920 915
    908 887 880 875 851 847 845 837 831 821 813 807 789 783 776 776 771
    759 744 741 739 733 727 723 722 720 719 719 722 722 723 723 725 725
    725 727 727 727 728 730 730 731 731 733 733 734 734 736 738 738 738
    738 738 739 742 744 744 744 744 744 0 0 0 940 935 920 915 906 887
    882 878 851 847 845 841 829 823 817 807 792 785 778 776 773 762 744
    741 739 733 728 723 722 720 719 719 722 723 723 725 725 725 725 727
    727 728 728 730 730 731 733 734 734 734 734 736 738 738 738 738 738
    739 742 742 744 742 742 744 0 0 946 938 935 925 915 906 887 882 875
    867 849 845 839 829 823 819 809 792 785 778 776 774 757 755 742 741
    731 728 723 723 722 720 720 722 722 723 725 725 725 725 727 727 727
    728 730 731 733 734 734 734 736 736 736 738 738 738 738 739 739 742
    742 744 742 742 744 0 0 946 938 933 925 918 906 887 882 873 871 849
    843 833 829 825 819 811 792 785 778 776 774 757 755 744 741 731 728
    725 723 720 720 720 722 722 723 725 727 725 725 727 727 727 728 730
    731 733 733 734 734 736 736 738 738 738 738 739 739 739 742 742 744
    744 744 744 0 0 946 933 930 925 920 903 891 885 873 869 849 841 833
    829 825 821 813 792 785 778 776 774 764 755 752 741 733 730 727 723
    720 720 720 722 722 723 725 727 727 727 727 727 728 730 730 731 731
    733 734 736 736 736 738 738 738 738 739 741 741 742 742 744 744 744
    744 0 0 0 933 930 925 920 903 896 887 873 869 849 841 835 829 825
    821 815 792 787 780 776 774 764 755 752 742 736 730 725 722 720 720
    720 722 722 725 725 727 727 727 727 728 728 730 731 731 731 733 734
    736 736 736 738 738 738 739 741 741 741 742 744 744 744 744 744 744
    0 0 933 928 925 910 903 898 889 878 871 862 841 835 829 825 821 800
    792 789 783 778 774 766 755 754 742 736 730 725 722 720 720 720 722
    722 725 725 725 725 727 728 730 730 731 731 731 731 733 734 736 736
    736 738 738 739 739 739 739 741 742 744 744 744 744 744 744 0 0 933
    928 925 910 903 896 889 880 871 862 843 837 829 825 821 798 792 789
    783 780 774 766 755 752 742 734 728 725 723 722 720 720 722 722 725
    725 725 725 727 728 730 730 731 731 731 731 733 736 736 736 738 738
    738 739 739 739 739 741 742 744 744 744 744 744 744 0 0 938 930 925
    910 903 896 887 880 871 862 847 837 831 827 823 798 794 790 785 780
    774 766 755 749 742 734 728 725 723 722 720 720 722 722 725 725 725
    725 727 728 730 731 731 733 731 731 733 736 736 736 738 738 739 739
    739 739 739 742 742 744 744 744 742 742 744 0 0 0 930 925 910 903
    898 887 880 871 862 849 837 831 829 827 798 794 790 785 780 773 764
    757 749 742 734 728 725 723 722 720 720 723 723 725 725 725 727 728
    730 730 731 731 733 733 733 734 736 736 738 738 738 739 739 739 741
    741 742 742 744 744 744 742 742 0 0 0 0 930 925 913 903 898 887 880
    871 862 849 839 833 829 827 800 794 790 787 781 771 762 757 749 744
    739 728 725 723 722 722 722 723 723 725 725 725 727 728 730 731 731
    731 731 733 734 734 736 738 738 738 738 739 739 741 742 742 742 742
    744 746 744 744 744 0 0 0 0 935 928 913 903 896 887 880 873 864 851
    839 833 829 825 802 796 792 789 780 771 762 757 749 744 739 731 725
    723 722 722 722 723 725 725 725 727 728 730 730 730 731 731 731 733
    734 736 736 736 738 738 738 739 739 741 742 742 742 742 744 746 746
    746 746 0 0 0 0 935 925 915 903 896 887 880 875 867 851 841 835 827
    821 807 796 792 789 780 771 764 757 750 746 741 733 727 723 722 722
    722 723 725 727 727 727 728 730 730 730 730 731 731 733 734 736 736
    736 736 738 739 739 739 741 742 742 742 744 746 747 746 746 746 0 0
    0 0 935 925 918 903 891 887 882 878 867 858 841 835 827 821 805 798
    794 790 781 771 764 757 750 744 741 736 728 723 722 722 722 723 725
    727 727 727 728 730 730 730 730 731 731 733 734 736 736 736 736 738
    738 738 739 741 741 742 744 744 746 747 747 747 0 0 0 0 946 935 925
    913 903 891 887 880 875 867 849 843 835 827 821 805 800 794 789 781
    773 767 754 750 744 739 736 730 725 723 722 722 723 725 727 728 728
    728 730 730 730 730 731 731 734 734 736 736 736 738 738 738 738 739
    741 741 742 744 746 747 747 747 747 0 0 0 0 946 935 925 913 906 894
    887 880 875 864 849 841 835 829 823 805 800 792 789 781 776 767 754
    750 744 739 736 733 725 723 722 722 725 727 728 728 728 730 730 730
    730 730 731 731 733 734 736 736 738 738 738 739 739 741 741 742 744
    744 746 747 747 747 747 749 0 0 0 946 943 925 913 906 901 889 882
    875 864 849 841 837 829 823 817 802 792 789 781 776 767 755 750 744
    739 734 731 725 723 722 722 725 725 728 728 730 730 730 730 730 731
    731 731 733 734 736 736 738 738 738 739 739 741 742 742 744 744 746
    747 747 747 749 749 0 0 0 948 940 925 918 908 898 894 882 875 864
    854 845 837 831 823 817 802 792 789 781 776 769 757 752 742 738 734
    731 727 723 723 723 725 725 727 728 730 730 730 730 730 731 731 731
    733 734 736 738 738 738 739 739 741 742 742 744 744 744 746 746 747
    749 749 749 0 0 0 948 933 925 918 908 898 894 882 875 864 854 849
    837 831 823 817 802 796 790 785 776 771 757 750 742 738 734 730 725
    723 723 723 725 725 727 728 730 730 731 731 731 731 731 731 733 734
    736 738 738 738 739 739 741 742 742 744 744 744 746 746 747 747 747
    749 0 0 0 948 933 925 918 908 898 894 885 878 860 854 845 841 831
    825 817 802 796 789 783 778 773 757 750 746 741 736 730 725 723 723
    723 725 725 727 728 730 731 731 731 731 731 731 733 733 736 736 738
    738 738 739 739 742 742 742 744 744 744 746 747 747 747 747 749 0 0
    0 946 943 928 918 908 901 894 885 878 860 854 845 841 829 823 807
    802 796 789 783 776 764 757 750 747 746 739 731 727 723 723 723 725
    725 728 730 730 731 731 731 731 731 733 733 734 736 736 738 738 738
    739 741 742 742 742 744 744 744 746 747 749 747 747 747 0 0 0 946
    943 928 918 908 903 894 885 878 860 854 845 841 829 823 807 803 794
    790 781 776 764 757 752 749 744 736 731 728 725 725 725 725 725 728
    730 730 730 731 731 731 733 733 734 736 736 738 738 738 738 741 741
    742 742 742 744 744 744 746 747 749 747 747 747 747 0 0 946 943 928
    920 910 903 894 882 878 860 854 845 841 831 827 819 803 794 790 781
    776 766 761 754 749 744 734 731 728 725 725 725 725 727 728 730 730
    730 731 731 731 733 733 734 736 736 738 738 738 739 741 741 742 742
    742 744 744 746 747 747 749 749 747 747 747 0 0 0 946 928 920 913
    906 896 882 878 864 854 845 839 833 827 819 800 794 790 785 776 773
    762 754 749 744 734 731 728 725 725 725 725 727 728 730 730 731 731
    733 733 734 734 734 736 738 738 738 739 739 741 742 742 742 742 744
    744 746 747 749 749 749 749 749 749 0 0 0 946 930 920 910 906 896
    887 878 864 854 845 839 833 827 821 800 794 792 787 778 773 764 757
    749 744 736 731 728 725 725 725 725 728 728 730 730 731 731 731 733
    734 734 736 736 738 738 738 739 741 742 742 742 744 744 744 744 746
    747 749 749 749 749 749 749 0 0 0 948 946 920 910 906 896 887 878
    864 858 847 839 833 829 821 800 796 792 785 780 773 764 759 750 744
    736 731 728 725 725 727 727 728 728 730 730 731 731 731 733 733 734
    736 736 738 738 739 739 741 742 742 742 744 744 744 744 746 747 747
    749 749 749 749 749 0 0 0 948 948 948 910 903 896 889 873 864 858
    849 839 835 829 821 800 796 792 785 780 774 764 755 749 747 739 731
    728 725 725 727 727 728 728 730 731 731 731 731 733 733 734 736 736
    738 738 739 739 741 742 742 744 744 746 744 744 746 747 747 750 750
    750 750 0 0 0 951 948 946 925 913 903 896 891 871 869 858 849 839
    835 829 823 803 798 796 785 780 774 762 755 749 747 742 731 728 727
    727 727 728 728 730 730 731 731 731 731 733 733 734 736 736 738 738
    738 739 741 742 742 744 744 744 744 744 746 747 749 750 750 750 750
    0 0 0 948 946 943 925 918 908 896 891 871 867 856 851 839 835 831
    823 805 800 798 787 780 774 762 757 752 747 742 733 728 727 727 727
    728 728 730 731 731 733 731 731 733 734 734 736 736 738 738 738 739
    741 742 744 744 744 744 744 744 746 747 749 750 750 750 752 0 0 0
    948 946 940 928 918 906 896 891 871 867 856 851 841 835 831 821 805
    800 798 790 781 774 762 755 752 747 739 733 728 727 727 727 728 728
    730 731 733 733 733 733 733 734 736 736 738 738 738 738 739 741 742
    744 744 744 744 746 746 747 749 750 750 750 750 752 755 0 0 948 943
    940 928 918 906 896 891 875 867 856 851 839 835 829 821 805 800 798
    790 783 774 762 755 754 747 738 733 728 727 727 728 728 728 730 731
    733 733 734 734 734 736 736 736 738 738 738 738 739 741 742 744 744
    744 744 746 746 747 749 750 750 750 750 752 755 0 0 0 943 933 920
    915 908 898 894 873 864 856 851 839 833 829 821 807 800 796 790 783
    774 764 757 754 747 736 733 728 727 727 728 728 728 730 731 733 733
    734 736 736 736 736 736 738 738 738 739 741 742 742 744 744 744 744
    746 747 747 749 750 750 750 750 750 755 0 0 0 0 933 920 913 908 901
    894 873 864 858 854 843 833 829 823 807 800 796 790 785 774 764 759
    752 747 736 733 728 728 728 730 730 730 730 731 733 733 734 736 736
    736 736 736 738 738 738 739 741 742 742 744 744 746 746 747 747 749
    749 750 750 750 750 750 0 0 0 0 0 0 0 913 910 903 878 871 867 858
    854 845 837 829 823 809 800 796 792 785 774 764 761 752 747 738 734
    731 728 728 730 730 730 730 733 733 734 734 736 736 736 736 736 738
    738 738 741 741 742 742 744 744 746 747 747 747 749 749 750 750 750
    750 750 0 0 0 0 0 0 0 0 913 913 878 871 867 860 856 845 839 829 817
    811 803 796 792 785 776 766 761 752 749 739 734 731 728 728 730 730
    730 730 733 734 734 734 736 736 736 736 736 738 738 739 741 742 742
    742 744 744 747 747 747 747 749 749 750 750 750 750 0 0 0 0 0 0 0 0
    0 0 0 885 875 864 860 856 847 841 831 817 813 805 796 792 783 776
    773 761 750 749 746 736 731 728 728 730 730 730 731 733 734 734 734
    736 736 736 736 736 738 738 739 742 742 742 742 744 746 747 747 747
    749 749 750 750 752 750 750 755 0 0 0 0 0 0 0 0 0 0 885 873 864 860
    856 847 839 833 819 813 805 796 792 783 776 773 757 750 749 746 738
    728 728 728 730 730 730 731 733 734 734 736 736 736 736 738 738 738
    739 741 742 742 744 744 744 746 747 747 749 749 750 752 752 752 754
    754 755 0 0 0 0 0 0 0 0 0 0 0 873 864 860 856 849 837 833 821 813
    805 798 792 785 780 774 757 752 749 746 736 728 728 728 730 730 730
    731 731 733 734 736 736 736 738 738 738 739 739 741 742 742 744 744
    744 747 747 749 749 749 750 750 752 752 754 754 755 757 0 0 0 0 0 0
    0 0 0 0 0 864 860 854 849 837 833 825 815 803 800 792 785 780 773
    762 755 750 746 736 728 728 728 730 730 731 731 731 733 734 736 736
    738 738 738 738 739 741 742 742 742 744 744 746 747 747 749 749 749
    749 750 750 752 754 755 755 757 0 0 0 0 0 0 0 0 0 0 0 0 860 851 849
    839 833 825 815 803 800 794 785 780 773 762 759 750 746 738 731 728
    728 730 730 731 733 733 733 734 736 736 738 738 738 738 739 742 742
    742 742 744 744 744 747 747 749 749 749 749 749 750 750 754 754 755
    757 0 0 0 0 0 0 0 0 0 0 0 0 0 851 849 839 829 825 815 807 802 792
    785 780 773 762 755 749 746 739 733 730 730 730 731 731 733 733 734
    734 736 736 736 738 738 738 739 742 742 742 742 744 744 744 747 747
    749 749 749 749 749 750 750 754 754 755 757 0 0 0 0 0 0 0 0 0 0 0 0
    0 851 851 839 829 825 825 807 802 792 787 781 766 762 755 749 746
    741 731 730 730 730 731 733 734 734 734 734 736 736 736 738 738 738
    739 742 742 742 742 744 744 746 747 747 749 749 749 749 749 750 752
    752 752 752 755 0 0 0 0 0 0 0 0 0 0 0 0 0 0 0 0 827 825 815 807 802
    792 789 778 766 762 755 750 747 741 731 730 730 730 731 733 734 734
    734 734 736 736 736 738 738 738 741 742 742 742 744 744 744 746 747
    747 749 749 749 749 750 750 752 752 750 750 755 0 0 0 0 0 0 0 0 0 0
    0 0 0 0 0 0 827 821 813 807 805 794 787 778 773 762 755 752 747 742
    733 731 730 730 731 733 734 736 734 734 736 736 736 738 738 739 741
    742 742 742 744 744 744 746 749 749 749 749 749 749 750 750 752 752
    750 750 0 0 0 0 0 0 0 0 0 0 0 0 0 0 0 0 0 0 821 809 807 805 802 783
    778 773 762 757 752 744 741 734 731 730 730 731 734 734 734 736 736
    736 736 738 738 739 739 741 742 744 744 744 744 744 746 747 749 749
    749 749 750 752 752 754 752 752 752 0 0 0 0 0 0 0 0 0 0 0 0 0 0 0 0
    0 0 0 809 807 805 802 783 778 773 766 759 754 744 741 736 733 730
    730 731 734 734 734 736 736 736 738 738 738 739 739 741 742 744 744
    744 744 744 747 747 749 749 749 749 750 752 754 754 754 754 754 0 0
    0 0 0 0 0 0 0 0 0 0 0 0 0 0 0 0 0 0 807 803 796 783 778 771 766 759
    754 746 741 736 733 731 731 731 734 734 734 736 736 738 738 738 738
    739 739 742 742 742 744 744 744 746 747 747 749 749 749 750 750 752
    754 755 755 754 754 0 0 0 0 0 0 0 0 0 0 0 0 0 0 0 0 0 0 0 0 0 798
    794 785 781 769 764 759 754 746 741 736 733 731 731 731 733 734 734
    736 736 738 738 738 738 739 741 742 742 742 744 744 744 746 747 747
    749 749 749 750 750 754 755 755 755 752 752 0 0 0 0 0 0 0 0 0 0 0 0
    0 0 0 0 0 0 0 0 0 796 794 785 783 769 764 761 755 747 741 736 733
    731 731 731 733 734 736 736 736 736 738 738 738 739 741 742 742 742
    744 744 746 746 749 749 749 750 750 752 752 752 754 755 755 752 752
    0 0 0 0 0 0 0 0 0 0 0 0 0 0 0 0 0 0 0 0 0 796 796 783 783 769 766
    761 755 749 739 736 733 731 731 731 733 734 736 736 736 736 738 738
    739 741 741 742 742 742 744 744 746 746 749 749 749 750 752 752 752
    752 754 754 755 754 754 0 0 0 0 0 0 0 0 0 0 0 0 0 0 0 0 887 885 880
    880 0 0 0 783 769 769 766 762 757 749 739 736 733 731 731 731 733
    733 734 736 736 736 738 738 739 739 741 742 742 742 744 744 746 746
    747 749 749 750 750 752 752 752 752 754 755 754 754 0 0 0 0 0 0 0 0
    0 0 0 0 0 0 0 894 887 885 880 880 0 0 0 0 769 769 766 764 757 749
    744 736 733 731 731 731 733 733 734 736 736 738 738 738 739 739 741
    742 742 742 744 744 746 747 747 749 750 750 750 750 752 752 752 754
    754 754 754 0 0 0 0 0 0 0 0 0 0 896 896 903 903 903 894 889 887 887
    887 887 0 0 0 769 767 766 762 757 749 744 738 733 731 731 733 733
    734 734 736 736 738 738 738 739 739 741 742 742 742 744 744 746 747
    749 749 750 750 750 750 750 750 750 755 754 754 0 0 0 0 0 0 0 0 0 0
    903 896 896 903 903 901 898 896 896 896 891 0 0 0 0 0 767 766 762
    755 747 746 738 733 733 733 733 734 734 734 734 736 736 738 738 741
    741 742 742 742 744 744 746 746 747 749 749 749 749 749 750 750 750
    750 755 757 0 0 0 0 0 0 0 0 0 0 903 903 903 901 901 903 901 898 898
    896 891 891 0 894 0 0 0 0 0 755 755 744 742 739 733 733 733 733 734
    734 734 734 736 736 738 738 739 741 741 742 744 744 744 747 747 747
    747 747 749 749 749 750 750 0 0 0 0 0 2078 2053 0 0 0 0 0 0 901 898
    898 898 896 896 896 896 894 894 891 889 889 891 894 0 0 0 0 0 0 0
    744 742 738 734 733 733 733 733 733 734 734 736 736 736 736 738 739
    741 742 742 746 746 747 747 747 747 747 749 749 0 0 0 0 0 0 0 0 2040
    2040 0 0 0 0 0 0 901 898 898 896 894 889 887 887 887 887 889 887 887
    889 889 0 0 0 0 0 0 0 741 741 738 734 733 733 733 733 733 734 734
    731 731 734 734 736 733 733 742 742 746 746 747 747 0 0 0 0 0 0 0 0
    0 0 0 0 0 2028 2016 0 0 0 0 0 0 898 896 896 894 882 880 880 880 880
    882 887 885 882 880 878 878 0 0 858 0 0 0 873 741 736 734 733 733
    733 733 733 731 730 730 730 730 730 731 728 728 873 873 871 871 871
    871 0 0 0 0 0 0 0 0 0 0 0 0 0 2028 1993 0 0 0 0 0 0 898 896 896 889
    875 873 873 875 873 873 873 873 878 875 873 871 871 858 858 858 0
    871 871 871 736 734 734 733 733 733 733 731 730 730 730 730 730 731
    728 728 873 873 871 871 871 0 0 0 0 0 0 0 0 0 0 0 0 0 1981 1970 1970
    0 0 0 0 0 0 898 898 894 878 873 871 869 867 864 864 864 864 864 864
    864 869 867 858 858 858 0 869 869 867 867 734 734 733 733 862 862
    862 862 862 862 873 873 873 837 837 871 871 867 862 862 862 0 0 0 0
    0 0 0 0 0 0 0 0 1981 1970 1970 0 0 0 0 0 0 0 896 891 878 873 869 864
    864 862 860 860 860 860 862 862 864 862 847 847 847 845 858 858 856
    856 856 854 854 858 860 860 860 856 856 856 851 851 843 841 839 839
    841 862 856 856 849 849 0 0 0 0 0 0 0 0 0 0 0 0 1970 1970 0 0 0 0 0
    0 0 896 891 875 871 867 860 858 858 856 856 856 856 856 856 856 849
    847 845 845 845 849 849 849 849 849 847 847 847 851 851 851 849 849
    849 847 843 839 837 837 839 841 845 849 849 849 847 847 0 0 0 0 0 0
    0 0 0 0 0 0 0 0 0 0 0 0 0 0 894 889 875 871 867 856 851 851 851 851
    851 851 847 847 845 841 841 841 841 841 839 839 845 843 843 845 845
    845 843 841 841 845 845 847 845 841 837 835 835 837 841 841 841 841
    841 845 845 0 0 0 0 0 0 0 0 0 0 0 0 0 0 0 0 0 0 0 906 891 889 875
    871 862 854 849 847 845 845 843 843 843 841 839 839 839 839 839 839
    837 837 837 837 837 839 839 839 839 839 839 837 837 837 839 837 835
    835 835 835 837 835 835 835 833 833 835 835 835 0 0 0 0 0 0 0 0 0 0
    0 0 0 0 0 0 0 906 891 889 875 871 862 854 849 845 841 839 837 837
    837 837 835 835 833 831 831 827 827 829 833 833 833 831 831 831 835
    835 833 833 829 829 831 831 833 833 831 827 827 829 829 827 827 825
    823 823 823 821 821 0 0 0 0 0 0 0 0 0 0 0 0 0 0 0 903 896 889 878
    871 860 854 849 845 839 835 833 831 831 833 831 831 829 827 823 823
    823 823 827 827 829 827 827 827 827 827 825 825 825 823 823 827 827
    829 823 821 821 823 823 821 821 821 821 821 821 821 821 0 0 0 0 0 0
    0 0 0 0 0 0 0 0 0 903 896 889 878 871 860 856 849 845 837 827 827
    825 825 827 827 825 825 823 821 821 821 821 823 823 823 823 823 823
    823 823 823 823 821 819 819 821 821 821 817 817 817 819 817 817 817
    817 817 819 819 819 819 0 0 0 0 0 0 0 0 0 0 0 0 0 0 0 0 896 882 875
    869 862 856 851 845 825 821 819 815 815 815 819 821 821 819 817 817
    819 819 819 815 815 813 813 815 817 819 819 819 817 813 811 811 811
    811 813 813 813 815 815 815 815 817 817 817 817 819 819 819 0 0 0 0
    0 0 0 0 0 0 0 0 0 0 0 0 880 875 869 862 858 849 845 825 819 817 813
    811 811 811 813 813 813 815 815 807 807 811 809 809 809 809 811 811
    811 811 809 809 809 807 807 807 807 811 811 813 813 813 815 815 815
    815 815 817 817 819 819 0 0 0 0 0 0 0 0</data></Depth15846>
</opencv_storage>
