<?xml version="1.0"?>
<opencv_storage>
<Depth17716 type_id="opencv-matrix">
  <rows>163</rows>
  <cols>58</cols>
  <dt>w</dt>
  <data>
    839 839 839 839 839 837 833 829 829 827 827 827 823 823 825 825 0 0
    0 0 0 0 0 0 0 0 0 0 0 0 0 0 0 643 643 643 643 643 640 638 638 638
    638 0 0 0 2859 2859 2859 2859 2835 2835 2835 2835 2835 2835 1671
    1671 837 837 837 835 833 833 833 829 829 827 827 827 0 827 0 0 0 0 0
    0 0 0 0 0 0 0 0 0 0 0 0 643 643 643 643 642 640 640 640 638 638 638
    638 0 0 0 0 0 0 0 2835 2835 2835 2835 2835 2859 1671 1671 837 835
    835 835 831 831 831 831 829 829 829 829 0 0 0 0 0 0 0 0 0 0 0 0 0
    637 637 638 638 0 640 643 643 643 640 640 638 638 638 640 638 638
    638 0 0 0 0 0 0 0 0 2859 2835 2835 2835 1680 1671 1671 837 835 835
    833 831 831 831 0 831 636 0 0 0 0 0 0 0 0 0 637 637 637 637 637 637
    637 637 638 640 640 640 641 641 640 638 638 638 638 638 640 640 638
    638 0 0 0 0 0 0 0 0 2859 2859 2859 2859 1680 1680 1671 0 835 835 833
    833 833 833 0 0 0 0 636 0 635 637 637 637 637 637 637 637 637 637
    637 637 637 637 638 638 638 640 640 640 638 638 638 638 638 638 640
    640 638 638 0 0 0 0 0 0 0 0 2859 2859 2859 2859 1680 1680 1680 0 637
    637 637 637 637 637 637 637 637 0 636 635 635 636 636 637 637 637
    638 638 638 638 637 637 637 637 638 638 638 640 640 640 638 637 637
    638 638 640 640 640 641 641 0 0 0 0 0 0 0 0 2883 2883 2859 2859 2859
    2859 2859 637 637 637 637 637 637 637 637 637 637 637 636 635 635
    636 636 637 637 637 638 638 638 638 638 638 638 638 638 638 638 640
    640 640 638 637 637 638 640 640 641 641 641 641 0 0 0 0 0 0 0 0 2859
    2859 2883 2883 2883 2908 2933 637 637 637 637 637 637 637 637 637
    637 637 637 636 636 636 636 637 637 637 640 640 640 638 638 638 638
    638 640 640 640 641 640 640 640 638 638 640 641 641 641 641 641 641
    0 0 0 0 0 0 0 0 2859 2859 2883 2883 2883 2933 2933 637 637 637 637
    637 637 637 637 637 637 637 637 637 637 637 637 637 637 638 640 640
    640 638 638 640 640 640 640 640 641 641 641 641 641 641 641 641 642
    642 642 642 642 641 641 0 0 0 0 0 0 0 2859 2859 2883 2883 2883 2933
    2933 638 638 638 638 638 638 638 638 638 638 638 637 637 637 637 637
    638 638 640 641 641 640 640 640 640 640 640 640 640 641 641 641 641
    641 641 641 641 642 642 642 642 642 641 641 0 0 0 0 0 0 0 0 0 0 0
    2933 2812 2812 641 641 640 640 640 638 638 638 638 638 638 638 638
    638 638 640 640 640 641 642 642 641 640 640 641 641 641 641 641 642
    642 642 642 641 641 642 642 642 642 643 643 642 641 640 640 0 0 0 0
    0 0 0 0 0 0 2812 2812 2812 647 642 641 640 640 638 638 638 638 638
    640 640 640 640 640 641 641 641 641 642 642 641 640 640 641 641 642
    642 642 642 642 642 642 642 642 642 642 642 642 643 643 642 642 640
    640 0 0 0 0 0 0 0 0 0 0 0 2835 2835 647 643 641 640 640 638 638 640
    638 638 640 640 640 641 641 641 641 641 641 642 642 642 642 642 642
    642 642 642 642 643 643 642 642 642 642 642 642 642 642 643 643 642
    642 642 0 0 0 0 0 0 0 0 0 0 0 2859 2835 2835 647 643 641 640 640 640
    640 640 640 640 640 640 641 641 642 642 642 641 641 642 642 642 642
    642 642 642 642 643 643 643 643 643 643 642 642 643 643 643 644 644
    643 643 643 643 643 0 0 0 0 0 0 0 0 0 2859 2859 2859 2859 644 643
    641 640 640 640 640 641 640 640 641 641 641 641 642 642 642 642 642
    643 643 643 643 643 643 643 643 644 644 644 644 644 643 643 643 643
    644 644 644 646 646 644 644 643 643 0 0 0 0 0 0 0 0 2883 2835 2835
    2812 2767 644 642 641 640 640 641 641 641 641 641 642 641 641 642
    642 642 642 642 642 643 643 643 643 643 643 644 644 646 646 644 644
    644 643 643 643 646 646 646 646 646 647 647 646 644 644 0 0 0 0 0 0
    0 0 2883 2835 2835 2789 2744 646 642 641 641 641 641 642 642 642 642
    642 642 642 642 642 642 643 643 643 644 643 643 643 643 644 644 644
    646 646 644 644 644 644 644 646 646 646 646 646 646 647 647 646 644
    644 0 0 0 0 0 0 0 0 2859 2835 2812 2789 2744 644 643 642 642 642 642
    642 642 642 643 643 642 642 643 643 643 643 643 643 644 643 643 644
    644 646 646 646 646 646 646 646 644 644 646 646 646 647 647 647 647
    647 647 646 644 644 0 0 0 0 0 0 0 0 2859 2835 2812 2789 2789 644 644
    643 642 642 642 642 642 642 643 643 643 643 643 644 644 644 644 644
    644 644 644 646 646 644 644 646 647 647 646 646 646 646 646 647 647
    647 647 647 647 648 648 647 646 646 0 0 0 0 0 0 0 0 2859 2835 2812
    2812 2835 0 647 644 643 643 643 643 643 643 644 644 644 644 644 644
    644 644 644 644 644 644 644 646 646 644 644 646 647 647 647 647 647
    647 647 647 647 647 647 647 647 648 648 648 647 647 0 0 0 0 0 0 0 0
    2859 2859 2859 2835 2835 0 647 644 643 643 643 644 644 646 646 644
    644 644 644 646 646 646 644 644 644 644 646 647 646 646 646 647 647
    648 647 647 648 648 648 648 648 647 647 647 648 649 648 648 647 647
    648 0 0 0 0 0 0 0 0 0 0 0 2859 0 647 643 643 644 644 646 646 646 646
    644 644 644 646 646 646 646 644 644 644 646 646 647 647 647 647 648
    648 648 648 648 648 648 648 648 648 647 647 648 648 649 649 649 648
    648 648 0 0 0 0 0 0 0 0 0 0 0 2859 0 0 643 643 644 644 646 646 646
    646 646 646 646 646 646 646 646 644 644 644 646 647 647 647 647 648
    648 648 648 648 648 648 648 648 648 648 648 648 648 649 650 649 649
    648 648 0 0 0 0 0 0 0 0 0 0 0 0 2859 0 650 644 644 646 646 646 646
    647 646 646 646 646 647 647 646 646 646 646 646 647 647 648 648 648
    648 648 648 648 648 648 648 648 649 649 649 648 648 648 649 650 649
    649 649 649 650 0 0 0 0 0 0 0 0 0 0 2933 2883 0 649 647 646 646 646
    646 646 647 647 647 647 647 647 647 647 646 646 646 647 648 648 648
    648 648 648 648 648 649 649 649 648 648 649 649 649 649 648 648 650
    650 650 650 649 649 650 0 0 0 0 0 0 0 0 0 0 2933 2883 0 649 648 647
    647 647 646 646 647 647 647 647 647 647 647 647 647 647 647 648 649
    648 648 648 648 648 649 649 650 650 649 649 649 650 649 649 649 649
    649 650 650 652 650 650 650 652 0 0 0 0 0 0 0 0 0 0 2908 2883 0 649
    648 647 647 647 647 647 647 647 648 647 647 647 647 647 647 647 647
    649 649 649 649 649 649 649 650 650 650 650 650 650 650 650 650 649
    649 649 649 650 650 652 650 650 650 650 0 0 0 0 0 0 0 0 0 2883 2883
    2883 0 653 649 648 648 647 647 647 647 648 649 649 648 648 647 647
    648 648 648 649 649 649 649 649 649 650 650 650 652 652 652 652 652
    650 650 650 650 650 650 650 652 652 652 652 650 650 0 0 0 0 0 0 0 0
    2883 2883 2883 2883 0 0 0 649 648 647 647 648 648 649 649 650 649
    649 648 648 648 649 649 650 650 650 650 649 649 650 652 652 652 652
    652 652 652 652 652 652 652 652 652 652 653 653 652 652 652 652 0 0
    0 0 0 0 0 0 2883 2883 2883 2883 0 0 0 649 648 647 647 648 648 649
    650 650 650 650 649 649 649 650 650 652 652 652 652 652 652 652 652
    652 652 652 652 652 652 652 652 652 652 652 652 652 653 653 653 652
    652 652 0 0 0 0 0 0 0 0 2908 2883 2883 2883 0 0 0 652 649 648 648
    649 649 650 650 650 650 650 650 650 650 650 650 652 652 652 652 652
    652 652 652 653 653 653 652 652 653 653 653 653 653 653 653 653 653
    653 654 654 654 654 0 0 0 0 0 0 0 0 2933 2908 2908 2883 0 0 0 652
    650 649 649 649 650 650 652 650 650 650 650 650 650 652 652 652 653
    653 653 653 653 653 653 653 653 653 653 653 653 653 654 654 654 653
    653 653 653 653 655 655 655 655 659 0 0 0 0 0 0 0 2933 2908 2908
    2883 0 0 0 652 650 650 650 650 650 652 652 652 652 650 650 652 652
    652 652 653 653 653 653 653 653 653 653 653 653 653 653 653 653 654
    654 654 654 654 654 654 655 655 657 655 655 657 659 0 0 0 0 0 0 0
    2933 2933 2933 2908 0 0 0 652 652 650 650 650 652 652 652 652 652
    652 652 652 652 652 652 653 653 653 653 653 653 653 653 653 654 654
    654 654 654 655 655 655 655 655 655 655 655 655 657 657 657 658 659
    0 0 0 0 0 0 0 0 2933 2933 2908 0 0 0 652 652 652 652 652 652 652 652
    652 652 652 652 652 652 653 653 653 653 653 654 653 653 653 654 654
    654 654 654 654 654 655 655 657 657 657 657 657 657 657 657 657 657
    658 658 0 0 0 0 0 0 0 0 2933 2933 2908 0 0 0 0 652 652 652 652 652
    652 652 653 653 653 653 653 653 653 653 654 654 654 654 654 654 654
    654 654 654 655 655 655 655 657 657 657 657 657 657 657 657 657 658
    657 657 658 658 0 0 0 0 0 0 0 0 2958 2933 2908 0 0 0 0 653 653 653
    652 652 653 653 653 653 654 654 654 654 654 654 654 654 654 654 654
    655 655 655 655 655 655 655 657 657 657 657 657 657 657 657 657 657
    657 658 658 658 658 658 0 0 0 0 0 0 0 0 2958 2933 2908 0 0 0 0 653
    653 653 652 652 653 653 653 654 654 654 654 654 654 654 655 655 654
    654 655 655 657 655 655 655 655 655 657 657 657 658 657 657 657 657
    657 657 657 658 658 658 658 659 0 0 0 0 0 0 0 0 2933 2933 2933 0 0 0
    0 655 654 653 653 653 654 654 654 654 654 654 654 655 655 655 655
    655 655 655 657 657 657 657 657 657 657 657 658 658 658 658 658 658
    657 657 657 657 657 658 659 659 659 662 0 0 0 0 0 0 0 0 2933 2933
    2933 0 0 0 654 654 655 653 653 653 654 654 655 654 654 654 655 655
    655 655 655 655 657 657 657 657 657 657 657 657 657 657 658 658 658
    658 658 658 658 657 657 657 657 658 659 659 661 661 0 0 0 0 0 0 0 0
    2933 2933 2933 0 0 0 654 654 655 654 654 654 655 655 655 654 654 654
    655 655 655 655 655 657 657 657 658 658 658 657 657 657 657 657 658
    658 658 658 658 658 658 657 657 657 657 659 659 661 659 659 0 0 0 0
    0 0 0 0 2933 2933 2933 0 0 0 0 657 655 655 655 655 655 655 655 655
    655 655 655 655 655 655 657 658 658 658 658 658 658 657 657 657 658
    658 658 659 659 659 659 659 659 658 658 658 658 661 661 661 659 659
    0 0 0 0 0 0 0 0 2958 2933 2933 0 0 0 0 0 657 657 655 655 655 657 657
    655 655 655 655 655 655 655 658 658 658 658 658 658 658 658 658 658
    658 658 659 659 659 661 659 659 659 659 659 659 659 661 661 661 659
    659 0 0 0 0 0 0 0 0 2958 2958 2933 0 0 0 0 661 658 657 657 657 657
    657 657 657 657 655 655 657 657 657 658 658 658 659 659 659 658 658
    658 659 659 659 661 659 659 661 661 661 661 661 661 661 661 662 662
    662 661 661 0 0 0 0 0 0 0 0 2958 2933 2933 0 0 0 0 661 659 658 658
    657 657 657 658 658 659 657 657 658 658 658 659 659 659 659 659 659
    659 659 659 661 661 661 661 661 661 662 662 662 661 661 661 661 662
    662 663 662 661 661 662 0 0 0 0 0 0 0 2958 2933 2933 0 0 0 0 662 659
    659 658 658 658 658 659 659 659 658 658 659 658 658 659 661 661 661
    661 659 659 659 659 661 662 662 662 662 662 662 662 662 662 661 661
    662 662 663 663 663 662 662 662 0 0 0 0 0 0 0 0 2933 2933 0 0 0 0
    662 661 661 659 658 658 658 659 659 661 659 659 659 659 659 659 661
    662 661 661 661 661 662 662 662 662 662 662 662 662 662 662 662 662
    662 662 662 662 663 663 663 663 663 663 0 0 0 0 0 0 0 0 2933 2933 0
    0 0 0 662 661 661 659 658 658 659 659 659 661 661 661 661 659 659
    661 662 662 662 662 662 662 662 662 662 662 662 662 662 662 662 662
    662 662 662 662 662 662 663 663 664 663 663 663 0 0 0 0 0 0 0 0 2933
    2933 0 0 0 0 662 661 661 661 659 659 659 659 659 661 661 661 661 661
    661 662 662 663 662 662 662 662 662 663 663 663 663 663 663 663 663
    663 663 663 663 663 662 662 663 664 666 666 666 666 0 0 0 0 0 0 0 0
    2958 2958 0 0 0 0 662 661 661 661 661 661 661 661 661 661 661 661
    661 661 661 662 662 663 663 663 663 663 663 663 663 663 664 664 664
    664 664 663 663 663 663 663 663 663 664 664 666 667 666 666 668 0 0
    0 0 0 0 0 2958 2958 0 0 0 0 661 661 661 661 661 661 661 661 661 661
    661 661 661 662 662 663 663 663 663 663 663 663 663 664 664 664 666
    666 666 664 664 664 664 664 664 664 664 664 666 667 667 667 667 668
    668 0 0 0 0 0 0 0 0 2958 0 0 0 0 661 661 662 662 662 662 662 662 662
    662 662 662 662 662 662 663 663 663 663 663 663 663 663 664 664 666
    666 666 666 666 666 664 664 666 666 666 666 666 667 667 667 668 668
    668 670 0 0 0 0 0 0 0 0 2958 0 0 0 0 0 662 662 662 662 662 662 662
    662 662 662 662 662 662 662 664 664 664 663 663 664 664 664 666 666
    667 667 667 666 666 666 666 666 667 667 667 667 667 667 668 668 668
    668 668 670 0 0 0 0 0 0 0 0 2958 0 0 0 0 0 0 663 662 662 662 662 662
    662 662 662 662 662 662 662 664 666 666 664 664 664 664 664 666 666
    667 667 667 667 667 666 666 666 667 667 667 667 667 667 668 668 670
    670 670 671 0 0 0 0 0 0 0 2984 2958 0 0 0 0 0 0 664 663 662 662 662
    663 663 663 663 664 663 663 664 666 667 667 666 666 666 667 666 666
    667 667 667 667 667 668 667 667 667 667 667 667 667 667 667 668 668
    670 670 671 0 0 0 0 0 0 0 0 2984 2958 0 0 0 0 0 0 664 664 663 663
    663 663 663 664 664 664 664 664 664 667 667 667 667 667 667 667 667
    667 667 667 667 667 667 668 668 668 668 668 667 667 668 668 668 668
    670 670 670 671 672 0 0 0 0 0 0 0 2984 2984 0 0 0 0 0 0 666 666 664
    664 664 664 664 664 664 664 664 664 666 667 668 667 667 667 667 668
    668 668 668 668 668 668 668 668 668 668 668 668 668 668 668 668 670
    671 671 671 671 671 672 0 0 0 0 0 0 0 0 2984 0 0 0 0 0 0 666 666 664
    664 664 664 664 666 666 664 664 666 666 668 668 667 667 667 667 668
    668 668 668 668 668 668 668 668 670 670 670 668 668 668 668 668 671
    672 672 672 671 671 672 0 0 0 0 0 0 0 0 3010 0 0 0 0 0 0 666 666 666
    666 666 666 666 666 666 664 664 666 666 668 668 668 667 667 668 668
    670 670 668 668 668 668 668 670 670 670 670 670 668 668 670 670 672
    672 672 672 672 672 672 0 0 0 0 0 0 0 0 3010 0 0 0 0 0 0 668 667 666
    666 666 666 666 666 666 666 666 667 667 668 668 668 668 668 670 670
    670 670 670 670 670 670 670 670 671 671 671 671 670 670 670 670 672
    672 674 672 672 672 672 0 0 0 0 0 0 0 0 3010 0 0 0 0 0 0 670 668 668
    667 667 667 667 667 667 667 667 667 667 668 668 668 670 670 671 671
    670 670 670 670 670 671 671 671 671 671 671 671 671 671 671 671 672
    672 674 674 672 672 672 0 0 0 0 0 0 0 0 3010 0 0 0 0 0 0 671 668 668
    668 667 667 667 667 668 670 668 668 668 670 670 670 670 670 671 671
    671 671 670 670 670 671 671 672 672 672 672 672 672 672 671 671 672
    672 674 674 674 672 672 0 0 0 0 0 0 0 0 2958 0 0 0 0 0 0 672 670 670
    668 668 668 668 668 670 670 670 670 670 670 670 670 671 671 672 672
    672 671 671 671 671 671 671 672 672 672 674 672 672 672 672 672 672
    672 675 675 674 672 672 674 0 0 0 0 0 0 0 2933 0 0 0 0 0 0 672 670
    670 670 668 668 670 670 670 671 671 671 671 671 671 671 672 672 672
    672 672 672 672 672 672 672 672 672 672 672 674 674 674 672 672 672
    672 672 675 675 674 674 674 674 0 0 0 0 0 0 0 2933 0 0 0 0 0 0 671
    670 670 671 670 670 671 671 671 671 671 671 671 672 671 671 672 672
    672 672 674 674 674 674 672 672 674 674 674 674 674 674 674 674 674
    674 674 674 675 675 675 674 674 674 0 0 0 0 0 0 0 2958 0 0 0 0 0 0
    671 671 671 671 671 671 671 671 671 671 671 671 672 672 672 672 672
    672 674 674 674 674 674 674 674 674 674 674 675 675 675 675 675 674
    674 674 674 674 675 675 675 675 674 674 0 0 0 0 0 0 0 2958 0 0 0 0 0
    0 671 671 671 672 672 672 672 672 672 672 672 672 672 674 674 674
    674 674 674 674 674 675 674 674 674 674 675 675 676 676 676 675 675
    675 675 675 675 676 678 678 676 676 675 675 676 0 0 0 0 0 0 0 0 0 0
    0 0 0 672 672 672 672 672 672 672 672 672 672 672 672 672 674 674
    674 674 674 675 675 675 675 675 675 675 675 675 675 676 676 676 676
    676 676 676 676 678 678 678 678 678 678 678 676 676 0 0 0 0 0 0 0 0
    0 0 0 0 0 675 674 674 672 672 672 672 672 672 672 672 672 672 674
    674 674 675 675 675 675 675 675 675 675 676 676 676 676 676 678 678
    676 676 678 678 678 678 678 678 679 679 678 678 678 678 0 0 0 0 0 0
    0 0 0 0 0 0 0 676 676 676 674 672 672 672 672 674 674 674 674 674
    674 674 675 676 676 676 676 676 676 676 676 678 676 676 678 678 678
    678 678 678 678 678 678 679 678 678 679 679 679 679 678 678 0 0 0 0
    0 0 0 0 0 0 0 0 0 0 678 676 675 674 672 672 672 674 674 675 674 674
    675 675 676 676 676 676 678 678 678 678 678 678 678 678 678 678 678
    678 678 678 678 679 679 679 679 679 679 679 679 679 678 678 0 0 0 0
    0 0 0 0 0 0 0 0 0 0 682 676 675 674 674 674 674 674 675 675 675 675
    675 675 676 678 678 678 678 678 678 678 678 678 678 678 678 679 679
    679 679 679 679 679 679 679 679 679 680 680 679 679 678 678 0 0 0 0
    0 0 0 0 0 0 0 0 0 0 0 676 676 675 675 675 675 675 675 675 675 676
    676 676 678 678 678 678 679 678 678 678 678 678 678 678 678 679 679
    679 679 679 679 679 679 679 679 679 680 680 680 679 679 679 0 0 0 0
    0 0 0 0 0 0 0 0 0 0 0 676 676 676 675 675 675 675 676 676 676 676
    678 678 678 678 678 679 679 679 679 679 678 678 679 679 679 679 679
    679 679 679 680 679 679 679 679 680 682 682 682 680 680 680 0 0 0 0
    0 0 0 0 0 0 0 0 0 0 0 676 676 676 676 676 675 675 676 678 678 678
    678 678 678 678 679 679 679 679 679 679 679 679 679 680 680 680 679
    679 680 680 680 680 679 679 680 682 682 683 682 682 680 680 0 0 0 0
    0 0 0 0 0 0 0 0 0 0 0 678 678 676 676 676 676 676 678 678 678 678
    678 678 678 679 679 679 679 679 679 680 680 680 680 680 680 680 680
    680 680 680 682 680 680 680 680 682 683 683 683 682 682 682 0 0 0 0
    0 0 0 0 0 0 0 0 0 0 0 678 678 678 678 678 678 678 679 679 678 678
    679 679 679 679 679 679 679 680 680 680 680 680 682 682 682 682 682
    682 682 682 682 682 682 682 682 682 683 683 683 683 682 682 0 0 0 0
    0 0 0 0 0 0 0 0 0 0 0 0 679 679 679 679 679 679 680 679 679 679 679
    679 679 679 679 679 680 680 680 682 682 682 682 682 682 682 682 682
    683 682 682 683 682 682 683 683 683 683 683 683 683 683 0 0 0 0 0 0
    0 0 0 0 0 0 0 0 0 0 683 682 680 680 680 680 680 680 680 680 679 679
    680 680 680 680 680 680 680 680 682 682 683 683 683 683 683 683 683
    683 683 683 683 683 683 683 684 684 684 684 683 683 684 0 0 0 0 0 0
    0 0 0 0 0 0 0 0 0 683 683 682 682 682 682 682 682 682 682 683 682
    682 682 682 682 680 680 680 680 682 683 683 683 683 683 683 684 683
    683 683 683 683 683 683 684 684 684 684 684 683 683 684 0 0 0 0 0 0
    0 0 0 0 0 0 0 0 0 683 683 682 682 682 682 682 682 682 682 683 683
    683 683 683 683 683 683 683 683 684 683 683 683 683 683 683 684 684
    684 684 684 684 684 684 684 684 686 686 684 684 684 684 0 0 0 0 0 0
    0 0 0 0 0 0 0 0 0 683 683 682 682 682 682 682 682 682 683 684 684
    683 683 684 683 683 683 683 683 684 684 684 684 684 684 684 684 684
    684 684 684 684 684 684 686 686 686 686 686 684 684 686 0 0 0 0 0 0
    0 0 0 0 0 0 0 0 0 683 683 682 682 682 682 682 682 682 683 684 684
    684 684 684 684 684 684 684 684 684 684 684 684 686 686 686 686 686
    686 686 686 684 684 684 686 686 686 686 686 686 686 686 0 0 0 0 0 0
    0 0 0 0 0 0 0 0 0 683 683 683 683 683 682 682 682 683 683 684 684
    684 684 684 684 684 684 684 684 684 686 686 686 686 686 686 686 686
    686 686 686 686 687 687 688 688 688 687 687 688 687 687 0 0 0 0 0 0
    0 0 0 0 0 0 0 0 0 0 684 683 683 683 683 683 683 683 683 684 684 684
    684 684 684 684 684 684 684 684 686 687 687 687 687 687 686 686 687
    687 687 687 687 688 688 688 688 688 688 688 687 687 0 0 0 0 0 0 0 0
    0 0 0 0 0 0 0 693 686 684 683 683 683 683 683 684 684 684 684 686
    686 686 686 684 684 684 686 686 687 687 688 688 688 688 687 687 688
    687 687 688 688 688 688 688 688 688 688 688 688 688 0 0 0 0 0 0 0 0
    0 0 0 0 0 0 0 693 687 686 684 684 684 684 686 686 686 686 686 686
    687 687 686 686 686 686 687 687 687 688 688 688 688 688 688 688 688
    688 688 688 688 688 688 688 688 688 690 688 688 688 0 0 0 0 0 0 0 0
    0 0 0 0 0 0 0 691 688 687 686 686 686 686 687 687 687 687 687 687
    687 688 688 687 687 687 687 687 688 688 688 688 688 688 688 688 688
    688 688 688 688 688 688 688 688 688 690 690 690 690 0 0 0 0 0 0 0 0
    0 0 0 0 0 0 0 688 687 687 687 687 687 687 687 687 687 688 688 688
    688 688 688 688 688 688 688 688 688 688 688 688 688 688 688 688 688
    688 688 690 690 688 688 688 688 690 691 691 690 690 690 0 0 0 0 0 0
    0 0 0 0 0 0 0 0 686 686 687 687 687 687 687 687 687 687 688 688 688
    688 688 688 688 688 688 688 688 688 688 688 688 688 690 690 690 690
    690 690 690 690 690 690 690 690 690 693 693 691 690 690 0 0 0 0 0 0
    0 0 0 0 0 0 0 0 686 686 687 687 687 687 687 687 687 687 688 688 688
    688 688 690 690 688 688 688 688 688 688 688 690 690 690 690 690 690
    690 690 691 691 690 690 691 691 691 693 693 691 690 690 0 0 0 0 0 0
    0 0 0 0 0 0 0 0 688 688 688 687 687 687 687 687 688 688 690 690 690
    690 690 690 690 690 690 690 690 690 690 690 690 690 691 690 690 690
    690 690 691 691 691 691 691 691 691 694 694 693 691 691 0 0 0 0 0 0
    0 0 0 0 0 0 0 0 0 690 688 688 688 688 688 688 688 688 690 690 690
    690 690 690 690 690 690 690 690 690 690 690 690 690 691 691 691 691
    690 690 691 691 691 691 691 691 691 694 694 694 693 693 0 0 0 0 0 0
    0 0 0 0 0 0 0 0 0 691 690 688 688 688 688 688 688 688 690 690 690
    690 690 690 691 691 691 691 691 691 691 691 691 691 691 691 691 691
    691 691 691 691 691 691 691 691 691 694 694 694 693 693 703 0 0 0 0
    0 0 0 0 0 0 0 0 0 0 698 693 693 690 688 688 688 690 690 691 690 690
    690 690 691 693 693 693 693 693 693 691 691 691 691 691 693 693 693
    693 693 693 693 693 693 693 693 693 694 694 694 693 693 703 0 0 0 0
    0 0 0 0 0 0 0 0 0 0 698 694 693 691 691 691 691 691 691 691 690 690
    690 691 693 693 694 693 693 693 693 693 691 691 691 691 693 693 694
    694 694 694 694 694 694 694 694 694 696 696 694 694 694 0 0 0 0 0 0
    0 0 0 0 0 0 0 0 0 698 694 694 693 693 693 693 693 693 694 693 693
    693 693 693 694 694 694 694 694 694 693 693 693 693 693 694 694 694
    694 694 694 694 694 694 694 694 694 696 696 696 694 694 0 0 0 0 0
    2381 0 0 0 0 0 0 0 0 0 0 694 693 693 693 693 693 693 693 694 694 694
    694 694 694 694 694 696 696 694 694 694 694 694 694 694 694 694 694
    694 694 694 694 694 696 696 696 696 696 696 696 696 696 0 0 0 0 0
    2381 0 0 0 0 0 0 0 0 0 0 694 693 693 693 693 693 694 694 694 694 694
    694 696 696 696 696 696 696 696 696 694 694 694 694 694 694 694 694
    694 694 694 696 696 696 696 696 697 697 696 696 696 697 0 0 0 0 0
    2381 0 0 0 0 0 0 0 0 0 0 694 694 694 694 693 693 694 694 696 696 696
    696 696 696 696 696 697 696 696 696 696 696 696 696 696 696 696 696
    696 696 696 696 696 696 697 697 697 697 696 696 696 697 697 0 0 0 0
    2381 0 0 0 0 0 0 0 0 0 0 0 694 694 694 694 694 694 694 696 696 696
    696 696 696 696 697 697 696 696 696 696 696 696 696 696 696 696 696
    696 696 696 697 697 697 698 698 698 698 697 697 697 697 697 0 0 0 0
    1161 1161 0 0 0 0 0 0 0 0 0 0 696 696 694 694 694 694 694 697 697
    696 696 696 696 696 697 697 697 697 697 697 697 697 696 696 697 697
    697 697 697 697 697 697 698 698 698 698 698 698 698 697 697 697 0 0
    0 0 1157 1153 1153 1153 0 0 0 0 0 0 0 0 697 697 696 696 696 696 696
    697 697 696 696 697 697 697 697 697 697 697 697 697 697 697 696 696
    697 698 698 700 700 700 698 698 698 698 698 700 700 700 700 700 697
    697 700 0 0 0 1157 1153 1149 1149 1149 1149 0 0 0 0 0 0 698 698 697
    696 696 696 696 697 697 697 697 697 697 698 698 698 698 698 698 698
    698 698 697 697 698 700 700 700 700 700 700 700 700 700 700 700 700
    700 700 700 700 700 700 0 0 0 1153 1149 1145 1141 1141 1141 0 0 0 0
    0 0 698 698 698 697 697 696 696 698 698 697 697 697 698 698 698 700
    700 700 700 698 698 698 698 698 700 700 700 700 700 700 700 700 700
    700 700 700 701 701 701 701 701 701 0 0 0 0 1149 1145 1141 1138 1138
    1134 1134 0 0 0 0 0 698 698 698 697 697 696 696 698 698 698 698 698
    700 698 698 700 700 700 700 700 700 700 700 700 700 701 701 700 700
    700 700 701 701 701 700 700 701 701 701 701 701 701 0 0 0 0 1145
    1141 1138 1134 1134 1134 1126 1126 0 0 0 0 698 698 698 698 698 697
    697 698 700 700 700 700 700 700 700 700 700 700 700 700 700 700 700
    700 701 701 701 700 700 700 700 701 701 701 701 701 701 701 701 701
    701 701 0 0 0 0 1141 1138 1138 1134 1134 1130 1126 1126 0 0 0 0 698
    698 698 698 698 697 697 698 700 700 700 700 700 701 701 701 701 701
    701 701 701 701 701 701 701 701 701 701 700 700 701 701 701 701 701
    701 701 701 701 701 700 700 0 0 0 0 1138 1134 1134 1134 1134 1130
    1123 1123 1123 0 0 0 0 698 698 698 698 698 698 700 700 700 700 701
    701 701 701 701 701 701 701 701 701 701 701 701 701 701 701 701 701
    701 701 701 701 701 701 701 703 703 703 701 700 700 0 0 0 0 1138
    1134 1134 1134 1134 1130 1123 1119 1119 0 0 0 0 700 700 700 700 700
    700 701 701 701 701 701 701 701 701 701 701 701 701 701 701 701 701
    701 701 701 701 701 701 701 701 703 701 701 701 703 704 704 703 703
    701 701 0 0 0 0 1138 1134 1134 1138 1134 1126 1123 1119 1119 0 0 0 0
    703 703 701 700 700 700 701 701 701 701 701 701 701 701 701 701 703
    703 703 703 703 703 703 703 703 703 704 704 703 703 704 704 704 704
    704 704 704 704 704 703 703 703 0 0 0 1197 1193 1189 1138 1134 1126
    1123 1123 0 0 0 0 0 0 704 703 701 701 701 703 703 703 703 701 701
    703 703 703 703 703 703 703 703 703 704 704 704 704 704 704 704 704
    704 704 706 706 706 706 706 706 706 706 704 703 703 703 0 0 1197
    1193 1189 1185 1181 1181 1173 1173 0 0 0 0 0 0 704 704 703 703 703
    704 704 704 703 703 703 703 703 703 704 704 704 704 704 704 706 706
    704 704 704 704 704 704 704 706 706 706 706 706 706 706 706 707 706
    704 703 703 0 0 1197 1193 1189 1185 1181 1181 1173 1173 0 0 0 0 0 0
    706 704 704 704 704 706 704 704 704 704 703 703 704 704 704 706 706
    706 706 706 706 706 706 706 706 706 706 706 706 706 707 707 706 706
    706 707 707 707 706 706 706 0 0 0 1197 1193 1189 1185 1185 1181 1181
    1181 0 0 0 0 0 0 706 704 704 704 704 706 706 706 706 706 704 704 704
    704 706 706 706 706 706 706 706 706 706 706 706 706 706 706 706 707
    707 707 706 706 707 707 707 707 707 706 706 0 0 0 1197 1193 1189
    1185 1185 1185 1181 1181 0 0 0 0 0 0 706 704 704 704 704 706 706 706
    706 706 706 706 706 706 706 706 706 706 706 706 707 707 706 706 706
    706 706 706 707 707 707 707 707 707 707 707 707 707 707 707 707 0 0
    0 1202 1197 1193 1189 1185 1185 1185 1185 0 0 0 0 0 0 706 706 706
    706 706 707 707 707 707 707 707 707 706 706 706 706 706 707 707 707
    707 707 707 707 707 707 707 707 707 707 707 707 707 707 707 708 708
    708 707 707 706 706 0 0 1202 1202 1193 1193 1189 1189 1185 1185 0 0
    0 0 0 0 708 706 706 706 706 707 707 707 707 707 707 707 707 707 707
    707 707 707 707 707 708 708 708 708 707 707 707 707 707 708 708 707
    707 707 707 708 708 708 707 707 706 706 0 0 2078 1202 1197 1193 1193
    1193 1189 1189 0 0 0 0 0 0 710 707 707 706 706 707 708 708 707 707
    707 707 707 707 707 707 707 707 708 708 708 708 710 710 708 708 708
    708 708 708 708 708 708 708 708 708 710 710 708 708 707 707 0 0 2065
    1202 1197 1197 1197 1197 1197 0 0 0 0 0 0 0 711 710 708 707 707 708
    708 710 708 708 707 707 707 707 707 707 707 708 708 708 710 710 710
    710 708 708 708 710 710 710 710 710 708 708 708 708 710 711 710 710
    707 707 0 0 2053 2053 2053 1219 1219 1219 0 0 0 0 0 0 0 0 711 710
    708 707 707 708 710 710 710 710 708 708 708 708 708 708 708 708 708
    710 710 710 710 710 708 708 710 710 711 711 711 711 711 711 711 711
    711 711 711 711 711 710 710 0 2028 2016 2016 1232 1232 1232 0 0 0 0
    0 0 0 0 711 710 710 708 708 710 710 711 711 710 710 710 708 708 708
    710 710 708 708 710 710 711 710 710 710 710 711 711 711 711 711 711
    711 711 711 711 711 711 711 711 711 710 710 0 2016 2005 2005 1236
    1236 1236 0 0 0 0 0 0 0 0 713 711 710 710 710 710 711 711 711 711
    711 711 710 710 711 710 710 710 710 711 711 711 710 710 710 710 711
    711 711 711 711 711 711 713 713 713 711 711 711 711 711 710 710 0
    1993 1993 1993 1993 1970 0 0 0 0 0 0 0 0 0 713 711 711 711 711 711
    711 711 711 711 711 711 711 711 711 711 711 711 711 711 711 711 711
    711 711 711 711 711 713 713 713 713 713 713 713 713 713 713 713 713
    711 711 711 0 1970 1970 1981 1970 1970 0 0 0 0 0 0 0 0 0 0 711 711
    711 711 711 713 713 713 711 711 711 711 711 711 711 711 711 711 713
    713 713 711 711 711 711 711 713 713 713 713 713 713 714 714 714 713
    713 713 713 713 711 711 0 1970 1959 1959 1959 1970 0 0 0 0 0 906 906
    906 0 0 713 711 711 713 713 713 713 713 713 711 711 711 711 713 713
    713 713 713 713 713 713 713 713 713 713 713 713 713 713 713 714 714
    716 716 716 714 714 714 713 713 713 713 0 1959 1959 1959 1959 0 0 0
    0 903 903 903 906 906 0 713 713 711 711 713 713 713 713 713 713 713
    713 713 713 713 713 713 713 713 713 713 713 714 713 713 713 713 713
    713 713 714 716 716 716 716 716 716 716 716 714 714 714 714 0 1936
    1936 1981 0 0 0 0 0 898 894 894 896 896 889 713 713 713 713 713 713
    713 713 713 713 713 713 713 713 713 714 714 714 714 714 714 714 714
    714 714 714 714 714 713 713 714 716 716 716 716 717 717 717 717 716
    716 714 714 0 1915 1936 0 0 0 0 0 0 898 891 889 889 889 889 889 714
    714 714 714 714 714 713 713 713 714 714 714 714 714 714 716 716 716
    716 716 716 716 716 716 716 716 714 714 714 716 716 716 716 716 717
    717 717 717 717 716 714 714 0 1894 1894 0 0 0 0 0 0 0 889 887 887
    887 887 887 716 716 716 716 714 714 713 713 713 714 716 714 714 714
    714 716 716 716 716 716 716 716 716 716 716 716 716 716 716 717 717
    717 717 717 717 717 717 717 717 717 716 716 0 1883 1883 0 0 0 0 0 0
    887 887 885 880 880 880 880 720 717 717 717 716 716 714 714 714 716
    716 716 716 716 716 716 716 716 716 717 717 717 717 717 717 717 717
    717 717 717 717 717 717 717 717 717 717 717 717 717 717 717 0 1873
    1873 0 0 0 0 0 0 887 878 875 873 869 867 867 720 719 717 717 717 716
    716 716 716 717 716 716 716 716 716 717 716 716 716 717 717 717 717
    717 717 717 717 717 717 719 719 717 717 717 717 717 717 717 717 717
    717 717 0 1863 1863 1863 0 0 0 0 0 0 878 867 867 867 864 862 720 719
    719 719 719 719 719 717 717 717 717 717 717 717 717 717 717 717 717
    717 717 717 719 719 717 717 717 717 717 719 719 719 717 717 717 717
    717 717 717 717 717 0 0 1853 1853 1853 0 0 0 0 0 0 0 862 862 862 862
    862 862 719 719 719 719 719 719 719 719 719 719 717 717 717 717 719
    717 717 717 717 717 719 719 719 719 719 717 717 717 719 719 719 717
    717 717 717 717 717 717 717 719 0 0 1853 1853 1853 0 0 0 0 0 0 0 860
    860 858 858 856 856 720 719 719 719 719 719 719 719 719 719 719 719
    719 719 719 719 719 719 719 719 719 719 719 719 719 719 719 719 719
    719 719 831 717 717 717 717 717 717 717 0 0 0 1843 1853 1853 0 0 0 0
    0 0 0 851 851 849 849 845 845 722 719 719 720 719 719 719 719 719
    719 719 717 717 719 719 719 719 719 719 719 719 720 719 719 719 719
    719 719 719 825 827 827 823 821 821 823 717 717 717 0 0 0 1843 1843
    1843 1843 0 0 0 0 0 0 845 845 847 845 843 843 837 719 719 720 720
    720 720 720 720 720 835 717 717 719 719 719 831 829 829 827 827 827
    827 720 720 815 815 815 817 817 819 819 819 819 817 815 815 815 815
    0 0 0 1823 1823 1823 1843 0 0 0 0 0 0 845 843 843 843 839 839 837
    719 719 720 722 722 722 722 831 831 831 829 829 829 827 827 825 823
    823 823 823 823 823 823 817 817 813 813 813 813 815 815 813 813 811
    811 811 809 809 0 0 1671 1804 1804 1813 0 0 0 0 0 0 0 0 841 839 837
    835 833 833 831 829 725 725 727 727 819 823 827 827 827 827 825 823
    819 819 817 817 817 817 815 815 815 813 809 809 809 809 809 805 805
    802 802 802 803 803 803 805 0 0 1671 1785 1785 1776 1776 0 0 0 0 0 0
    0 829 829 829 827 825 825 827 827 827 823 819 819 819 821 823 823
    823 823 821 817 815 815 815 815 815 813 813 811 809 809 805 805 802
    802 805 802 800 798 798 798 800 800 800 805 0 0 0 1776 1766 1766
    1766 0 0 0 0 0 0 0 829 827 825 823 821 821 821 821 821 819 819 819
    819 819 819 817 815 815 815 813 813 813 813 813 813 811 811 807 805
    803 802 800 800 800 800 800 798 798 798 796 794 794 792 792 792 792
    1671 1766 1757 1757 1748 1748 0 0 0 0 0 0 827 823 821 819 819 819
    819 819 819 817 817 815 815 815 813 811 807 807 807 807 807 807 807
    807 807 805 805 803 802 800 800 798 798 796 796 796 796 794 794 792
    792 790 790 790 792 792 792 1766 1757 1748 1739 1731 1731 0 0 0 0 0
    827 817 817 815 815 817 815 811 811 813 811 809 807 807 807 805 805
    803 803 803 803 803 803 802 802 800 800 800 798 796 796 792 792 792
    792 790 790 790 790 790 789 789 789 789 789 789 0 1739 1739 1739
    1731 1731 1731 0 0 0 0 0 0 811 811 811 809 809 807 805 805 807 805
    805 805 805 803 803 802 800 798 798 798 798 798 796 796 794 794 794
    792 792 792 790 790 790 789 789 789 790 790 789 789 787 787 787 789
    789 785 1722 1722 1722 1722 1722 1705 1705 0 0 0 0 0 809 807 805 803
    802 802 802 802 800 800 800 800 800 800 798 796 794 794 794 794 794
    794 792 792 792 792 792 790 790 790 789 789 789 789 789 789 790 790
    789 789 787 787 787 785 785 785 1713 1713 1227 1223 1219 1219 1223 0
    1219 1214 0 0 809 802 800 798 798 798 798 798 798 798 796 794 794
    794 792 792 792 792 792 792 792 792 790 790 790 790 790 790 790 790
    789 789 789 789 789 789 790 790 790 789 789 787 787 785 785 785 1219
    1219 1219 1219 1219 1219 1219 1219 1219 1214 1214 1214 798 798 798
    796 796 794 794 794 794 794 792 792 792 792 792 790 790 790 790 790
    790 790 790 790 790 790 790 790 790 790 790 789 789 790 789 789 790
    790 790 790 789 789 789 785 785 785 1214 1214 1214 1219 1214 1214
    1214 1210 1210 1214 1214 1214 794 794 796 794 794 792 792 792 792
    792 792 790 790 790 790 790 790 790 790 790 790 790 790 790 790 790
    790 790 790 790 790 790 790 790 790 790 790 790 790 790 790 790 789
    787 787 787 1214 1210 1210 1214 1214 1210 1206 1202 1202 1206 1214
    1214 794 794 792 792 792 790 790 790 792 792 792 790 790 790 790 790
    790 790 790 790 790 790 790 790 790 790 790 790 792 790 790 790 790
    790 790 790 790 790 790 790 790 790 790 787 787 787 1206 1206 1206
    1210 1206 1206 1202 1202 1197 1197 1197 1197 796 796 792 792 792 790
    790 790 792 792 792 792 792 792 792 790 790 792 790 790 792 792 792
    790 790 790 790 790 792 792 792 790 790 790 790 790 790 790 790 792
    792 792 790 790 790 790 1202 1202 1202 1202 1202 1202 1197 1197 1189
    1189 1189 0 794 794 794 792 792 790 790 790 792 792 792 792 792 792
    792 792 792 792 792 792 792 792 794 792 792 792 792 792 792 792 792
    792 792 792 790 790 792 792 792 792 792 792 792 790 790 790 1193
    1189 1189 1193 1193 1197 1197 1193 1185 1185 1185 0 794 794 794 792
    792 792 792 792 792 792 792 792 792 792 792 792 792 792 792 792 792
    794 794 794 792 792 792 792 792 792 792 792 792 792 792 792 792 792
    794 792 792 792 792 792 790 790 1185 1185 1185 1189 1189 1193 1193
    1185 1185 1185 1185 0 794 794 794 792 792 792 792 792 794 794 792
    792 792 792 794 794 794 792 792 792 792 794 796 796 794 794 794 792
    792 792 792 792 792 792 792 792 794 794 794 792 792 792 792 792 790
    790 1185 1185 1185 1185 1189 1193 1193 1185 1185 1185 1185 0 0 796
    796 794 794 792 792 792 796 794 794 794 794 796 796 794 794 794 794
    794 794 794 794 794 794 794 794 794 792 792 794 794 794 794 792 792
    794 794 794 794 792 792 792 792 790 790 1181 1181 1181 1185 1185
    1185 1189 1185 1185 1185 1185 0 0 796 796 794 794 794 794 794 796
    796 796 796 796 796 796 796 796 796 796 794 794 794 794 794 794 794
    794 794 794 794 794 794 794 794 794 794 794 794 794 794 792 792 792
    792 792 792 1181 1181 1181 1185 1185 1185 1189 1189 0 0 1173 0 0 796
    796 794 794 794 794 794 798 798 798 798 798 796 796 798 798 798 798
    796 796 796 796 796 794 794 796 796 794 794 792 792 792 794 794 794
    794 794 794 794 794 792 792 792 792 792 1181 1177 1177 1177 1177
    1177 1177 1177 1173 1173 1173 1177 0 798 798 796 796 796 796 796 798
    798 798 798 798 796 796 798 798 798 798 798 798 798 798 798 798 798
    798 798 796 794 792 792 792 794 794 794 794 794 794 794 794 792 792
    794 0 0 1177 1173 1173 1173 1169 1165 1165 1165 1169 1173 1177 1177
    1149 798 798 796 796 796 796 796 798 798 796 796 796 796 796 798 798
    798 800 800 800 800 802 800 800 800 800 800 805 805 792 792 794 829
    829 0 0 0 0 0 0 0 0 0 0 0 1169 1165 1161 1161 1161 1157 1157 1157
    1161 1165 1153 1149 1149 1149 1149 796 796 796 796 796 798 796 796
    796 796 796 796 798 800 800 800 800 802 807 807 807 807 809 811 817
    817 821 823 825 829 829 829 833 0 0 0 0 0 0 0 0 0 0 1165 1157 1153
    1153 1153 1153 1153 1153 1153 1153 1149 1149 1149 1145 1145 796 794
    794 794 794 798 796 796 835 833 829 827 823 823 823 821 821 819 815
    813 813 815 815 819 819 819 821 823 825 829 829 833 0 0 0 0 0 0 0 0
    0 0 0 1161 1153 1149 1141 1141 1149 1149 1149 1138 1138 1138 1141
    1141 1145 1145 1145 794 794 794 794 847 843 839 837 833 831 829 825
    823 823 821 821 821 819 817 817 819 819 821 821 821 821 825 827 829
    831 833 833 0 0 0 0 0 0 0 0 0 1080 1149 1145 1141 1138 1138 1138
    1138 1130 1130 1130 1130 1134 1138 1138 1138 1138 1141 1141 851 851
    847 843 839 837 835 833 829 825 823 823 823 821 821 821 819 819 819
    819 821 821 821 823 825 827 829 831 833 833 837 0 0 0 0 0 0 0 0 1077
    1138 1138 1138 1134 1134 1134 1126 1126 1126 1126 1130 1130 1130
    1130 1130 1130 1130 1130 854 851 849 845 841 839 837 833 829 827 825
    823 823 823 823 823 821 821 821 821 821 821 823 823 827 827 829 833
    835 835 837 0 0 0 0 0 0 0 0 1070</data></Depth17716>
</opencv_storage>
