<?xml version="1.0"?>
<opencv_storage>
<Depth6344 type_id="opencv-matrix">
  <rows>81</rows>
  <cols>56</cols>
  <dt>w</dt>
  <data>
    3653 3653 3653 3614 3614 3614 3614 3576 3576 3576 3539 3539 3539
    3539 3539 3539 3539 3539 3539 3539 1223 1223 3503 3503 3503 3468
    3468 3468 3468 1219 1219 1219 1214 1214 3433 1210 1202 1202 1202
    1197 1197 1197 1197 1197 1202 1202 1202 1197 1197 1197 1193 1193
    1193 3399 3399 3399 3653 3653 3653 1264 1259 1259 1255 1250 1245
    1245 1245 3539 3503 3503 3503 3503 3503 1227 1227 1227 1223 1223
    1227 1232 1232 1232 1223 1219 1219 1219 1214 1214 1210 1210 1210
    1210 1202 1202 1202 1197 1197 1197 1197 1197 1197 1197 1197 1197
    1197 1197 1193 1193 1193 1197 3433 3433 1255 1255 1255 1255 1255
    1255 1250 1250 1245 1241 1241 1241 1241 1236 1236 1236 1236 1227
    1227 1227 1227 1227 1227 1227 1227 1223 1219 1219 1219 1219 1214
    1214 1210 1210 1210 1210 1206 1206 1202 1202 1202 1202 1202 1202
    1197 1197 1197 1197 1197 1193 1193 1193 1197 1197 3433 3433 1255
    1255 1255 1255 1250 1250 1245 1245 1241 1241 1236 1236 1236 1236
    1236 1236 1232 1232 1232 1232 1227 1227 1227 1223 1223 1219 1219
    1214 1214 1214 1214 1214 1214 1210 1210 1206 1206 1202 1202 1202
    1202 1197 1197 1197 1197 1197 1197 1193 1193 1193 1189 1189 1197
    1197 3365 3333 1250 1250 1250 1250 1245 1245 1245 1245 1241 1236
    1236 1236 1236 1236 1236 1236 1232 1232 1232 1232 1227 1223 1223
    1219 1219 1214 1214 1214 1214 1214 1214 1214 1210 1210 1210 1206
    1206 1202 1202 1202 1202 1197 1197 1197 1197 1197 1197 1193 1193
    1189 1189 1189 1189 1189 3365 3365 1250 1250 1250 1250 1245 1245
    1241 1241 1241 1236 1236 1236 1236 1232 1232 1232 1232 1232 1232
    1232 1227 1223 1223 1219 1219 1214 1214 1214 1214 1210 1210 1210
    1210 1210 1206 1206 1206 1202 1202 1197 1197 1197 1197 1197 1197
    1197 1197 1193 1193 1189 1189 1189 1189 0 3365 3365 1255 1255 1250
    1250 1241 1241 1236 1236 1236 1236 1236 1236 1232 1232 1232 1232
    1232 1232 1227 1227 1223 1223 1219 1219 1219 1214 1214 1214 1214
    1210 1210 1210 1206 1206 1202 1202 1202 1202 1202 1197 1197 1197
    1197 1197 1197 1193 1193 1193 1193 1189 1189 1189 1189 1185 3365
    3365 1255 1255 1250 1245 1241 1241 1236 1236 1236 1236 1236 1236
    1232 1232 1232 1232 1232 1232 1227 1223 1223 1219 1219 1219 1219
    1214 1214 1214 1214 1210 1210 1210 1206 1206 1202 1202 1202 1202
    1202 1197 1197 1197 1197 1197 1193 1193 1189 1189 1189 1189 1189
    1185 1185 0 3399 3399 1250 1250 1250 1245 1241 1241 1236 1236 1236
    1236 1236 1236 1232 1232 1232 1227 1227 1227 1223 1219 1219 1219
    1219 1219 1219 1214 1214 1214 1214 1210 1210 1210 1206 1206 1202
    1202 1202 1197 1197 1197 1197 1197 1197 1193 1193 1189 1185 1185
    1185 1185 1185 1185 1185 1185 1185 3365 1250 1250 1250 1245 1241
    1241 1236 1236 1236 1236 1236 1236 1232 1232 1232 1227 1223 1223
    1223 1219 1219 1219 1219 1219 1214 1214 1214 1214 1214 1210 1210
    1210 1210 1206 1202 1202 1202 1197 1197 1197 1197 1197 1197 1193
    1193 1189 1185 1185 1185 1185 1185 1181 1181 1181 0 3300 1245 1245
    1250 1245 1241 1236 1236 1236 1236 1236 1236 1236 1232 1232 1227
    1227 1223 1223 1223 1219 1219 1219 1214 1214 1214 1214 1214 1214
    1214 1214 1214 1210 1206 1206 1202 1202 1197 1197 1197 1197 1197
    1197 1197 1189 1189 1189 1185 1185 1185 1185 1185 1181 1181 1181 0
    3300 1245 1245 1245 1245 1241 1236 1236 1236 1236 1236 1232 1232
    1232 1227 1227 1227 1223 1219 1219 1214 1214 1214 1214 1214 1214
    1214 1214 1214 1214 1210 1210 1206 1206 1202 1202 1202 1197 1197
    1197 1197 1193 1193 1193 1189 1189 1185 1185 1185 1185 1185 1185
    1181 1181 1181 0 3300 1245 1245 1245 1241 1241 1236 1236 1236 1236
    1236 1232 1232 1227 1227 1223 1223 1223 1219 1219 1214 1214 1214
    1214 1214 1214 1214 1214 1214 1214 1210 1210 1206 1202 1202 1202
    1202 1202 1197 1197 1197 1193 1193 1193 1189 1189 1185 1185 1185
    1185 1185 1185 1185 1185 0 0 0 1250 1245 1245 1241 1241 1236 1236
    1236 1236 1232 1232 1232 1227 1223 1223 1223 1223 1219 1219 1219
    1214 1214 1214 1214 1214 1214 1210 1210 1210 1206 1206 1202 1202
    1202 1202 1202 1202 1197 1197 1197 1193 1189 1189 1189 1189 1185
    1185 1185 1181 1181 1181 1181 1181 0 0 0 1250 1241 1241 1236 1236
    1236 1236 1236 1232 1232 1232 1227 1227 1223 1223 1223 1219 1219
    1219 1219 1214 1214 1214 1214 1214 1210 1210 1206 1202 1202 1202
    1202 1202 1202 1202 1197 1197 1197 1197 1193 1193 1189 1189 1189
    1189 1185 1185 1181 1181 1181 1181 1181 1181 1181 0 3300 1241 1241
    1241 1236 1236 1236 1236 1236 1232 1232 1232 1227 1227 1223 1223
    1219 1219 1219 1219 1219 1214 1214 1214 1210 1210 1210 1210 1206
    1202 1202 1202 1202 1202 1202 1197 1197 1197 1197 1197 1193 1193
    1189 1189 1189 1185 1185 1185 1181 1181 1181 1177 1177 1177 1177 0
    3300 1241 1241 1241 1236 1236 1236 1236 1232 1232 1232 1232 1227
    1223 1223 1223 1219 1219 1214 1214 1214 1214 1214 1214 1210 1210
    1210 1210 1206 1202 1202 1202 1202 1202 1202 1197 1197 1193 1193
    1193 1193 1193 1193 1189 1185 1185 1185 1185 1181 1181 1181 1177
    1177 1177 1177 0 3269 1241 1236 1236 1236 1236 1236 1232 1232 1232
    1232 1227 1227 1223 1223 1219 1219 1219 1214 1214 1214 1214 1214
    1210 1206 1206 1206 1210 1206 1202 1202 1202 1202 1202 1197 1197
    1193 1193 1193 1193 1193 1193 1189 1189 1185 1185 1185 1181 1181
    1181 1181 1177 1177 1177 1177 1177 3269 1236 1236 1236 1236 1236
    1236 1232 1232 1232 1232 1227 1227 1223 1223 1219 1219 1219 1219
    1214 1214 1214 1214 1210 1206 1206 1206 1210 1206 1202 1202 1202
    1202 1202 1197 1197 1193 1193 1193 1189 1189 1189 1189 1189 1185
    1185 1185 1181 1181 1181 1181 1177 1177 1177 1177 1177 0 1236 1236
    1236 1236 1236 1232 1232 1232 1227 1227 1227 1227 1223 1223 1219
    1219 1219 1219 1214 1214 1214 1214 1210 1210 1210 1206 1206 1206
    1202 1202 1202 1202 1202 1197 1197 1197 1193 1193 1189 1189 1189
    1185 1185 1185 1185 1181 1181 1177 1177 1177 1177 1177 1177 1177
    1177 1177 1236 1236 1236 1236 1232 1232 1232 1232 1227 1227 1227
    1227 1223 1223 1219 1219 1214 1214 1214 1210 1210 1210 1210 1210
    1210 1206 1202 1202 1202 1202 1202 1202 1197 1197 1197 1197 1193
    1193 1189 1185 1185 1185 1185 1185 1185 1181 1181 1177 1177 1177
    1177 1173 1173 1173 1173 3365 1236 1236 1236 1236 1232 1232 1232
    1227 1227 1223 1223 1223 1219 1219 1219 1219 1214 1214 1214 1210
    1210 1210 1210 1210 1206 1202 1202 1202 1202 1202 1202 1202 1197
    1197 1197 1193 1193 1193 1189 1185 1185 1185 1185 1185 1181 1181
    1181 1181 1177 1177 1173 1173 1173 1173 1173 3365 1236 1236 1236
    1236 1236 1232 1232 1227 1227 1223 1223 1219 1219 1219 1219 1214
    1214 1210 1210 1210 1210 1210 1210 1206 1202 1202 1202 1197 1197
    1197 1197 1197 1197 1193 1193 1193 1189 1189 1185 1185 1185 1185
    1185 1181 1181 1181 1181 1177 1177 1177 1173 1169 1169 1169 1169
    3365 1236 1236 1236 1236 1236 1232 1232 1227 1223 1223 1223 1219
    1214 1214 1219 1214 1214 1210 1210 1210 1210 1210 1210 1206 1202
    1202 1202 1197 1197 1197 1193 1193 1193 1193 1193 1193 1189 1189
    1185 1185 1185 1185 1185 1181 1181 1181 1181 1177 1177 1173 1173
    1169 1169 1169 1169 3365 1236 1236 1236 1232 1232 1232 1232 1227
    1223 1219 1219 1219 1214 1214 1214 1214 1214 1210 1210 1214 1210
    1210 1206 1206 1202 1202 1197 1197 1197 1197 1189 1189 1193 1197
    1193 1189 1189 1185 1185 1185 1185 1185 1185 1181 1177 1177 1177
    1177 1177 1173 1173 1169 1169 1169 1169 1169 1236 1236 1232 1232
    1232 1232 1232 1227 1227 1219 1219 1219 1214 1214 1214 1214 1214
    1214 1214 1210 1210 1206 1202 1202 1202 1202 1197 1197 1197 1193
    1189 1189 1193 1197 1193 1189 1189 1185 1185 1185 1185 1185 1185
    1181 1177 1177 1177 1173 1173 1173 1173 1169 1169 1169 1169 3269
    1232 1232 1232 1232 1232 1232 1227 1227 1219 1219 1219 1219 1214
    1214 1214 1214 1214 1214 1214 1210 1210 1206 1202 1202 1202 1202
    1197 1197 1197 1193 1189 1189 1193 1193 1193 1189 1185 1185 1185
    1185 1185 1181 1181 1181 1177 1177 1177 1173 1173 1173 1173 1173
    1173 1173 1173 3269 1227 1227 1232 1232 1227 1227 1223 1223 1219
    1219 1219 1219 1214 1214 1214 1214 1210 1210 1210 1210 1206 1206
    1202 1202 1202 1197 1197 1197 1197 1197 1193 1193 1193 1193 1189
    1189 1185 1185 1181 1181 1185 1181 1181 1181 1177 1177 1177 1173
    1173 1173 1173 1173 1177 1181 1181 3269 1227 1227 1232 1227 1227
    1223 1223 1219 1219 1219 1219 1219 1214 1214 1214 1214 1210 1210
    1210 1206 1202 1202 1202 1202 1202 1197 1197 1197 1197 1197 1193
    1189 1189 1193 1189 1189 1185 1185 1181 1181 1185 1181 1181 1181
    1181 1181 1177 1173 1173 1169 1169 1169 1169 1169 0 3269 1227 1227
    1232 1227 1227 1223 1219 1219 1219 1219 1219 1214 1214 1214 1214
    1210 1206 1206 1206 1206 1202 1202 1202 1202 1202 1197 1197 1197
    1197 1197 1193 1189 1189 1193 1189 1185 1185 1185 1185 1185 1181
    1181 1177 1177 1177 1177 1177 1173 1173 1169 1169 1165 1165 1165 0
    3269 1227 1227 1232 1227 1223 1223 1219 1219 1219 1219 1219 1214
    1214 1214 1214 1210 1206 1206 1206 1202 1202 1202 1202 1202 1202
    1197 1197 1197 1197 1193 1193 1189 1189 1189 1189 1185 1185 1185
    1181 1181 1181 1181 1177 1177 1177 1177 1177 1173 1173 1169 1169
    1165 1165 1165 1165 3269 1232 1232 1232 1227 1223 1223 1219 1219
    1219 1219 1214 1214 1214 1214 1214 1210 1202 1202 1202 1202 1202
    1202 1202 1202 1202 1197 1197 1193 1193 1193 1189 1189 1189 1189
    1189 1185 1185 1185 1181 1181 1181 1181 1177 1177 1177 1177 1177
    1173 1169 1169 1165 1165 1165 1165 1165 1165 1232 1232 1227 1227
    1223 1223 1219 1219 1219 1214 1214 1214 1214 1214 1214 1210 1202
    1202 1202 1202 1202 1202 1202 1202 1197 1197 1197 1193 1189 1189
    1189 1189 1189 1185 1185 1185 1185 1185 1181 1181 1181 1181 1177
    1173 1173 1173 1173 1169 1169 1169 1165 1165 1165 1169 1169 0 1232
    1232 1227 1227 1223 1219 1219 1219 1219 1214 1214 1214 1214 1214
    1214 1210 1206 1202 1202 1202 1202 1202 1202 1197 1197 1197 1197
    1197 1189 1189 1189 1189 1189 1185 1185 1185 1185 1181 1181 1181
    1181 1181 1177 1173 1169 1169 1169 1169 1165 1165 1165 1165 1165
    1169 1169 0 1227 1227 1223 1223 1219 1219 1219 1214 1214 1214 1214
    1214 1210 1210 1210 1210 1206 1202 1202 1202 1202 1202 1197 1197
    1197 1197 1193 1193 1189 1185 1185 1185 1185 1185 1185 1181 1181
    1181 1181 1181 1181 1181 1177 1173 1169 1169 1169 1165 1165 1165
    1165 1165 1165 1169 1169 0 1227 1227 1223 1219 1219 1219 1219 1214
    1214 1214 1214 1210 1210 1210 1210 1210 1210 1206 1202 1202 1197
    1197 1197 1197 1197 1193 1193 1189 1189 1185 1185 1185 1185 1185
    1185 1181 1181 1181 1181 1177 1177 1173 1173 1173 1173 1169 1169
    1165 1165 1165 1165 1165 1165 1165 0 0 1227 1227 1223 1219 1219 1219
    1219 1214 1214 1214 1214 1210 1206 1206 1206 1206 1206 1206 1202
    1202 1197 1197 1197 1197 1197 1189 1189 1189 1185 1185 1185 1185
    1185 1185 1181 1181 1181 1181 1181 1177 1177 1173 1173 1173 1169
    1169 1169 1165 1165 1165 1161 1161 1161 1161 0 0 1227 1227 1223 1219
    1219 1219 1219 1214 1214 1214 1210 1210 1206 1206 1202 1202 1202
    1202 1202 1202 1197 1197 1193 1193 1193 1189 1189 1189 1185 1185
    1185 1185 1185 1181 1181 1181 1181 1181 1181 1177 1177 1173 1173
    1173 1169 1169 1169 1165 1165 1165 1161 1161 1161 1161 1161 0 1223
    1223 1223 1219 1219 1219 1214 1214 1214 1210 1210 1206 1206 1206
    1202 1202 1202 1202 1202 1197 1197 1197 1193 1193 1193 1189 1189
    1185 1185 1185 1185 1181 1181 1181 1181 1181 1181 1181 1181 1177
    1177 1173 1169 1169 1173 1169 1169 1165 1165 1165 1165 1165 1161
    1161 1161 0 1223 1223 1223 1219 1219 1219 1214 1214 1214 1210 1206
    1206 1206 1202 1202 1202 1202 1197 1197 1197 1193 1193 1193 1193
    1193 1189 1189 1185 1181 1181 1181 1181 1181 1181 1181 1181 1181
    1177 1177 1177 1173 1173 1169 1169 1169 1169 1169 1165 1165 1165
    1165 1161 1161 1161 1161 0 1227 1227 1223 1219 1219 1214 1214 1214
    1210 1210 1206 1202 1202 1202 1202 1202 1202 1197 1197 1193 1193
    1193 1193 1193 1189 1189 1189 1185 1181 1181 1181 1181 1181 1181
    1177 1177 1173 1173 1173 1173 1169 1169 1169 1169 1169 1169 1169
    1165 1165 1165 1165 1157 1157 1161 1161 1153 1223 1223 1219 1219
    1219 1214 1214 1214 1210 1210 1206 1202 1202 1202 1202 1202 1202
    1197 1197 1193 1193 1193 1193 1189 1189 1189 1185 1185 1181 1181
    1181 1181 1181 1181 1177 1173 1173 1173 1169 1169 1169 1169 1169
    1169 1169 1169 1169 1165 1165 1161 1161 1157 1157 1153 1153 1153
    1219 1219 1219 1219 1219 1214 1214 1210 1210 1210 1206 1202 1202
    1202 1202 1202 1197 1197 1197 1193 1193 1193 1189 1189 1185 1185
    1185 1185 1181 1181 1181 1181 1181 1181 1177 1173 1173 1173 1169
    1169 1169 1169 1169 1169 1169 1165 1165 1165 1161 1161 1161 1157
    1157 1153 1153 1153 1219 1219 1219 1214 1214 1214 1210 1210 1210
    1206 1202 1202 1202 1202 1202 1202 1197 1197 1197 1193 1193 1193
    1189 1189 1185 1185 1185 1185 1185 1181 1181 1181 1181 1177 1177
    1173 1173 1173 1169 1169 1165 1165 1165 1165 1165 1165 1165 1161
    1161 1161 1161 1157 1157 1153 1153 1153 1193 1214 1214 1214 1214
    1214 1210 1210 1206 1206 1202 1202 1202 1202 1202 1197 1197 1193
    1193 1193 1193 1193 1189 1185 1185 1185 1185 1185 1181 1181 1181
    1181 1177 1177 1177 1173 1173 1173 1169 1169 1165 1165 1165 1165
    1165 1165 1161 1161 1161 1161 1161 1157 1157 1157 1157 1157 1185
    1210 1214 1214 1214 1210 1210 1206 1206 1202 1202 1202 1202 1202
    1197 1197 1197 1193 1193 1193 1193 1193 1189 1185 1185 1185 1185
    1181 1181 1181 1181 1181 1177 1177 1177 1173 1169 1169 1169 1169
    1165 1165 1165 1165 1165 1165 1161 1161 1161 1161 1161 1161 1161
    1157 1157 1157 1177 1210 1214 1214 1214 1210 1210 1206 1206 1202
    1202 1202 1202 1197 1197 1197 1197 1197 1197 1193 1193 1193 1189
    1185 1185 1185 1181 1181 1181 1177 1177 1177 1177 1177 1177 1169
    1169 1169 1169 1169 1165 1165 1165 1165 1165 1165 1161 1161 1161
    1161 1161 1157 1157 1157 1157 1157 1177 1214 1214 1214 1214 1210
    1210 1206 1206 1202 1202 1202 1197 1197 1197 1197 1193 1193 1193
    1193 1189 1189 1185 1185 1185 1185 1181 1181 1177 1177 1173 1173
    1173 1173 1173 1169 1169 1169 1169 1165 1165 1165 1165 1165 1165
    1161 1161 1157 1157 1157 1161 1157 1153 1153 1153 1153 1214 1214
    1214 1214 1210 1206 1206 1206 1206 1202 1202 1202 1197 1197 1197
    1193 1193 1193 1193 1193 1189 1189 1185 1185 1185 1185 1181 1181
    1177 1177 1173 1173 1173 1173 1173 1169 1169 1169 1169 1165 1165
    1165 1165 1165 1165 1161 1157 1157 1157 1157 1157 1153 1153 1153
    1153 1153 1219 1214 1214 1214 1210 1206 1206 1202 1202 1202 1202
    1202 1197 1197 1197 1193 1193 1193 1189 1185 1185 1185 1185 1185
    1185 1181 1181 1181 1181 1177 1173 1173 1173 1173 1173 1169 1169
    1169 1169 1165 1165 1165 1161 1161 1157 1157 1157 1157 1157 1153
    1153 1153 1149 1149 1149 1149 1214 1214 1214 1210 1210 1202 1202
    1202 1197 1197 1197 1202 1197 1197 1197 1193 1193 1193 1189 1185
    1185 1185 1185 1185 1185 1181 1181 1181 1181 1177 1173 1173 1173
    1173 1169 1169 1169 1169 1169 1165 1165 1165 1161 1161 1157 1157
    1153 1153 1153 1153 1153 1149 1145 1145 1149 1149 1214 1210 1210
    1206 1206 1202 1202 1202 1197 1197 1197 1197 1197 1197 1197 1197
    1193 1193 1189 1189 1185 1185 1185 1185 1181 1181 1177 1177 1177
    1177 1177 1173 1173 1173 1169 1169 1169 1169 1169 1165 1161 1161
    1161 1157 1157 1157 1153 1153 1153 1153 1153 1149 1145 1145 1145
    1145 1210 1210 1206 1206 1206 1202 1202 1202 1197 1197 1197 1197
    1197 1197 1197 1193 1193 1189 1185 1185 1185 1185 1185 1181 1181
    1181 1177 1177 1177 1173 1173 1173 1173 1173 1173 1173 1169 1169
    1165 1165 1161 1161 1161 1157 1157 1153 1153 1153 1153 1153 1149
    1149 1141 1141 1141 0 1210 1210 1206 1206 1206 1202 1202 1202 1197
    1197 1197 1197 1193 1193 1193 1189 1189 1185 1185 1185 1185 1185
    1181 1181 1181 1181 1177 1177 1173 1173 1173 1173 1169 1169 1169
    1169 1169 1165 1165 1165 1165 1161 1161 1157 1157 1153 1153 1153
    1153 1153 1149 1149 1141 1141 1141 0 1210 1210 1206 1202 1202 1202
    1202 1202 1197 1197 1197 1193 1193 1189 1189 1189 1185 1185 1185
    1185 1185 1185 1181 1181 1181 1181 1177 1177 1173 1169 1169 1169
    1169 1169 1169 1169 1169 1165 1165 1165 1161 1161 1161 1157 1157
    1153 1153 1153 1153 1153 1149 1149 1141 1141 1141 0 1210 1210 1206
    1202 1202 1202 1202 1197 1197 1193 1193 1189 1189 1189 1189 1189
    1185 1185 1185 1185 1185 1185 1181 1181 1181 1177 1177 1173 1173
    1169 1169 1169 1169 1169 1169 1169 1165 1165 1165 1161 1161 1161
    1161 1157 1157 1153 1153 1153 1149 1149 1149 1149 1145 1145 0 0 1210
    1210 1206 1202 1202 1202 1202 1197 1197 1193 1193 1189 1189 1189
    1185 1185 1185 1185 1181 1181 1181 1181 1181 1181 1177 1177 1177
    1173 1173 1169 1169 1165 1165 1169 1169 1169 1165 1165 1165 1161
    1157 1157 1157 1153 1153 1153 1153 1149 1149 1149 1149 1149 1145
    1141 1141 0 1210 1206 1202 1202 1197 1197 1202 1197 1193 1193 1189
    1189 1189 1185 1185 1185 1185 1185 1181 1181 1181 1181 1181 1177
    1173 1173 1173 1173 1173 1169 1169 1165 1165 1169 1165 1165 1165
    1165 1161 1157 1157 1153 1153 1153 1153 1153 1153 1149 1149 1149
    1149 1149 1145 1138 1138 0 1210 1206 1202 1202 1197 1197 1197 1197
    1193 1193 1189 1189 1189 1185 1185 1185 1185 1185 1181 1181 1181
    1181 1177 1173 1173 1173 1173 1173 1169 1169 1169 1165 1165 1165
    1165 1165 1165 1165 1161 1157 1157 1153 1153 1153 1149 1149 1149
    1149 1149 1149 1149 1145 1145 1138 1138 0 1210 1202 1202 1202 1197
    1197 1197 1197 1193 1193 1189 1189 1189 1185 1185 1181 1181 1181
    1181 1181 1181 1181 1177 1173 1173 1173 1173 1169 1169 1169 1169
    1169 1169 1165 1165 1161 1161 1161 1157 1157 1157 1153 1153 1153
    1149 1149 1149 1149 1149 1145 1145 1141 1141 1138 1138 0 1210 1202
    1202 1202 1197 1197 1197 1193 1193 1193 1189 1189 1189 1185 1185
    1181 1181 1181 1181 1181 1177 1177 1177 1173 1173 1173 1169 1169
    1169 1169 1169 1165 1165 1165 1161 1161 1157 1157 1157 1157 1157
    1153 1153 1153 1149 1149 1149 1149 1145 1145 1145 1141 1141 1138
    1138 1138 0 1202 1202 1202 1197 1197 1193 1193 1193 1189 1189 1189
    1185 1185 1185 1181 1181 1181 1181 1181 1177 1177 1173 1173 1173
    1173 1169 1169 1169 1169 1165 1165 1165 1165 1161 1161 1157 1157
    1153 1153 1153 1153 1153 1149 1149 1149 1149 1149 1145 1145 1145
    1138 1138 1138 1138 1138 0 1202 1197 1197 1197 1197 1193 1193 1193
    1189 1189 1185 1185 1185 1185 1181 1181 1181 1181 1177 1177 1173
    1173 1173 1173 1169 1169 1169 1169 1165 1165 1165 1165 1161 1161
    1161 1157 1157 1153 1153 1153 1153 1149 1149 1149 1149 1149 1149
    1145 1145 1141 1138 1138 1134 1134 1134 0 1202 1197 1197 1197 1197
    1193 1193 1189 1185 1185 1185 1185 1185 1185 1181 1181 1181 1181
    1177 1177 1173 1173 1173 1169 1169 1169 1169 1169 1165 1161 1161
    1161 1157 1157 1161 1157 1157 1153 1153 1153 1153 1149 1149 1149
    1149 1149 1145 1145 1145 1138 1138 1138 1134 1134 1134 1202 1202
    1197 1197 1197 1197 1193 1189 1185 1185 1185 1185 1181 1181 1181
    1181 1181 1177 1177 1177 1177 1173 1173 1169 1169 1169 1169 1169
    1165 1165 1161 1161 1161 1157 1157 1161 1157 1157 1157 1153 1153
    1153 1149 1149 1149 1149 1149 1145 1145 1141 1138 1138 1138 1134
    1112 1112 1202 1202 1197 1197 1197 1197 1193 1189 1185 1185 1185
    1185 1181 1181 1181 1181 1181 1173 1173 1173 1173 1173 1169 1169
    1169 1169 1169 1169 1165 1165 1165 1161 1161 1157 1157 1157 1153
    1153 1153 1153 1149 1149 1149 1149 1149 1149 1149 1145 1141 1141
    1138 1138 1138 1134 1112 1112 1197 1197 1197 1197 1197 1197 1193
    1185 1185 1185 1185 1181 1181 1181 1181 1181 1181 1173 1173 1173
    1173 1173 1169 1169 1169 1169 1165 1165 1165 1165 1165 1161 1161
    1157 1157 1157 1153 1153 1153 1153 1149 1149 1149 1149 1149 1149
    1145 1145 1141 1138 1138 1138 1138 1134 1112 1112 1197 1197 1193
    1193 1193 1193 1189 1185 1185 1185 1181 1181 1181 1181 1181 1181
    1181 1173 1173 1173 1173 1173 1169 1169 1169 1169 1165 1165 1165
    1161 1161 1157 1157 1157 1157 1157 1153 1153 1149 1149 1149 1149
    1149 1149 1145 1145 1145 1141 1138 1138 1138 1138 1141 1134 1134
    1134 1193 1193 1189 1189 1189 1193 1189 1185 1185 1185 1181 1181
    1181 1181 1181 1181 1181 1173 1173 1173 1173 1173 1169 1169 1169
    1169 1165 1165 1165 1161 1161 1157 1157 1153 1153 1153 1153 1153
    1149 1149 1149 1149 1149 1149 1145 1141 1141 1138 1138 1138 1138
    1138 1141 1134 1134 1134 1193 1193 1189 1189 1189 1185 1185 1185
    1185 1181 1181 1181 1181 1181 1177 1177 1177 1177 1173 1173 1173
    1169 1169 1169 1169 1165 1165 1165 1161 1161 1157 1153 1153 1153
    1153 1153 1153 1153 1149 1149 1149 1149 1149 1149 1145 1141 1141
    1138 1138 1138 1138 1138 1138 1134 1134 1134 1197 1193 1189 1189
    1185 1185 1185 1185 1185 1181 1181 1181 1181 1177 1177 1177 1177
    1177 1173 1173 1169 1169 1169 1169 1169 1165 1165 1165 1161 1157
    1153 1153 1153 1153 1153 1153 1153 1153 1149 1149 1149 1149 1149
    1145 1141 1141 1138 1138 1138 1138 1138 1138 1134 1134 1126 1126
    1197 1193 1189 1189 1185 1185 1185 1185 1181 1181 1181 1181 1181
    1177 1177 1173 1173 1173 1173 1169 1169 1169 1169 1165 1165 1165
    1165 1165 1161 1157 1153 1153 1153 1153 1153 1153 1153 1149 1149
    1149 1149 1149 1145 1145 1141 1138 1138 1138 1138 1138 1134 1134
    1126 1126 1123 1123 1197 1193 1189 1189 1185 1185 1185 1185 1181
    1181 1181 1181 1181 1177 1173 1173 1169 1169 1169 1169 1165 1165
    1165 1165 1165 1165 1165 1161 1161 1157 1153 1153 1153 1153 1153
    1149 1149 1149 1149 1149 1149 1145 1141 1141 1138 1138 1138 1138
    1134 1134 1134 1134 1126 1123 1123 1123 1197 1193 1189 1185 1185
    1185 1185 1185 1181 1181 1181 1177 1177 1177 1173 1169 1169 1169
    1169 1169 1165 1165 1165 1165 1165 1161 1161 1157 1157 1157 1153
    1153 1153 1153 1153 1149 1149 1149 1149 1149 1149 1145 1141 1141
    1138 1138 1138 1138 1134 1134 1134 1134 1123 1119 1119 1119 1197
    1189 1189 1185 1181 1181 1181 1181 1181 1181 1181 1177 1177 1177
    1173 1169 1169 1169 1165 1165 1165 1165 1165 1161 1161 1161 1161
    1157 1157 1153 1153 1153 1153 1153 1153 1149 1149 1149 1149 1149
    1149 1145 1141 1141 1138 1138 1138 1138 1138 1138 1134 1130 1123
    1119 1115 1115 1189 1189 1185 1185 1181 1181 1181 1181 1181 1181
    1177 1177 1177 1173 1169 1169 1169 1169 1165 1165 1165 1161 1161
    1161 1161 1157 1157 1157 1157 1153 1153 1153 1153 1153 1153 1149
    1145 1145 1145 1145 1145 1145 1141 1138 1138 1138 1138 1138 1134
    1134 1134 1130 1126 1123 1115 1115 1181 1181 1185 1181 1181 1181
    1181 1181 1181 1177 1177 1177 1177 1173 1169 1169 1169 1165 1165
    1165 1161 1161 1157 1153 1153 1157 1157 1157 1157 1153 1153 1153
    1153 1153 1149 1145 1141 1141 1141 1141 1138 1138 1138 1138 1138
    1138 1138 1138 1134 1134 1134 1134 1123 1123 1119 1119 1181 1181
    1185 1181 1181 1181 1177 1177 1177 1177 1177 1177 1173 1169 1169
    1169 1169 1165 1165 1165 1161 1161 1157 1153 1153 1153 1157 1157
    1157 1153 1153 1153 1153 1153 1149 1145 1141 1138 1138 1138 1138
    1138 1138 1138 1134 1134 1134 1134 1134 1134 1134 1134 1123 1123
    1119 1119 1185 1185 1185 1181 1181 1181 1177 1177 1177 1173 1173
    1177 1173 1169 1169 1169 1169 1169 1165 1165 1165 1161 1157 1153
    1153 1153 1153 1157 1157 1157 1157 1153 1153 1153 1149 1145 1141
    1138 1138 1138 1138 1138 1138 1138 1134 1134 1134 1134 1134 1130
    1130 1130 1126 1119 1119 1119 3365 3365 3365 1181 1181 1181 1177
    1177 1177 1173 1173 1177 1173 1169 1169 1169 1169 1165 1165 1169
    1165 1161 1157 1153 1153 1153 1153 1157 1157 1157 1157 1157 1153
    1153 1149 1149 1145 1141 1138 1138 1138 1138 1138 1138 1138 1138
    1134 1134 1134 1130 1126 1126 1123 1119 1119 1119 3365 3365 3365
    3365 3365 3365 3365 3365 1177 1173 1173 1173 1177 1169 1169 1169
    1169 1165 1165 1169 1169 1169 3365 3365 1153 1153 1153 1157 1157
    1157 1157 1157 1153 1153 1149 1149 1145 1145 1141 1141 1141 3238
    3238 1141 1138 1138 1138 1138 3208 3208 1126 1126 1123 1123 1123
    1123</data></Depth6344>
</opencv_storage>
