<?xml version="1.0"?>
<opencv_storage>
<Depth10642 type_id="opencv-matrix">
  <rows>93</rows>
  <cols>59</cols>
  <dt>w</dt>
  <data>
    3816 3859 3859 3859 3859 3859 3859 3859 3903 3903 3903 1489 1489
    1489 1470 1470 1464 1458 1445 1433 1421 1415 1415 4139 1483 1483
    1489 1489 1489 4139 4139 4139 4139 4139 4139 4139 4190 4190 4190
    4190 4241 4241 4241 4241 4241 4241 4241 4295 4295 4295 4295 4295
    4295 4295 4295 4349 4349 4349 4349 3816 3859 3859 3859 3859 3859
    3859 3859 0 3859 0 0 0 1464 1464 1452 1445 1433 1427 1415 1410 1404
    1398 1398 1483 1470 1470 1483 1477 1477 4139 4139 4139 4139 4139
    4139 4139 4139 4190 4190 4241 4241 4241 4241 4241 4241 4241 4295
    4295 4295 4295 4295 4295 4295 4295 4349 4349 4349 4349 3816 3816
    3859 3859 3859 3859 3859 3859 0 0 0 0 0 0 1458 1445 1433 1415 1410
    1404 1398 1398 1398 1398 1398 1415 1433 1427 1427 1427 1427 1445
    1445 4139 4139 4139 4139 4139 4139 4139 4190 4190 4241 4241 4241
    4241 4241 4295 4295 4295 4295 4295 4295 4295 4295 4295 4349 4349
    4349 3816 3816 3816 3859 3859 3859 3859 3859 0 0 0 1464 0 1470 1452
    1439 1433 1410 1398 1398 1398 1398 1398 1398 1398 1410 1421 1415
    1415 1415 1421 1421 1433 1433 1433 1433 4139 4139 4139 4139 4139
    4190 4241 4241 4241 4241 4241 4241 4241 4295 4295 4295 4295 4295
    4295 4295 4349 4349 4349 3816 3816 3816 3859 3859 3859 3859 3859 0 0
    0 1464 1464 1464 1445 1439 1433 1398 1398 1398 1398 1398 1398 1398
    1398 1404 1410 1410 1410 1415 1415 1421 1427 1427 1427 1433 1433
    1427 4139 4139 4139 4139 4241 4241 4241 4241 4241 4241 4241 4295
    4295 4349 4349 4295 4295 4295 4349 4349 4405 3816 3816 3816 3859
    3859 3859 3859 3859 0 0 0 1464 1464 1458 1445 1439 1427 1398 1398
    1398 1398 1398 1398 1398 1398 1404 1410 1410 1410 1415 1415 1415
    1421 1427 1433 1433 1433 1427 1427 1433 1433 1439 1439 1439 1445
    1445 1452 1458 1458 1452 1452 1452 4295 4295 4295 4295 4405 4405
    4405 3816 3859 3859 3859 3903 3859 3816 3816 0 0 0 1477 1470 1458
    1439 1433 1421 1404 1398 1398 1398 1398 1398 1404 1404 1410 1410
    1410 1410 1415 1415 1415 1421 1421 1421 1421 1427 1427 1427 1433
    1433 1439 1439 1439 1439 1445 1445 1445 1452 1452 1452 1452 1458
    1464 4405 4405 4405 4405 4405 3859 3859 3859 3859 3859 3816 3816
    3816 0 0 0 1477 1470 1452 1439 1427 1415 1404 1398 1398 1398 1398
    1398 1404 1404 1410 1410 1410 1410 1415 1415 1415 1421 1421 1421
    1421 1427 1427 1427 1427 1433 1433 1439 1439 1439 1439 1445 1445
    1452 1452 1452 1452 1458 1464 1464 1464 1464 4463 4463 3859 3859
    3859 3903 3859 3816 3774 3774 3774 0 1470 1470 1464 1452 1439 1427
    1415 1404 1398 1398 1398 1398 1404 1404 1404 1410 1410 1410 1410
    1415 1415 1415 1421 1421 1421 1427 1427 1427 1427 1427 1433 1433
    1439 1439 1439 1439 1445 1445 1452 1452 1452 1452 1452 1464 1464
    1464 1464 1464 4349 3859 3859 3859 3903 3859 3816 3774 3774 0 0 1470
    1470 1464 1452 1427 1421 1415 1404 1398 1398 1398 1404 1404 1404
    1404 1410 1410 1410 1415 1415 1415 1415 1421 1421 1421 1427 1427
    1427 1427 1433 1433 1433 1439 1439 1439 1445 1445 1445 1445 1452
    1452 1452 1452 1458 1464 1464 1464 1470 1470 3859 3859 3859 3903
    3859 3816 3816 3816 0 0 1464 1464 1458 1433 1427 1421 1410 1404 1398
    1398 1398 1404 1404 1404 1404 1410 1410 1410 1415 1415 1415 1415
    1421 1421 1427 1427 1427 1427 1427 1433 1439 1439 1439 1439 1439
    1445 1445 1445 1445 1452 1452 1452 1452 1458 1464 1470 1470 1470
    1477 3859 3859 3859 3903 3903 3816 3816 3816 0 1483 1464 1464 1458
    1433 1427 1421 1410 1404 1398 1398 1398 1404 1404 1404 1404 1410
    1410 1415 1415 1415 1415 1415 1421 1427 1427 1433 1427 1427 1433
    1433 1439 1439 1439 1439 1439 1445 1445 1445 1445 1452 1452 1452
    1458 1458 1464 1470 1470 1470 1470 3859 3859 3903 3903 3903 3816
    3816 3816 1483 1483 1470 1464 1458 1427 1421 1415 1404 1404 1398
    1398 1398 1404 1404 1404 1410 1410 1410 1415 1415 1415 1415 1415
    1421 1421 1427 1433 1433 1433 1433 1439 1439 1439 1439 1439 1445
    1445 1445 1445 1445 1445 1458 1458 1458 1458 1464 1470 1470 1470
    1470 3859 3859 3903 3903 3859 3859 3859 3859 1483 1483 1470 1464
    1458 1427 1421 1415 1404 1404 1398 1398 1398 1404 1404 1410 1410
    1410 1415 1415 1415 1415 1415 1415 1421 1421 1427 1427 1433 1433
    1439 1439 1439 1439 1439 1439 1445 1445 1445 1445 1445 1445 1458
    1464 1464 1464 1464 1464 1464 1477 1477 3859 3903 3903 3903 3859
    3859 0 0 1483 1483 1470 1458 1458 1427 1421 1410 1398 1398 1398 1398
    1398 1404 1404 1410 1410 1410 1415 1415 1415 1415 1415 1415 1421
    1421 1427 1427 1427 1427 1433 1439 1439 1439 1439 1439 1445 1445
    1445 1445 1445 1452 1458 1464 1464 1464 1464 1464 1464 1464 1483
    3903 3903 3903 3903 3903 3903 3903 0 1483 1483 1470 1458 1439 1427
    1415 1404 1398 1398 1398 1398 1398 1404 1404 1410 1410 1415 1415
    1415 1415 1415 1421 1421 1421 1421 1427 1427 1427 1427 1433 1439
    1439 1439 1445 1445 1445 1445 1445 1445 1452 1458 1458 1464 1464
    1464 1464 1464 1464 1464 1464 3859 3903 3903 3903 3903 3903 0 1489
    1489 1483 1470 1445 1433 1427 1415 1404 1398 1398 1398 1404 1404
    1404 1404 1410 1410 1415 1415 1415 1415 1415 1415 1421 1421 1427
    1427 1427 1427 1433 1439 1439 1439 1439 1445 1445 1445 1445 1445
    1452 1452 1458 1464 1464 1464 1464 1464 1464 1470 1470 4463 3859
    3903 3903 3903 3903 3903 0 1489 1489 1477 1464 1445 1433 1427 1415
    1404 1398 1398 1398 1404 1404 1410 1410 1410 1410 1415 1415 1415
    1415 1415 1415 1421 1421 1427 1427 1427 1433 1433 1439 1439 1439
    1439 1445 1445 1445 1445 1445 1452 1458 1458 1458 1464 1464 1464
    1464 1470 1470 1470 4405 3859 3903 3903 3903 3903 3903 0 1483 1477
    1477 1464 1445 1433 1421 1410 1398 1398 1398 1398 1398 1404 1410
    1410 1410 1410 1415 1415 1415 1415 1415 1415 1421 1421 1427 1433
    1433 1433 1433 1433 1439 1439 1439 1439 1445 1445 1445 1452 1452
    1458 1458 1458 1464 1464 1464 1464 1464 1464 1464 4405 3859 3903
    3903 3903 3903 3903 0 1483 1483 1464 1458 1445 1427 1421 1410 1398
    1398 1398 1398 1398 1404 1410 1410 1410 1415 1415 1415 1415 1415
    1415 1415 1421 1427 1433 1433 1433 1433 1433 1433 1439 1439 1439
    1439 1445 1445 1445 1452 1452 1458 1464 1464 1464 1464 1464 1464
    1464 1464 1464 4349 3859 3903 3903 3859 3859 0 0 0 1483 1464 1458
    1439 1427 1415 1404 1398 1398 1398 1398 1404 1404 1410 1410 1410
    1415 1415 1415 1415 1415 1415 1415 1421 1421 1433 1433 1433 1433
    1433 1439 1439 1439 1439 1445 1445 1445 1452 1452 1452 1458 1464
    1464 1464 1464 1464 1464 1470 1470 1470 4349 3903 3903 3903 3859
    3859 0 0 0 1477 1464 1458 1439 1427 1415 1404 1398 1398 1398 1398
    1404 1404 1410 1410 1410 1415 1415 1415 1415 1415 1415 1421 1421
    1421 1433 1433 1433 1433 1439 1439 1439 1439 1439 1445 1452 1452
    1452 1452 1452 1458 1464 1464 1464 1464 1470 1470 1470 1470 1470
    4349 3903 3903 3903 3903 3903 0 0 0 1477 1464 1458 1439 1427 1415
    1404 1398 1398 1398 1398 1404 1410 1410 1410 1415 1415 1415 1415
    1415 1415 1415 1421 1421 1427 1433 1439 1439 1439 1439 1439 1439
    1445 1445 1445 1445 1452 1452 1452 1452 1458 1458 1464 1464 1464
    1464 1464 1464 1464 4295 4295 3903 3903 3903 3903 3903 0 1483 1483
    1477 1464 1452 1433 1421 1410 1404 1404 1398 1398 1404 1404 1410
    1410 1410 1415 1415 1415 1415 1415 1421 1421 1421 1421 1427 1433
    1439 1439 1439 1439 1439 1445 1445 1445 1445 1445 1452 1452 1458
    1458 1458 1458 1464 1464 1464 1464 1464 1464 1464 4295 4295 3903
    3859 3859 0 3859 0 1483 1483 1477 1464 1452 1427 1415 1410 1404 1404
    1404 1404 1404 1410 1410 1410 1410 1410 1415 1415 1421 1421 1421
    1421 1427 1433 1433 1433 1439 1439 1439 1439 1439 1445 1445 1445
    1445 1445 1452 1452 1458 1458 1458 1458 1464 1464 1464 1464 1464
    1464 1464 4295 4295 3903 3816 3816 0 0 0 1483 1483 1470 1464 1452
    1427 1415 1410 1404 1404 1404 1404 1404 1410 1410 1415 1410 1410
    1415 1415 1421 1421 1421 1421 1427 1433 1433 1433 1433 1439 1439
    1439 1439 1445 1445 1445 1445 1445 1452 1452 1458 1458 1464 1464
    1464 1464 1464 1464 1464 1464 1464 4295 4295 3948 3816 3816 0 0 0 0
    0 1464 1458 1433 1421 1410 1404 1404 1404 1404 1404 1404 1410 1410
    1415 1410 1410 1415 1415 1421 1421 1421 1421 1433 1439 1439 1433
    1433 1439 1439 1439 1439 1439 1445 1445 1445 1445 1452 1452 1458
    1464 1464 1464 1464 1464 1470 1464 1458 1458 1458 4295 4295 3948
    3816 3816 3816 0 0 0 1464 1464 1452 1433 1415 1410 1404 1404 1404
    1404 1404 1404 1410 1415 1415 1415 1415 1415 1421 1421 1421 1421
    1421 1433 1439 1439 1433 1433 1439 1439 1439 1439 1439 1445 1445
    1445 1452 1452 1452 1458 1464 1464 1464 1464 1464 1470 1464 1458
    1458 1458 4349 4295 3903 3859 3859 0 0 1489 0 1464 1458 1452 1421
    1415 1410 1410 1410 1410 1404 1404 1404 1410 1415 1415 1415 1415
    1415 1421 1421 1421 1421 1421 1433 1433 1439 1439 1439 1439 1439
    1439 1445 1445 1445 1445 1452 1452 1452 1458 1458 1464 1464 1464
    1464 1464 1464 1464 1464 1464 4295 4295 4295 3816 3816 3816 0 0 0
    1489 1464 1458 1452 1421 1415 1410 1410 1410 1410 1410 1404 1404
    1410 1415 1415 1415 1415 1421 1421 1421 1421 1421 1427 1433 1433
    1439 1439 1439 1439 1439 1439 1445 1445 1452 1452 1452 1452 1452
    1458 1458 1464 1464 1464 1464 1464 1458 1458 1458 1458 4295 4295
    4295 3816 3816 0 0 1483 0 1489 1464 1458 1445 1415 1410 1410 1410
    1410 1410 1410 1410 1410 1415 1415 1415 1415 1415 1421 1421 1421
    1421 1421 1427 1427 1433 1433 1439 1439 1439 1439 1439 1445 1445
    1452 1452 1452 1452 1452 1458 1458 1464 1464 1464 1464 1464 1458
    1458 1458 0 4349 4349 4349 3816 3816 3816 0 1483 1483 1483 1464 1458
    1439 1415 1410 1404 1404 1404 1415 1415 1415 1415 1415 1415 1415
    1415 1421 1421 1421 1421 1421 1421 1427 1427 1433 1433 1439 1439
    1439 1439 1439 1445 1445 1452 1452 1452 1452 1452 1458 1458 1464
    1464 1464 1464 1464 1458 1458 1458 0 4349 4349 4349 3816 3816 3816 0
    1483 1483 1477 1464 1458 1421 1410 1404 1398 1398 1398 1410 1415
    1415 1415 1415 1415 1415 1415 1421 1421 1421 1421 1421 1421 1427
    1427 1433 1433 1439 1439 1439 1439 1439 1445 1445 1452 1452 1452
    1452 1452 1458 1464 1464 1464 1464 1464 1464 1464 1464 1464 4349
    4349 4349 4295 3859 3859 3859 0 1496 1483 1477 1464 1452 1421 1410
    1404 1398 1398 1398 1410 1415 1415 1415 1415 1415 1415 1415 1421
    1421 1421 1421 1421 1421 1427 1433 1433 1439 1439 1439 1439 1439
    1439 1445 1445 1452 1458 1458 1458 1458 1458 1464 1464 1464 1464
    1464 1464 1464 1464 1464 4349 4349 4349 4295 3903 0 0 0 1489 1483
    1470 1464 1445 1421 1410 1398 1398 1398 1398 1404 1410 1410 1415
    1415 1415 1415 1415 1421 1421 1421 1421 1421 1427 1433 1433 1433
    1439 1439 1439 1439 1439 1439 1445 1445 1452 1458 1458 1458 1464
    1464 1464 1464 1464 1464 1464 1464 1464 1464 1464 4349 4349 4295
    4295 3903 3903 0 1483 1483 1477 1470 1458 1445 1415 1410 1398 1398
    1398 1398 1404 1404 1404 1410 1415 1415 1415 1415 1415 1421 1421
    1421 1421 1433 1433 1433 1433 1439 1439 1439 1439 1439 1439 1445
    1445 1452 1452 1458 1458 1464 1464 1464 1464 1464 1464 1464 1464
    1464 1464 1464 4349 4349 4295 4295 3948 3948 0 1483 1483 1477 1464
    1452 1439 1415 1404 1398 1392 1392 1398 1404 1404 1404 1410 1415
    1415 1415 1415 1415 1421 1421 1421 1421 1433 1433 1439 1433 1433
    1439 1439 1439 1445 1445 1445 1452 1452 1452 1458 1458 1464 1464
    1464 1464 1464 1464 1464 1464 1464 1464 1464 4349 4349 4295 4295
    3903 3903 0 1483 1483 1477 1464 1452 1427 1415 1404 1398 1392 1392
    1398 1404 1410 1410 1415 1415 1415 1415 1415 1421 1421 1421 1421
    1421 1433 1433 1439 1433 1433 1439 1439 1439 1445 1445 1452 1452
    1452 1458 1458 1458 1464 1464 1464 1464 1464 1464 1464 1464 1464
    1464 0 4295 4295 4295 4295 3903 3903 1489 1483 1483 1477 1464 1452
    1427 1415 1404 1398 1398 1398 1398 1404 1410 1410 1415 1415 1415
    1415 1421 1421 1421 1421 1427 1427 1433 1439 1439 1439 1439 1439
    1439 1445 1445 1445 1452 1452 1452 1458 1458 1458 1464 1464 1464
    1470 1470 1470 1470 1464 1464 1464 4349 4295 4295 4295 4295 3859
    3859 1489 1489 1483 1477 1464 1445 1427 1415 1404 1398 1398 1398
    1398 1404 1415 1415 1415 1415 1415 1415 1421 1421 1421 1421 1427
    1433 1439 1439 1439 1439 1439 1439 1439 1445 1445 1452 1452 1452
    1452 1452 1458 1458 1464 1464 1464 1470 1470 1470 1470 1470 1470
    1470 4349 4349 4295 4295 4295 3859 0 1489 1489 1483 1470 1458 1445
    1427 1410 1404 1398 1398 1398 1398 1410 1415 1415 1415 1415 1415
    1415 1421 1421 1421 1421 1433 1439 1439 1439 1439 1439 1439 1439
    1439 1445 1445 1445 1445 1452 1452 1452 1458 1458 1464 1464 1470
    1470 1470 1470 1470 1470 1470 1470 4349 4349 4295 4295 4295 3859 0
    1489 1489 1483 1470 1458 1439 1421 1410 1398 1398 1398 1398 1404
    1415 1415 1415 1415 1415 1415 1415 1421 1421 1421 1421 1427 1433
    1439 1439 1439 1439 1439 1439 1439 1445 1445 1445 1445 1452 1452
    1452 1458 1458 1464 1470 1470 1470 1470 1470 1470 1470 1470 1470
    4349 4349 4295 4295 4295 3948 0 1489 1489 1477 1470 1452 1439 1415
    1404 1398 1398 1398 1404 1404 1415 1415 1415 1415 1415 1415 1421
    1421 1421 1421 1421 1427 1433 1439 1439 1439 1439 1439 1439 1439
    1445 1445 1452 1452 1452 1452 1452 1458 1458 1464 1470 1470 1470
    1470 1470 1470 1470 1470 1470 4349 4349 4295 4295 4295 3948 1489
    1489 1489 1477 1464 1445 1433 1415 1404 1398 1398 1398 1404 1404
    1415 1415 1415 1415 1415 1415 1421 1421 1421 1421 1421 1427 1433
    1439 1439 1439 1439 1439 1439 1439 1445 1452 1452 1452 1452 1452
    1452 1458 1458 1464 1470 1470 1470 1470 1470 1470 1470 1470 4295
    4295 4295 4295 4295 4241 3948 1489 1489 1483 1477 1464 1445 1421
    1410 1404 1398 1398 1404 1404 1410 1415 1415 1415 1415 1415 1421
    1421 1421 1421 1421 1421 1427 1433 1439 1439 1439 1439 1439 1439
    1445 1445 1458 1458 1458 1458 1458 1458 1458 1464 1470 1470 1470
    1470 1470 1470 1470 1470 4295 4295 4295 4295 4295 4295 4241 3859
    1489 1489 1483 1470 1458 1445 1421 1410 1404 1398 1398 1404 1404
    1410 1415 1415 1415 1415 1421 1421 1421 1421 1421 1421 1421 1427
    1439 1439 1439 1439 1439 1439 1439 1445 1445 1452 1458 1458 1458
    1458 1458 1464 1464 1470 1470 1470 1470 1470 1477 1483 1483 4295
    4295 4295 4295 4295 4295 4241 0 1483 1483 1477 1470 1458 1445 1415
    1410 1404 1398 1398 1404 1410 1410 1415 1415 1415 1415 1421 1421
    1421 1421 1421 1421 1427 1427 1439 1439 1439 1439 1439 1439 1439
    1445 1445 1452 1452 1458 1458 1458 1458 1464 1464 1470 1464 1464
    1470 1470 1470 1470 1470 4241 4241 4241 4295 4241 4241 4241 1489
    1483 1483 1477 1470 1458 1445 1415 1404 1398 1398 1404 1404 1410
    1410 1415 1415 1415 1415 1421 1421 1421 1421 1421 1421 1427 1439
    1439 1439 1439 1439 1439 1439 1439 1445 1445 1452 1452 1458 1458
    1458 1464 1464 1464 1470 1464 1464 1470 1470 1470 1470 0 4241 4241
    4241 4295 4241 4241 4241 1489 1489 1483 1470 1464 1452 1445 1415
    1404 1398 1398 1404 1404 1410 1410 1415 1415 1415 1415 1421 1421
    1421 1427 1427 1427 1433 1439 1439 1439 1439 1439 1439 1439 1439
    1445 1452 1452 1458 1458 1458 1464 1464 1464 1464 1470 1470 1470
    1470 1470 1470 1470 0 4405 4295 4295 4295 4295 4241 4241 1489 1489
    1483 1464 1458 1445 1415 1404 1404 1398 1398 1404 1410 1410 1410
    1415 1415 1415 1415 1421 1421 1421 1427 1427 1427 1433 1439 1439
    1439 1439 1439 1445 1445 1445 1452 1452 1458 1458 1458 1458 1464
    1464 1464 1464 1470 1470 1470 1470 1470 1477 1477 4463 4405 4405
    4295 4295 4295 4241 4241 1483 1483 1477 1464 1452 1439 1415 1404
    1404 1398 1398 1404 1410 1410 1410 1415 1415 1415 1415 1421 1421
    1421 1421 1427 1427 1433 1439 1439 1445 1445 1445 1445 1445 1445
    1452 1458 1458 1458 1458 1458 1464 1464 1464 1470 1470 1470 1470
    1470 1470 1477 1477 4463 4463 4405 4295 4295 4295 4241 4241 1477
    1477 1470 1464 1452 1439 1410 1404 1404 1404 1404 1404 1410 1410
    1410 1415 1415 1415 1415 1421 1421 1421 1421 1427 1427 1433 1439
    1439 1445 1445 1445 1445 1445 1445 1452 1452 1458 1458 1458 1458
    1458 1464 1470 1470 1470 1470 1470 1477 1477 1477 1477 4463 4463
    4349 4295 4241 4241 4241 4190 1496 1477 1470 1464 1445 1433 1410
    1398 1398 1398 1404 1410 1410 1410 1410 1415 1415 1415 1421 1421
    1421 1427 1427 1427 1427 1433 1439 1439 1445 1445 1445 1445 1445
    1452 1452 1452 1458 1458 1458 1458 1458 1464 1470 1470 1470 1470
    1477 1483 1483 1483 4405 4463 4463 4295 4295 4241 4190 4190 4190
    1489 1477 1470 1458 1445 1433 1410 1398 1398 1398 1404 1410 1410
    1410 1410 1415 1415 1415 1421 1421 1421 1427 1427 1427 1433 1439
    1439 1439 1445 1445 1445 1445 1445 1452 1452 1458 1458 1458 1464
    1464 1464 1464 1470 1470 1470 1477 1477 1483 1483 1483 4405 4405
    4405 4295 4295 4241 4190 4139 4139 1489 1477 1470 1458 1445 1415
    1410 1404 1404 1404 1404 1410 1410 1410 1410 1415 1421 1421 1421
    1421 1421 1427 1427 1433 1439 1439 1439 1439 1445 1445 1445 1445
    1445 1445 1452 1458 1458 1458 1464 1464 1464 1470 1470 1470 1470
    1477 1477 1483 1483 1483 4405 4405 4349 4295 4295 4241 4190 4139
    4139 1489 1477 1464 1458 1445 1415 1410 1404 1404 1404 1404 1410
    1410 1410 1415 1421 1421 1421 1421 1421 1421 1427 1427 1433 1439
    1439 1445 1445 1445 1445 1445 1445 1445 1445 1452 1458 1458 1458
    1464 1464 1464 1470 1470 1470 1470 1470 1470 1470 1470 1470 4349
    4295 4295 4295 4295 4295 4190 4139 4139 1483 1470 1464 1458 1445
    1415 1410 1404 1404 1404 1404 1410 1410 1410 1415 1421 1421 1421
    1421 1421 1427 1433 1433 1433 1439 1439 1445 1445 1445 1445 1445
    1445 1452 1452 1458 1458 1458 1458 1464 1464 1464 1470 1470 1470
    1470 1470 1470 1470 1470 1470 4349 4349 4295 4295 4295 4295 4241
    4139 4139 1483 1470 1464 1458 1439 1410 1410 1404 1404 1404 1404
    1410 1410 1410 1415 1421 1421 1421 1421 1421 1427 1433 1433 1439
    1439 1445 1445 1445 1445 1445 1445 1445 1452 1458 1458 1458 1464
    1464 1464 1464 1464 1470 1470 1470 1477 1470 1470 1477 1477 4405
    4405 4349 4295 4295 4295 4349 4295 4190 4190 1483 1477 1464 1452
    1415 1410 1404 1404 1404 1410 1410 1410 1410 1410 1415 1421 1421
    1421 1421 1421 1427 1433 1433 1439 1445 1445 1445 1445 1445 1445
    1445 1445 1458 1458 1464 1464 1464 1464 1464 1464 1464 1470 1470
    1470 1477 1477 1477 1483 1483 4405 4405 4405 4349 4349 4405 4405
    4349 4295 4190 1483 1477 1464 1452 1415 1410 1404 1404 1404 1410
    1410 1410 1410 1410 1415 1421 1421 1421 1421 1421 1427 1433 1433
    1439 1445 1445 1445 1445 1445 1445 1445 1452 1458 1464 1464 1464
    1464 1464 1464 1464 1470 1470 1470 1470 1470 1477 1489 1489 1489
    4405 4405 4405 4405 4405 4405 4349 4349 4349 4295 1483 1470 1458
    1445 1415 1410 1398 1398 1404 1410 1410 1410 1410 1415 1415 1421
    1421 1421 1421 1421 1427 1433 1439 1439 1445 1445 1445 1445 1445
    1445 1445 1452 1458 1464 1464 1464 1464 1464 1464 1464 1470 1470
    1470 1470 1470 1477 1483 1489 1489 4405 4405 4405 4405 4349 4349
    4349 4295 4295 4241 1483 1452 1445 1439 1410 1404 1398 1398 1404
    1410 1410 1410 1410 1410 1415 1421 1421 1427 1427 1427 1427 1433
    1439 1439 1439 1439 1445 1445 1452 1452 1452 1452 1458 1464 1464
    1464 1464 1464 1464 1464 1470 1470 1470 1470 1470 1470 1483 1483
    4349 4349 4349 4405 4349 4349 4295 4295 4241 4241 4241 0 1452 1439
    1433 1410 1404 1398 1398 1404 1410 1410 1410 1410 1410 1415 1421
    1427 1427 1427 1427 1427 1433 1439 1439 1439 1439 1445 1445 1452
    1452 1452 1452 1458 1458 1464 1464 1464 1470 1470 1470 1470 1470
    1470 1470 1470 1470 1470 1470 4349 4349 4349 4349 4349 4349 4295
    4295 4241 4241 4190 0 0 1439 1415 1410 1410 1404 1404 1410 1410 1410
    1410 1410 1415 1415 1421 1427 1427 1427 1433 1433 1439 1439 1439
    1439 1445 1445 1445 1452 1452 1452 1452 1458 1458 1464 1464 1464
    1470 1470 1470 1470 1470 1470 1470 1470 1477 1477 0 4241 4241 4241
    4241 4241 4241 4241 4241 4241 4190 4190 0 0 1415 1410 1410 1410 1410
    1410 1410 1410 1410 1410 1410 1415 1415 1421 1427 1427 1427 1433
    1433 1439 1439 1445 1445 1445 1445 1445 1452 1452 1458 1458 1458
    1464 1464 1464 1464 1470 1470 1470 1470 1470 1470 1470 1470 1483
    1483 0 4241 4241 4241 4241 4241 4241 4241 4241 4241 4190 4190 3816 0
    1410 1410 1410 1410 1410 1410 1410 1410 1410 1410 1410 1415 1415
    1421 1427 1427 1427 1433 1433 1439 1439 1445 1445 1445 1445 1452
    1452 1458 1458 1458 1464 1464 1464 1464 1464 1470 1470 1470 1477
    1477 1477 1477 1477 1489 1489 0 4295 4295 4295 4241 4241 4241 4241
    4241 4241 4241 4241 3816 3816 1410 1410 1410 1410 1410 1410 1410
    1410 1410 1410 1415 1415 1415 1421 1427 1427 1427 1433 1433 1439
    1439 1445 1445 1445 1445 1452 1452 1458 1458 1458 1464 1464 1464
    1464 1464 1464 1470 1470 1477 1477 1477 1483 1483 1489 1489 0 4295
    4295 4295 4241 4241 4241 4241 4241 4241 4241 4241 3732 3774 3774
    1410 1410 1410 1410 1410 1410 1410 1410 1410 1415 1421 1421 1427
    1427 1427 1427 1433 1433 1433 1433 1439 1445 1445 1452 1452 1452
    1458 1464 1464 1464 1464 1464 1464 1464 1464 1470 1470 1477 1483
    1483 1483 1477 1477 1477 4241 4241 4241 4241 4241 4241 4190 4190
    4190 4241 4241 4190 3732 3774 3774 3774 1410 1410 1410 1415 1410
    1410 1410 1410 1415 1421 1421 1427 1427 1427 1433 1433 1433 1433
    1433 1439 1445 1445 1452 1452 1452 1458 1464 1464 1464 1458 1458
    1464 1464 1470 1470 1470 1477 1483 1483 1483 1477 1477 1477 4241
    4241 4241 4241 4241 4241 4190 4190 4190 4190 4190 4190 3732 3774
    3774 3816 2908 1439 1415 1415 1415 1410 1410 1516 1509 1496 1427
    1427 1427 1427 1433 1433 1433 1433 1433 1439 1445 1452 1458 1458
    1458 1464 1464 1464 1445 1445 1445 1464 1464 1464 1470 1470 1483
    1483 1483 1489 1489 1489 3092 4190 4190 4190 4241 4241 4241 4241
    4190 4190 4139 4139 4139 2767 2767 2789 2812 2812 2883 2908 3774
    3774 3774 1516 1516 1509 1496 1496 1433 1433 1433 1433 1433 1433
    1433 1433 1464 1464 1464 1464 1464 1464 1470 1470 3037 1445 1445
    1445 1464 1464 1464 1470 1477 1483 1483 1489 1489 1496 1496 3092
    3092 4190 4190 4190 4241 4241 4190 4190 4139 4089 4089 4089 2744
    2744 2789 2789 2789 2812 3948 3948 1536 1529 1523 1523 1523 1523
    1523 1445 1445 1445 1445 1458 1458 1458 0 1470 1470 1470 1470 1470
    1470 1470 3037 3037 3010 3010 3010 3010 3037 1477 1477 1483 1483
    1483 1489 1496 1496 3037 3037 3092 3092 3120 3149 4190 4139 4139
    4190 4139 4089 4089 4041 2723 2723 2789 2789 1516 1516 1516 1516
    1516 1516 1516 1523 1523 1523 1503 1496 1496 1496 1550 1550 1550
    1550 1550 1470 1470 1470 1470 1470 1470 1470 3010 3010 2984 2984
    3010 3010 3037 3037 3037 3037 3010 3010 3037 3037 3064 3037 3037
    3092 3092 3120 3092 3092 3092 3092 4139 4089 4089 4089 4041 2701
    2701 2701 1516 1516 1516 1516 1509 1509 1509 1503 1503 1503 1503
    1503 1496 1496 1496 1550 1550 1550 1550 1550 1536 1529 1470 1470
    1470 1470 1470 2958 2958 2933 2933 3010 3010 3010 3010 3010 3010
    3037 3037 3064 3064 3064 3037 3037 3037 3064 3092 3064 3064 3092
    3092 3092 4041 4041 4041 4041 2680 2701 2701 1516 1516 1516 1503
    1496 1496 1496 1496 1496 1496 1489 1489 1496 1496 1496 1529 1529
    1536 1536 1536 1536 1529 0 1529 1529 2958 2958 2958 2958 2933 2908
    2908 3010 2984 2984 2984 2984 3010 3010 3010 3010 3010 3010 3037
    3037 3037 3037 3037 3037 3064 3037 3010 3010 4041 3994 3994 2680
    2680 2680 1516 1516 1516 1496 1489 1489 1489 1483 1483 1483 1483
    1483 1483 1477 1477 1489 1516 1516 1523 1523 1523 1529 1529 1529 0 0
    2958 2958 2958 2933 2908 2908 2933 2958 2984 2984 2984 3010 3010
    3010 3010 3010 3010 3037 3010 3010 3010 3010 3010 3037 3010 3010
    2958 2933 2933 3994 2618 2639 0 1523 1523 1516 1496 1483 1477 1477
    1477 1477 1477 1477 1477 1470 1470 1470 1483 1496 1496 1496 1509
    1509 1516 1516 1516 1477 1523 2958 2958 2933 2933 2933 2933 2933
    2958 2984 2984 2984 3010 3010 3010 3010 3010 3010 3010 3010 3010
    2984 2984 2958 2958 3010 2984 2958 2933 2933 2933 2639 2639 2680
    1523 1523 1516 1496 1483 1470 1464 1458 1458 1458 1464 1464 1464
    1464 1470 1470 1483 1489 1489 1496 1496 1489 1483 1477 1477 1523
    1523 2958 2933 2933 2933 2933 2958 2958 2958 2984 3010 3010 3010
    3010 3010 3010 3010 3010 3010 3010 2984 2984 2933 2933 2908 2883
    2883 2933 2933 2933 2639 2680 2680 1509 1509 1509 1489 1477 1464
    1452 1452 1445 1445 1445 1458 1458 1458 1464 1464 1470 1477 1477
    1483 1483 1477 1477 1477 1477 1483 1503 1503 2933 2933 2933 2958
    2958 2958 2958 2984 3010 3010 3010 3010 3010 3010 3010 3010 3010
    3010 2984 2984 2933 2908 2908 2883 2883 2883 2908 2908 2680 2680
    2680 0 1503 1496 1489 1470 1458 1445 1445 1445 1445 1445 1452 1445
    1445 1445 1445 1458 1464 1470 1470 1470 1470 1470 1470 1470 1477
    1483 1496 2958 2958 2958 2958 2958 2958 2958 2958 2984 3010 3010
    3010 3010 3010 3010 3037 3037 3010 2984 2984 2933 2908 2908 2883
    2859 2859 2859 2859 2680 2701 2701 0 1503 1489 1483 1464 1458 1445
    1439 1433 1433 1427 1427 1433 1433 1439 1439 1445 1458 1458 1464
    1464 1464 1464 1464 1464 1464 1470 1489 1489 2933 2933 2933 2933
    2933 2933 2958 2984 2984 3010 3010 3010 3010 3010 3037 3037 3037
    2984 2958 2933 2908 2908 2883 2859 2859 2859 2859 2701 2701 2701 0
    1483 1483 1470 1458 1452 1439 1433 1427 1421 1415 1415 1427 1427
    1433 1433 1433 1439 1439 1445 1452 1452 1458 1458 1458 1464 1464
    1464 1464 2933 2933 2908 2908 2908 2933 2984 2984 2984 3010 3010
    3010 3010 3010 3037 3037 3037 2984 2958 2933 2933 2908 2908 2883
    2859 2859 2859 2701 2701 2723 0 1483 1483 1470 1458 1452 1439 1433
    1421 1415 1415 1415 1421 1421 1427 1433 1433 1439 1439 1439 1439
    1439 1445 1445 1452 1458 1458 1458 1458 1458 2933 2859 2859 2908
    2908 2984 2984 3010 3010 3037 3037 3037 3037 3037 3037 3037 2984
    2933 2933 2933 2908 2908 2883 2859 2859 2859 2701 2701 2701 0 0 1470
    1470 1452 1452 1439 1427 1415 1415 1410 1410 1421 1421 1427 1433
    1433 1439 1439 1439 1439 1439 1445 1445 1452 1458 1458 1458 1458
    1458 1464 2859 2859 2908 2908 0 0 0 0 0 3064 3064 0 3037 3010 3010
    2958 2933 2933 2933 2908 2908 2883 2859 2859 2835 2701 2701 2701 0 0
    0 0 1452 1445 1433 1421 1415 1415 1410 1410 1421 1421 1427 1427 1433
    1433 1439 1439 1439 1439 1445 1445 1452 1452 1458 1452 1452 1458
    1464 1464 0 0 0 0 0 0 0 0 0 0 0 0 3010 3010 2933 2933 2908 2908 2908
    2908 2883 2859 2859 2835 2723 2701 2701 0 0 0 0 1452 1439 1433 1415
    1415 1410 1410 1415 1421 1421 1427 1427 1433 1433 1439 1439 1445
    1445 1445 1445 1452 1452 1458 1452 1452 1458 1464 1470 0 0 0 0 0 0 0
    0 0 0 0 0 0 0 2933 2933 2908 2908 2908 2883 2859 2859 2859 2859 0
    2701 2701 0 0 0 0 0 1439 1433 1415 1415 1410 1410 1415 1421 1421
    1427 1433 1439 1439 1439 1445 1445 1445 1445 1452 1452 1452 1458
    1458 1458 1458 1464 1470 0 0 0 0 0 0 0 0 0 0 0 0 0 0 2933 2933 2908
    2908 2908 2883 2835 2835 2835 2835 0 0 0 0 0 0 0 0 0 0 1415 1415
    1410 1410 1415 1421 1421 1427 1433 1439 1439 1439 1445 1445 1445
    1445 1452 1452 1452 1458 1458 1458 1464 1464 0 0 0 0 0 0 0 0 0 0 0 0
    0 0 0 2933 2933 2908 2908 2883 2859 2835 2835 2835 2835 0 0 0 0 0 0
    0 0 0 0 1415 1415 1415 1415 1421 1427 1433 1433 1433 1439 1439 1439
    1445 1445 1445 1445 1452 1452 1452 1452 1458 1458 1464 1464 0 0 0 0
    0 0 0 0 0 0 0 0 0 0 0 0 2933 2908 2883 2859 2835 2835 2835 2835 2835
    0 0 0 0 0 0 0 0 1477 1464 1458 1421 1421 1427 1427 1433 1433 1439
    1439 1439 1439 1445 1445 1445 1445 1445 1445 1445 1445 1452 1458 0 0
    0 0 0 0 0 0 0 0 0 0 0 0 0 0 0 0 0 0 0 2883 2859 2835 2835 2835 2835
    2835 0 0 0 0 0 0 0 0 1477 1464 1458 1452 1445 1439 1439 1445 1439
    1439 1439 1445 1445 1452 1452 1445 1445 1445 1445 1445 1445 0 0 0 0
    0 0 0 0 0 0 0 0 0 0 0 0 0 0 0 0 0 0 0 0 2859 2835 1564 1564 1572
    1572 0 0 0 0 0 0 0 0 0 1470 1458 1458 1452 1452 1458 1452 1452 1445
    1445 1445 1452 1452 1458 1458 1458 1458 1458 0 0 0 0 0 0 0 0 0 0 0 0
    0 0 0 0 0 0 0 0 0 0 0 0 0 0 0 1550 1550 1557 1564 1564 0 0 0 0 0 0 0
    0 1483 1470 1458 1458 1458 1458 1458 1458 1452 1452 1452 1458 1458
    1464 1464 1477 1477 1496 1496 0 0 0 0 0 0 0 0 0 0 0 0 0 0 0 0 0 0 0
    0 0 0 0 0 0 0 0 1550 1550 1550 1557 1557</data></Depth10642>
</opencv_storage>
