<?xml version="1.0"?>
<opencv_storage>
<Depth6462 type_id="opencv-matrix">
  <rows>72</rows>
  <cols>46</cols>
  <dt>w</dt>
  <data>
    3399 3399 3399 3399 3399 3468 3468 3433 3433 3433 3503 3576 3576
    3576 1452 1433 1433 1433 1433 1433 1433 1433 1427 1427 1433 1433
    1433 1433 1427 1427 1427 3774 3774 3774 3774 3774 3732 3732 3732
    2933 2933 2933 2933 2933 2908 2908 3399 3399 3399 3399 3399 3468
    3468 3365 3365 3433 1433 1433 1439 1433 1433 1433 1433 1427 1427
    1427 1427 1427 1427 1427 1427 1427 1427 1415 1415 1421 1421 1421
    1439 1439 3774 3774 3732 3732 3732 3732 2958 2958 2958 2933 2908
    2908 3399 3399 3399 3399 3399 3468 3433 3365 3365 3365 1433 1433
    1433 1427 1427 1427 1427 1427 1421 1421 1421 1421 1421 1427 1427
    1421 1421 1415 1415 1421 1421 1427 1439 1439 3774 3774 3732 3732
    3692 3692 2984 2958 2958 2933 2908 2908 3399 3399 3399 3399 3433
    3433 3433 3433 3433 1445 1433 1433 1427 1427 1427 1427 1427 1421
    1421 1421 1421 1421 1421 1415 1410 1410 1410 1415 1415 1421 1427
    1427 1439 1458 1458 3774 3732 3732 3692 3692 2984 2958 2958 2933
    2933 2908 3433 3433 3433 3433 3433 3433 3433 3433 1445 1445 1433
    1433 1427 1421 1421 1421 1421 1421 1421 1421 1421 1421 1415 1415
    1410 1410 1410 1415 1415 1421 1427 1427 1445 1458 1464 1464 3732
    3732 3774 3774 3010 2958 2958 2933 2933 2908 3433 3433 3433 3399
    3399 3468 3468 3468 3468 1433 1433 1433 1427 1421 1421 1421 1421
    1421 1421 1421 1421 1421 1415 1415 1415 1410 1410 1410 1415 1421
    1427 1433 1445 1458 1464 1483 1496 1496 1509 2958 2958 2958 2933
    2933 2933 2933 3399 3399 3433 3399 3399 3468 3468 3468 0 1433 1433
    1433 1427 1427 1421 1421 1421 1421 1421 1421 1421 1421 1415 1415
    1410 1410 1410 1410 1415 1427 1433 1433 1445 1458 1477 1483 1496
    1509 1509 2958 2958 2958 2933 2933 2908 2908 3399 3399 3433 3399
    3399 3468 3468 3468 0 1433 1433 1427 1427 1421 1421 1415 1415 1421
    1421 1421 1421 1421 1415 1415 1410 1410 1410 1410 1410 1427 1433
    1439 1445 1458 1477 1483 1496 1509 1516 1516 2958 2958 2958 2933
    2908 2908 3399 3399 3433 3399 3399 3433 3433 3433 1427 1427 1427
    1427 1427 1421 1421 1415 1415 1415 1415 1415 1421 1421 1410 1410
    1410 1404 1404 1410 1410 1421 1427 1439 1452 1458 1477 1483 1489
    1516 1516 1529 1529 2958 2958 2933 2933 2933 3399 3399 3433 3399
    3399 3433 3433 3433 1427 1427 1427 1427 1427 1421 1415 1415 1410
    1410 1410 1415 1415 1415 1410 1410 1410 1404 1404 1404 1410 1415
    1427 1439 1452 1464 1477 1483 1489 1523 1529 1529 1529 2958 2933
    2883 2883 2908 3399 3399 3399 3399 3399 3433 3433 3433 1415 1415
    1421 1421 1421 1415 1415 1415 1410 1410 1410 1410 1410 1410 1410
    1404 1404 1410 1404 1404 1410 1415 1427 1439 1452 1464 1477 1483
    1496 1523 1529 1529 1557 1557 2933 2883 2812 2812 3399 3399 3399
    3399 3399 3433 3433 3433 1415 1415 1421 1421 1421 1415 1410 1410
    1410 1410 1410 1410 1410 1404 1404 1404 1404 1404 1404 1404 1410
    1415 1427 1439 1445 1464 1477 1483 1496 1523 1529 1536 1550 1572
    1579 1586 2812 2812 3399 3399 3399 3399 3399 3399 3399 3399 1421
    1421 1421 1415 1415 1410 1410 1410 1410 1410 1410 1410 1404 1404
    1404 1404 1404 1404 1404 1404 1410 1415 1421 1439 1445 1464 1477
    1483 1496 1523 1529 1536 1550 1572 1579 1586 1601 2883 3399 3399
    3399 3399 3399 3399 3399 3399 1421 1421 1415 1415 1410 1410 1410
    1410 1410 1410 1410 1410 1404 1404 1404 1404 1404 1404 1404 1404
    1410 1415 1421 1433 1445 1470 1477 1483 1503 1523 1529 1536 1550
    1579 1586 1594 1601 1616 3399 3399 3399 3399 3399 3399 3399 1421
    1421 1421 1415 1415 1410 1410 1410 1410 1410 1410 1410 1404 1404
    1404 1404 1404 1398 1398 1404 1404 1410 1415 1421 1433 1445 1458
    1470 1483 1503 1529 1536 1543 1550 1579 1586 1594 1609 1616 3399
    3399 3399 3365 3365 3399 3399 3399 1427 1427 1415 1415 1410 1410
    1410 1410 1404 1404 1404 1404 1404 1404 1404 1398 1392 1392 1392
    1404 1404 1415 1427 1433 1445 1458 1470 1483 1503 1529 1529 1543
    1557 1579 1586 1594 1601 1601 3365 3365 3365 3333 3333 3333 3333
    1410 1421 1421 1415 1415 1410 1410 1410 1404 1404 1404 1404 1404
    1404 1404 1404 1398 1392 1392 1392 1404 1404 1415 1427 1439 1452
    1464 1470 1489 1503 1523 1529 1543 1557 1579 1586 1594 1601 1601
    3365 3365 3333 3300 3300 3333 3333 1410 1404 1404 1404 1404 1410
    1410 1410 1404 1404 1404 1398 1398 1398 1398 1398 1398 1392 1392
    1392 1398 1404 1415 1427 1439 1452 1464 1477 1489 1503 1523 1529
    1543 1557 1579 1586 1594 1601 1601 3333 3333 3300 3300 3300 3300
    1410 1404 1404 1404 1404 1404 1404 1404 1404 1404 1404 1404 1398
    1398 1392 1392 1398 1392 1392 1392 1392 1398 1404 1415 1427 1439
    1452 1470 1477 1483 1503 1523 1529 1543 1564 1579 1586 1594 1601
    1601 3333 3333 3300 3300 3300 1404 1404 1398 1398 1404 1404 1404
    1404 1404 1404 1404 1404 1398 1398 1392 1392 1387 1387 1392 1392
    1392 1398 1398 1404 1415 1427 1439 1458 1464 1470 1483 1503 1516
    1529 1543 1564 1579 1586 1601 1609 1616 3333 3365 3333 3333 3333
    1404 1404 1398 1398 1404 1404 1404 1404 1404 1398 1398 1398 1398
    1398 1392 1392 1387 1387 1392 1392 1392 1392 1392 1404 1410 1427
    1439 1458 1458 1470 1483 1503 1516 1529 1543 1564 1579 1586 1601
    1609 1616 3333 3365 3365 3365 3365 1398 1398 1398 1398 1404 1404
    1404 1404 1404 1398 1398 1398 1398 1392 1392 1392 1392 1387 1387
    1387 1387 1392 1392 1404 1410 1427 1439 1458 1458 1464 1483 1503
    1516 1529 1536 1564 1572 1594 1609 1616 1616 3333 3365 3333 3333
    3333 1398 1398 1398 1398 1404 1404 1404 1398 1398 1392 1392 1392
    1392 1392 1392 1392 1392 1387 1387 1387 1387 1387 1392 1404 1421
    1427 1439 1458 1458 1464 1483 1503 1509 1523 1536 1564 1572 1594
    1609 1609 1609 3333 3365 3333 3333 3333 1404 1404 1404 1404 1404
    1404 1404 1398 1398 1392 1392 1392 1392 1387 1387 1387 1387 1387
    1387 1387 1387 1387 1392 1404 1421 1427 1439 1452 1458 1470 1483
    1503 1509 1523 1550 1564 1572 1586 1601 1601 1601 3333 3333 3333
    3333 3333 1404 1404 1398 1398 1404 1404 1404 1398 1392 1392 1392
    1387 1387 1387 1387 1387 1387 1387 1381 1381 1381 1387 1392 1404
    1415 1427 1439 1452 1458 1470 1489 1503 1509 1529 1550 1564 1572
    1586 1594 1594 1594 3300 3300 3300 3300 3399 1404 1404 1398 1398
    1404 1404 1398 1392 1387 1387 1392 1387 1387 1387 1381 1381 1381
    1381 1381 1381 1381 1387 1392 1404 1415 1427 1439 1452 1458 1477
    1496 1503 1503 1529 1550 1564 1572 1586 1594 1594 1594 3300 3300
    3300 3399 3399 1398 1398 1398 1398 1398 1398 1392 1392 1387 1387
    1387 1387 1387 1387 1381 1381 1381 1381 1381 1381 1381 1387 1392
    1404 1410 1421 1445 1452 1458 1477 1496 1503 1503 1536 1550 1564
    1572 1586 1594 1594 2883 3300 3333 3333 3365 3365 1398 1398 1398
    1392 1392 1392 1387 1387 1387 1387 1387 1387 1387 1381 1381 1381
    1381 1381 1381 1381 1381 1387 1392 1398 1410 1415 1445 1452 1458
    1477 1496 1503 1503 1529 1557 1564 1572 1586 1594 1594 2859 3365
    3365 3365 3365 3365 1392 1392 1392 1387 1387 1387 1387 1387 1387
    1387 1387 1387 1387 1381 1381 1376 1376 1376 1376 1376 1381 1387
    1387 1398 1410 1415 1439 1452 1458 1477 1489 1503 1503 1529 1550
    1564 1572 1586 1594 1594 2859 3333 3333 3365 3365 3365 1387 1387
    1387 1387 1387 1387 1387 1387 1387 1387 1387 1387 1381 1381 1381
    1376 1376 1376 1376 1376 1381 1387 1387 1398 1410 1421 1433 1452
    1458 1477 1489 1496 1503 1529 1550 1557 1564 1586 1594 1594 2883
    3333 3333 3365 3365 3365 1387 1387 1381 1381 1381 1381 1381 1381
    1381 1387 1387 1381 1381 1381 1381 1381 1381 1381 1381 1381 1381
    1387 1392 1404 1410 1427 1433 1452 1458 1477 1489 1496 1503 1529
    1550 1557 1564 1586 1594 1594 2859 3333 3333 3365 3365 3365 1387
    1381 1381 1381 1381 1381 1381 1381 1381 1387 1387 1381 1381 1381
    1381 1376 1376 1381 1381 1381 1387 1387 1392 1404 1410 1427 1439
    1445 1458 1477 1483 1496 1503 1523 1550 1557 1564 1586 1594 1594
    2859 3300 3333 3333 3333 1387 1387 1381 1381 1381 1381 1381 1381
    1381 1381 1387 1387 1387 1381 1381 1376 1376 1376 1381 1381 1381
    1381 1387 1392 1404 1410 1433 1439 1445 1458 1477 1483 1489 1503
    1523 1550 1557 1564 1586 1594 1594 2859 3300 3300 3300 3300 1387
    1387 1381 1381 1381 1381 1381 1381 1381 1381 1381 1381 1381 1381
    1376 1376 1376 1376 1381 1370 1370 1376 1381 1387 1404 1410 1433
    1439 1445 1458 1477 1483 1489 1503 1529 1550 1557 1564 1586 1594
    1594 2859 3300 3300 3300 3300 1392 1392 1387 1381 1381 1381 1381
    1381 1381 1381 1381 1381 1381 1381 1376 1370 1370 1370 1370 1370
    1370 1376 1381 1387 1404 1415 1427 1433 1439 1464 1483 1483 1489
    1509 1536 1550 1557 1572 1586 1594 1594 2859 3300 3300 3300 3300
    1387 1387 1381 1381 1376 1376 1381 1381 1381 1376 1376 1370 1370
    1370 1376 1370 1370 1370 1370 1365 1365 1370 1381 1387 1398 1410
    1427 1433 1439 1464 1483 1489 1489 1509 1536 1550 1557 1572 1586
    1594 1594 2883 3300 3300 3300 3300 1387 1387 1381 1381 1376 1376
    1381 1381 1376 1376 1376 1370 1370 1365 1365 1365 1365 1365 1365
    1365 1365 1370 1381 1392 1398 1410 1427 1439 1445 1464 1483 1489
    1496 1509 1536 1550 1564 1579 1586 1594 1594 2883 3269 3269 3300
    3300 1387 1381 1381 1376 1376 1376 1376 1381 1376 1376 1370 1365
    1365 1365 1365 1365 1365 1365 1365 1365 1365 1365 1370 1392 1404
    1415 1427 1439 1445 1464 1483 1489 1496 1509 1536 1550 1557 1579
    1586 1594 1594 2859 3269 3269 3269 1387 1387 1381 1381 1376 1376
    1376 1376 1381 1381 1381 1370 1365 1365 1365 1365 1365 1365 1365
    1365 1365 1365 1365 1370 1392 1404 1421 1433 1439 1445 1464 1483
    1483 1496 1516 1529 1543 1557 1572 1579 1586 1586 2835 3300 3300
    3300 1387 1387 1381 1381 1376 1376 1376 1376 1376 1370 1370 1370
    1365 1365 1365 1365 1365 1365 1365 1365 1359 1359 1365 1376 1392
    1404 1421 1433 1439 1445 1470 1483 1483 1503 1509 1529 1543 1557
    1564 1579 1586 1586 2812 3300 3300 3300 1387 1387 1376 1376 1376
    1376 1376 1376 1376 1370 1370 1365 1365 1365 1365 1365 1365 1359
    1359 1359 1359 1359 1365 1376 1392 1404 1421 1427 1433 1445 1477
    1483 1483 1503 1509 1536 1550 1557 1564 1579 1586 1586 2789 3269
    3269 3269 1381 1381 1370 1370 1376 1376 1370 1370 1370 1365 1365
    1365 1365 1365 1365 1359 1359 1359 1359 1359 1359 1359 1365 1376
    1392 1410 1415 1427 1433 1445 1477 1483 1489 1496 1509 1536 1550
    1557 1564 1579 1586 2789 2789 3269 3269 3269 1376 1376 1370 1370
    1370 1370 1365 1365 1365 1365 1365 1365 1365 1365 1365 1359 1359
    1354 1354 1359 1359 1359 1370 1381 1392 1410 1415 1427 1433 1452
    1470 1483 1489 1496 1509 1529 1543 1557 1564 1572 1572 2789 2789
    3208 3208 3208 1376 1376 1370 1370 1370 1365 1365 1365 1365 1365
    1365 1365 1365 1365 1365 1365 1365 1354 1354 1354 1354 1359 1370
    1381 1392 1410 1421 1427 1433 1452 1470 1483 1489 1496 1509 1529
    1536 1557 1564 1564 1564 2789 2789 3208 3208 3208 1376 1376 1370
    1370 1370 1365 1365 1365 1365 1365 1365 1365 1359 1359 1365 1365
    1365 1365 1359 1354 1354 1359 1370 1381 1404 1404 1415 1421 1433
    1458 1477 1483 1483 1496 1509 1529 1536 1557 1557 1564 1564 2789
    2789 3208 3208 3208 1365 1365 1365 1370 1370 1365 1365 1365 1365
    1365 1359 1359 1359 1359 1365 1365 1365 1359 1359 1354 1354 1359
    1370 1381 1404 1404 1415 1421 1433 1458 1477 1483 1483 1496 1509
    1529 1536 1557 1557 1564 1564 2789 2789 3208 3208 1354 1365 1365
    1365 1370 1370 1365 1365 1365 1365 1359 1359 1359 1359 1359 1359
    1359 1359 1359 1354 1354 1354 1359 1370 1381 1398 1404 1410 1415
    1439 1452 1477 1483 1483 1503 1516 1529 1543 1557 1557 1564 2767
    2767 2767 3269 3269 1354 1354 1354 1365 1370 1370 1365 1365 1365
    1359 1359 1359 1359 1359 1359 1359 1359 1359 1354 1354 1354 1354
    1365 1370 1381 1398 1404 1410 1415 1439 1452 1477 1483 1483 1503
    1523 1536 1550 1557 1557 1557 2767 2767 2767 3300 3300 1354 1354
    1354 1365 1365 1365 1365 1365 1359 1359 1359 1359 1359 1359 1359
    1359 1359 1354 1354 1354 1354 1354 1365 1370 1381 1398 1404 1410
    1415 1439 1452 1477 1483 1489 1503 1529 1536 1550 1557 1557 1557
    2744 2744 2767 3238 0 1376 1370 1370 1365 1365 1365 1365 1359 1359
    1359 1359 1359 1359 1359 1359 1359 1354 1354 1349 1349 1354 1359
    1359 1370 1381 1387 1404 1410 1421 1433 1445 1470 1477 1496 1509
    1529 1536 1543 1550 1557 1557 2744 2744 2767 3208 1376 1376 1370
    1365 1365 1365 1365 1365 1359 1354 1354 1354 1359 1359 1359 1354
    1354 1354 1354 1349 1349 1349 1359 1359 1370 1381 1387 1404 1410
    1421 1433 1445 1458 1458 1503 1509 1523 1529 1543 1550 1557 1557
    2767 2767 2767 3208 1370 1370 1365 1365 1365 1365 1359 1359 1354
    1354 1354 1354 1354 1359 1359 1354 1354 1349 1349 1343 1343 1349
    1359 1359 1370 1376 1387 1404 1410 1421 1439 1452 1458 1458 1503
    1509 1523 1529 1543 1550 1557 1557 2767 2767 2767 3238 1370 1370
    1365 1365 1365 1359 1359 1354 1354 1354 1354 1354 1354 1354 1349
    1343 1343 1349 1343 1343 1343 1354 1354 1359 1370 1376 1387 1404
    1410 1421 1439 1452 1458 1464 1496 1516 1523 1529 1543 1550 1557
    1557 2767 2744 2744 1359 1365 1365 1359 1359 1359 1359 1359 1354
    1354 1354 1354 1354 1354 1354 1349 1343 1343 1338 1338 1338 1343
    1349 1354 1359 1370 1376 1387 1404 1410 1427 1439 1452 1458 1464
    1483 1516 1529 1536 1543 1550 1557 1557 2744 2744 2744 1359 1359
    1359 1359 1359 1359 1359 1359 1359 1349 1349 1354 1354 1354 1349
    1349 1343 1343 1338 1338 1338 1343 1349 1354 1354 1376 1381 1398
    1404 1410 1433 1445 1452 1458 1464 1483 1509 1523 1536 1550 1557
    1557 1557 2723 2723 2723 1359 1359 1359 1359 1359 1359 1359 1359
    1349 1343 1343 1349 1349 1349 1349 1349 1343 1343 1343 1343 1343
    1343 1349 1354 1354 1370 1381 1392 1404 1410 1427 1439 1452 1458
    1470 1477 1509 1523 1529 1550 1550 1557 2701 2701 2701 2723 1359
    1359 1359 1359 1359 1359 1359 1349 1349 1343 1343 1343 1349 1349
    1349 1343 1343 1338 1338 1343 1343 1343 1343 1354 1359 1370 1381
    1392 1404 1415 1427 1433 1452 1458 1470 1477 1509 1516 1529 1543
    1550 2680 2680 2701 2701 2701 3300 1359 1359 1359 1359 1359 1359
    1343 1343 1343 1343 1343 1343 1349 1343 1343 1343 1338 1338 1343
    1343 1343 1343 1354 1365 1376 1381 1392 1404 1421 1427 1433 1452
    1458 1470 1496 1509 1516 1523 1543 1557 2680 2680 2701 2701 2701
    3300 1359 1359 1359 1359 1354 1354 1343 1343 1343 1343 1343 1343
    1343 1343 1343 1343 1343 1343 1343 1338 1338 1343 1349 1354 1376
    1381 1392 1404 1427 1439 1445 1452 1458 1470 1496 1509 1516 1523
    1536 1557 2680 2680 2701 2701 2701 1359 1359 1359 1359 1354 1349
    1349 1343 1343 1343 1343 1343 1343 1343 1343 1343 1343 1343 1343
    1343 1338 1338 1343 1349 1354 1370 1381 1392 1404 1427 1433 1439
    1452 1458 1470 1496 1509 1516 1529 1536 1550 1572 1572 2701 2701
    2701 1359 1359 1359 1359 1354 1349 1343 1343 1343 1343 1343 1343
    1343 1343 1343 1343 1343 1343 1343 1338 1338 1338 1343 1343 1359
    1370 1381 1398 1410 1427 1433 1439 1445 1464 1477 1496 1509 1523
    1529 1536 1536 1572 1572 2701 2701 2723 1365 1359 1359 1359 1354
    1343 1343 1338 1338 1343 1343 1343 1343 1343 1343 1343 1343 1343
    1338 1338 1338 1338 1343 1343 1359 1370 1387 1398 1410 1421 1433
    1439 1445 1458 1483 1496 1509 1523 1529 1536 1536 1536 1536 2723
    2723 2723 1359 1359 1354 1349 1349 1343 1343 1338 1338 1343 1343
    1343 1343 1343 1343 1343 1338 1338 1338 1333 1333 1333 1338 1343
    1349 1365 1387 1398 1410 1421 1433 1439 1445 1458 1483 1503 1509
    1529 1529 1536 1536 1536 0 2767 2767 2744 1359 1359 1354 1349 1349
    1343 1343 1343 1343 1343 1343 1343 1343 1343 1338 1338 1338 1338
    1338 1333 1333 1333 1338 1343 1349 1365 1392 1398 1404 1415 1433
    1439 1452 1458 1483 1496 1509 1529 1536 1536 1536 1536 2680 2701
    2701 2723 1359 1359 1354 1354 1349 1349 1343 1343 1343 1343 1343
    1343 1343 1338 1338 1338 1338 1338 1338 1333 1333 1338 1338 1343
    1359 1365 1392 1398 1404 1415 1439 1452 1458 1458 1470 1496 1503
    1529 1536 1536 1550 2680 2680 2701 2701 2701 3269 1354 1354 1354
    1349 1343 1343 1343 1343 1343 1343 1343 1343 1338 1338 0 0 1349 1338
    1338 1343 1349 1349 1354 1359 1370 1392 1398 1404 1410 1452 1452
    1458 1458 1470 1496 1496 1523 1536 1543 1543 2680 2680 2680 2680
    2680 3269 3269 3269 1359 1359 1343 1343 1343 1343 3399 3399 0 0 0 0
    0 0 0 0 0 1349 1349 1349 1365 1381 1381 1392 1398 1404 1410 1452
    1452 1458 1458 1470 1496 1496 1523 1536 1550 1550 2680 2680 2680
    2680 2680 3269 3269 3300 3300 3333 3333 3333 3238 3433 3399 3399 0 0
    0 0 0 0 0 0 0 0 0 1404 1398 1398 1398 1398 1404 1404 1410 1452 1452
    1458 1470 1477 1496 1496 1523 1536 1550 1550 2680 2680 2680 2680
    2680 3269 3269 3300 3300 3333 3300 3238 3238 3433 3399 3399 3333
    3333 0 0 0 0 0 0 0 0 0 1410 1410 1404 1404 1404 1404 1415 1415 1458
    1458 1458 1477 1477 1496 1509 1529 1536 1536 1536 2680 2680 2680
    2680 2680 3269 3269 3300 3300 3333 3300 3238 3238 3365 3365 3365
    3333 3333 0 0 0 0 0 0 0 0 0 1410 1410 1410 1404 1404 1404 1433 1433
    1470 1470 1470 1483 1509 1509 1516 1529 1536 1536 1536 2680 2680
    2680 2680 2680 3269 3269 3300 3300 3333 3300 3238 3238 3333 3365
    3365 3333 3333 0 0 0 0 0 0 0 0 0 1410 1404 1404 1404 1410 1410 2639
    1477 1477 1477 1483 1483 1523 1523 1523 1536 1536 1536 2680 2680
    2680 2680 2701 2701 3269 3269 3269 3300 3333 3300 3269 3269 3333
    3333 3365 3333 3333 0 0 0 0 0 0 0 0 0 1410 1404 1404 1404 1404 2639
    2639 2639 1477 1477 1477 2639 2639 2639 1536 1536 1536 2680 2680
    2680 2680 2680 2701 2701</data></Depth6462>
</opencv_storage>
