<?xml version="1.0"?>
<opencv_storage>
<Depth14797 type_id="opencv-matrix">
  <rows>130</rows>
  <cols>56</cols>
  <dt>w</dt>
  <data>
    4139 4139 4089 4089 4041 4041 4041 4041 4089 4089 4089 3994 3994
    4041 4041 3994 3994 3994 3994 4089 4041 4041 4041 854 854 851 851
    851 851 854 4089 4089 4089 4089 894 0 0 3859 3859 3859 3859 3859
    3903 3903 3859 3859 3859 3859 3859 3859 3859 3903 3859 3859 3859
    3816 4139 4139 4089 4089 4089 4041 4041 4041 4041 4041 4089 3994
    3994 3994 3994 3994 3994 3994 3994 4041 4041 4041 4089 851 851 851
    851 851 851 854 854 854 0 0 0 894 894 894 894 3903 3903 3903 3859
    3859 3859 3859 3859 3859 3859 989 987 987 987 3859 3859 3816 4041
    4089 4139 4139 4089 4041 4041 4089 4041 4041 4089 4089 869 864 864
    862 3859 3859 856 856 856 4041 849 847 847 847 847 847 849 849 839
    843 847 847 0 894 894 894 894 889 910 3859 3859 3859 3859 3859 3859
    984 984 984 984 984 987 1001 1010 1010 4041 896 889 889 889 4089
    4089 873 871 871 869 869 869 864 864 862 860 856 854 854 854 854 847
    847 845 845 841 841 839 839 839 843 847 847 858 889 889 889 889 889
    910 910 910 918 920 925 938 951 959 967 981 984 987 1001 1010 1010
    896 894 889 889 885 878 878 873 871 871 869 869 869 867 864 862 860
    856 854 854 851 849 847 847 845 843 839 839 837 837 839 843 847 858
    858 864 882 882 885 889 906 910 910 918 920 925 938 946 954 964 981
    984 987 1004 1010 1010 896 894 891 889 882 878 878 875 873 871 869
    869 869 867 864 864 860 856 854 854 851 849 847 847 845 841 839 839
    837 837 839 845 849 858 858 864 880 880 885 889 901 908 913 918 920
    928 938 946 951 964 978 981 989 1004 1010 1010 889 889 891 885 882
    880 878 875 873 871 869 869 869 867 864 864 860 856 856 854 851 849
    845 845 843 841 839 839 837 837 839 845 851 858 858 864 880 880 885
    891 901 908 913 918 920 935 940 946 951 967 975 981 989 1004 1007
    1010 889 889 891 885 882 880 878 875 875 873 871 871 869 867 864 864
    860 856 856 854 851 849 845 845 843 841 839 839 837 837 839 845 851
    856 856 864 878 880 885 894 906 906 910 918 923 935 940 948 951 967
    973 981 992 1004 1007 0 891 891 891 885 882 880 878 878 875 873 871
    871 869 867 864 864 860 856 856 854 851 849 847 847 845 843 841 839
    837 837 839 843 849 856 856 864 878 887 887 891 906 906 910 918 935
    935 940 948 959 970 973 978 992 1004 0 0 889 891 891 885 882 880 878
    878 875 873 871 871 869 867 864 864 860 856 856 854 851 849 847 847
    845 845 843 839 839 839 839 843 849 858 858 867 878 885 885 891 908
    908 910 918 928 935 940 951 967 970 973 978 992 1004 1007 0 889 894
    891 887 885 882 878 878 875 873 871 871 871 867 864 862 860 856 856
    854 851 851 847 847 845 845 841 839 839 839 839 843 851 860 860 867
    878 880 885 889 910 910 915 920 928 935 938 956 967 973 975 981 989
    1004 1007 1007 894 894 889 887 885 882 878 878 875 873 871 871 871
    869 867 862 860 858 856 854 854 851 847 847 845 843 841 839 839 839
    839 845 851 856 860 869 875 880 885 889 908 908 915 920 928 935 938
    954 967 973 975 981 989 1004 1007 1007 894 894 889 887 885 882 880
    878 878 875 873 873 871 869 867 862 860 860 856 856 854 851 849 847
    845 843 841 839 839 839 841 849 854 856 860 871 875 885 885 891 908
    908 915 920 935 935 940 954 967 973 975 981 989 998 1004 1007 894
    894 889 887 885 882 880 880 878 875 873 873 871 871 867 862 862 858
    856 856 854 851 849 847 845 841 839 839 839 839 841 854 854 856 860
    871 875 880 885 898 906 906 913 920 935 935 940 954 967 973 978 984
    989 998 1004 1007 894 894 889 887 885 882 880 880 878 875 873 873
    871 871 867 862 862 858 856 856 854 851 849 847 845 841 839 839 839
    839 845 854 854 856 864 871 878 880 887 896 906 906 913 920 935 935
    940 954 964 970 978 984 989 998 1001 1004 894 894 889 887 885 882
    880 880 878 875 873 873 873 871 869 864 862 860 858 856 854 851 849
    847 845 843 841 839 839 839 841 851 854 856 864 871 880 880 887 896
    906 906 913 920 935 935 940 956 964 970 978 984 989 998 1001 1004
    896 894 889 887 885 882 880 880 878 878 873 873 873 871 867 864 862
    860 858 856 854 851 851 847 845 845 843 839 839 839 841 851 858 858
    864 873 880 880 887 898 906 906 915 923 935 938 940 956 964 970 978
    984 992 998 1004 1004 896 894 889 887 885 882 880 880 878 878 875
    873 873 871 867 864 862 860 858 856 856 854 851 847 847 845 843 839
    839 839 841 851 860 860 867 873 880 880 887 898 908 908 915 933 935
    938 940 959 964 970 975 984 992 998 1004 1007 898 894 889 887 887
    885 882 880 880 878 875 875 873 871 867 864 862 860 858 858 856 854
    851 847 847 845 845 841 841 841 841 851 854 860 867 873 880 880 896
    901 906 906 915 935 935 938 940 962 967 970 975 987 995 1001 1010
    1016 896 894 891 887 885 885 885 880 880 878 875 875 873 871 867 864
    862 862 858 858 856 854 851 849 847 845 845 841 841 841 841 854 854
    860 869 873 882 882 898 901 906 906 915 935 935 938 940 962 970 973
    978 987 995 1004 1013 1016 896 894 891 887 885 885 885 880 880 878
    875 875 873 871 867 864 862 862 858 858 856 854 854 849 847 845 845
    841 841 841 845 854 854 862 869 875 882 882 896 898 903 908 915 935
    935 938 940 964 970 973 978 987 998 1004 1013 1016 0 894 891 889 887
    887 885 880 880 878 875 873 873 871 869 864 864 862 860 858 856 854
    854 849 847 847 845 843 843 843 845 854 854 862 869 875 882 882 896
    898 903 915 918 935 935 938 940 967 970 975 981 987 995 1007 1013
    1016 0 894 891 889 887 887 885 882 880 878 875 873 873 871 869 867
    864 862 860 858 856 854 854 849 847 847 843 843 841 841 843 851 854
    862 869 878 882 882 896 901 915 915 918 935 935 940 940 967 970 975
    981 987 995 1004 1010 1013 896 894 891 889 887 887 885 882 880 878
    875 875 873 871 869 867 864 864 860 858 856 854 854 849 847 847 843
    841 841 841 843 849 860 864 867 878 882 882 894 898 915 915 925 935
    935 940 943 970 970 973 978 987 998 1004 1007 1010 896 894 891 889
    887 887 885 882 880 880 878 875 873 871 869 867 864 862 860 858 856
    854 854 851 847 847 843 841 841 841 841 847 862 864 867 875 882 882
    894 898 918 918 920 938 938 940 943 970 970 973 978 989 998 1004
    1007 1010 896 894 891 889 889 887 885 885 880 880 878 878 873 871
    869 867 864 862 860 858 856 854 854 851 847 847 843 841 841 841 841
    847 862 864 869 875 882 891 894 898 915 915 920 935 935 940 943 967
    967 973 978 989 998 1004 1010 1010 898 896 894 891 889 887 887 885
    880 880 878 878 873 871 869 867 864 864 862 858 856 856 854 851 847
    847 845 843 841 841 843 847 860 864 869 875 880 891 894 901 915 915
    920 935 935 940 943 967 967 973 978 998 998 1007 1010 1013 898 896
    894 891 889 889 887 885 882 880 878 878 873 871 871 869 867 864 862
    858 856 856 854 854 849 847 845 843 843 843 843 847 858 864 871 873
    880 891 896 901 915 915 920 930 935 938 959 967 967 973 981 998 998
    1007 1010 1013 898 896 894 891 889 889 887 885 882 880 878 878 873
    873 871 869 867 864 862 860 858 856 854 854 849 845 845 843 843 843
    843 849 858 864 871 873 887 891 896 901 910 915 923 930 938 938 959
    967 967 973 981 998 998 1004 1010 1016 896 896 894 891 889 889 887
    885 882 880 878 878 873 873 871 869 867 864 862 862 858 856 854 854
    851 845 845 843 843 843 845 851 858 864 871 873 887 891 898 901 910
    918 925 933 935 938 959 967 967 973 981 998 998 1004 1010 1016 894
    896 894 894 889 889 887 885 882 880 878 878 873 873 871 869 867 864
    862 862 860 856 854 854 851 845 845 845 845 845 845 851 858 864 871
    873 887 894 898 901 908 918 928 935 935 940 959 967 967 975 981 1001
    1001 1004 1010 0 894 898 896 896 889 889 887 885 882 880 878 878 875
    873 871 869 867 864 862 862 860 856 856 854 851 847 845 845 845 845
    845 849 860 867 871 873 880 894 898 901 908 920 930 935 935 940 956
    967 967 975 981 1001 1001 1004 1013 1025 896 898 896 896 889 889 887
    885 882 880 880 880 875 873 871 871 869 864 864 862 860 858 856 854
    851 847 845 845 845 845 845 849 860 864 871 873 880 894 898 901 910
    920 930 938 938 940 954 967 967 978 992 1001 1001 1004 1016 1025 896
    898 898 896 891 889 887 885 882 880 880 880 875 873 871 871 869 864
    864 862 862 858 856 854 849 847 845 845 845 843 843 847 862 864 871
    875 885 891 898 903 910 923 930 938 938 946 954 967 967 975 992 995
    998 1007 1013 1016 896 898 896 896 891 889 887 885 882 880 880 880
    878 873 873 871 869 864 864 862 862 860 856 854 849 847 847 845 845
    843 843 847 862 862 871 878 885 889 898 903 913 925 930 935 935 946
    954 973 973 975 992 995 998 1004 1007 1016 898 898 896 894 891 889
    889 887 885 882 880 880 875 873 873 871 869 867 864 862 860 858 856
    854 849 847 847 845 845 845 845 847 862 862 871 880 885 889 898 903
    913 928 933 935 935 946 956 967 973 975 992 995 998 1004 1007 0 898
    898 896 894 891 889 889 887 885 882 880 880 875 873 873 871 869 867
    864 862 860 858 856 854 849 849 847 845 845 845 845 845 862 862 871
    880 885 889 898 903 913 928 930 933 935 943 967 967 973 975 995 995
    998 1004 1016 0 898 898 896 894 891 889 889 887 885 882 880 880 878
    873 873 871 871 867 864 862 860 858 856 854 849 849 847 845 845 845
    845 845 862 867 869 880 885 889 898 906 913 925 930 933 940 943 951
    967 973 987 992 995 998 1004 1016 0 901 898 896 894 891 889 887 887
    885 882 880 880 878 873 873 871 871 869 864 862 860 858 856 854 851
    849 847 845 845 845 845 847 862 867 869 875 885 891 898 906 913 925
    930 933 940 946 951 973 973 984 992 998 998 1007 1019 0 901 898 896
    896 891 889 887 887 885 882 880 880 878 875 873 871 871 869 867 864
    862 858 856 854 851 849 847 845 845 845 845 847 862 867 869 875 887
    894 901 906 913 925 928 935 940 946 951 973 973 984 992 998 998 1007
    1019 0 901 901 898 896 894 889 887 887 887 885 882 882 878 875 873
    871 871 869 867 864 862 860 858 854 854 849 849 847 845 845 847 849
    862 864 871 878 887 896 898 903 913 925 928 935 943 948 951 975 975
    987 992 998 998 1004 1019 0 903 901 898 898 894 889 889 887 887 885
    882 882 880 875 873 871 871 869 867 864 862 860 858 856 854 851 849
    847 847 847 847 849 862 864 871 882 889 894 898 903 913 925 930 938
    943 946 951 975 975 987 992 998 998 1004 1019 0 0 901 901 898 896
    891 889 887 887 885 882 882 880 875 873 871 871 869 864 864 862 860
    858 856 854 851 849 847 847 847 847 849 862 864 871 885 889 894 898
    903 915 928 930 938 943 946 951 978 978 987 992 998 998 1016 1016 0
    0 901 901 898 896 894 891 889 887 885 882 882 880 875 873 871 869
    867 864 864 862 860 858 856 854 851 849 849 847 847 847 851 862 864
    871 882 889 894 898 903 918 928 930 935 940 946 954 973 978 984 992
    998 998 1013 1016 0 908 901 901 898 896 894 891 889 887 885 882 882
    882 878 873 871 869 867 864 864 862 860 858 856 854 849 849 847 847
    847 847 854 862 864 871 880 889 894 898 903 918 928 933 935 940 943
    956 973 978 981 989 998 998 1013 1016 0 903 901 901 898 896 896 891
    889 889 887 885 885 882 878 873 871 871 867 864 864 862 860 858 856
    854 849 847 847 847 847 847 854 862 867 873 880 887 894 898 906 915
    925 933 935 940 943 956 964 978 981 989 998 998 1013 1016 0 903 901
    901 898 896 896 891 889 889 887 885 885 882 878 875 873 871 869 864
    864 862 862 860 858 856 849 847 847 847 847 849 856 862 869 873 880
    887 894 898 908 915 925 933 938 943 948 962 964 978 984 992 995 1001
    1010 1016 0 906 906 901 898 896 896 891 889 889 887 885 885 882 878
    875 873 871 869 867 864 862 862 860 858 856 851 849 847 847 847 849
    854 860 871 875 882 887 894 898 906 915 925 933 938 943 948 959 973
    978 987 995 995 1004 1010 1016 0 0 906 901 901 898 896 894 891 887
    885 882 882 882 878 875 873 871 871 869 864 864 862 860 858 856 851
    849 847 847 849 849 854 860 871 878 885 887 894 901 903 913 920 928
    938 943 948 959 975 981 987 995 995 1007 1010 1013 0 908 906 903 901
    898 896 894 891 887 885 882 882 882 878 875 873 871 871 869 864 864
    862 860 858 856 851 851 847 847 849 849 854 860 871 875 882 887 894
    901 903 910 915 928 935 943 951 962 973 978 987 992 995 1007 1010
    1013 0 908 908 903 901 898 896 894 891 889 887 885 885 882 878 875
    873 871 871 869 864 864 862 860 860 856 851 851 847 847 849 849 860
    862 871 873 882 887 896 901 906 910 915 930 933 938 951 967 973 978
    987 992 995 1007 1010 1013 0 908 906 906 901 898 896 894 891 889 887
    885 885 882 880 878 875 873 871 869 864 864 862 862 858 856 854 851
    849 849 849 849 862 864 869 873 880 887 896 903 906 910 918 930 933
    938 948 970 970 975 987 992 998 1007 1010 1013 0 906 906 903 901 898
    896 894 891 889 887 885 885 882 880 878 875 873 871 869 864 864 862
    862 858 856 854 854 849 849 849 849 862 864 867 871 880 887 894 901
    906 910 920 933 933 940 948 959 970 975 987 992 998 1013 1016 1016 0
    906 906 903 901 898 896 894 891 889 887 887 887 882 880 878 875 873
    871 869 864 864 862 862 860 856 854 854 851 849 849 851 860 864 867
    871 882 889 894 901 906 910 925 935 935 940 948 959 970 978 984 992
    998 1013 1016 1016 0 906 906 903 901 898 896 896 894 889 887 887 887
    882 880 878 875 873 871 871 867 864 862 862 860 856 854 854 851 849
    849 851 860 864 867 871 880 887 896 901 903 908 928 935 938 943 951
    959 967 978 984 992 1001 1010 1016 1016 0 906 906 903 901 898 896
    896 894 889 887 887 887 882 880 878 875 873 873 871 867 864 862 862
    860 856 854 851 851 851 851 854 860 864 867 873 880 887 896 903 903
    908 928 935 938 946 951 959 967 978 984 989 1004 1010 1013 1016 0
    906 906 903 901 898 896 894 894 889 887 887 887 882 880 880 878 875
    873 871 869 864 862 862 860 856 854 851 851 851 851 854 858 864 867
    873 880 887 896 903 906 908 928 938 940 946 951 959 973 981 984 989
    1004 1013 1013 1016 0 906 906 906 903 898 896 894 894 889 887 887
    887 882 882 880 878 875 873 871 869 864 862 862 860 858 854 851 851
    851 851 854 858 862 869 875 880 887 896 903 906 908 910 938 940 946
    951 959 978 981 984 989 998 1013 1013 1016 0 906 906 906 903 898 896
    894 894 889 889 887 887 882 882 880 878 875 873 871 869 867 864 862
    860 858 854 851 851 851 851 854 858 862 867 871 882 889 896 901 906
    908 910 938 940 946 951 962 978 981 984 992 998 1013 1013 1016 0 908
    908 906 903 898 898 896 894 891 889 887 887 885 882 880 878 875 873
    871 869 867 864 862 862 860 854 851 851 851 851 854 858 862 867 871
    882 889 894 901 906 910 920 938 940 946 951 959 973 981 984 992 1001
    1010 1016 1016 0 908 908 906 906 901 898 896 894 891 889 887 887 885
    880 880 878 875 873 871 869 867 864 862 862 858 854 854 851 851 851
    854 858 862 867 873 882 889 894 901 906 913 923 938 940 946 951 959
    964 981 987 992 1001 1010 1013 1013 0 908 908 906 906 903 898 898
    896 891 889 887 887 885 880 880 878 875 873 871 869 867 864 862 860
    856 854 854 851 851 851 854 860 862 867 873 882 889 896 901 906 915
    925 938 943 948 951 959 964 978 984 995 1001 1010 1013 1013 0 908
    908 906 906 903 901 898 896 894 889 889 887 885 880 880 878 875 873
    871 871 867 864 862 860 856 854 854 854 854 854 854 856 862 869 875
    880 889 896 901 906 915 925 933 938 946 951 959 964 978 984 992 1001
    1010 1013 1013 0 908 908 906 906 903 901 898 896 894 891 889 889 885
    880 880 878 875 873 871 871 869 867 864 860 856 856 854 854 854 851
    851 854 858 869 875 880 891 898 901 903 918 928 933 933 946 951 962
    964 978 984 992 1001 1010 1013 1013 0 908 908 906 906 903 898 898
    896 896 894 889 889 885 882 880 878 875 873 873 871 869 867 864 860
    856 856 854 854 854 851 851 854 858 869 875 882 891 896 901 903 913
    928 933 933 948 954 962 964 978 984 995 1004 1010 1016 1016 0 908
    908 908 906 903 898 898 896 896 891 889 887 885 882 880 880 878 875
    873 871 869 867 864 862 856 856 856 854 854 851 851 854 858 869 875
    882 889 896 901 906 913 925 933 933 948 954 962 964 978 984 998 1004
    1013 1016 1019 1019 908 908 908 906 903 898 898 896 894 891 889 887
    885 882 882 880 878 875 873 871 869 864 864 862 856 856 856 854 854
    851 851 856 860 869 875 882 887 896 901 906 913 925 933 933 948 948
    956 964 981 989 995 1004 1010 1019 1019 1019 908 908 908 906 903 901
    898 896 894 889 887 887 885 882 882 880 880 875 873 871 869 864 864
    862 858 856 856 854 854 851 851 856 864 873 878 882 887 891 903 910
    915 925 935 943 948 948 956 964 981 987 995 1001 1010 1019 1019 1019
    908 908 908 906 903 901 898 896 894 889 887 887 885 882 882 880 878
    875 873 871 869 867 864 862 860 858 856 854 854 854 854 858 864 873
    880 882 887 891 903 910 915 925 935 943 948 948 975 975 981 984 992
    1001 1013 1019 1019 0 915 908 908 908 906 901 898 896 894 889 887
    887 885 882 882 880 878 875 873 871 871 869 864 862 860 858 856 854
    854 854 854 860 864 873 880 885 887 891 908 910 915 925 933 943 948
    948 973 973 981 984 992 1001 1013 1019 1019 0 910 910 908 908 906
    901 898 896 894 889 889 887 885 882 882 880 878 875 873 871 871 869
    867 862 860 858 856 854 854 854 854 862 867 871 878 887 889 894 906
    910 913 925 933 943 948 951 973 973 981 984 992 1001 1016 1019 1019
    0 910 910 908 908 906 901 898 896 894 891 889 887 885 882 882 880
    880 878 873 871 871 871 869 862 860 856 856 854 854 854 856 862 867
    871 875 887 889 894 906 910 910 925 933 943 948 951 964 970 981 984
    992 1001 1016 1016 1019 0 0 910 908 908 906 901 898 896 894 891 889
    889 885 882 882 880 880 878 873 871 871 869 867 862 860 856 856 854
    854 854 856 858 867 871 875 887 894 898 901 908 908 938 940 943 948
    951 959 964 981 984 995 1001 1013 1016 1019 1031 0 910 908 908 906
    903 898 896 894 889 889 889 887 885 882 880 880 878 875 873 871 869
    864 862 860 858 856 854 854 854 854 856 862 871 875 887 894 898 901
    908 908 938 938 940 946 948 959 964 984 987 995 1004 1013 1019 1025
    1028 0 910 908 908 906 903 898 898 896 889 889 889 887 882 882 880
    880 880 878 873 871 867 864 862 860 858 856 854 854 854 854 856 862
    871 878 887 891 896 901 908 910 935 935 940 943 946 962 975 984 987
    992 1004 1016 1025 1025 1028 910 910 908 908 906 903 898 898 896 891
    891 889 889 882 882 880 880 880 878 875 871 867 864 862 862 858 856
    856 854 854 854 858 862 871 878 887 891 896 901 908 910 930 933 938
    943 946 962 975 981 987 989 1004 1016 1022 1025 1031 910 910 908 908
    906 903 901 898 896 891 891 891 889 882 882 882 880 880 878 873 871
    869 864 862 860 858 856 856 854 854 854 858 862 871 875 887 891 896
    901 910 918 930 933 938 943 951 962 975 981 987 989 1004 1013 1022
    1025 1031 915 913 910 908 906 903 901 898 896 891 891 889 889 885
    882 882 880 880 875 873 871 869 867 862 860 858 856 856 854 854 854
    858 864 869 875 885 891 894 903 910 918 928 935 940 946 951 962 975
    984 987 992 1004 1013 1016 1019 1034 913 910 910 908 906 903 903 898
    896 894 894 889 889 885 882 882 880 878 875 873 871 869 867 862 860
    858 856 856 856 856 856 860 862 869 875 882 894 894 906 910 913 923
    935 940 946 954 959 975 984 992 995 1004 1010 1016 1019 1019 913 910
    910 908 906 903 903 898 896 894 894 891 889 889 885 882 880 878 875
    873 871 867 864 862 860 858 856 856 856 856 856 858 860 871 875 882
    896 898 906 910 913 923 938 943 948 954 959 975 984 992 995 1001
    1010 1019 1019 1019 915 910 910 908 908 906 903 901 896 894 894 891
    891 889 885 882 880 878 875 873 871 867 864 862 862 860 858 856 856
    856 856 858 860 871 878 885 891 901 906 910 913 925 938 943 948 954
    959 978 984 992 995 1001 1010 1019 1019 0 918 913 913 908 908 906
    903 901 896 894 894 891 891 889 885 882 880 878 875 873 873 867 864
    862 862 862 860 856 856 856 856 856 860 871 878 885 889 901 908 910
    913 925 938 943 951 954 959 978 984 992 995 1004 1013 1019 1022 1031
    918 915 913 908 908 906 903 901 896 894 894 891 891 889 885 882 882
    880 878 875 873 869 864 864 862 862 860 858 856 856 856 856 862 873
    878 882 889 898 906 910 915 925 940 946 951 954 959 962 984 992 995
    1004 1013 1019 1022 1028 918 915 913 910 908 906 903 901 896 896 896
    894 891 889 887 882 882 880 878 875 873 869 867 864 864 862 860 858
    856 856 856 858 867 873 878 882 889 898 903 908 913 933 940 946 951
    954 962 962 984 992 995 1007 1013 1019 1022 1028 918 918 913 910 908
    906 903 901 898 896 896 894 891 889 887 885 882 880 878 875 873 869
    867 867 864 862 860 858 856 856 858 860 867 873 878 882 891 898 903
    908 913 930 940 943 948 954 962 967 981 992 998 1007 1013 1022 1025
    1028 918 915 913 910 908 906 906 901 898 896 896 894 891 889 889 887
    885 880 878 875 871 869 867 867 864 862 860 858 856 856 856 858 867
    873 878 885 894 901 906 910 915 930 940 940 948 954 964 975 981 989
    995 1007 1016 1025 1025 1031 918 915 915 913 908 906 906 901 898 896
    896 894 891 889 889 887 885 882 878 875 871 869 867 867 864 862 860
    858 856 856 856 858 867 873 882 887 894 901 908 913 915 933 940 940
    948 959 967 978 981 989 995 1001 1013 1025 1028 1034 920 915 915 913
    908 906 906 903 898 896 896 894 891 889 889 885 882 882 880 875 871
    869 867 867 864 862 860 858 856 856 858 860 867 873 882 887 894 901
    910 913 915 938 940 940 951 959 964 978 981 989 998 1001 1007 1025
    1031 1034 918 915 915 913 908 906 906 903 898 896 896 894 891 891
    889 885 882 882 880 878 871 869 867 867 864 862 860 858 856 856 858
    860 869 873 882 885 894 903 910 910 915 938 940 940 951 956 964 981
    987 989 998 1001 1007 1028 1031 1031 918 915 913 913 908 906 906 901
    898 896 896 896 891 891 889 885 885 882 880 878 873 871 869 867 864
    862 860 860 858 858 858 860 869 873 880 885 894 903 908 910 915 935
    940 943 951 951 967 981 987 992 998 1001 1010 1028 1031 1031 913 913
    913 913 908 906 906 901 898 896 896 896 891 891 889 885 885 882 880
    878 873 871 869 867 864 862 862 860 858 858 858 860 869 873 878 885
    896 903 908 910 915 930 938 943 948 951 970 984 987 992 998 1004
    1010 1025 1028 1028 913 913 915 913 908 908 903 901 898 896 896 896
    894 891 889 887 885 882 880 878 873 871 869 867 864 864 862 860 858
    858 858 860 869 873 878 889 894 903 908 913 918 928 935 943 948 951
    970 981 987 992 998 1004 1013 1025 1028 1028 915 915 915 913 910 908
    901 901 898 896 896 896 894 891 889 887 887 882 880 878 873 871 871
    869 867 864 862 860 860 858 858 864 871 875 880 887 894 903 908 913
    918 925 933 940 951 954 973 978 984 987 995 1004 1013 1025 1028 0
    915 915 915 913 910 908 901 901 898 896 896 896 894 891 889 887 885
    882 880 878 873 871 871 869 867 864 862 860 860 860 860 864 871 878
    880 887 891 903 908 913 918 925 933 940 951 962 970 978 984 987 992
    1007 0 0 0 0 913 913 915 913 910 908 903 901 898 896 896 896 894 891
    889 889 885 882 880 878 875 873 871 869 867 864 862 862 860 860 860
    864 871 878 880 887 891 903 908 913 918 930 940 946 951 962 970 978
    984 984 989 0 0 0 0 0 913 913 915 915 913 908 906 903 898 898 898
    896 894 891 889 887 885 882 882 878 875 873 871 869 867 864 862 860
    860 860 860 862 867 875 880 887 891 901 906 913 920 930 940 948 956
    962 970 978 984 984 989 0 0 0 0 0 913 913 915 915 913 908 908 903
    901 898 898 896 894 891 889 887 882 882 882 878 875 873 871 869 867
    864 862 860 860 860 860 862 867 875 880 887 894 901 903 910 923 930
    940 948 959 962 967 978 984 987 0 0 0 0 0 0 913 913 913 913 910 908
    908 903 901 898 898 896 894 891 891 887 882 882 882 878 875 873 871
    869 867 864 862 860 860 860 860 864 869 878 880 889 894 901 903 910
    928 930 935 951 959 959 967 978 984 0 0 0 0 0 0 0 0 915 913 913 910
    908 908 908 901 898 898 898 896 894 891 889 885 882 882 878 875 873
    871 869 867 864 862 860 860 860 862 864 869 878 882 889 894 898 908
    910 928 930 935 948 956 956 962 0 0 0 0 0 0 0 0 0 0 915 915 913 910
    908 908 908 901 901 901 898 896 894 891 889 885 885 882 878 875 873
    873 871 867 864 862 860 858 858 862 864 871 878 882 889 894 898 908
    913 925 930 935 938 956 956 962 0 0 0 0 0 0 0 0 0 0 915 915 915 910
    908 908 906 903 901 901 898 896 891 891 889 889 885 882 878 875 873
    873 871 869 864 862 860 858 858 862 862 867 878 882 889 896 903 910
    915 920 923 935 938 954 956 0 0 0 0 0 0 0 0 0 0 0 918 918 918 915
    910 908 906 903 901 901 898 896 891 891 889 889 885 882 880 875 873
    873 871 869 864 862 862 860 860 860 862 867 875 882 889 896 903 910
    915 920 920 935 938 954 0 0 0 0 0 0 0 0 0 0 0 0 918 918 918 915 913
    908 906 903 901 901 898 896 891 889 889 887 885 882 880 875 873 873
    871 869 864 862 862 860 860 860 862 867 871 882 891 898 903 910 915
    920 920 981 981 0 0 0 0 0 0 0 0 0 0 0 0 0 915 915 918 915 913 908
    906 903 901 901 898 896 891 889 889 887 885 882 880 875 873 873 871
    869 864 864 862 862 862 862 864 867 871 887 898 901 903 910 918 920
    987 973 973 0 0 0 0 0 0 0 0 0 0 0 0 0 915 915 918 915 915 908 906
    903 901 901 898 896 891 891 889 887 885 885 882 878 873 873 871 869
    867 864 862 862 862 862 867 869 871 880 898 903 906 910 920 989 989
    973 973 0 0 0 0 0 0 0 0 0 0 0 0 0 0 918 918 918 915 908 908 903 901
    901 898 894 891 891 889 889 887 885 882 878 873 873 871 869 867 864
    862 862 862 862 867 871 873 880 889 901 906 910 992 989 989 989 0 0
    0 0 0 0 0 0 0 0 0 0 0 0 0 0 920 920 918 910 903 903 901 901 898 894
    891 891 889 889 887 885 882 878 875 873 871 871 867 864 862 862 862
    862 864 871 873 882 882 901 908 910 992 989 989 989 0 0 0 0 0 0 0 0
    0 0 0 0 0 0 0 0 0 920 918 918 903 903 901 901 898 894 891 891 889
    887 887 882 882 878 875 873 871 871 867 864 862 862 862 864 864 871
    873 882 882 882 992 992 992 989 989 0 0 0 0 0 0 0 0 0 0 0 0 0 0 0 0
    0 0 0 0 0 0 0 0 0 0 0 891 891 889 885 882 882 882 878 873 873 871
    871 869 864 864 862 862 862 864 871 873 882 882 882 992 992 992 989
    989 0 0 0 0 0 0 0 0 0 0 0 0 0 0 0 0 0 0 0 0 0 0 0 0 0 0 0 0 891 891
    885 882 882 882 878 871 871 871 871 869 864 864 862 862 862 864 869
    873 873 1028 1028 1022 1019 989 989 989 992 0 0 0 0 0 0 992 992 0 0
    0 0 0 0 0 0 0 0 0 0 0 0 0 0 0 0 0 0 0 1019 984 984 878 878 871 871
    871 871 869 864 862 862 862 862 862 869 869 1031 1028 1028 1022 1019
    1010 998 992 992 0 0 0 0 0 1001 992 992 0 0 0 0 0 0 0 0 0 0 0 0 0 0
    0 0 0 0 1016 1019 1019 1019 984 984 984 1025 1025 1019 871 871 871
    871 862 862 862 862 862 0 1031 1031 1028 1022 1019 1016 1010 998 995
    995 0 0 0 1004 1004 1001 1001 1001 0 0 0 0 0 0 0 0 0 0 0 0 0 0 0 0 0
    0 0 1016 1013 1004 984 984 984 1016 1016 1016 1016 1010 1010 1010
    1010 862 862 864 1028 1028 1031 1031 1028 1019 1016 1013 1007 998
    998 998 998 1001 1001 1001 998 998 1001 1004 1004 0 0 0 0 0 0 0 0 0
    0 0 0 0 0 0 0 0 1007 1007 1007 1004 989 989 995 995 1016 1007 1007
    1007 1007 1007 1007 1007 1010 1016 1028 1028 1028 1010 1010 1010
    1004 1004 998 995 995 995 998 1001 998 995 995 995 995 995 1001 0 0
    0 0 0 0 0 0 0 0 0 0 0 981 981 984 984 998 1004 1004 1001 1001 995
    995 995 1001 995 995 998 1001 1004 1004 998 987 984 984 984 0 989
    995 995 995 992 992 992 989 989 989 989 995 992 992 989 989 989 992
    0 0 0 0 0 0 0 0 0 0 0 0 975 975 978 978 981 984 984 998 995 995 995
    995 992 992 989 989 992 992 995 995 995 984 984 984 984 981 989 989
    989 989 989 987 984 984 984 987 987 987 987 987 984 984 987 987 987
    0 0 0 0 0 0 0 0 0 0 981 975 975 978 978 978 981 978 978 973 970 970
    975 975 975 981 981 981 984 981 978 978 981 981 981 981 981 984 984
    981 981 981 981 981 981 981 981 981 981 981 981 981 981 981 981 987
    0 0 0 0 0 0 0 0 0 0 978 975 973 973 973 973 973 973 973 967 967 967
    967 967 967 967 973 970 970 967 967 970 970 970 973 964 964 940 940
    973 970 970 970 973 975 975 975 973 973 973 973 973 975 978 981 987
    992 0 0 0 0 0 0 0 0 0 975 973 970 967 967 967 962 962 962 962 962
    962 962 962 962 962 962 962 959 959 962 962 962 962 962 959 959 940
    940 964 962 962 962 964 967 964 962 962 962 962 962 964 970 973 981
    989 989 0 0 0 0 0 0 0 0 0 975 970 967 967 967 962 959 959 956 956
    956 954 954 954 956 959 956 954 951 948 948 951 951 954 956 951 951
    951 951 951 959 959 956 956 956 956 956 956 956 956 959 962 964 973
    981 989 989 0 0 0 0 0 0 0 0 0 973 970 967 967 967 962 959 956 954
    951 951 948 948 948 948 948 948 948 946 943 943 943 943 940 940 940
    940 948 948 948 948 954 951 951 946 946 948 948 951 951 956 959 962
    967 984 989 989 0 0 0 0 0 0 0 0 0 973 970 970 967 967 962 959 956
    954 951 951 948 948 943 943 940 940 938 938 938 938 938 935 935 938
    940 940 940 940 940 940 946 946 946 940 940 940 943 943 948 951 959
    962 967 989 989 989 0 0 0 0 0 0 0 0 0 973 973 970 967 967 962 959
    956 954 951 951 948 946 943 943 940 938 938 933 933 933 930 930 930
    930 930 928 923 923 923 920 920 923 923 925 930 933 933 935 940 951
    956 956 956 989 989 0 0 0 0 0 0 0 0 0 975 975 973 970 970 970 962
    962 959 956 954 951 948 946 943 943 940 938 933 930 930 928 928 928
    928 923 920 920 918 918 918 918 918 920 920 923 928 928 930 933 935
    935 954 954 0 992 992 0 0 0 0 0 0 0 0 0 975 973 973 970 967 967 967
    962 959 959 954 951 948 948 946 943 940 938 933 930 928 928 925 923
    923 920 915 915 913 913 913 913 913 915 915 918 923 928 930 928 910
    910 954 954 0 0 0 0 0 0 2005 2005 0 0 0 0 967 967 970 970 967 967
    967 962 959 959 954 951 948 948 948 946 943 940 933 930 928 928 925
    923 920 918 915 915 913 910 910 908 908 910 910 915 920 925 930 928
    910 910 0 0 0 0 0 0 0 0 2005 2005 0 0 0 0 967 967 970 970 967 967
    967 962 959 959 954 951 951 948 948 948 948 943 938 930 928 928 925
    923 920 918 915 913 910 910 908 908 908 908 908 910 918 920 930 930
    0 0 0 0 0 0 0 0 0 0 1970 1970 0 0 0 0 0 970 970 970 967 967 967 962
    959 956 954 951 948 948 948 948 946 940 938 933 930 928 925 923 920
    918 915 913 910 910 908 908 908 908 908 910 918 920 930 0 0 0 0 0 0
    0 0 0 0 0 1970 1970 0 0 0 0 0 970 970 970 967 967 967 962 959 956
    954 951 948 948 948 943 943 940 938 933 930 928 925 923 923 918 915
    913 913 910 908 908 908 908 908 910 918 925 935 935 0 0 0 0 0 0 0 0
    0 0 1981 1981 1981 0 0 0 0 0 0 0 970 970 967 962 959 956 954 951 948
    948 946 943 940 938 938 933 930 928 928 925 923 920 918 915 913 910
    908 908 908 908 908 913 918 925 935 935 0 0 0 0 0 0 0 0 0 0</data></Depth14797>
</opencv_storage>
