<?xml version="1.0"?>
<opencv_storage>
<Depth3957 type_id="opencv-matrix">
  <rows>190</rows>
  <cols>97</cols>
  <dt>w</dt>
  <data>
    6753 6753 6753 6753 6889 6889 6753 6753 6753 6753 6889 6889 6889 0 0
    0 0 0 0 6889 6889 6889 7030 7030 7030 7030 7030 7030 7030 7030 7030
    6889 6889 6889 6889 6889 577 577 576 576 575 574 574 574 573 573 0 0
    0 0 0 0 0 0 0 0 0 0 0 6753 6622 6622 6622 6622 6497 6497 6375 6375
    6375 6375 6259 6259 6038 6038 5933 5933 5933 5933 5734 5640 5640
    5548 5548 5548 5460 5374 5374 5291 5291 5291 5210 5132 5132 5056
    4983 4983 4911 6753 6753 6753 6753 6753 6889 6753 6753 6753 6753
    6889 6889 6889 0 0 0 0 0 0 0 0 0 0 0 7178 7030 7030 7030 7030 7030
    6889 6889 6889 6889 6889 577 576 576 576 576 575 574 574 574 572 572
    0 0 0 0 0 0 0 0 0 0 0 0 0 6753 6622 6622 6622 6497 6497 6497 6497
    6375 6375 6375 6375 6259 6146 6038 5933 5933 5933 5933 5734 5734
    5640 5640 5548 5548 5460 5460 5374 5291 5291 5291 5210 5132 5132
    5056 5056 4983 4983 6753 6753 6753 6753 6753 6753 6753 6753 6753
    6753 6889 6889 6889 0 0 0 0 0 0 0 0 0 0 7178 7178 7030 7030 7030
    7030 578 578 579 579 579 577 577 576 576 576 576 575 575 577 577 572
    572 0 0 0 0 0 0 0 0 0 0 0 0 0 6753 6622 6622 6622 6497 6497 6497
    6497 6375 6375 6375 6375 6259 6146 6038 6038 5933 5933 5832 5734
    5734 5640 5640 5548 5548 5548 5460 5460 5291 5291 5291 5210 5132
    5132 5056 5056 4983 4983 6753 6753 6753 6753 6753 6753 6753 6753
    6753 6753 6889 6889 0 0 0 0 0 0 0 0 0 0 0 579 6889 6889 6889 7030
    578 578 578 579 579 579 577 577 576 576 576 576 576 576 577 0 0 0 0
    0 0 0 0 0 0 0 0 0 0 0 0 0 6622 6622 6753 6622 6622 6497 6497 6497
    6375 6375 6375 6259 6146 6038 6038 6038 6038 5832 5734 5734 5640
    5548 5548 5548 5548 5548 5460 5374 5291 5291 5210 5132 5132 5056
    5056 4983 4983 6753 6753 6753 6753 6753 6753 6753 6622 6622 6622
    6889 6889 0 0 0 0 0 0 0 0 0 0 580 579 579 579 580 580 578 578 579
    578 578 578 577 577 577 577 576 576 576 576 0 0 0 0 0 0 0 0 0 0 0 0
    0 0 0 0 0 0 6753 6753 6889 6889 6622 6622 6497 6497 6375 6375 6375
    6259 6146 6146 6038 6038 6038 5832 5734 5734 5640 5548 5548 5548
    5548 5548 5460 5374 5291 5291 5210 5210 5132 5132 5056 4983 4983
    6753 6753 6753 6753 6753 6753 6753 6622 6622 6622 6622 0 0 0 0 0 0 0
    0 0 0 0 0 580 579 579 580 580 579 578 578 577 577 578 577 577 577
    577 577 576 576 576 578 0 0 0 0 0 0 0 0 0 0 0 0 0 0 0 0 0 6889 6753
    6753 6753 6622 6622 6497 6375 6375 6375 6375 6259 6146 6146 6038
    6038 6038 5832 5734 5734 5640 5640 5640 5640 5548 5548 5460 5374
    5291 5291 5291 5210 5210 5132 5056 5056 4983 6753 6753 6753 6753
    6753 6753 6753 6753 0 0 0 0 0 0 0 585 585 0 580 580 581 581 580 580
    580 580 580 580 579 578 578 576 576 578 577 577 577 577 577 577 576
    576 578 0 0 0 0 0 0 0 0 0 0 0 0 0 0 0 0 0 0 6753 6753 6753 6622 6622
    6497 6375 6375 6375 6375 6259 6259 6146 6146 6038 6038 5832 5832
    5734 5734 5640 5640 5640 5548 5548 5460 5374 5374 5291 5291 5210
    5210 5132 5056 5056 4983 6753 6753 6753 6753 6753 6753 6753 0 585 0
    0 0 0 585 585 585 584 583 580 580 581 581 580 580 580 580 580 580
    579 579 579 576 576 578 578 578 578 577 577 577 577 577 0 0 0 0 0 0
    0 0 0 0 0 0 0 0 0 0 0 0 0 6889 6753 6753 6622 6622 6497 6375 6375
    6375 6375 6375 6259 6259 6146 6038 6038 5933 5832 5832 5832 5734
    5734 5640 5548 5548 5460 5460 5374 5291 5291 5291 5210 5210 5132
    5056 4983 6753 6753 6889 6889 6889 6889 585 585 0 0 585 585 585 585
    584 584 583 582 581 581 581 581 581 581 580 580 580 580 580 580 580
    577 577 578 578 578 578 577 577 577 577 579 579 0 0 0 0 0 0 0 0 0 0
    0 0 0 0 0 0 0 0 6622 6622 6622 6622 6622 6497 6497 6375 6375 6375
    6375 6375 6259 6259 6146 6038 5933 5933 5832 5832 5734 5734 5640
    5640 5548 5548 5548 5548 5291 5291 5291 5210 5210 5132 5056 5056
    6889 0 586 586 0 0 0 585 585 585 584 584 584 584 584 584 582 582 582
    582 582 581 581 581 580 580 581 581 580 580 580 578 578 578 578 578
    578 578 578 578 578 579 579 0 0 0 0 0 0 0 0 0 0 0 0 0 0 0 0 0 0 6622
    6622 6622 6622 6622 6497 6497 6375 6375 6375 6375 6375 6375 6259
    6146 6038 5933 5933 5933 5832 5832 5734 5640 5640 5640 5548 5548
    5548 5291 5291 5291 5210 5210 5132 5056 5056 0 0 586 586 587 587 585
    585 585 585 584 584 584 584 584 583 582 582 582 582 582 581 581 581
    581 581 581 581 580 580 580 578 578 579 579 579 579 578 578 579 579
    579 579 0 0 0 0 0 0 0 0 0 0 0 0 0 0 0 0 0 0 6622 6622 6622 6622 6622
    6497 6497 6375 6375 6375 6375 6375 6375 6259 6146 6038 5933 5933
    5933 5832 5734 5734 5640 5640 5640 5548 5548 5548 5291 5291 5291
    5210 5210 5210 5132 5056 586 586 586 586 587 587 585 585 585 586 585
    585 584 584 584 583 582 582 582 582 582 582 582 581 581 581 581 581
    580 580 580 579 579 579 579 579 579 578 578 578 578 579 578 578 0 0
    0 0 0 0 0 0 0 0 0 0 0 0 0 0 0 6622 6622 6622 6622 6622 6497 6497
    6497 6497 6497 6497 6497 6375 6146 6146 6038 5933 5933 5832 5832
    5734 5640 5640 5640 5640 5548 5548 5548 5374 5291 5291 5291 5210
    5210 5132 5056 586 586 586 586 586 585 585 585 585 585 585 585 584
    584 584 583 583 583 583 583 582 582 582 582 581 581 581 581 581 581
    580 579 579 580 580 579 579 579 579 578 578 579 578 578 0 0 0 0 0 0
    0 0 0 0 0 0 0 0 0 0 0 6753 6753 6753 6622 6622 6497 6497 6497 6497
    6497 6497 6497 6375 6146 6038 6038 5933 5933 5832 5832 5734 5640
    5640 5640 5640 5548 5548 5548 5460 5374 5291 5291 5210 5210 5132
    5056 589 587 586 586 586 585 585 585 585 585 585 585 584 584 584 584
    584 583 583 583 582 582 582 582 582 582 581 581 581 581 581 581 581
    580 579 579 579 579 579 579 579 579 578 578 0 0 0 0 0 0 0 0 0 0 0 0
    0 0 0 0 0 6889 6753 6753 6622 6622 6497 6497 6497 6497 6497 6497
    6497 6375 6259 6038 6038 5933 5933 5832 5832 5734 5640 5640 5640
    5640 5640 5548 5548 5460 5374 5291 5291 5210 5210 5132 5056 588 588
    588 586 586 585 585 585 585 585 585 585 585 585 585 584 584 584 584
    583 583 583 583 583 582 582 582 582 581 581 581 581 581 580 579 579
    580 579 579 579 579 579 579 578 578 0 0 0 0 0 0 0 0 0 0 0 0 0 0 0 0
    0 6753 6753 6753 6622 6497 6497 6497 6497 6497 6497 6375 6375 6259
    6038 6038 6038 6038 5933 5832 5832 5734 5640 5640 5640 5640 5548
    5548 5548 5460 5374 5291 5210 5210 5132 5056 588 589 588 586 586 586
    585 585 585 585 585 586 586 586 586 585 585 585 585 584 583 583 583
    583 583 583 582 582 582 582 582 582 582 581 580 580 580 579 579 580
    579 579 579 578 578 0 0 0 0 0 0 0 0 0 0 0 0 0 0 0 0 0 0 6753 6753
    6622 6622 6622 6622 6497 6497 6375 6375 6375 6259 6146 6038 6038
    6038 5933 5832 5832 5832 5734 5734 5640 5640 5640 5640 5548 5460
    5374 5291 5210 5210 5210 5132 589 589 588 587 586 586 586 585 585
    586 587 587 587 586 586 585 585 585 584 584 584 584 584 583 583 583
    582 582 582 582 582 583 581 581 580 580 580 579 579 580 580 579 579
    578 578 0 0 0 0 0 0 0 0 0 0 0 0 0 0 0 0 0 0 0 6753 6753 6753 6753
    6622 6497 6497 6375 6375 6375 6259 6146 6146 6146 6038 5933 5933
    5933 5832 5832 5734 5640 5640 5640 5548 5548 5548 5374 5291 5291
    5291 5210 5210 589 589 588 588 587 587 586 586 586 587 587 587 587
    587 587 586 585 585 584 584 584 584 584 582 582 583 583 583 583 583
    583 583 581 581 580 580 0 579 579 580 580 580 580 579 579 0 0 0 0 0
    0 0 0 0 0 0 0 0 0 0 0 0 0 6889 6753 6753 6753 6753 6753 6622 6497
    6497 6497 6375 6375 6146 6146 6146 6038 6038 5933 5933 5933 5933
    5832 5734 5640 5640 5548 5548 5460 5460 5291 5291 5291 5210 5210 591
    590 589 588 588 588 587 587 587 588 588 587 587 587 587 586 585 585
    584 584 584 584 584 582 582 583 582 582 584 584 584 584 582 582 582
    0 0 0 580 580 580 580 580 579 579 0 0 0 0 0 0 0 0 0 0 0 0 0 0 0 0 0
    0 6889 6889 6889 6753 6753 6753 6753 6622 6497 6497 6497 6259 6259
    6038 6038 6038 6038 5933 5933 5933 5933 5832 5734 5640 5640 5548
    5548 5460 5460 5374 5291 5291 5291 5210 592 591 589 589 589 588 588
    588 588 588 588 587 587 587 587 586 585 585 585 585 584 584 584 582
    582 582 581 581 584 584 584 585 585 0 0 0 0 0 0 581 581 580 580 580
    0 0 0 0 0 0 0 0 0 0 0 0 0 0 0 0 0 0 0 6889 6889 6889 6753 6753 6753
    6753 6753 6497 6497 6497 6259 6259 6038 6038 6038 6038 6038 6038
    5933 5933 5832 5734 5640 5548 5548 5548 5548 5460 5374 5291 5210
    5210 5210 0 591 590 590 589 589 589 588 588 588 588 588 588 588 588
    586 585 585 585 585 585 585 584 584 584 581 581 581 584 584 585 585
    585 0 0 0 0 0 0 0 0 0 0 0 0 0 0 0 0 0 0 0 0 0 0 0 0 0 0 0 0 0 0 6889
    6889 6753 6753 6753 6753 6753 6753 6497 6497 6497 6375 6259 6146
    6038 6038 6038 6038 5933 5933 5933 5832 5734 5640 5548 5548 5548
    5548 5460 5374 5291 5210 5210 5210 0 591 591 591 591 590 589 589 589
    589 589 588 588 588 588 586 585 585 586 586 585 585 585 585 585 585
    581 581 583 583 584 584 585 0 0 0 0 0 0 0 0 0 0 0 0 0 0 0 0 0 0 0 0
    0 0 0 0 0 0 0 0 0 0 0 6889 6753 6753 6753 6753 6753 6622 6622 6497
    6497 6375 6375 6146 6146 6038 6038 6038 5933 5933 5933 5832 5734
    5640 5548 5548 5548 5548 5460 5374 5291 5210 5210 5210 0 592 591 591
    591 591 590 589 589 589 589 589 588 588 588 587 585 585 586 586 586
    586 585 585 585 585 0 583 583 583 584 584 0 0 0 0 0 0 0 0 0 0 0 0 0
    0 0 0 0 0 0 0 0 0 0 0 0 0 0 0 0 0 0 0 0 6753 6753 6753 6753 6753
    6622 6622 6497 6497 6375 6375 6259 6146 6146 6038 6038 5933 5933
    5933 5933 5734 5640 5548 5548 5640 5548 5548 5460 5374 5291 5210
    5210 0 592 592 592 591 591 590 589 589 589 589 589 588 588 588 587
    585 585 586 586 586 586 585 585 586 0 0 0 0 0 0 0 0 0 0 0 0 0 0 0 0
    0 0 0 0 0 0 0 0 0 0 0 0 0 0 0 0 0 0 0 0 0 0 0 0 0 6753 6753 6753
    6889 6753 6622 6497 6497 6375 6375 6375 6259 6146 6146 6038 5933
    5933 5933 5933 5734 5640 5640 5640 5640 5548 5548 5460 5374 5291
    5210 5210 0 592 592 592 591 590 590 589 589 589 589 589 588 588 588
    588 588 587 587 586 586 586 585 585 587 0 0 0 0 0 0 0 0 0 0 0 0 0 0
    0 0 0 0 0 0 0 0 0 0 0 0 0 0 0 0 0 0 0 0 0 0 0 0 0 0 0 6889 6889 6889
    6889 6889 6753 6622 6497 6375 6375 6375 6375 6259 6146 6038 6038
    6038 5933 5933 5734 5640 5640 5640 5640 5640 5548 5548 5460 5374
    5291 5291 0 592 592 592 592 590 590 589 589 589 589 589 588 588 588
    588 588 587 587 587 587 587 586 586 587 0 0 0 0 0 0 0 0 0 0 0 0 0 0
    0 0 0 0 0 0 0 0 0 0 0 0 0 0 0 0 0 0 0 0 0 0 0 0 0 0 0 7030 7030 6889
    6889 6889 6753 6622 6497 6497 6375 6375 6497 6375 6146 6146 6038
    6038 5933 5933 5832 5832 5734 5640 5640 5640 5640 5548 5460 5374
    5291 5291 0 592 591 591 590 590 591 589 589 590 590 589 589 588 588
    588 588 588 587 587 588 588 588 588 588 588 0 0 0 0 0 0 0 0 0 0 0 0
    0 0 0 0 0 0 0 0 0 0 0 0 0 0 0 0 0 0 0 0 0 0 0 0 0 0 0 0 7030 7030
    6889 6889 6889 6889 6753 6497 6497 6497 6375 6375 6375 6146 6146
    6038 6038 5933 5933 5832 5832 5640 5640 5640 5640 5548 5460 5374
    5374 5291 5291 0 0 591 591 590 590 592 590 589 589 590 590 590 589
    589 589 588 588 588 588 588 588 587 587 587 588 0 0 0 0 0 0 0 0 0 0
    0 0 0 0 0 0 0 0 0 0 0 0 0 0 0 0 0 0 0 0 0 0 0 0 0 0 0 0 0 0 6889
    6889 6889 6889 6889 6889 6753 6497 6497 6497 6375 6375 6259 6146
    6146 6146 6038 6038 5933 5832 5832 5640 5640 5640 5640 5548 5460
    5374 5374 5291 5291 0 0 0 592 591 591 592 590 589 589 590 590 590
    589 589 589 589 588 588 588 588 588 587 587 587 0 0 0 0 0 0 0 0 0 0
    0 0 0 0 0 0 0 0 0 0 0 0 0 0 0 0 0 0 0 0 0 0 0 0 0 0 0 0 0 0 0 6889
    6889 6889 6889 6889 6753 6497 6497 6497 6497 6497 6375 6259 6146
    6146 6146 6038 6038 5933 5832 5832 5640 5640 5640 5640 5548 5460
    5374 5374 5291 5291 0 0 0 0 591 591 592 591 591 591 590 590 590 590
    589 589 589 589 589 588 588 588 588 0 0 0 0 0 0 0 0 0 0 0 0 0 0 0 0
    0 0 0 0 0 0 0 0 0 0 0 0 0 0 0 0 0 0 0 0 0 0 0 0 0 0 0 0 6889 6753
    6753 6889 6753 6497 6497 6497 6497 6497 6375 6259 6259 6146 6146
    6146 6038 5933 5832 5832 5734 5640 5640 5548 5548 5548 5460 5374
    5291 5291 0 0 0 0 592 592 592 591 591 591 590 590 590 591 590 590
    589 589 589 588 588 588 588 0 0 0 0 0 0 0 0 0 0 0 0 0 0 0 0 0 0 0 0
    0 0 0 0 0 0 0 0 0 0 0 0 0 0 0 0 0 0 0 0 0 0 0 0 6889 6753 6753 6889
    6889 6622 6497 6497 6497 6497 6375 6259 6259 6259 6146 6146 6038
    6038 6038 5933 5832 5640 5640 5548 5548 5548 5460 5460 5374 5291 0 0
    0 0 594 593 593 592 592 592 591 591 591 591 591 590 589 589 589 588
    588 588 588 588 0 0 0 0 0 0 0 0 0 0 0 0 0 0 0 0 0 0 0 0 0 0 0 0 0 0
    0 0 0 0 0 0 0 0 0 0 0 0 0 0 0 0 0 0 6889 6889 6889 6889 6622 6497
    6497 6497 6497 6497 6375 6259 6259 6259 6259 6146 6038 6038 5933
    5832 5640 5640 5548 5548 5548 5548 5460 5460 5374 0 0 0 0 594 593
    593 593 0 591 591 592 592 592 592 592 590 589 589 589 589 588 588
    588 0 0 0 0 0 0 0 0 0 0 0 0 0 0 0 0 0 0 0 0 0 0 0 0 0 0 0 0 0 0 0 0
    0 0 0 0 0 0 0 0 0 0 0 0 0 6889 6753 6753 6753 6497 6497 6497 6497
    6497 6375 6259 6146 6146 6259 6038 6038 6038 5933 5832 5734 5640
    5548 5548 5548 5548 5460 5460 5374 0 0 0 0 0 0 0 0 0 591 591 592 592
    592 592 592 590 590 589 589 589 589 588 588 591 0 0 0 0 0 0 0 0 0 0
    0 0 0 0 0 0 0 0 0 0 0 0 0 0 0 0 0 0 0 0 0 0 0 0 0 0 0 0 0 0 0 0 0 0
    6889 6753 6753 6753 6753 6622 6497 6497 6497 6375 6259 6146 6146
    6259 6038 6038 6038 5933 5933 5734 5640 5640 5548 5548 5548 5548
    5460 5374 0 0 0 0 0 0 0 0 0 0 593 593 592 592 592 592 590 590 590
    589 589 589 589 590 591 591 0 0 0 0 0 0 0 0 0 0 0 0 0 0 0 0 0 0 0 0
    0 0 0 0 0 0 0 0 0 0 0 0 0 0 0 0 0 0 0 0 0 0 0 6753 6753 6753 6753
    6753 6622 6497 6497 6497 6375 6375 6259 6259 6259 6259 6038 6038
    5933 5933 5734 5640 5640 5640 5640 5640 5548 5460 5374 0 0 0 0 0 0 0
    0 0 0 0 593 593 592 592 592 590 590 590 589 589 590 591 591 591 591
    0 0 0 0 0 0 0 0 0 0 0 0 0 0 0 0 0 0 0 0 0 0 0 0 0 0 0 0 0 0 0 0 0 0
    0 0 0 0 0 0 0 0 0 6753 6753 6753 6753 6753 6622 6622 6497 6497 6375
    6375 6259 6259 6146 6146 6038 6038 5933 5832 5734 5734 5640 5640
    5640 5640 5548 5460 5460 0 0 0 0 0 0 0 0 0 0 0 593 593 592 592 592
    591 591 590 590 590 591 591 592 592 0 0 0 0 0 0 0 0 0 0 0 0 0 0 0 0
    0 0 0 0 0 0 0 584 584 0 0 0 0 0 0 0 0 0 0 0 0 0 0 0 0 0 0 0 6889
    6889 6889 6753 6753 6622 6497 6497 6497 6497 6375 6259 6259 6146
    6146 6038 6038 5933 5832 5734 5734 5734 5640 5640 5640 5640 5548
    5460 0 0 0 0 0 0 0 0 0 0 0 0 593 593 592 592 592 592 592 592 592 591
    591 592 592 0 0 0 0 0 0 0 0 0 0 0 0 0 0 0 0 0 0 0 0 0 0 0 584 584 0
    0 0 0 0 0 0 0 0 0 0 0 0 0 0 0 0 0 0 7030 7030 6889 6889 6753 6622
    6497 6497 6497 6497 6375 6375 6259 6259 6259 6146 6038 5933 5832
    5832 5832 5734 5734 5640 5640 5640 5548 5460 0 0 0 0 0 0 0 0 0 0 0 0
    593 593 593 593 592 592 592 592 592 591 591 591 592 0 0 0 0 0 0 0 0
    0 0 0 0 0 0 0 0 0 0 0 0 0 0 0 584 584 584 0 0 0 0 0 0 0 0 0 0 0 0 0
    0 0 0 0 0 7030 7030 6889 6889 6753 6622 6497 6497 6497 6375 6375
    6375 6259 6259 6259 6146 6038 5933 5933 5832 5832 5734 5640 5640
    5640 5640 5548 5548 0 0 0 0 0 0 0 0 0 0 0 0 0 593 593 593 593 592
    592 592 592 591 591 591 0 0 0 0 0 0 0 0 0 0 0 0 0 0 0 0 0 0 0 0 0 0
    0 0 584 584 584 0 0 0 0 0 0 0 0 0 0 0 0 0 0 0 0 0 0 7030 6889 6889
    6889 6753 6622 6497 6497 6497 6375 6375 6375 6375 6259 6259 6146
    6038 6038 5933 5832 5832 5640 5640 5640 5640 5640 5548 5548 0 0 0 0
    0 0 0 0 0 0 0 0 0 593 593 593 593 593 592 592 592 591 591 592 0 0 0
    0 0 0 0 0 0 0 0 0 0 0 0 0 0 0 0 0 0 0 0 0 586 586 586 0 0 0 0 0 0 0
    0 0 0 0 0 0 0 0 0 0 0 0 6889 6889 6889 6889 6622 6622 6497 6497 6497
    6497 6375 6375 6259 6259 6146 6038 6038 5933 5933 5832 5640 5640
    5640 5640 5640 5548 5548 0 0 0 0 0 0 0 0 0 0 0 0 0 0 593 593 593 593
    593 592 591 591 591 591 0 0 0 0 0 0 0 0 0 0 0 0 0 0 0 0 0 0 0 0 0 0
    0 586 586 586 585 585 0 0 0 0 0 0 0 0 0 0 0 0 0 0 0 0 0 0 6889 6889
    6889 6889 6889 6753 6622 6497 6497 6497 6375 6375 6375 6259 6146
    6038 6038 5933 5933 5832 5640 5640 5640 5640 5640 5548 5548 0 0 0 0
    0 0 0 0 0 0 0 0 0 0 593 593 593 593 593 592 591 591 591 591 592 592
    592 591 591 589 589 0 0 0 0 0 0 0 0 0 0 0 0 0 0 588 587 586 586 586
    585 585 0 0 0 0 0 0 0 0 0 0 0 0 0 0 0 0 0 0 6889 6889 6889 6889 6889
    6889 6622 6622 6497 6497 6375 6375 6375 6259 6146 6146 6038 6038
    5933 5832 5734 5734 5640 5640 5640 5548 5548 0 0 0 0 0 0 0 0 0 0 0 0
    0 0 593 593 593 593 593 592 592 592 592 591 591 591 592 591 591 589
    589 589 588 588 589 589 589 0 0 0 0 0 0 0 589 588 587 587 586 585
    585 0 0 0 0 0 0 0 0 0 0 0 0 0 0 0 0 0 0 0 6889 6889 6889 6889 6889
    6889 6753 6622 6497 6497 6375 6375 6375 6259 6146 6146 6146 6038
    6038 5933 5832 5734 5640 5640 5640 5548 5548 0 0 0 0 0 0 0 0 0 0 0 0
    0 0 593 593 593 593 594 593 592 592 592 591 591 591 592 590 590 590
    589 589 588 588 589 589 589 589 589 589 0 0 0 0 589 588 588 588 586
    585 585 586 0 0 0 0 0 0 0 0 0 0 0 0 0 0 0 0 0 0 0 6753 6753 6889
    6889 6889 6753 6622 6497 6497 6375 6375 6375 6259 6259 6259 6146
    6038 6038 5933 5832 5734 5640 5640 5640 5640 5640 0 0 0 0 0 0 0 0 0
    0 0 0 0 0 594 594 594 594 593 593 593 593 593 593 592 592 591 590
    590 592 592 589 589 589 591 590 590 589 589 589 0 0 0 590 589 589
    589 588 586 586 586 586 0 0 0 0 0 0 0 0 0 0 0 0 0 0 0 0 0 0 0 6753
    6753 6889 6889 6753 6753 6622 6497 6497 6375 6375 6375 6259 6259
    6259 6146 6038 6038 5933 5933 5832 5734 5734 5640 5640 5640 0 0 0 0
    0 0 0 0 0 0 0 0 0 0 593 593 594 594 593 593 593 593 593 593 592 592
    591 591 591 592 592 589 589 589 591 591 591 590 589 589 590 590 589
    589 589 589 589 588 586 586 586 587 588 0 0 0 0 0 0 0 0 0 0 0 0 0 0
    0 0 0 0 0 6889 6753 6753 6753 6753 6753 6622 6622 6497 6375 6375
    6259 6259 6259 6146 6038 6038 6038 6038 5933 5933 5734 5640 5640
    5548 0 0 0 0 0 0 0 0 0 0 0 0 0 596 593 593 595 595 593 593 593 593
    593 593 592 592 592 591 591 592 592 592 590 590 592 591 591 590 589
    589 589 589 589 589 589 589 589 588 588 587 587 587 588 0 0 0 0 0 0
    0 0 0 0 0 0 0 0 0 0 0 0 0 6889 6753 6753 6753 6753 6753 6622 6622
    6497 6497 6375 6375 6375 6259 6259 6038 6038 6038 6038 5933 5933
    5734 5640 5548 5548 0 0 0 0 0 0 0 0 0 0 0 0 0 596 595 595 595 595
    593 593 593 593 593 593 593 593 592 592 592 592 592 592 591 591 592
    592 592 592 592 591 589 589 590 590 589 589 589 589 589 588 588 588
    588 588 0 0 0 0 0 0 0 0 0 0 0 0 0 0 0 0 0 0 6889 6889 6889 6753 6753
    6753 6622 6622 6622 6497 6497 6375 6375 6259 6146 6038 6038 6038
    5933 5933 5832 5734 5640 5548 5548 0 0 0 0 0 0 0 0 0 0 0 0 0 596 595
    595 596 596 595 593 593 594 594 594 593 593 593 593 592 592 592 592
    592 592 592 592 592 592 591 591 591 591 590 590 589 589 589 589 589
    588 588 588 588 588 0 0 0 0 0 0 0 0 0 0 0 0 0 0 0 0 0 0 6889 6889
    6889 6753 6753 6753 6622 6622 6622 6497 6497 6375 6375 6259 6038
    6038 6038 6038 5933 5933 5832 5734 5640 5640 5548 0 0 0 0 0 0 0 0 0
    0 0 598 598 596 596 596 596 596 596 595 595 595 594 594 595 594 593
    593 593 593 593 593 592 592 592 592 592 592 591 591 591 591 590 590
    590 590 590 590 589 589 589 589 589 589 589 0 0 0 0 0 0 0 0 0 0 0 0
    0 0 0 0 0 6889 6889 6889 6753 6753 6753 6622 6622 6622 6497 6497
    6497 6375 6259 6038 6038 6038 6038 5933 5933 5832 5734 5640 5640
    5640 0 0 0 0 0 0 0 0 0 0 0 598 598 597 597 597 597 597 596 596 596
    595 595 595 595 594 593 593 593 593 593 593 592 592 592 592 592 592
    591 591 591 591 590 590 590 590 591 590 589 589 589 589 589 589 589
    0 0 0 0 0 0 0 0 0 0 0 0 0 0 0 0 0 6889 6889 6889 6753 6753 6753 6622
    6622 6622 6497 6497 6497 6375 6259 6146 6146 6038 6038 5933 5933
    5933 5734 5640 5640 5640 0 0 0 0 0 0 0 0 0 0 0 598 598 598 598 597
    597 597 597 597 596 595 595 594 594 595 593 593 594 594 593 593 592
    592 593 592 592 592 592 591 591 591 591 591 590 590 590 590 589 589
    589 589 589 589 589 0 0 0 0 0 0 0 0 0 0 0 0 0 0 0 0 0 7030 7030 6889
    6889 6753 6753 6753 6622 6497 6497 6497 6375 6375 6146 6038 6038
    6038 6038 6038 5933 5832 5832 5640 5640 5640 0 0 0 0 0 0 0 0 0 0 597
    597 599 598 598 598 598 597 597 597 596 595 595 594 594 595 595 594
    594 594 593 593 593 593 593 593 593 592 592 592 591 591 591 591 590
    590 590 590 589 589 589 589 589 589 589 590 0 0 0 0 0 0 0 0 0 0 0 0
    0 0 0 0 0 7030 7030 6889 6889 6753 6753 6622 6497 6497 6497 6375
    6375 6146 6038 6038 6038 5933 5933 5933 5832 5832 5734 5640 5640 0 0
    0 0 0 0 0 0 0 0 596 596 599 598 598 598 598 597 597 597 596 596 596
    595 595 596 596 595 595 595 594 593 593 593 593 593 592 592 592 592
    592 592 592 592 591 591 590 590 589 589 589 589 589 589 589 589 590
    0 0 0 0 0 0 0 0 0 0 0 0 0 0 0 0 7030 7030 7030 7030 6889 6889 6622
    6497 6497 6497 6497 6375 6146 6038 6038 5933 5933 5933 6038 5933
    5832 5640 5640 5640 0 0 0 0 0 0 0 0 0 0 596 596 599 599 599 598 597
    597 597 597 596 596 596 596 596 596 596 595 595 595 594 593 593 593
    593 593 592 592 592 593 593 593 592 592 592 592 591 591 590 590 591
    590 589 589 589 589 590 0 0 0 0 0 0 0 0 0 0 0 0 0 0 0 0 0 7030 7030
    7030 6889 6889 6497 6497 6497 6622 6497 6497 6038 6038 6038 5933
    5933 5933 5933 5933 5832 5640 5640 5640 0 0 0 0 0 0 0 0 0 0 0 599
    599 599 599 598 597 597 597 597 597 597 597 596 596 596 596 595 595
    595 595 594 594 594 594 593 592 592 593 593 593 593 593 592 592 592
    591 591 591 592 592 591 591 591 590 590 591 0 0 0 0 0 0 0 0 0 0 0 0
    0 0 0 0 0 7030 7030 6889 6889 6753 6497 6497 6497 6622 6497 6497
    6038 6038 6038 6038 6038 5933 5933 5832 5832 5734 5640 5640 0 0 0 0
    0 0 0 0 0 0 0 0 599 599 599 599 599 598 597 597 597 597 597 597 597
    595 595 595 595 595 596 595 594 594 595 595 593 593 593 593 593 593
    593 592 592 592 592 592 592 592 592 592 591 591 590 590 591 0 0 0 0
    0 0 0 0 0 0 0 0 0 0 0 0 0 7030 6889 6889 6889 6753 6622 6622 6622
    6497 6497 6375 6259 6259 6259 6259 6146 6038 5933 5832 5832 5734
    5734 5640 0 0 0 0 0 0 0 0 0 0 0 0 600 600 600 599 599 598 597 597
    597 597 597 597 597 595 595 595 595 596 596 595 595 595 595 595 594
    594 593 593 593 593 593 592 592 592 592 592 592 592 592 592 592 591
    591 591 592 592 0 0 0 0 0 0 0 0 0 0 0 0 0 0 0 0 7030 6889 6889 6889
    6753 6753 6622 6622 6497 6497 6375 6259 6259 6259 6259 6259 6038
    5933 5832 5832 5734 5734 5734 0 0 0 0 0 0 0 0 0 0 0 0 0 600 600 599
    599 598 598 598 598 598 597 597 597 596 596 595 595 596 596 596 596
    595 595 595 595 595 594 593 593 593 593 593 593 593 593 593 593 592
    592 592 592 591 591 591 591 592 0 0 0 0 0 0 0 0 0 0 0 0 0 0 0 0 0
    7030 6889 6889 6889 6753 6753 6622 6622 6497 6497 6375 6259 6259
    6375 6259 6038 5933 5933 5933 5933 5933 5832 0 0 0 0 0 0 0 0 0 0 0 0
    0 601 600 600 599 598 598 598 598 598 598 598 597 597 597 596 596
    596 596 596 596 596 596 596 595 595 594 593 593 593 593 593 593 593
    593 593 593 592 592 592 592 592 591 591 591 592 592 0 0 0 0 0 0 0 0
    0 0 0 0 0 0 0 0 6889 6889 6889 6889 6753 6753 6622 6622 6497 6497
    6375 6375 6375 6375 6146 6038 6038 5933 5933 5933 5933 5832 0 0 0 0
    0 0 0 0 0 0 0 0 0 601 600 600 599 598 598 598 598 598 599 599 597
    597 597 597 597 596 596 596 596 596 596 596 595 595 594 594 594 594
    594 594 593 593 593 593 593 592 592 592 592 592 592 592 592 591 591
    0 0 0 0 0 0 0 0 0 0 0 0 0 0 0 0 6889 6889 6889 6889 6753 6753 6753
    6622 6622 6497 6375 6375 6259 6259 6146 6038 6038 6038 5933 5933
    5933 5832 0 0 0 0 0 0 0 0 0 0 0 0 0 601 601 600 599 599 599 598 598
    598 599 599 598 597 597 597 597 597 597 597 597 596 596 596 595 595
    595 594 594 594 594 594 594 594 594 594 593 593 593 592 592 592 591
    591 592 591 591 592 0 0 0 0 0 0 0 0 0 0 0 0 0 0 0 6889 6889 6889
    6889 6753 6753 6753 6622 6622 6497 6375 6375 6259 6259 6146 6146
    6038 6038 5933 5933 5832 5832 0 0 0 0 0 0 0 0 0 0 0 0 0 601 600 600
    599 599 599 599 599 600 600 599 598 597 597 597 597 597 597 597 597
    597 596 596 595 595 595 595 595 595 594 594 594 594 595 594 594 593
    593 593 592 592 591 591 592 592 592 592 593 0 0 0 0 0 0 0 0 0 0 0 0
    0 0 6889 6889 6753 6753 6753 6622 6622 6497 6497 6375 6375 6375 6375
    6259 6146 6146 6038 6038 5933 5933 5832 5832 0 0 0 0 0 0 0 0 0 0 0 0
    0 600 600 600 600 600 599 599 600 600 600 600 599 598 597 597 597
    597 597 597 597 597 597 596 595 595 595 594 594 595 595 594 594 595
    595 595 594 593 593 593 593 592 592 592 592 592 592 592 592 594 0 0
    0 0 0 0 0 0 0 0 0 0 0 0 6889 6622 6622 6753 6622 6622 6497 6497 6375
    6375 6375 6259 6146 6038 6038 6038 6038 5933 5933 5832 5832 0 0 0 0
    0 0 0 0 0 0 0 0 0 600 600 600 600 600 599 599 600 600 600 599 599
    598 598 598 597 597 597 598 598 597 597 596 596 595 594 594 594 595
    595 595 595 595 595 595 594 593 593 593 593 592 592 592 592 592 592
    592 592 594 590 590 0 0 0 0 0 0 0 0 0 0 0 0 0 6622 6622 6753 6753
    6622 6497 6375 6375 6375 6259 6146 6146 6038 6038 6038 5933 5933
    5933 5832 5832 0 0 0 0 0 0 0 0 0 0 0 0 0 0 601 601 601 601 600 600
    600 600 600 599 599 599 599 598 598 598 598 598 598 597 597 597 596
    595 594 594 594 595 596 596 595 595 595 595 594 594 593 593 593 593
    593 592 592 592 593 593 593 593 590 590 592 0 0 0 0 0 0 0 0 0 0 0 0
    0 0 6753 6753 6753 6497 6375 6259 6259 6146 6146 6146 6038 6038 6038
    5933 5933 5832 5832 5832 0 0 0 0 0 0 0 0 0 0 0 0 0 0 602 602 602 601
    601 601 600 600 600 600 600 600 599 599 599 598 598 597 597 597 597
    597 596 596 596 596 596 596 596 596 595 595 595 595 594 594 593 593
    594 593 593 593 593 593 593 593 593 593 591 591 592 0 0 0 0 0 0 0 0
    0 0 0 0 0 0 4463 4463 4405 4405 4405 4405 4405 4241 4241 6146 6038
    6038 6038 5933 5933 5832 5832 5832 0 0 0 0 0 0 0 0 0 0 0 0 0 0 0 603
    603 602 601 601 601 601 601 600 600 600 599 599 599 598 598 597 597
    598 597 597 597 597 597 596 596 596 596 596 596 595 595 595 594 594
    594 594 594 594 594 593 593 593 593 593 593 593 591 591 591 0 0 0 0
    0 0 0 0 0 0 0 0 0 4522 4463 4463 4405 4405 4349 4349 4295 4241 4241
    4241 4241 4241 4241 4190 4190 4089 4089 3994 0 0 0 0 0 0 0 0 0 0 0 0
    0 0 0 604 603 603 602 601 601 601 601 601 600 600 599 599 599 599
    599 599 598 598 598 598 597 597 597 597 597 596 596 596 596 595 595
    595 594 594 594 594 594 595 594 594 594 594 594 594 594 594 592 591
    591 0 0 0 0 0 0 0 0 0 0 0 0 4582 4522 4463 4463 4405 4405 4349 4349
    4295 4295 4241 4241 4241 4241 4241 4190 4041 4041 4041 3994 0 0 0 0
    0 0 0 0 0 0 0 0 0 0 0 604 603 603 603 601 601 601 601 601 601 600
    600 600 600 600 599 599 599 599 598 598 598 598 598 599 597 597 596
    596 596 595 595 595 595 594 594 595 595 595 595 595 595 594 593 593
    594 594 593 593 592 592 0 0 0 0 0 0 0 0 0 0 0 4582 4582 4582 4463
    4463 4405 4349 4349 4295 4295 4295 4241 4241 4190 4139 4139 4041
    4041 4041 3994 0 0 0 0 0 0 0 0 0 0 0 0 0 0 0 604 603 603 603 601 601
    601 601 601 601 601 601 601 601 600 600 599 599 599 598 598 598 598
    598 598 597 597 597 597 597 597 596 596 596 595 595 595 595 595 595
    594 594 593 593 593 594 594 593 593 592 592 0 0 0 0 0 0 0 0 0 0 0
    4582 4582 4645 4582 4522 4405 4405 4405 4349 4295 4295 4241 4241
    4190 4139 4089 4041 4041 4041 3994 0 0 0 0 0 0 0 0 0 0 0 0 0 0 0 604
    603 603 603 601 601 601 601 601 602 602 601 601 601 600 600 599 599
    599 599 599 599 598 598 598 597 597 597 597 597 598 597 597 597 596
    596 596 596 596 595 594 593 593 593 593 593 594 594 593 592 592 0 0
    0 0 0 0 0 0 0 0 0 4582 4582 4645 4582 4522 4522 4463 4405 4405 4349
    4295 4241 4241 4190 4139 4089 4041 4041 4041 3994 0 0 0 0 0 0 0 0 0
    0 0 0 0 0 0 0 603 603 603 602 601 601 601 602 602 602 601 601 601
    601 601 600 600 599 599 599 599 599 598 598 597 597 597 597 597 598
    598 597 597 596 596 596 596 596 596 594 593 593 593 593 593 594 594
    594 593 592 592 0 0 0 0 0 0 0 0 0 0 4582 4582 4645 4582 4582 4522
    4463 4463 4405 4349 4295 4295 4241 4190 4139 4139 4089 4041 4041
    3994 0 0 0 0 0 0 0 0 0 0 0 0 0 0 0 0 603 603 603 603 602 602 602 602
    602 602 602 601 601 601 601 600 600 599 599 599 599 599 598 598 597
    597 597 597 597 598 598 598 597 597 597 597 597 597 596 595 594 594
    594 594 594 594 595 596 593 592 592 0 0 0 0 0 0 0 0 0 0 0 4645 4645
    4645 4582 4582 4522 4463 4463 4405 4349 4295 4241 4190 4190 4190
    4139 4089 4041 3994 0 0 0 0 0 0 0 0 0 0 0 0 0 0 0 0 604 604 604 604
    603 603 603 602 602 602 602 601 601 601 601 600 600 600 600 600 600
    599 599 599 598 598 598 598 598 598 599 598 598 598 598 597 597 597
    596 596 595 594 594 595 595 596 596 596 595 594 594 0 0 0 0 0 0 0 0
    0 0 0 0 0 4645 4645 4645 4582 4522 4463 4405 4405 4349 4241 4190
    4190 4190 4190 4089 4041 4041 6889 0 0 0 0 0 0 0 0 0 0 0 0 0 0 0 0
    604 604 604 604 604 603 603 602 602 602 602 602 601 601 601 601 601
    600 600 600 600 600 600 599 599 599 599 599 599 599 598 598 598 597
    597 597 597 597 596 595 595 595 595 596 596 596 596 596 596 596 0 0
    0 0 0 0 0 0 0 0 0 0 0 0 0 0 4645 4645 4463 4405 4405 4405 4295 4190
    4190 4190 4190 4089 4089 4041 6753 0 0 0 0 0 0 0 0 0 0 0 0 0 0 0 0
    606 606 604 604 604 604 603 603 603 603 603 603 601 601 601 601 601
    601 601 600 600 600 600 600 600 599 599 599 599 599 599 599 599 597
    597 598 597 597 597 596 596 596 596 596 596 596 596 596 596 596 596
    0 0 0 0 0 0 0 0 0 0 0 0 0 0 0 0 0 0 4405 4405 4463 0 0 4190 4190
    4190 4089 4089 4041 6753 6753 0 0 0 0 0 0 0 0 0 0 0 0 0 0 0 606 606
    606 604 604 604 603 603 603 604 604 603 601 601 601 601 601 601 601
    601 600 600 601 600 600 600 600 599 599 599 599 598 598 598 598 598
    597 597 597 596 596 596 596 597 597 596 596 596 596 596 596 596 0 0
    0 0 0 0 0 0 0 0 0 0 0 0 0 0 0 0 0 0 0 0 0 0 0 0 0 4089 6753 6753 0 0
    0 0 0 0 0 0 0 0 0 0 0 0 0 607 606 606 604 604 604 604 604 604 604
    604 603 602 601 601 602 601 601 601 601 600 600 601 601 601 600 600
    599 599 599 599 598 598 598 598 598 598 597 597 597 597 597 597 597
    597 597 597 597 596 596 596 596 0 0 0 0 0 0 0 0 0 0 0 0 0 0 0 0 0 0
    0 0 0 0 0 0 0 0 0 0 6889 6889 0 0 0 0 0 0 0 0 0 0 0 0 0 0 0 0 606
    606 606 606 604 604 604 604 604 604 603 602 602 602 602 602 601 601
    601 601 601 601 601 601 600 600 599 599 599 599 598 598 599 599 598
    598 598 598 598 597 597 597 597 597 597 597 597 597 597 596 596 0 0
    0 0 0 0 0 0 0 0 0 0 0 0 0 0 0 0 0 0 0 0 0 0 0 0 0 0 6753 0 0 0 0 0 0
    0 0 0 0 0 0 0 0 0 0 0 607 607 606 606 606 606 606 606 604 604 604
    603 603 603 603 603 602 602 602 601 601 602 601 601 601 600 600 600
    600 600 600 600 600 599 599 599 599 599 599 598 597 597 597 597 598
    597 597 597 597 597 597 0 0 0 0 0 0 0 0 0 0 0 0 0 0 0 0 0 0 0 0 0 0
    0 0 0 0 0 0 6038 6038 0 0 0 0 0 0 0 0 0 0 0 0 0 0 0 0 0 607 607 606
    606 606 606 606 606 604 604 604 603 603 603 603 603 603 602 601 601
    601 601 601 601 601 601 600 600 600 600 600 600 600 600 600 600 600
    600 599 599 598 597 597 598 597 597 597 597 597 597 0 0 0 0 0 0 0 0
    0 0 0 0 0 0 0 0 0 0 0 0 0 0 0 0 0 0 0 0 5933 5933 5933 0 0 0 0 0 0 0
    0 0 0 0 0 0 0 0 0 609 608 607 607 607 606 606 606 604 604 604 604
    604 604 604 603 603 603 602 602 601 601 601 601 601 601 601 601 601
    601 600 600 600 600 600 600 600 600 599 599 598 598 598 598 598 597
    597 597 598 598 0 0 0 0 0 0 0 0 0 0 0 0 0 0 0 0 0 0 0 0 0 0 0 0 0 0
    0 0 5832 5832 5832 5832 0 0 0 0 0 0 0 0 0 0 0 0 0 0 0 0 608 608 608
    607 607 607 606 606 606 604 604 604 604 604 604 603 603 602 602 601
    601 601 601 601 601 601 601 601 601 601 601 601 600 600 600 600 600
    599 599 598 598 598 599 599 598 598 598 598 598 599 0 0 0 0 0 0 0 0
    0 0 0 0 0 0 0 0 0 0 0 0 0 0 0 0 0 0 0 5832 5832 5734 5734 0 0 0 0 0
    0 0 0 0 0 0 0 0 0 0 0 609 609 608 608 608 607 606 606 606 606 606
    604 604 604 604 604 603 603 603 603 603 602 602 601 601 601 601 601
    601 601 601 600 600 600 600 600 600 600 599 599 599 599 600 599 598
    598 598 598 598 599 0 0 0 0 0 0 0 0 0 0 0 0 0 0 0 0 0 0 0 0 0 0 0 0
    0 0 0 5832 5832 5734 5734 0 0 0 0 0 0 0 0 0 0 0 0 0 0 0 0 609 609
    609 608 608 607 606 606 606 606 606 606 606 606 604 604 604 603 603
    603 603 603 602 601 601 601 601 602 601 601 601 600 600 600 600 600
    600 600 600 599 599 600 600 599 599 599 599 599 598 598 598 0 0 0 0
    0 0 0 0 0 0 0 0 0 0 0 0 0 0 0 0 0 0 0 0 0 0 5832 5832 5832 5832 0 0
    0 0 0 0 0 0 0 0 0 0 0 0 0 0 0 609 609 609 609 608 607 607 607 607
    606 606 606 606 606 604 604 604 604 604 604 604 603 602 602 602 602
    602 602 601 601 601 601 601 600 600 600 600 600 600 600 600 600 599
    599 599 599 599 598 598 598 0 0 0 0 0 0 0 0 0 0 0 0 0 0 0 0 0 0 0 0
    0 0 0 0 0 0 5832 5832 5832 0 0 0 0 0 0 0 0 0 0 0 0 0 0 0 0 0 0 609
    609 609 609 608 608 607 607 607 606 606 606 606 606 606 606 606 606
    604 604 604 604 603 603 602 602 603 602 601 601 601 601 601 601 601
    601 601 601 601 600 600 599 599 599 599 599 599 599 599 600 0 0 0 0
    0 0 0 0 0 0 0 0 0 0 0 0 0 0 0 0 0 0 0 0 0 0 5832 5832 0 0 0 0 0 0 0
    0 0 0 0 0 0 0 0 0 0 0 0 610 609 609 609 608 608 608 608 607 607 607
    607 606 606 606 606 606 606 606 604 604 604 604 604 603 603 604 604
    603 603 602 602 602 601 601 601 601 601 601 600 600 599 599 600 600
    600 600 599 599 600 600 0 0 0 0 0 0 0 0 0 0 0 0 0 0 0 0 0 0 0 0 0 0
    0 0 0 0 0 0 0 0 0 0 0 0 0 0 0 0 0 0 0 0 0 0 0 0 610 609 609 609 609
    608 608 608 607 607 606 606 606 606 607 606 606 606 606 606 604 604
    604 604 604 604 604 604 603 603 602 602 603 602 601 601 601 602 602
    601 600 600 600 600 600 600 600 600 600 599 599 0 0 0 0 0 0 0 0 0 0
    0 0 0 0 0 0 0 0 0 0 0 0 0 0 0 0 0 0 0 0 0 0 0 0 0 0 0 0 0 0 0 0 0 0
    0 0 610 610 610 609 609 609 609 608 608 607 606 606 606 606 606 606
    606 606 606 606 606 606 606 604 604 604 604 604 604 603 603 603 603
    603 602 602 602 603 603 602 601 601 600 600 600 600 600 600 600 599
    599 0 0 0 0 0 0 0 0 0 0 0 0 0 0 0 0 0 0 0 0 0 0 0 0 0 0 0 0 0 0 0 0
    0 0 0 0 0 0 0 0 0 0 0 0 0 0 0 610 610 610 609 609 609 609 608 607
    607 607 606 606 606 606 606 606 606 606 606 606 606 604 604 604 604
    604 604 604 604 604 604 603 603 603 603 603 603 603 601 601 601 600
    600 601 601 601 600 600 600 0 0 0 0 0 0 0 0 0 0 0 0 0 0 0 0 0 0 0 0
    0 0 0 0 0 0 0 0 0 0 0 0 0 0 0 0 0 0 0 0 0 0 0 0 0 0 0 611 610 610
    609 609 609 609 609 608 608 608 607 607 607 606 606 606 606 606 606
    606 606 606 604 604 604 604 604 604 604 604 604 604 603 603 603 603
    603 603 602 601 601 601 601 601 601 601 601 600 600 0 0 0 0 0 0 0 0
    0 0 0 0 0 0 0 0 0 0 0 0 0 0 0 0 0 0 0 0 0 0 0 0 0 0 0 0 0 0 0 0 0 0
    0 0 0 0 0 611 610 610 610 610 610 609 609 609 608 608 608 608 608
    607 607 607 607 607 606 606 606 606 606 604 604 604 604 604 604 604
    604 604 604 604 604 604 604 603 602 602 601 601 601 601 601 601 601
    601 601 602 0 0 0 0 0 0 0 0 0 0 0 0 0 0 0 0 0 0 0 0 0 0 0 0 0 0 0 0
    0 0 0 0 0 0 0 0 0 0 0 0 0 0 0 0 0 0 613 612 610 610 610 610 610 609
    609 609 609 609 608 608 607 607 607 607 607 607 607 607 607 606 606
    606 606 606 606 604 604 604 604 604 604 604 604 604 603 602 602 602
    602 602 602 601 601 601 601 601 602 0 0 0 0 0 0 0 0 0 0 0 0 0 0 0 0
    0 0 0 0 0 0 0 0 0 0 0 0 0 0 0 0 0 0 0 0 0 0 0 0 0 0 0 0 0 0 0 613
    612 611 611 610 610 610 610 609 609 609 609 609 608 608 608 607 607
    607 607 607 607 607 606 606 606 606 606 606 606 606 606 604 604 604
    604 604 604 603 602 602 602 602 602 602 602 602 601 601 602 0 0 0 0
    0 0 0 0 0 0 0 0 0 0 0 0 0 0 0 0 0 0 0 0 0 0 0 0 0 0 0 0 0 0 0 0 0 0
    0 0 0 0 0 0 0 0 0 0 612 611 611 611 611 610 610 610 610 609 609 609
    609 609 608 608 608 607 607 607 607 607 607 607 607 606 606 606 606
    606 606 606 604 604 604 604 604 604 603 603 603 603 603 603 603 603
    602 602 602 0 0 0 0 0 0 0 0 0 0 0 0 0 0 0 0 0 0 0 0 0 0 0 0 0 0 0 0
    0 0 0 0 0 0 0 0 0 0 0 0 0 0 0 0 0 0 0 0 612 611 611 611 611 610 610
    610 610 609 609 609 609 609 608 608 608 608 607 607 607 607 608 608
    607 607 606 606 606 606 606 606 606 606 604 604 604 604 603 603 603
    603 603 604 604 604 603 602 602 602 0 0 0 0 0 0 0 0 0 0 0 0 0 0 0 0
    0 0 0 0 0 0 0 0 0 0 0 0 0 0 0 0 0 0 0 0 0 0 0 0 0 0 0 0 0 0 0 612
    612 613 612 611 610 610 610 610 610 609 609 609 609 609 609 609 608
    608 608 607 607 608 608 607 607 607 607 607 606 606 606 606 606 606
    604 604 604 604 604 603 603 603 604 604 604 604 603 602 602 0 0 0 0
    0 0 0 0 0 0 0 0 0 0 0 0 0 0 0 0 0 0 0 0 0 0 0 0 0 0 0 0 0 0 0 0 0 0
    0 0 0 0 0 0 0 0 0 0 613 613 612 611 610 610 610 610 610 610 610 609
    609 610 609 609 609 608 608 608 608 608 608 608 608 607 607 607 607
    606 606 606 606 606 606 606 606 604 604 604 604 604 604 604 604 604
    604 603 603 0 0 0 0 0 0 0 0 0 0 0 0 0 0 0 0 0 0 0 0 0 0 0 0 0 0 0 0
    0 0 0 0 0 0 0 0 0 0 0 0 0 0 0 0 0 0 0 0 614 613 613 612 611 611 611
    611 611 610 610 610 610 610 610 609 609 609 609 608 608 608 609 609
    608 607 607 607 607 607 607 606 606 606 606 606 606 606 606 604 604
    604 604 604 604 604 604 604 604 604 0 0 0 0 0 0 0 0 0 0 0 0 0 0 0 0
    0 0 0 0 0 0 0 0 0 0 0 0 0 0 0 0 0 0 0 0 0 0 0 0 0 0 0 0 0 0 0 614
    614 613 613 612 612 611 611 612 611 611 610 610 610 610 610 609 609
    609 609 609 609 609 609 608 608 608 607 607 607 607 607 607 608 607
    607 606 606 606 606 606 604 604 604 604 603 603 604 604 604 0 0 0 0
    0 0 0 0 0 0 0 0 0 0 0 0 0 0 0 0 0 0 0 0 0 0 0 0 0 0 0 0 0 0 0 0 0 0
    0 0 0 0 0 0 0 0 0 615 614 613 613 613 612 612 612 612 612 611 610
    610 610 610 610 610 610 610 610 609 609 609 609 608 608 608 608 608
    607 607 607 607 608 607 607 606 606 606 606 606 606 604 604 604 603
    603 604 604 604 0 0 0 0 0 0 0 0 0 0 0 0 0 0 0 0 0 0 0 0 0 0 0 0 0 0
    0 0 0 0 0 0 0 0 0 0 0 0 0 0 0 0 0 0 0 0 0 0 614 614 613 613 612 612
    612 612 612 612 611 611 610 610 610 610 610 610 610 610 610 609 609
    609 608 608 608 608 608 607 607 607 608 608 607 606 606 606 606 606
    606 604 604 604 604 604 604 604 604 604 0 0 0 0 0 0 0 0 0 0 0 0 0 0
    0 0 0 0 0 0 0 0 0 0 0 0 0 0 0 0 0 0 0 0 0 0 0 0 0 0 0 0 0 0 0 0 0
    614 614 614 613 613 612 612 612 612 612 612 612 611 611 611 610 610
    610 610 610 610 610 610 609 609 609 609 608 608 607 607 607 607 607
    607 606 606 606 606 606 606 606 606 606 606 606 604 604 604 602 602
    0 0 0 0 0 0 0 0 0 0 0 0 0 0 0 0 0 0 0 0 0 0 0 0 0 0 0 0 0 0 0 0 0 0
    0 0 0 0 0 0 0 0 0 0 0 0 614 614 614 613 613 613 613 612 612 613 612
    612 612 612 612 611 611 610 610 611 611 610 610 610 610 609 609 609
    608 608 608 608 607 607 608 607 607 606 606 606 606 606 606 606 606
    606 606 604 604 602 602 0 0 0 0 0 0 0 0 0 0 0 0 0 0 0 0 0 0 0 0 0 0
    0 0 0 0 0 0 0 0 0 0 0 0 0 0 0 0 0 0 0 0 0 0 0 0 614 614 614 614 614
    614 613 613 613 613 613 613 612 612 612 611 611 610 610 611 611 611
    610 610 610 610 610 610 609 609 609 609 608 608 608 608 608 607 607
    606 606 606 606 606 607 606 606 606 604 602 602 0 0 0 0 0 0 0 0 0 0
    0 0 0 0 0 0 0 0 0 0 0 0 0 0 0 0 0 0 0 0 0 0 0 0 0 0 0 0 0 0 0 0 0 0
    0 0 0 615 614 614 614 614 614 613 613 613 613 613 613 613 613 612
    612 611 611 611 610 610 611 611 611 610 610 610 610 610 610 609 609
    609 609 609 609 609 608 607 607 607 607 607 607 607 606 606 604 602
    602 0 0 0 0 0 0 0 0 0 0 0 0 0 0 0 0 0 0 0 0 0 0 0 0 0 0 0 0 0 0 0 0
    0 0 0 0 0 0 0 0 0 0 0 0 0 0 0 618 615 615 614 614 614 613 613 613
    613 613 613 613 613 612 612 611 611 611 610 610 611 611 611 610 610
    610 610 610 610 609 609 609 609 609 609 609 609 609 608 608 608 608
    607 607 606 606 606 604 604 0 0 0 0 0 0 0 0 0 0 0 0 0 0 0 0 0 0 0 0
    0 0 0 0 0 0 0 0 0 0 0 0 0 0 0 0 0 0 0 0 0 0 0 0 0 0 0 618 616 616
    615 614 614 614 613 613 613 613 613 613 613 613 613 612 612 612 612
    611 611 611 611 611 611 610 610 610 610 609 609 609 609 609 610 610
    609 609 608 608 608 608 608 608 608 607 607 607 607 608 0 0 0 0 0 0
    0 0 0 0 0 0 0 0 0 0 0 0 0 0 0 0 0 0 0 0 0 0 0 0 0 0 0 0 0 0 0 0 0 0
    0 0 0 0 0 0 618 618 616 616 615 614 614 614 613 613 613 613 613 613
    613 613 613 612 612 612 612 612 612 611 611 611 610 610 610 610 610
    610 610 610 610 610 610 610 609 609 609 608 608 608 608 608 607 607
    607 607 607 0 0 0 0 0 0 0 0 0 0 0 0 0 0 0 0 0 0 0 0 0 0 0 0 0 0 0 0
    0 0 0 0 0 0 0 0 0 0 0 0 0 0 0 0 0 0 0 618 616 616 615 614 614 614
    614 614 614 613 613 614 613 613 613 612 612 612 612 612 612 612 611
    611 611 611 610 610 610 610 610 610 610 610 610 610 609 609 609 608
    608 608 608 608 607 607 607 607 607 0 0 0 0 0 0 0 0 0 0 0 0 0 0 0 0
    0 0 0 0 0 0 0 0 0 0 0 0 0 0 0 0 0 0 0 0 0 0 0 0 0 0 0 0 0 0 0 618
    618 618 616 615 615 614 614 615 614 614 614 614 613 613 613 613 613
    613 613 613 613 612 611 611 611 611 611 611 611 611 610 610 610 610
    610 610 610 609 609 608 608 608 607 607 607 607 608 608 608 609 0 0
    0 0 0 0 0 0 0 0 0 0 0 0 0 0 0 0 0 0 0 0 0 0 0 0 0 0 0 0 0 0 0 0 0 0
    0 0 0 0 0 0 0 0 0 0 619 618 618 616 616 616 616 615 615 614 614 614
    614 614 614 613 613 613 613 613 613 613 613 612 612 612 612 612 612
    612 611 610 610 610 610 610 610 610 610 609 609 608 608 607 607 607
    608 609 609 609 609 0 0 0 0 0 0 0 0 0 0 0 0 0 0 0 0 0 0 0 0 0 0 0 0
    0 0 0 0 0 0 0 0 0 0 0 0 0 0 0 0 0 0 0 0 0 0 0 618 618 616 616 616
    616 616 615 615 615 615 615 614 614 613 613 613 613 613 613 613 613
    613 613 613 613 613 612 612 611 610 610 610 610 610 610 610 610 610
    610 609 608 608 608 608 609 609 609 609 609 0 0 0 0 0 0 0 0 0 0 0 0
    0 0 0 0 0 0 0 0 0 0 0 0 0 0 0 0 0 0 0 0 0 0 0 0 0 0 0 0 0 0 0 0 0 0
    0 618 618 618 618 616 616 616 615 615 615 615 615 615 614 614 614
    614 614 614 614 614 613 613 613 613 613 613 612 612 611 611 610 610
    610 610 610 610 611 611 610 609 609 608 608 609 609 609 609 608 608
    0 0 0 0 0 0 0 0 0 0 0 0 0 0 0 0 0 0 0 0 0 0 0 0 0 0 0 0 0 0 0 0 0 0
    0 0 0 0 0 0 0 0 0 0 0 0 0 619 618 618 618 616 616 616 616 616 616
    616 616 615 615 615 614 614 614 614 614 614 614 614 614 613 613 613
    613 613 612 611 611 612 610 610 610 611 611 611 611 610 610 609 609
    609 609 609 609 608 608 0 0 0 0 0 0 0 0 0 0 0 0 0 0 0 0 0 0 0 0 0 0
    0 0 0 0 0 0 0 0 0 0 0 0 0 0 0 0 0 0 0 0 0 0 0 0 0 619 618 618 618
    618 618 618 616 616 618 616 616 616 616 615 615 614 614 614 614 614
    614 614 614 613 613 613 613 613 612 612 612 612 610 610 611 611 611
    611 611 610 610 609 609 609 609 609 609 607 607 0 0 0 0 0 0 0 0 0 0
    0 0 0 0 0 0 0 0 0 0 0 0 0 0 0 0 0 0 0 0 0 0 0 0 0 0 0 0 0 0 0 0 0 0
    0 0 0 0 619 619 618 618 618 618 618 618 618 618 618 616 616 616 615
    615 614 614 614 614 614 614 614 613 613 613 613 613 613 613 613 613
    610 610 611 610 610 611 611 610 610 609 609 609 609 609 609 607 607
    0 0 0 0 0 0 0 0 0 0 0 0 0 0 0 0 0 0 0 0 0 0 0 0 0 0 0 0 0 0 0 0 0 0
    0 0 0 0 0 0 0 0 0 0 0 0 0 0 619 619 619 619 619 619 618 618 618 618
    618 618 616 616 616 615 615 615 614 614 614 614 614 614 614 613 613
    613 613 613 613 613 613 613 611 610 610 611 611 610 610 610 610 609
    609 609 609 609 609 0 0 0 0 0 0 0 0 0 0 0 0 0 0 0 0 0 0 0 0 0 0 0 0
    0 0 0 0 0 0 0 0 0 0 0 0 0 0 0 0 0 0 0 0 0 0 0 0 0 620 619 619 619
    619 619 618 618 618 618 618 618 616 616 615 615 615 615 614 614 614
    614 614 614 613 613 614 614 614 613 613 613 613 612 611 611 611 611
    611 610 610 610 610 610 610 610 610 610 0 0 0 0 0 0 0 0 0 0 0 0 0 0
    0 0 0 0 0 0 0 0 0 0 0 0 0 0 0 0 0 0 0 0 0 0 0 0 0 0 0 0 0 0 0 0 0 0
    0 620 620 620 620 619 619 619 618 618 618 618 618 618 616 616 616
    615 615 614 614 615 614 614 614 614 614 614 614 614 614 614 613 613
    612 612 611 611 611 611 611 611 611 611 611 610 610 610 610 610 0 0
    0 0 0 0 0 0 0 0 0 0 0 0 0 0 0 0 0 0 0 0 0 0 0 0 0 0 0 0 0 0 0 0 0 0
    0 0 0 0 0 0 0 0 0 0 0 0 622 621 621 621 619 619 619 619 619 619 619
    618 618 618 616 616 616 616 616 615 615 614 614 615 615 615 614 614
    614 614 614 613 613 613 612 612 612 612 612 612 612 611 611 611 611
    611 610 610 610 610 0 0 0 0 0 0 0 0 0 0 0 0 0 0 0 0 0 0 0 0 0 0 0 0
    0 0 0 0 0 0 0 0 0 0 0 0 0 0 0 0 0 0 0 0 0 0 0 622 622 621 621 620
    619 619 619 619 619 619 619 618 618 618 618 616 616 616 615 615 615
    616 616 616 616 615 615 614 614 614 613 613 613 613 613 613 613 613
    612 612 611 611 612 611 611 610 610 610 610 0 0 0 0 0 0 0 0 0 0 0 0
    0 0 0 0 0 0 0 0 0 0 0 0 0 0 0 0 0 0 0 0 0 0 0 0 0 0 0 0 0 0 0 0 0 0
    0 0 623 622 621 620 620 619 619 619 619 619 619 619 618 618 618 618
    616 616 616 616 616 616 616 616 616 616 616 615 615 615 613 613 613
    613 613 613 613 613 612 612 612 612 612 612 612 611 610 610 610 611
    0 0 0 0 0 0 0 0 0 2184 2184 0 0 0 0 0 0 0 0 0 0 0 0 0 0 0 0 0 0 0 0
    0 0 0 0 0 0 0 0 0 0 0 0 0 0 0 0 622 621 621 620 620 620 620 620 620
    619 619 619 619 618 618 618 616 616 616 616 618 618 618 618 618 618
    616 616 616 615 614 614 614 614 613 613 613 613 613 612 612 612 612
    612 612 611 611 611 611 611 0 0 0 0 0 0 0 0 0 2184 2184 0 0 0 0 0 0
    0 0 0 0 0 0 0 0 0 0 0 0 0 0 0 0 0 0 0 0 0 0 0 0 0 0 0 0 0 0 622 621
    621 620 620 620 620 621 620 619 619 619 619 619 618 618 618 618 618
    618 618 618 618 618 618 618 618 616 616 615 614 614 614 614 614 614
    613 613 613 613 613 612 612 612 612 612 612 612 612 612 0 0 0 0 0 0
    0 0 0 2184 2184 2184 2184 0 2156 0 0 0 0 0 0 0 0 0 0 0 0 0 0 0 0 0 0
    0 0 0 0 0 0 0 0 0 0 0 0 0 0 622 621 621 620 620 620 621 621 620 620
    619 619 619 619 619 618 618 618 618 618 618 618 618 618 618 618 618
    618 616 615 615 615 615 615 614 614 614 614 614 614 614 613 613 612
    612 613 613 613 613 613 0 0 0 0 0 0 0 0 0 2184 2156 2143 2143 2143
    2143 0 0 0 0 0 0 0 0 0 0 0 0 0 0 0 0 0 0 0 0 0 0 0 0 0 0 0 0 0 0 0 0
    0 622 622 621 621 621 621 621 620 620 620 620 619 619 619 619 619
    618 618 619 618 618 619 619 619 618 618 618 616 616 615 615 615 615
    614 614 614 614 614 614 614 614 613 613 613 613 613 613 612 612 0 0
    0 0 0 0 0 0 0 0 2156 2129 2129 2129 2103 0 0 0 0 0 0 0 0 0 0 0 0 0 0
    0 0 0 0 0 0 0 0 0 0 0 0 0 0 0 0 0 0 0 623 622 622 622 622 622 621
    621 621 621 621 620 619 619 619 619 618 618 618 618 618 619 619 619
    619 618 618 618 618 616 616 616 615 614 614 614 614 614 615 614 614
    613 613 613 613 614 613 612 611 611 0 0 0 0 0 0 0 0 0 0 2116 2103
    2090 2078 0 0 0 0 0 0 0 0 0 0 0 0 0 0 0 0 0 0 0 0 0 0 0 0 0 0 0 0 0
    0 0 0 0 623 623 622 622 622 622 622 621 621 622 621 620 620 620 619
    619 618 618 618 618 618 619 619 619 619 618 618 618 618 618 618 616
    615 615 615 615 615 615 615 614 614 614 614 614 614 614 613 612 611
    611 0 0 0 0 0 0 0 0 0 0 2090 2078 2065 2065 0 0 0 0 0 0 0 0 0 0 0 0
    0 0 0 0 0 0 0 0 0 0 0 0 0 0 0 0 0 0 0 0 0 623 623 622 622 622 622
    622 622 622 622 621 621 620 620 619 619 619 618 618 619 619 619 620
    619 619 618 618 619 618 618 618 616 616 615 615 615 615 615 615 615
    614 614 615 614 614 614 613 613 612 610 610 0 0 0 0 0 0 0 0 0 2078
    2065 2065 2065 0 0 0 0 0 0 0 0 0 0 0 0 0 0 0 0 0 0 0 0 0 0 0 0 0 0 0
    0 0 0 0 0 0 623 623 623 623 622 622 622 622 622 622 621 621 621 620
    620 620 619 619 619 619 619 619 620 620 619 619 619 619 619 618 618
    618 616 616 615 615 616 615 615 615 615 615 615 615 614 614 613 613
    612 610 610 0 0 0 0 0 0 0 0 0 2078 2065 2065 2065 0 0 0 0 0 0 0 0 0
    0 0 0 0 0 0 0 0 0 0 0 0 0 0 0 0 0 0 0 0 0 0 0 0 0 623 623 623 623
    623 622 622 622 622 622 621 621 621 621 620 620 619 619 619 619 619
    620 620 619 619 619 619 619 618 618 618 618 616 616 616 616 615 615
    615 615 615 615 615 614 614 614 614 613 612 612 613 0 0 0 0 0 0 0 0
    2078 2065 2065 2065 0 0 0 0 0 0 0 0 0 0 0 0 0 0 0 0 0 0 0 0 0 0 0 0
    0 0 0 0 0 0 0 0 0 0 623 623 624 624 623 622 622 622 622 622 622 622
    622 621 620 620 619 619 619 619 619 620 620 620 619 619 619 619 618
    618 618 618 618 616 616 616 616 616 616 616 616 615 615 614 614 614
    614 614 613 613 613 0 0 0 0 0 0 0 0 0 0 2028 1981 0 0 0 0 0 0 0 0 0
    0 0 0 0 0 0 0 0 0 0 0 0 0 0 0 0 0 0 0 0 0 0 0 0 0 622 622 623 624
    623 623 622 622 622 622 622 622 622 622 621 621 620 620 620 619 619
    620 620 620 619 619 619 619 618 618 618 618 618 618 618 618 618 616
    616 616 616 615 615 615 615 616 614 614 614 614 614 0 0 0 0 0 0 0 0
    0 0 1993 1981 0 0 0 0 0 0 0 0 0 0 0 0 0 0 0 0 0 0 0 0 0 0 0 0 0 0 0
    0 0 0 0 0 0 0 622 622 623 624 623 623 622 622 622 622 622 622 622
    622 621 621 621 620 620 620 620 620 620 620 620 619 619 618 618 618
    618 618 618 618 618 618 618 616 616 616 616 616 616 616 616 616 616
    615 614 614 614 0 0 0 0 0 0 0 0 0 0 1981 1970 0 0 0 0 0 0 0 0 0 0 0
    0 0 0 0 0 0 0 0 0 0 0 0 0 0 0 0 0 0 0 0 0 0 0 623 623 624 624 624
    623 623 623 622 622 623 623 623 622 622 622 622 621 621 620 620 620
    620 620 620 620 619 618 618 618 618 618 618 618 618 618 616 616 615
    615 616 616 616 616 618 616 615 615 614 614 614 0 0 0 0 0 0 0 0 0 0
    1981 1970 0 0 0 0 0 0 0 0 0 0 0 0 0 0 0 0 0 0 0 0 0 0 0 0 0 0 0 0 0
    0 0 0 0 0 0 0 625 625 624 624 624 623 623 623 623 623 624 623 622
    622 622 622 622 621 620 620 620 620 621 620 619 619 618 618 618 618
    618 619 618 618 616 616 615 615 616 616 618 618 616 616 615 615 615
    614 614 0 0 0 0 0 0 0 0 0 0 1970 1970 0 0 0 0 0 0 0 0 0 0 0 0 0 0 0
    0 0 0 0 0 0 0 0 0 0 0 0 0 0 0 0 0 0 0 0 0 627 625 625 625 625 624
    624 624 624 624 624 623 622 622 622 622 622 621 620 620 621 621 621
    620 619 619 619 619 619 619 619 619 618 618 616 616 616 616 616 618
    618 618 616 616 616 615 615 615 615 616 0 0 0 0 0 0 0 0 0 1970 1970
    0 0 0 0 0 0 0 0 0 0 0 0 0 0 0 0 0 0 0 0 0 0 0 0 0 0 0 0 0 0 0 0 0 0
    0 0 627 627 625 625 625 625 625 624 624 624 624 623 623 622 622 622
    622 621 621 621 621 621 621 620 619 619 619 619 619 619 619 619 618
    618 618 618 618 618 618 618 618 618 616 616 616 616 616 616 616 616
    0 0 0 0 0 0 0 0 0 0 0 0 0 0 0 0 0 0 0 0 0 0 0 0 0 0 0 0 0 0 0 0 0 0
    0 0 0 0 0 0 0 0 0 0 0 0 0 0 627 627 627 627 625 625 625 624 624 624
    623 623 622 622 622 622 622 621 621 622 622 621 620 620 619 619 619
    620 620 619 619 619 618 618 618 618 618 619 619 618 618 618 618 618
    616 616 616 616 616 0 0 0 0 0 0 0 0 0 0 0 0 0 0 0 0 0 0 0 0 0 0 0 0
    0 0 0 0 0 0 0 0 0 0 0 0 0 0 0 0 0 0 0 0 0 0 0 0 628 627 627 627 627
    627 625 624 624 624 624 623 623 623 623 622 622 622 622 622 622 622
    621 621 620 620 620 620 620 620 619 619 619 619 619 619 619 619 619
    618 618 618 618 618 618 618 616 616 615 615 0 0 0 0 0 0 0 0 0 0 0 0
    0 0 0 0 0 0 0 0 0 0 0 0 0 0 0 0 0 0 0 0 0 0 0 0 0 0 0 0 0 0 0 0 0 0
    0 628 628 627 627 627 627 625 625 625 625 624 623 623 623 623 623
    623 622 622 622 622 622 622 622 621 621 621 621 621 620 620 620 620
    620 620 620 620 620 620 620 619 618 618 618 618 618 616 616 615 615
    0 0 0 0 0 0 0 0 0 0 0 0 0 0 0 0 0 0 0 0 0 0 0 0 0 0 0 0 0 0 0 0 0 0
    0 0 0 0 0 0 0 0 0 0 0 0 0 0 628 628 628 628 627 627 625 625 625 624
    623 623 623 623 623 623 623 623 623 623 623 622 622 621 621 622 621
    621 621 621 621 621 620 620 619 619 619 620 620 619 619 619 618 618
    618 618 618 615 615 0 0 0 0 0 0 0 0 0 1863 0 0 0 2301 2301 0 0 0 0 0
    0 0 0 0 0 0 0 0 0 0 0 0 0 0 0 0 0 0 0 0 0 0 0 0 0 0 0 628 628 628
    628 628 627 627 627 625 625 624 624 624 624 624 624 624 624 624 623
    623 623 622 622 622 622 622 622 622 622 621 621 621 620 620 619 619
    619 620 620 619 619 619 619 619 619 618 618 616 616 0 0 0 0 0 0 0 0
    1863 1853 2349 2333 2333 2301 2286 2286 2317 0 0 0 0 0 0 0 0 0 0 0 0
    0 0 0 2226 2226 0 0 0 0 0 0 0 0 0 0 0 0 0 628 628 628 627 627 628
    627 627 627 627 625 624 624 624 624 625 624 624 624 624 623 623 622
    622 622 622 622 622 622 622 622 621 620 620 620 619 619 619 620 619
    619 619 619 619 619 619 619 618 618 0 0 0 0 0 0 0 0 0 1843 1833 2333
    2333 2317 2301 2286 2286 2286 0 0 0 0 0 0 0 0 0 0 0 0 0 0 2226 2226
    2226 2198 2198 0 0 0 0 0 0 0 0 0 0 0 0 0 628 627 627 628 628 628 627
    627 627 627 625 625 625 625 625 624 624 623 623 623 623 623 623 622
    622 622 623 622 622 621 620 620 620 619 619 619 619 619 618 618 618
    619 619 619 618 618 618 0 0 0 0 0 0 0 0 1823 1823 1823 2333 2333
    2317 2301 2286 2286 2286 0 0 0 0 0 0 0 0 0 0 0 0 0 2226 2226 2198
    2198 2184 2184 0 0 0 0 0 0 0 0 0 0 0 0 0 628 627 627 628 628 628 627
    627 627 627 627 627 627 625 625 624 624 623 623 624 624 623 623 623
    623 623 623 622 622 621 620 620 620 620 619 619 618 618 618 618 618
    619 619 619 618 618 747 747 0 0 0 0 0 0 0 1823 1823 1813 2317 2317
    2333 2317 2301 2301 2286 2286 0 0 0 0 0 0 0 0 2184 2170 2170 2184
    2226 2184 2170 2156 2156 2156 2170 0 0 0 0 0 0 0 0 0 0 0 0 629 628
    628 629 628 628 627 627 627 627 627 627 627 627 625 625 625 624 624
    624 623 623 623 623 623 622 622 622 621 621 620 620 619 619 619 618
    618 618 618 618 618 618 755 755 752 749 746 742 738 738 0 0 0 0 0 0
    0 1813 2301 2301 2301 2301 2301 2286 2286 2286 0 0 0 0 0 0 0 0 2184
    2170 2170 2170 2184 2156 2143 2143 2143 2156 2156 2143 2143 0 0 0 0
    0 0 0 0 0 0 0 628 628 629 629 628 627 627 627 627 627 627 627 627
    627 627 625 625 625 624 623 623 623 623 623 622 622 622 621 620 620
    619 619 619 619 618 618 710 710 710 710 754 754 752 747 746 742 739
    736 736 0 0 0 0 0 0 0 0 2286 2286 2286 2286 2286 2271 2271 2256 2256
    2212 2198 2198 0 0 0 0 2184 2170 2170 2156 2143 2129 2129 2129 2129
    2143 2156 2143 2143 0 0 0 0 0 0 0 0 0 0 0 629 629 629 629 628 627
    627 627 627 627 627 627 627 627 627 627 625 625 624 624 624 624 624
    623 622 622 622 761 620 620 619 618 618 619 619 710 710 710 710 741
    746 746 742 741 739 738 736 734 734 0 0 0 0 0 0 0 0 2226 2271 2271
    2256 2256 2271 2271 2241 2212 2212 2198 2184 2170 2170 2170 2170
    2170 2170 2156 2129 2129 2129 2116 2116 2129 2129 2129 0 0 0 0 0 0 0
    0 0 0 0 0 0 630 629 629 629 629 628 628 628 627 627 627 627 627 627
    627 625 624 624 624 624 624 625 625 627 627 762 761 761 757 757 619
    618 618 749 749 710 710 710 710 741 741 741 739 736 734 733 730 723
    723 0 0 0 0 0 0 0 0 2226 2241 2241 2226 2226 2226 2212 2212 2198
    2198 2184 2170 2170 2170 2170 2170 2156 2156 2129 2129 2129 2116
    2116 2103 2103 2078 2078 0 0 0 0 0 0 0 0 0 0 0 0 0 630 630 630 630
    629 628 628 628 628 628 627 627 627 627 627 625 624 624 624 624 624
    625 627 627 761 761 757 757 755 755 754 754 750 747 747 711 710 710
    710 736 736 733 733 730 725 723 723 722 722 0 0 0 0 0 0 0 0 2226
    2226 2212 2212 2226 2226 2184 2184 2184 2170 2156 2143 2143 2143
    2156 2156 2143 2129 2116 2116 2103 2103 2103 2090 2078 2065 2053
    2053 0 0 0 0 0 0 0 0 0 0 0 0 628 628 630 630 629 629 629 628 628 628
    628 627 627 625 625 624 624 624 624 624 624 627 761 761 755 754 752
    752 750 750 749 747 746 744 742 739 710 710 710 710 736 730 728 727
    723 722 720 719 717 717 0 0 0 0 0 0 0 2226 2226 2212 2212 2212 2143
    2143 2156 2170 2129 2116 2116 2129 2129 2143 2143 2116 2090 2090
    2090 2090 2090 2090 2078 2065 2053 2053 2053 0 0 0 0 0 0 0 0 0 0 0 0
    628 628 630 630 629 629 628 628 628 628 627 627 627 625 625 624 624
    624 764 761 761 759 757 755 752 749 747 744 744 742 742 739 738 738
    734 733 710 710 710 711 711 725 725 723 722 720 719 716 708 708 0 0
    0 0 0 0 0 2226 2129 2129 2129 2129 2129 2143 2143 2129 2116 2116
    2116 2116 2116 2103 2090 2078 2078 2078 2078 2078 2078 2065 2065
    2053 2053 2053 2040 2040 0 0 0 0 0 0 0 0 0 0 0 0 629 629 629 629 629
    628 628 628 628 625 625 627 627 627 762 762 762 759 757 755 754 752
    750 749 746 742 741 739 736 736 736 733 731 728 723 713 711 711 711
    713 720 720 720 719 717 711 707 706 703 703 0 0 0 0 0 0 0 2129 2129
    2116 2116 2129 2129 2116 2103 2103 2103 2103 2103 2090 2078 2065
    2065 2065 2065 2053 2053 2053 2040 2040 2028 2028 2028 2028 2028
    2028 2028 0 0 0 0 0 0 0 0 0 0 629 629 629 631 630 630 629 629 628
    625 625 625 742 742 762 762 761 754 752 749 747 747 747 744 742 739
    738 736 734 734 734 728 725 725 720 716 713 711 711 711 713 714 713
    711 711 708 704 703 700 694 694 0 0 0 0 0 0 2129 2129 2116 2116 2129
    2116 2116 2090 2078 2078 2090 2090 2078 2065 2065 2065 2053 2053
    2053 2040 2028 2028 2016 2016 2016 2016 2016 2016 2016 2005 2005 0 0
    0 0 0 0 0 0 0 631 629 629 629 766 762 759 757 757 754 749 742 742
    742 762 762 754 750 738 738 742 742 739 738 738 736 733 733 731 731
    731 725 722 720 717 713 711 711 711 711 711 710 708 700 698 696 696
    698 696 694 694 0 0 0 0 0 0 2116 2116 2116 2116 2116 2103 2103 2090
    2078 2078 2078 2078 2065 2065 2065 2065 2053 2028 2028 2028 2028
    2016 2016 2005 2005 2005 1993 1993 1981 1981 1981 1947 1936 1936 0 0
    0 0 0 0 0 630 630 766 762 757 755 754 750 749 744 742 742 742 764
    764 754 734 733 731 730 728 725 725 723 723 727 725 725 725 717 717
    717 716 713 711 710 708 707 707 706 701 700 697 694 694 693 693 693
    691 691 691 0 0 0 0 0 2116 2116 2116 2116 2116 2078 2078 2065 2065
    2078 2078 2065 2053 2053 2065 2040 2028 2016 2016 2016 2016 1993
    1993 1981 1981 1993 1981 1981 1981 1981 1970 1947 1936 1936 0 0 0 0
    0 0 0 0 0 766 759 754 752 749 744 744 742 741 741 741 741 727 731
    731 730 728 727 723 722 720 719 717 716 716 720 719 711 711 713 710
    707 706 706 704 703 701 700 698 694 694 691 690 688 688 687 687 687
    687 687 0 0 0 0 0 0 2016 2016 2053 2053 2053 2053 2053 2053 2053
    2053 2028 2028 2065 2016 2016 1993 1993 1993 1981 1981 1981 1959
    1959 1959 1959 1959 1959 1959 1970 1936 1926 1926 0 0 0 0 0 0 0 0 0
    0 747 746 744 741 739 739 739 739 739 741 741 727 727 727 727 723
    722 720 719 717 716 713 710 706 706 706 706 706 707 704 703 701 701
    701 698 697 696 693 693 691 688 687 686 684 683 683 683 682 682 0 0
    0 0 0 0 2016 2016 2016 2016 2028 2028 2028 2040 2040 2040 2016 2005
    1993 1993 1981 1981 1981 1981 1981 1970 1936 1936 1947 1947 1947
    1947 1947 1959 1959 1926 1926 1926 0 0 0 0 0 0 0 0 0 744 742 742 741
    738 736 734 733 731 723 723 723 727 727 722 720 719 717 716 713 711
    711 711 707 704 703 703 703 703 696 696 694 694 698 697 694 693 691
    690 688 687 686 684 683 682 682 682 682 682 680 680 0 0 0 0 0 2028
    2016 2016 2016 2016 2016 2016 2016 2016 2016 1981 1981 1981 1981
    1970 1970 1981 1981 1970 1947 1936 1936 1936 1936 1936 1936 1936
    1936 1936 1926 1915 1915 0 0 0 0 0 0 0 0 742 742 741 739 738 734 731
    731 728 727 720 719 717 716 716 716 716 716 713 711 710 708 707 707
    701 700 698 697 697 693 693 691 690 690 687 687 687 687 688 687 686
    684 683 683 682 682 682 682 682 682 680 680 0 0 0 2016 2005 1993
    1993 1993 1993 2016 2016 2016 2016 2005 1993 1981 1981 1970 1970
    1959 1959 1959 1959 1947 1936 1926 1926 1926 1926 1915 1915 1926
    1926 1926 1915 1894 1894 0 0 0 0 0 0 0 0 742 742 736 730 728 728 728
    728 725 722 717 717 716 714 714 713 713 713 710 707 706 703 698 697
    696 694 694 693 693 690 690 688 687 687 686 686 686 686 683 683 683
    683 683 683 682 682 682 682 682 682 682 682 0 0 0 1993 1993 1993
    1981 1981 1981 1981 1981 1981 1981 1981 1981 1970 1970 1959 1936
    1936 1947 1947 1936 1936 1926 1915 1904 1904 1894 1894 1894 1894
    1904 1904 1904 1883 1883 0 0 0 0 0 0 0 0 0 728 725 723 723 723 723
    723 720 716 716 716 713 711 711 710 708 708 704 703 701 694 693 693
    693 693 693 691 690 688 687 687 687 687 686 686 686 686 683 683 683
    683 683 682 682 682 682 682 682 682 682 682 682 0 1970 1970 1981
    1970 1970 1970 1959 1959 1947 1947 1947 1959 1970 1970 1970 1926
    1926 1926 1926 1926 1926 1926 1926 1904 1894 1894 1894 1883 1883
    1883 1883 1894 1883 1883 1883 0 0 0 0 0 0 0 0 0 725 723 722 720 719
    719 707 707 711 713 713 713 711 710 698 697 697 697 698 693 693 691
    691 691 688 688 690 688 687 687 687 687 687 686 686 686 684 684 683
    683 683 683 682 682 682 682 682 682 682 682 682 682 0 1959 1959 1970
    1959 1959 1947 1936 1936 1926 1926 1915 1904 1904 1904 1904 1904
    1904 1894 1883 1883 1883 1894 1894 1894 1883 1883 1883 1863 1863
    1863 1863 1873 1873 1873 0 0 0 0 0 0 0 0 0 0 722 720 717 714 707 706
    706 706 706 707 698 697 696 696 694 694 693 693 693 690 690 690 690
    690 688 688 688 688 687 687 687 687 687 687 686 686 684 684 683 683
    683 683 682 682 682 682 682 682 682 682 682 682 0 1947 1947 1947
    1947 1947 1926 1915 1915 1904 1904 1894 1894 1894 1894 1894 1894
    1894 1883 1883 1873 1863 1863 1863 1863 1863 1863 1873 1863 1863
    1863 1863 1863 1863 1873 0 0 0 0 0 0 0 0 0 0 722 710 710 707 703 701
    700 700 700 698 696 696 694 693 693 691 690 690 690 690 688 688 688
    688 688 688 688 688 687 687 687 686 686 687 686 686 686 686 684 683
    683 683 683 683 683 683 683 682 682 682 682 679 679 1947 1926 1926
    1926 1947 1915 1904 1904 1904 1894 1883 1883 1883 1883 1873 1873
    1883 1873 1863 1863 1863 1853 1853 1843 1833 1833 1823 1823 1823
    1833 1833 1813 1813 1813 0 0 0 0 0 0 0 0 0 0 0 710 707 706 701 700
    698 698 696 696 694 694 693 693 693 691 690 690 690 690 688 688 688
    688 688 688 688 688 688 687 687 686 686 687 686 686 686 686 684 684
    683 683 683 683 683 683 683 683 682 682 682 678 678 1873 1873 1894
    1894 1894 1894 1894 1894 1894 1894 1883 1873 1853 1853 1853 1853
    1863 1853 1853 1843 1843 1843 1843 1843 1833 1823 1813 1813 1813
    1833 1785 1785 1776 1776 0 0 0 0 0 0 0 0 0 0 0 706 703 698 696 696
    696 696 694 694 694 693 693 693 691 691 690 690 690 688 688 688 688
    688 688 688 688 688 688 688 687 687 687 687 686 686 686 686 686 684
    683 683 683 683 684 683 683 683 683 683 682 678 678 1853 1863 1883
    1883 1883 1894 1894 1894 1894 1883 1873 1853 1843 1843 1843 1843
    1843 1843 1843 1833 1833 1843 1833 1833 1823 1813 1804 1804 1776
    1776 1776 1776 1766 1766 1766 0 0 0 0 0 0 0 0 0 0 701 700 696 694
    694 694 694 694 694 693 693 693 693 691 691 690 690 688 688 688 688
    688 688 688 688 688 688 688 688 688 687 687 687 687 687 687 686 686
    684 683 683 683 683 684 684 684 683 683 683 683 679 679 1853 1863
    1883 1883 1883 1894 1883 1873 1873 1863 1863 1853 1843 1843 1833
    1833 1833 1833 1833 1823 1823 1823 1823 1823 1813 1804 1804 1794
    1766 1766 1766 1766 1757 1757 1748 1748 0 0 0 0 0 0 0 0 698 698 698
    696 694 694 694 694 694 694 693 693 693 693 691 691 691 690 688 688
    688 688 688 688 690 690 688 688 690 688 688 687 687 687 687 687 687
    686 686 686 684 684 684 684 683 683 684 683 683 683 683 683 683 1863
    1863 1873 1873 1873 1883 1873 1873 1873 1853 1853 1843 1843 1833
    1833 1823 1823 1813 1813 1813 1813 1813 1813 1813 1804 1794 1776
    1776 1766 1766 1766 1757 1748 1748 1739 1731 1731 0 0 0 0 0 0 0 698
    698 698 696 694 694 694 694 694 694 693 693 693 693 693 693 691 690
    690 690 690 690 690 690 690 691 691 691 690 690 688 688 688 688 687
    687 687 687 687 687 686 684 684 684 683 683 684 683 683 683 683 683
    684 1873 1873 1863 1853 1853 1853 1853 1863 1863 1853 1843 1843 1833
    1813 1813 1813 1813 1804 1794 1794 1804 1804 1804 1794 1776 1776
    1776 1766 1766 1757 1757 1748 1739 1739 1731 1731 1731 0 0 0 0 0 0 0
    701 698 698 696 694 694 694 694 694 694 693 693 693 693 693 693 691
    691 690 690 690 690 690 691 693 693 693 691 691 690 690 688 688 688
    688 687 687 687 687 687 687 686 684 684 684 684 684 686 683 683 683
    683 684 1863 1863 1853 1843 1843 1843 1843 1863 1843 1833 1823 1823
    1823 1813 1813 1804 1804 1804 1794 1785 1785 1785 1794 1776 1766
    1766 1766 1757 1757 1748 1748 1748 1739 1739 1731 1731 1731 0 0 0 0
    0 0 0 0 698 698 696 696 694 694 694 694 694 694 693 693 693 693 693
    693 693 691 691 690 690 690 691 693 693 691 691 690 688 688 688 688
    688 688 688 687 687 687 687 687 687 684 684 684 684 684 683 683 683
    683 683 683 1843 1843 1843 1833 1833 1813 1813 1813 1833 1833 1823
    1813 1804 1794 1794 1794 1785 1776 1776 1776 1776 1776 1766 1766
    1757 1757 1748 1748 1748 1748 1739 1739 1739 1722 1722 1722 1722 0 0
    0 0 0 0 0 0 0 698 697 697 696 694 694 694 694 694 694 694 694 694
    694 693 693 693 691 691 690 690 691 691 691 691 691 690 688 688 688
    688 688 688 688 688 688 687 687 687 687 686 686 684 684 684 683 683
    683 683 683 1041 1823 1823 1833 1823 1813 1804 1804 1794 1794 1804
    1823 1785 1776 1776 1776 1785 1785 1776 1776 1776 1766 1748 1748
    1748 1731 1731 1731 1731 1731 1731 1731 1731 1731 1722 1713 1713
    1722 0 0 0 0 0 0 0 0 0 698 698 698 696 694 694 694 694 694 694 694
    694 694 694 693 693 693 693 693 690 690 691 691 691 691 691 690 690
    688 688 688 688 688 688 688 687 686 684 684 684 686 686 687 687 1044
    1044 1044 1044 1044 1044 1041 1804 1804 1804 1804 1804 1804 1785
    1776 1776 1785 1776 1766 1766 1766 1766 1766 1766 1766 1766 1766
    1757 1748 1739 1739 1722 1722 1722 1722 1713 1705 1705 1705 1705
    1705 1705 1713 1722 0 0 0 0 0 0 0 0 0 698 698 698 697 696 694 694
    694 694 694 694 694 694 694 693 693 693 693 693 691 691 693 691 691
    691 691 691 690 688 688 688 688 688 688 688 687 684 683 683 683 686
    686 716 1044 1044 1044 1044 1047 1047 1047 1041 1804 1804 1794 1794
    1794 1794 1776 1776 1776 1766 1766 1766 1757 1757 1766 1766 1757
    1757 1757 1757 1739 1731 1731 1731 1705 1705 1705 1705 1705 1705
    1705 1705 1696 1696 1696 1696 0 0 0 0 0 0 0 0 0 0 698 697 697 697
    696 696 696 694 694 697 696 696 694 694 694 694 693 693 693 693 693
    693 693 693 693 691 691 690 690 690 688 688 688 688 688 687 684 683
    683 683 716 716 716 0 0 0 0 1047 1047 1054 1057 1785 1776 1766 1766
    1766 1776 1766 1766 1776 1766 1766 1766 1757 1757 1748 1739 1739
    1731 1722 1713 1713 1722 1722 1696 1688 1688 1696 1696 1696 1696
    1696 1696 1680 1671 1663 1663 1663 0 0 0 0 0 0 0 0 0 698 697 697 697
    696 696 697 694 694 697 697 697 694 694 694 694 693 693 693 693 693
    693 693 693 693 693 693 691 691 691 690 690 688 688 688 688 713 714
    717 717 716 716 716 730 0 0 0 0 0 1464 1464 1785 1776 1766 1757 1757
    1757 1757 1766 1766 1757 1757 1748 1739 1739 1739 1739 1731 1722
    1713 1713 1705 1705 1705 1696 1680 1680 1688 1688 1688 1688 1680
    1671 1671 1663 1663 1663 1663 0 0 0 0 0 0 0 0 0 698 697 697 698 697
    697 697 696 696 698 697 697 696 694 694 694 694 693 693 693 693 693
    693 693 694 694 694 694 693 693 693 693 693 711 711 711 713 714 717
    720 720 720 727 730 0 0 0 0 0 1470 1470 1785 1776 1748 1748 1748
    1748 1748 1748 1748 1757 1739 1739 1722 1722 1713 1713 1713 1713
    1713 1705 1696 1680 1680 1671 1671 1671 1671 1671 1671 1671 1663
    1663 1663 1655 1655 1655 1655 1655 0 0 1112 1112 0 0 0 1077 1077 700
    698 698 697 697 697 697 697 697 696 696 696 694 694 694 693 693 693
    694 694 694 694 694 696 697 696 696 696 696 698 710 711 711 711 711
    713 714 717 719 720 723 727 730 0 0 0 0 0 1470 1470 1757 1776 1739
    1739 1739 1739 1739 1739 1739 1739 1739 1731 1713 1713 1705 1705
    1705 1705 1705 1696 1688 1671 1663 1655 1655 1655 1663 1671 1663
    1663 1663 1655 1655 1647 1639 1639 1639 1655 0 1108 1108 1105 1097
    1094 1090 1077 1077 700 698 698 698 697 697 697 697 697 696 696 696
    694 694 694 693 693 693 696 707 706 704 703 703 698 698 700 707 710
    710 710 711 711 711 711 713 716 717 719 720 727 727 727 0 0 0 0 0 0
    1470 1757 1722 1722 1722 1731 1731 1722 1722 1722 1731 1731 1722
    1705 1705 1696 1696 1705 1705 1705 1688 1671 1663 1663 1655 1655
    1655 1663 1663 1655 1655 1647 1647 1647 1639 1639 1632 1632 1632
    1090 1097 1097 1094 1094 1090 1087 1084 1084 1080 698 698 698 697
    697 697 698 697 693 693 696 733 730 728 725 722 719 717 711 711 711
    710 710 710 710 710 710 710 710 710 711 711 711 711 713 716 717 719
    722 727 728 730 730 0 0 0 0 0 1439 1696 1705 1713 1705 1705 1705
    1705 1705 1705 1713 1722 1705 1705 1696 1696 1696 1696 1696 1696
    1680 1671 1663 1655 1647 1647 1647 1647 1639 1639 1632 1632 1632
    1639 1632 1094 1094 1094 1090 1090 1094 1094 1094 1090 1090 1087
    1084 1080 1077 1077 698 698 698 698 697 697 697 693 693 736 733 730
    728 725 722 719 717 716 714 713 711 711 711 710 710 710 710 710 710
    711 711 711 713 713 714 717 719 722 723 727 728 730 0 0 0 0 0 1433
    1688 1696 1696 1696 1705 1696 1696 1696 1696 1696 1696 1696 1688
    1680 1680 1688 1680 1671 1671 1671 1663 1655 1647 1639 1639 1639
    1639 1639 1632 1624 1624 1624 1632 1090 1090 1090 1090 1087 1087
    1087 1087 1087 1087 1087 1080 1080 1077 1073 1073 698 698 698 698
    697 697 697 741 741 736 733 730 728 725 722 719 717 717 716 713 713
    711 711 710 710 710 710 710 710 711 711 711 713 713 714 717 719 722
    723 725 728 0 0 0 0 0 0 1433 1688 1688 1688 1688 1696 1688 1680 1680
    1680 1680 1680 1680 1671 1671 1671 1663 1647 1647 1655 1655 1655
    1647 1647 1639 1632 1632 1624 1624 1632 1624 1624 1624 1090 1090
    1090 1087 1087 1084 1084 1080 1080 1080 1080 1080 1077 1073 1073
    1070 1070 1070 1067 1067 1073 1073 0 0 741 741 739 736 731 728 727
    722 719 717 717 717 713 713 713 711 711 711 710 710 710 711 711 711
    713 713 713 714 717 717 722 723 725 728 0 0 0 0 0 0 1439 1688 1688
    1688 1688 1696 1688 1680 1680 1680 1680 1680 1680 1671 1671 1671
    1663 1647 1632 1632 1632 1632 1632 1639 1632 1624 1624 1616 1616
    1624 1624 1624 1087 1087 1090 1087 1087 1084 1080 1080 1077 1077
    1077 1073 1073 1070 1070 1067 1067 1067 1067 1067 1067 0 0 0 0 741
    741 741 738 733 730 728 722 719 717 717 717 716 713 713 711 711 711
    711 710 710 711 711 711 713 713 714 716 717 717 722 723 727 728 734
    734 0 0 0 0 0</data></Depth3957>
</opencv_storage>
