<?xml version="1.0"?>
<opencv_storage>
<Depth17196 type_id="opencv-matrix">
  <rows>99</rows>
  <cols>53</cols>
  <dt>w</dt>
  <data>
    3774 3732 3732 3732 3732 3732 3732 3732 3692 3692 3653 3653 3653
    3653 3614 3614 3614 1268 1268 1255 1250 1250 1250 1268 1268 1268 0 0
    0 3653 3653 3653 3653 3653 3653 3653 3653 3653 3653 3614 3614 3614
    3614 3614 3576 2503 2503 2503 2503 2503 2503 2503 2503 3732 3732
    3732 3732 3732 3732 3732 3732 3732 3692 3692 3653 3653 3692 3692
    1273 1268 1268 1268 1255 1250 1210 1210 3433 0 0 3433 0 0 0 3653
    3653 3653 3653 3653 3653 3653 3614 3614 3614 3614 3614 3614 3614
    3614 3614 3614 2503 2503 2522 2522 2503 2503 3732 3732 3732 3732
    3732 3732 3732 3732 3732 3692 3692 3653 3653 3653 3653 1273 1273
    1268 1268 1227 1214 1210 1202 1202 0 0 0 0 0 0 3653 3653 3653 3653
    3653 3653 3653 3614 3614 3614 3614 3614 3614 3614 3614 3614 3614
    3653 2522 2522 2522 2503 2485 3732 3732 3732 3732 3732 3732 3732
    3692 3692 3692 3692 3653 3653 3653 0 1273 1273 1264 1264 1227 1210
    1206 1197 1197 0 0 0 0 0 0 3653 3653 0 0 0 0 0 0 0 0 0 0 0 3614 3614
    3614 3614 3653 3653 3653 3614 3576 2485 3732 3732 3732 3732 3774
    3732 3732 3692 3692 3692 3653 3653 3653 3653 0 1268 1259 1259 1250
    1250 1206 1202 1197 1197 0 0 0 0 0 0 0 0 1090 0 0 0 0 0 0 0 0 0 3653
    3653 3614 3614 3614 3614 3614 3653 3653 3614 3614 3774 3732 3732
    3732 3774 3732 3732 3692 3692 3692 3653 3653 3653 3653 0 1268 1268
    1259 1250 1219 1206 1202 1202 0 0 0 0 0 1090 1090 1090 0 0 0 0 0 0 0
    0 0 0 1097 1097 1097 1097 1101 3614 3614 3614 3614 3614 3576 3576
    3774 3732 3732 3732 3732 3732 3732 3692 3692 3653 3653 3653 3653
    3653 1268 1268 1268 1259 1245 1219 1206 1206 1210 0 0 1073 0 0 1090
    1090 1087 1087 1087 1080 0 0 0 0 0 0 1108 1097 1097 1097 1097 1094
    1090 1090 1084 1084 3614 3576 3576 3774 3774 3774 3732 3732 3732
    3732 3692 3692 3653 3653 3653 3653 0 1268 1268 1264 1259 1245 1219
    1210 1210 1210 1210 0 1073 1073 1073 1080 1080 1084 1080 1080 0 0 0
    0 0 0 0 0 1108 1097 1097 1094 1090 1090 1090 1084 1084 1084 1084
    2812 3774 3774 3774 3732 3732 3732 3732 3692 3692 3692 3692 3692
    3692 3692 1268 1268 1264 1259 1232 1232 1232 1232 1077 1077 1077
    1073 1070 1067 1067 1070 1077 1077 1067 1063 1063 1063 1063 1070
    1073 1077 1080 1105 1101 1097 1094 1090 1090 1090 1084 1084 1084
    1090 0 3732 3732 3774 3774 3774 3732 3732 3692 3692 3653 3653 3653
    3653 1268 1268 1268 1259 1250 1223 1223 1223 1189 1077 1077 1073
    1073 1070 1063 1063 1067 1067 1070 1067 1063 1063 1063 1063 1070
    1073 1077 1080 1090 1090 1090 1090 1090 1087 1087 1090 1090 1090
    1090 0 3732 3732 3732 3774 3774 3732 3732 3692 3692 3653 3653 3653
    3653 1268 1268 1264 1259 1250 1223 1223 1189 1189 1189 1073 1073
    1073 1070 1063 1063 1063 1063 1067 1067 1067 1067 1070 1070 1073
    1073 1077 1077 1080 1084 1087 1087 1087 1087 1087 1087 1087 1087
    1087 1084 3732 3732 3732 3774 3732 3732 3732 3692 3692 3692 3692
    3692 3692 1268 1268 1264 1259 1250 1250 1177 1138 1130 1126 1073
    1073 1070 1063 1063 1063 1063 1063 1063 1063 1063 1063 1067 1070
    1073 1073 1073 1077 1077 1080 1084 1084 1084 1084 1087 1087 1084
    1084 1084 1084 3732 3732 3732 3732 3732 3732 3732 3732 3692 3692
    3692 3692 3692 1283 1268 1264 1259 1245 1245 1177 1138 1130 1126
    1073 1073 1070 1063 1063 1063 1063 1063 1063 1063 1063 1063 1067
    1070 1073 1073 1073 1073 1073 1080 1080 1084 1084 1084 1087 1087
    1084 1084 1084 1084 3732 3732 3732 3732 3732 3732 3732 3732 3692
    3692 3692 3692 3692 1283 1273 1264 1255 1241 1241 1177 1145 1126
    1123 1073 1073 1073 1063 1063 1063 1063 1063 1063 1067 1067 1067
    1070 1070 1073 1073 1073 1073 1073 1080 1080 1080 1084 1084 1084
    1084 1084 1080 1080 1084 3774 3774 3774 3774 3774 3774 3732 3732
    3732 3692 3692 3732 3732 1288 1273 1259 1255 1241 1241 1177 1145
    1126 1119 1077 1073 1070 1063 1063 1063 1063 1063 1067 1070 1070
    1070 1070 1070 1073 1073 1073 1073 1077 1080 1080 1080 1084 1084
    1084 1084 1084 1080 1080 1080 3774 3774 3774 3774 3774 3774 3774
    3732 3692 3692 3692 3732 3732 1288 1268 1255 1250 1241 1241 1177
    1177 1126 1115 1077 1073 1070 1063 1063 1063 1063 1063 1067 1070
    1070 1073 1073 1073 1073 1073 1073 1077 1077 1080 1080 1080 1084
    1087 1084 1084 1084 1080 1080 1080 3774 3774 3774 3774 3774 3774
    3732 3732 3692 3692 3692 3692 1268 1268 1255 1250 1245 1241 1197
    1177 1177 1177 1112 1077 1073 1070 1067 1067 1067 1070 1067 1067
    1070 1070 1073 1073 1073 1073 1073 1073 1077 1077 1080 1080 1080
    1084 1087 1087 1084 1084 1080 1080 1080 3774 3774 3774 3774 3774
    3732 3732 3732 3692 3692 3692 3774 1268 1268 1255 1250 1241 1214
    1185 1177 1123 1119 1112 1073 1073 1070 1067 1067 1070 1070 1070
    1070 1070 1070 1070 1073 1073 1073 1073 1073 1077 1077 1080 1080
    1080 1084 1084 1087 1087 1084 1080 1080 1080 3774 3774 3774 3774
    3732 3732 3732 3732 3732 3732 3774 3774 1259 1255 1255 1250 1241
    1214 1185 1177 1123 1119 1077 1073 1070 1067 1067 1067 1070 1073
    1070 1070 1070 1070 1070 1073 1073 1073 1073 1073 1077 1077 1080
    1080 1080 1084 1084 1087 1087 1084 1080 1080 1080 3774 3774 3774
    3774 3732 3732 3732 3732 3732 3732 3732 3732 1259 1259 1255 1250
    1245 1214 1181 1177 1130 1126 1077 1073 1070 1067 1067 1067 1073
    1073 1073 1070 1070 1070 1073 1073 1073 1073 1073 1077 1077 1080
    1084 1084 1084 1084 1084 1087 1087 1087 1084 1084 1084 3774 3774
    3774 3774 3732 3732 3732 3692 3692 3692 3692 3692 1259 1259 1259
    1250 1245 1214 1173 1173 1177 1177 1077 1073 1070 1070 1070 1070
    1073 1073 1073 1073 1070 1070 1073 1073 1073 1077 1077 1077 1077
    1080 1084 1084 1084 1084 1084 1084 1087 1087 1087 1087 1087 3774
    3774 3774 3774 3732 3732 3732 3692 3692 3692 3692 3692 1264 1264
    1259 1250 1245 1181 1173 1161 1161 1161 1073 1073 1073 1070 1070
    1070 1073 1073 1073 1073 1070 1070 1073 1073 1077 1077 1077 1077
    1077 1080 1084 1084 1084 1084 1084 1084 1087 1087 1090 1090 1090
    3774 3774 3774 3774 3732 3732 3732 3692 3653 3653 3692 3692 1273
    1268 1259 1250 1241 1181 1173 1161 1134 1134 1073 1073 1073 1073
    1073 1073 1073 1073 1073 1073 1070 1070 1073 1073 1077 1077 1077
    1077 1077 1080 1084 1084 1084 1084 1084 1087 1087 1087 1090 1090
    1090 3774 3774 3774 3774 3774 3732 3732 3692 3653 3653 3653 1273
    1273 1268 1259 1250 1232 1232 1173 1130 1130 1130 1073 1073 1073
    1073 1073 1073 1073 1073 1073 1073 1073 1073 1073 1073 1077 1077
    1077 1077 1080 1080 1084 1084 1084 1084 1084 1087 1087 1087 1090
    1090 0 3774 3774 3774 3774 3774 3732 3732 3692 3653 3653 3653 1273
    1273 1268 1259 1236 1210 1197 1197 1126 1126 1077 1073 1073 1073
    1073 1073 1073 1073 1073 1073 1073 1073 1073 1073 1073 1077 1077
    1077 1077 1080 1080 1084 1084 1084 1087 1087 1087 1087 1087 1087
    1087 0 3774 3774 3774 3774 3774 3774 3732 3732 3732 3732 1278 1278
    1273 1268 1259 1236 1197 1189 1119 1119 1119 1077 1073 1073 1073
    1070 1070 1073 1077 1077 1073 1073 1073 1073 1073 1073 1077 1077
    1077 1077 1080 1080 1084 1084 1084 1087 1087 1087 1087 1087 1087
    1087 0 3774 3774 3774 3774 3774 3774 3732 3732 3732 3732 1278 1278
    1273 1268 1255 1241 1193 1185 1119 1119 1097 1080 1077 1077 1073
    1070 1070 1073 1077 1073 1073 1077 1077 1077 1077 1077 1077 1077
    1077 1077 1080 1080 1084 1084 1087 1087 1090 1090 1090 1087 1087
    1087 0 3774 3774 3774 3774 3774 3774 3732 3732 3732 3732 1283 1283
    1268 1264 1250 1236 1189 1181 1123 1119 1097 1084 1077 1073 1073
    1073 1073 1077 1077 1073 1073 1077 1077 1077 1077 1077 1077 1077
    1077 1077 1080 1080 1084 1087 1087 1090 1090 1090 1090 1087 1087
    1087 2767 3774 3774 3774 3774 3774 3774 3774 3774 3774 3774 1268
    1268 1268 1259 1245 1236 1185 1177 1177 1115 1108 1084 1077 1073
    1073 1073 1073 1077 1073 1073 1077 1077 1077 1077 1077 1077 1077
    1080 1077 1077 1080 1080 1084 1087 1090 1090 1090 1090 1090 1090
    1090 0 2767 3774 3774 3774 3774 3774 3774 3732 3732 3732 0 0 1264
    1264 1255 1245 1206 1185 1177 1177 1115 1087 1084 1077 1077 1073
    1073 1077 1077 1073 1073 1077 1077 1077 1077 1077 1077 1077 1080
    1080 1080 1080 1080 1084 1087 1090 1090 1090 1090 1090 1090 1090 0
    2767 3774 3774 3774 3774 3774 3774 3732 3732 3732 0 1283 1264 1264
    1255 1245 1202 1185 1185 1185 1123 1087 1084 1080 1077 1073 1073
    1077 1077 1077 1077 1077 1077 1077 1077 1077 1077 1080 1080 1080
    1080 1084 1084 1084 1087 1090 1090 1090 1090 1090 1090 1090 0 2767
    3774 3774 3774 3774 3774 3774 3732 3732 3732 1288 1283 1283 1268
    1255 1245 1202 1189 1189 1189 1090 1087 1084 1077 1077 1073 1073
    1077 1077 1077 1077 1077 1077 1077 1077 1077 1080 1080 1080 1080
    1080 1084 1084 1084 1087 1090 1090 1090 1090 1090 1090 1090 0 2767
    3774 3774 3774 3774 3774 3774 3732 3732 3732 1288 1288 1278 1268
    1259 1250 1202 1189 1189 1189 1090 1087 1080 1077 1077 1073 1073
    1077 1077 1077 1077 1077 1077 1077 1077 1077 1080 1080 1080 1080
    1080 1084 1084 1084 1087 1090 1090 1090 1090 1090 1090 1090 2767
    2767 3774 3774 3774 3774 3774 3774 3774 3774 3774 1283 1283 1268
    1259 1250 1245 1245 1189 1189 1189 1084 1084 1080 1077 1073 1073
    1073 1077 1077 1077 1077 1077 1077 1077 1077 1077 1080 1080 1080
    1080 1080 1084 1084 1084 1087 1090 1090 1090 1090 1090 1090 0 2767
    2767 3774 3774 3774 3774 3774 3774 3774 3774 3774 1278 1278 1268
    1255 1250 1223 1202 1193 1193 1193 1084 1084 1080 1077 1073 1073
    1073 1077 1077 1077 1077 1077 1077 1077 1077 1080 1080 1080 1080
    1084 1084 1084 1084 1084 1090 1090 1090 1090 1090 1090 1090 0 2767
    2767 3774 3774 3774 3774 3774 3774 3774 3774 3774 1278 1278 1273
    1255 1250 1214 1197 1193 1193 1193 1080 1080 1077 1077 1073 1073
    1077 1077 1077 1077 1077 1077 1077 1077 1080 1080 1084 1084 1084
    1084 1084 1084 1084 1087 1090 1090 1094 1090 1087 1087 1087 2789
    2767 2767 3774 3774 3774 3774 3774 3774 3774 3774 1288 1288 1283
    1273 1259 1245 1214 1197 1193 1193 1090 1080 1080 1077 1077 1073
    1073 1077 1077 1077 1077 1077 1077 1077 1077 1080 1080 1084 1084
    1084 1084 1084 1084 1084 1087 1090 1094 1094 1090 1087 1087 0 2789
    2789 2767 3774 3774 3774 3774 3774 3774 3774 3774 1283 1283 1283
    1268 1255 1245 1210 1181 1181 1193 1087 1084 1080 1080 1077 1077
    1077 1077 1077 1077 1077 1077 1077 1077 1080 1080 1080 1080 1084
    1084 1087 1084 1084 1084 1090 1090 1094 1094 1090 1090 1090 0 2789
    2789 2767 3774 3774 3774 3774 3774 3774 3774 3774 1283 1283 1278
    1264 1255 1245 1210 1181 1181 1138 1087 1084 1080 1080 1077 1077
    1077 1077 1077 1077 1077 1077 1077 1077 1080 1080 1080 1080 1084
    1084 1087 1087 1084 1084 1090 1090 1094 1094 1090 1090 1090 0 2789
    2767 2767 3732 3774 3774 3774 3732 3732 3774 3774 3774 1268 1268
    1264 1250 1241 1232 1232 1138 1134 1087 1080 1080 1080 1077 1077
    1077 1080 1080 1077 1077 1077 1077 1077 1084 1084 1084 1084 1084
    1084 1087 1087 1087 1087 1090 1090 1090 1094 1094 1094 1094 0 2789
    2767 2767 3692 3732 3732 3732 3732 3732 3774 3774 1278 1268 1268
    1259 1245 1236 1214 1214 1138 1134 1087 1080 1080 1080 1080 1080
    1080 1080 1080 1080 1077 1077 1077 1080 1084 1084 1084 1084 1084
    1087 1087 1087 1087 1087 1090 1090 1090 1094 1094 1094 0 2767 2767
    2767 2767 3692 3732 3732 3732 3692 3692 3732 3732 1278 1278 1268
    1255 1241 1227 1214 1214 1138 1134 1087 1080 1080 1077 1077 1077
    1080 1080 1080 1080 1077 1077 1077 1080 1084 1084 1084 1084 1084
    1087 1087 1087 1087 1087 1090 1090 1090 1090 1090 1090 0 2767 2767
    2767 2767 3732 3732 3692 3692 3692 3692 3692 3692 1278 1278 1268
    1255 1236 1214 1206 1197 1134 1130 1094 1080 1080 1077 1077 1077
    1080 1080 1080 1080 1080 1080 1080 1080 1084 1084 1087 1087 1087
    1087 1087 1087 1087 1090 1090 1090 1090 1090 1090 1090 0 2767 2767
    2767 2767 3732 3732 3692 3692 3692 3692 3692 3692 1273 1273 1264
    1255 1223 1202 1189 1189 1134 1130 1094 1084 1077 1077 1077 1077
    1080 1080 1080 1080 1080 1080 1080 1080 1084 1084 1087 1087 1087
    1087 1087 1087 1087 1090 1090 1090 1090 1090 1090 1090 0 2767 2767
    2767 2767 3732 3732 3692 3653 3653 3653 3653 3653 1268 1268 1264
    1255 1223 1202 1185 1145 1134 1112 1094 1084 1077 1077 1077 1077
    1080 1084 1080 1080 1080 1080 1080 1080 1084 1084 1087 1087 1087
    1087 1087 1087 1087 1090 1090 1090 1090 1090 1090 1090 2835 2789
    2789 2789 2789 3732 3732 3692 3653 3653 3653 3653 0 1268 1268 1264
    1259 1206 1197 1181 1145 1130 1112 1090 1084 1080 1077 1077 1080
    1080 1080 1080 1080 1080 1080 1080 1080 1084 1084 1087 1087 1087
    1087 1087 1087 1087 1094 1094 1094 1090 1090 1090 1090 2835 2835
    2812 2812 2812 3774 3732 3692 3692 3692 3692 3692 1273 1268 1268
    1264 1259 1206 1189 1181 1181 1126 1097 1090 1087 1080 1077 1077
    1080 1080 1080 1080 1080 1080 1080 1080 1084 1084 1084 1087 1087
    1087 1087 1087 1087 1087 1094 1094 1094 1094 1094 1094 1094 2812
    2812 2812 2812 2812 3774 3774 3732 3692 3692 3816 3816 1273 1273
    1268 1264 1264 1206 1189 1181 1119 1112 1094 1090 1084 1084 1077
    1077 1080 1080 1080 1080 1080 1080 1080 1080 1084 1084 1084 1087
    1087 1087 1087 1087 1087 1087 1094 1094 1094 1094 1094 1094 0 2812
    2812 2812 2812 2812 3774 3774 3774 3774 3774 3774 0 1288 1273 1268
    1259 1259 1206 1185 1185 1115 1105 1094 1087 1084 1084 1080 1080
    1080 1080 1080 1080 1080 1080 1080 1080 1084 1087 1087 1087 1087
    1087 1087 1087 1087 1087 1094 1094 1094 1094 1094 1094 1090 2789
    2789 2789 2812 2812 3816 3774 3774 3732 3732 3774 3774 1288 1273
    1264 1255 1255 1206 1185 1185 1115 1105 1097 1087 1084 1084 1080
    1080 1080 1080 1080 1080 1080 1084 1084 1084 1084 1087 1087 1087
    1087 1087 1087 1087 1087 1090 1094 1094 1094 1090 1090 1090 1090
    2789 2789 2789 2812 2812 3816 3816 3774 3732 3732 3732 1288 1288
    1273 1264 1250 1232 1206 1185 1185 1115 1105 1090 1087 1084 1080
    1080 1080 1080 1080 1080 1080 1080 1084 1084 1084 1087 1087 1087
    1087 1087 1087 1087 1087 1087 1090 1094 1094 1094 1090 1090 1090
    1090 2812 2812 2812 2812 2812 3774 3774 3774 3774 3774 3774 1288
    1288 1273 1264 1250 1232 1197 1189 1189 1119 1101 1090 1084 1080
    1077 1077 1080 1080 1080 1080 1084 1084 1084 1087 1087 1087 1087
    1087 1087 1087 1087 1087 1087 1087 1090 1094 1094 1094 1094 1094
    1094 2835 2812 2812 2812 2812 2812 3774 3774 3774 3774 3774 1288
    1283 1283 1268 1264 1250 1197 1197 1193 1112 1112 1094 1087 1084
    1080 1077 1077 1080 1080 1080 1084 1084 1084 1084 1084 1084 1087
    1087 1087 1087 1090 1090 1090 1087 1087 1090 1094 1094 1094 1094
    1094 1094 2835 2835 2812 2812 2812 2835 3774 3774 3774 3774 3774
    1288 1288 1283 1268 1259 1250 1197 1197 1193 1112 1112 1090 1084
    1080 1080 1080 1080 1080 1084 1084 1084 1084 1084 1084 1084 1084
    1087 1087 1087 1090 1090 1090 1090 1090 1090 1090 1094 1094 1094
    1094 1094 1094 2835 2835 2835 2835 2835 2835 3774 3774 3774 3774
    3774 1283 1283 1273 1268 1259 1245 1227 1197 1193 1112 1112 1087
    1084 1080 1080 1080 1080 1084 1084 1084 1084 1084 1084 1087 1084
    1084 1087 1087 1087 1090 1090 1090 1090 1090 1090 1090 1094 1094
    1097 1097 1097 0 2835 2835 2835 2835 2835 2859 3774 3774 3774 3774
    3774 1278 1278 1273 1264 1255 1245 1223 1223 1119 1112 1112 1087
    1084 1084 1084 1084 1084 1087 1087 1087 1087 1087 1087 1087 1084
    1084 1087 1087 1087 1087 1090 1090 1090 1090 1090 1090 1094 1094
    1097 1097 1097 0 2835 2835 2835 2835 2859 2859 3774 3774 3774 3774
    3774 1288 1278 1268 1264 1255 1241 1223 1223 1119 1115 1105 1087
    1084 1084 1084 1084 1087 1087 1087 1087 1087 1084 1084 1087 1087
    1087 1087 1087 1087 1087 1090 1090 1090 1090 1090 1090 1094 1094
    1097 1097 1097 0 2859 2859 2859 2859 2859 2883 3774 3774 3774 3774
    1283 1283 1278 1268 1264 1255 1227 1202 1123 1119 1115 1097 1090
    1084 1084 1084 1087 1087 1087 1087 1087 1084 1084 1084 1087 1087
    1087 1087 1087 1087 1090 1090 1090 1090 1090 1090 1090 1097 1097
    1097 1097 1097 2835 2859 2859 2859 2859 2859 2859 3732 3774 3774
    3774 1283 1283 1278 1273 1264 1255 1227 1197 1123 1119 1115 1097
    1090 1084 1084 1087 1087 1087 1087 1087 1087 1084 1084 1084 1087
    1087 1087 1087 1087 1090 1090 1090 1090 1090 1090 1090 1094 1097
    1097 1097 1097 1097 2835 2835 2835 2859 2859 2859 2859 3692 3732
    3774 3774 1283 1283 1283 1273 1264 1255 1236 1189 1134 1119 1108
    1097 1090 1087 1087 1087 1087 1087 1087 1087 1084 1084 1084 1087
    1087 1087 1087 1087 1090 1090 1090 1090 1090 1090 1090 1094 1094
    1101 1097 1097 1097 0 2835 2835 2835 2859 2859 2859 2859 3653 3653
    3692 3692 1283 1283 1283 1273 1264 1245 1232 1181 1134 1119 1108
    1090 1087 1087 1087 1087 1087 1087 1087 1084 1084 1084 1087 1087
    1087 1087 1090 1090 1090 1090 1090 1090 1090 1090 1090 1094 1094
    1101 1101 1101 1101 0 2859 2859 2859 2859 2859 2859 2859 3576 3576
    3692 3692 1283 1283 1283 1273 1264 1241 1219 1181 1138 1126 1112
    1090 1087 1087 1084 1084 1087 1087 1087 1084 1084 1084 1087 1087
    1087 1087 1090 1090 1090 1090 1090 1094 1090 1090 1090 1094 1094
    1097 1097 1097 1097 2908 2859 2859 2859 2859 2835 2835 3816 2723
    2767 2767 1292 1292 1283 1283 1273 1264 1241 1219 1189 1141 1130
    1119 1090 1087 1087 1084 1084 1084 1084 1084 1084 1084 1084 1087
    1087 1087 1087 1090 1090 1090 1090 1094 1094 1090 1090 1090 1094
    1094 1097 1097 1097 1097 2908 2908 2883 2859 2859 2835 2835 2835
    2723 2767 2767 1292 1292 1283 1283 1273 1264 1264 1264 1126 1130
    1130 1090 1087 1087 1084 1084 1084 1084 1084 1084 1084 1084 1087
    1087 1087 1090 1090 1090 1090 1090 1094 1094 1094 1090 1090 1090
    1094 1094 1097 1097 1097 2908 2908 2908 2883 2883 2859 2859 2859
    3503 2723 2744 2744 2744 1278 1278 1273 1268 1259 1259 1259 1126
    1123 1112 1090 1087 1087 1084 1084 1084 1084 1084 1087 1087 1087
    1087 1087 1087 1090 1090 1090 1090 1094 1094 1094 1090 1090 1090
    1090 1097 1097 1097 1097 1097 2908 2908 2908 2908 2908 2883 2835
    2835 3503 2701 2701 2701 0 1278 1278 1268 1255 1236 1227 1214 1126
    1123 1101 1094 1090 1087 1084 1084 1084 1087 1087 1087 1087 1087
    1087 1087 1090 1090 1090 1090 1090 1094 1094 1090 1090 1090 1090
    1097 1097 1097 1101 1101 1101 0 2908 2908 2908 2908 2883 2835 2835
    3503 2639 2639 2639 1283 1283 1283 1255 1245 1236 1223 1210 1134
    1126 1101 1090 1087 1084 1084 1084 1084 1087 1087 1087 1087 1087
    1090 1090 1090 1090 1090 1090 1094 1094 1094 1090 1090 1090 1094
    1097 1097 1101 1101 1101 1101 2933 2933 2908 2908 2908 2883 2883
    3692 3614 2639 2639 2639 1283 1283 1283 1255 1241 1232 1214 1210
    1134 1130 1101 1090 1087 1084 1084 1084 1087 1087 1087 1087 1087
    1087 1090 1090 1090 1090 1090 1094 1094 1097 1094 1094 1090 1090
    1094 1097 1097 1101 1101 1101 1101 2908 2908 2908 2908 2908 2908
    3653 3653 3653 2618 2639 0 1283 1283 1283 1264 1219 1214 1210 1149
    1134 1134 1094 1090 1087 1087 1087 1087 1087 1087 1087 1090 1087
    1087 1090 1090 1090 1090 1094 1094 1094 1094 1094 1094 1090 1090
    1094 1097 1097 1097 1101 1105 1105 2908 2908 2908 2859 2835 2835
    3468 3399 3399 2618 2639 2639 0 2639 1219 1219 1219 1210 1197 1149
    1134 1134 1094 1090 1087 1087 1087 1087 1087 1087 1087 1090 1090
    1090 1090 1090 1094 1094 1094 1094 1094 1094 1094 1090 1090 1090
    1094 1097 1097 1097 1097 1097 1097 0 2859 2859 2859 2835 2835 3365
    3399 3399 2639 2639 2639 2639 2639 0 1165 1165 1165 1165 1149 1138
    1097 1090 1090 1087 1087 1087 1087 1087 1087 1087 1090 1090 1090
    1090 1090 1094 1094 1094 1094 1094 1094 1094 1090 1090 1090 1101
    1097 1097 1097 1097 1097 0 2859 2859 2835 2835 3365 3365 3333 3333
    3365 2639 2639 2639 2639 2639 0 0 1161 1161 1161 1153 1138 1094 1090
    1090 1087 1087 1087 1087 1087 1087 1087 1087 1087 1090 1090 1090
    1094 1094 1094 1097 1097 1097 1094 1090 1090 1090 1101 1101 1101
    1097 1097 1097 0 2767 2767 2744 2744 2744 3333 3300 3300 3300 2639
    2618 2618 2618 2618 0 0 1153 1153 1149 1149 1101 1094 1090 1090 1087
    1087 1087 1087 1087 1087 1087 1087 1087 1090 1090 1090 1090 1090
    1094 1097 1097 1097 1097 1090 1090 1094 1101 1101 1101 1101 1101
    1101 0 2723 2723 2723 2723 2723 2723 3300 3300 3300 2639 2618 2618
    2618 0 0 0 1145 1145 1141 1134 1101 1094 1090 1090 1090 1090 1090
    1090 1090 1090 1087 1087 1090 1090 1090 1090 1090 1090 1090 1094
    1097 1097 1097 1094 1094 1097 1101 1105 1101 1101 1105 1105 2659
    2680 2680 2680 2701 2680 2680 2680 2680 2701 2639 2639 2598 2598 0 0
    0 1141 1138 1138 1134 1101 1094 1090 1090 1087 1087 1087 1090 1090
    1090 1090 1090 1090 1090 1090 1090 1090 1090 1090 1094 1097 1097
    1097 1097 1097 1097 1101 1101 1101 1101 1105 1105 2659 2659 2659
    2659 2659 2659 2659 2659 2659 2659 2659 2639 2598 2598 0 0 0 1138
    1138 1138 1130 1101 1094 1090 1090 1087 1087 1087 1090 1090 1090
    1090 1090 1090 1090 1094 1094 1094 1094 1094 1097 1097 1097 1097
    1097 1101 1101 1101 1101 1097 1097 1097 1097 2639 2639 2639 2639
    2639 2639 2639 2639 2639 2639 2659 2639 2639 2639 0 0 0 1134 1134
    1134 1126 1101 1094 1090 1090 1087 1087 1087 1090 1090 1090 1090
    1090 1090 1090 1094 1097 1097 1097 1097 1097 1097 1101 1097 1097
    1101 1101 1101 1101 1097 1097 1097 1097 2618 2618 2618 2618 2618
    2618 2639 2639 2639 2639 2639 2659 2639 2639 0 0 0 1134 1130 1126
    1119 1105 1094 1090 1090 1087 1087 1087 1090 1090 1090 1090 1090
    1090 1094 1094 1097 1097 1101 1101 1097 1097 1101 1101 1101 1101
    1105 1101 1101 1101 1101 1101 2618 2598 2598 2598 2598 2618 2618
    2639 2639 2618 2618 2639 2639 2659 0 0 0 0 0 1123 1119 1108 1101
    1094 1090 1090 1090 1090 1090 1090 1090 1090 1094 1094 1094 1094
    1097 1097 1101 1101 1101 1097 1097 1101 1101 1101 1101 1101 1101
    1101 1101 1101 2618 2618 2598 2598 2598 2598 2598 2618 2639 2639
    2618 2618 2639 2639 0 0 0 0 0 0 1123 1105 1101 1097 1094 1090 1090
    1090 1090 1090 1090 1090 1090 1094 1094 1094 1097 1097 1101 1101
    1101 1101 1101 1101 1101 1101 1101 1101 1101 1101 1101 1101 2639
    2618 2618 2598 2579 2579 2579 2598 2618 2639 2639 2639 2639 0 0 0 0
    0 0 0 0 0 1101 1097 1094 1094 1090 1090 1090 1090 1090 1090 1090
    1090 1094 1094 1094 1097 1097 1101 1101 1101 1101 1101 1101 1101
    1101 1101 1101 1101 1101 1101 1101 2639 2639 2618 2598 2579 2579
    2579 2598 2618 2639 2639 2639 2639 0 0 0 0 0 0 0 0 0 1094 1094 1090
    1090 1090 1090 1090 1090 1090 1090 1090 1090 1094 1094 1094 1094
    1094 1097 1101 1101 1101 1101 1101 1101 1101 1101 1101 1101 1097
    1097 0 0 2639 2618 2618 2598 2579 2579 2598 2618 2639 2639 2639 2639
    0 0 0 0 0 0 0 0 0 1094 1094 1090 1090 1090 1090 1090 1090 1090 1090
    1090 1090 1094 1094 1094 1094 1094 1097 1097 1097 1101 1101 1101
    1101 1101 1101 1101 1101 1097 1097 0 0 0 2618 2618 2598 2579 2579
    2618 2618 2639 2639 2639 2639 0 0 0 0 0 0 0 0 0 1094 1094 1090 1090
    1090 1090 1090 1090 1090 1090 1090 1090 1094 1094 1094 1094 1094
    1097 1097 1097 1101 1101 1101 1101 1101 1105 1101 1101 1097 1097 0 0
    0 0 0 0 0 2639 2639 2639 2639 2618 2618 2618 0 0 0 0 0 0 0 0 1097
    1097 1094 1090 1090 1090 1090 1090 1090 1090 1090 1090 1090 1090
    1090 1090 1094 1094 1097 1097 1097 1101 1101 1101 1101 1101 1101
    1101 1101 1097 1097 0 0 0 0 0 0 0 0 2639 2618 2618 2598 2598 2598 0
    0 0 0 0 0 0 0 1094 1094 1094 1094 1090 1090 1090 1090 1090 1090 1090
    1090 1087 1087 1090 1090 1094 1097 1097 1097 1097 1101 1101 1101
    1101 1101 1101 1101 1101 1101 0 0 0 0 0 0 0 0 0 0 2618 2618 2598
    2598 2598 0 0 1264 1264 1259 1259 0 0 1090 1090 1090 1090 1090 1090
    1090 1090 1087 1087 1087 1087 1087 1087 1090 1090 1094 1097 1097
    1097 1101 1101 1101 1101 1101 1101 1101 1101 1101 1105 1105 0 0 0 0
    0 0 0 0 0 0 0 0 0 2598 1250 1250 1250 1255 1259 1255 1255 1090 1090
    1090 1090 1090 1090 1090 1090 1090 1087 1087 1087 1087 1090 1090
    1090 1094 1094 1097 1097 1097 1101 1101 1101 1101 1101 1101 1105
    1101 1101 1105 1105 0 0 0 0 0 0 0 0 0 0 0 0 0 0 1245 1245 1241 1241
    1245 1245 1245 1090 1090 1090 1090 1090 1090 1090 1090 1090 1090
    1090 1090 1090 1090 1090 1094 1097 1097 1101 1101 1101 1101 1101
    1101 1101 1101 1105 1105 1105 1105 1105 1105 0 0 0 0 0 0 0 0 0 0 0 0
    0 0 1245 1241 1241 1236 1236 1236 1236 1232 1094 1090 1090 1090 1090
    1090 1090 1090 1090 1090 1090 1090 1090 1094 1094 1097 1101 1101
    1101 1105 1105 1105 1105 1105 1105 1105 1105 1105 1105 1105 1105 0 0
    0 0 0 0 0 0 0 0 0 0 0 0 1236 1236 1232 1227 1227 1227 1227 1227 1094
    1090 1090 1090 1087 1087 1087 1087 1087 1087 1090 1090 1090 1094
    1094 1094 1097 1101 1105 1105 1108 1105 1105 1105 1105 1105 1105
    1105 1105 1105 1105 0 0 0 0 0 0 0 0 0 0 0 0 0 0 1232 1227 1223 1219
    1214 1214 1219 1219 1219 1214 1090 1087 1087 1087 1087 1087 1087
    1087 1090 1090 1090 1094 1094 1094 1097 1097 1105 1108 1108 1105
    1105 1105 1105 1105 1105 1105 1105 1105 1105 0 0 0 0 0 0 0 0 0 0 0 0
    0 0 1232 1227 1206 1202 1202 1202 1202 1202 1206 1202 1193 1087 1084
    1084 1087 1087 1090 1090 1090 1090 1094 1094 1090 1090 1094 1094
    1101 1105 1105 1105 1105 1105 1105 1105 1105 1105 1105 1105 1105 0 0
    0 0 0 0 0 0 0 0 0 0 0 0 0 1227 1202 1193 1193 1193 1193 1197 1197
    1197 1193 1087 1084 1084 1202 1090 1090 1090 1210 1210 1214 1214
    1090 1090 1094 1094 1101 1101 1101 1105 1105 1105 1105 1105 1105
    1105 1105 1105 1108 0 0 0 0 0 0 0 0 0 0 0 0 0 0 1197 1197 1193 1189
    1189 1189 1189 1193 1189 1189 1189 1185 1185 1193 1197 1202 1202
    1202 1206 1210 1210 1214 1210 1206 1202 1202 1202 1101 1101 1105
    1105 1105 1105 1105 1105 1105 1105 1105 0 0 0 0 0 0 0 0 0 0 0 0 0 0
    0 1197 1193 1185 1181 1181 1181 1181 1181 1181 1181 1181 1181 1185
    1185 1193 1193 1193 1193 1193 1202 1206 1206 1202 1202 1197 1197
    1197 1197 1214 1214 1219 1214 1206 1206 0 0 0 0 0 0 0 0 0 0 0 0 0 0
    0 0 0 0 0 1193 1185 1181 1177 1177 1173 1173 1169 1169 1173 1173
    1177 1181 1181 1185 1189 1189 1185 1185 1189 1189 1189 1193 1197
    1197 1197 1193 1193 1206 1206 1206 1206 1206 0 0 0 0 0 0 0 0 0 0 0 0
    0 0 0 0 0 0 0 0 1193 1185 1181 1173 1169 1169 1165 1165 1165 1169
    1169 1173 1173 1173 1173 1173 1173 1177 1177 1181 1181 1185 1185
    1189 1193 1189 1189 1193 1197 1197 1197 1193 1193 0 0 0 0 0 0 0 0 0
    0 0 0 0 0 0 0 0 0 0 0 1193 1181 1173 1165 1161 1161 1161 1161 1161
    1161 1161 1165 1165 1165 1165 1165 1169 1169 1173 1177 1177 1177
    1181 1181 1185 1185 1185 1185 1189 1189 1189 1185 1181 1181 0 0 0 0
    0 0 0 0 0 0 0 0 0 0 0 0 0 0 0</data></Depth17196>
</opencv_storage>
