<?xml version="1.0"?>
<opencv_storage>
<Depth10065 type_id="opencv-matrix">
  <rows>102</rows>
  <cols>68</cols>
  <dt>w</dt>
  <data>
    3503 3503 3503 3503 3503 3503 3503 3468 3468 3468 3503 3503 3468
    3468 3468 3468 3468 3468 3468 3468 3433 3433 3399 3399 3399 3399
    3399 3399 3333 3333 3333 0 3365 3365 3365 3399 3399 3365 1057 1057
    1057 1057 1057 1050 0 3433 3433 3399 3399 3399 3365 3365 3333 3333
    3333 3333 3365 3333 3333 3333 3333 3333 3333 3333 3300 3300 3300
    3300 3503 3503 3503 3503 3503 3503 3503 3468 3468 3468 3503 3503
    3468 3468 3468 3468 3468 3503 3468 3468 3433 3433 3399 3399 3399
    3399 3399 3399 3333 3333 3333 1041 3365 3365 3365 3399 3399 3365
    3365 1054 1054 1050 1050 1050 0 3399 3399 3399 3399 3365 3365 3365
    3333 3333 3333 3333 3333 3333 3333 3333 3300 3300 3300 3300 3300
    3300 3300 3300 3503 3503 3503 3503 3503 3503 3503 3468 3468 3468
    3503 3503 3468 3468 3468 3468 3468 3503 3503 3468 3433 3433 3399
    3399 3399 3399 3399 3399 3365 1041 1041 1041 3365 3365 3365 3399
    1050 1050 1041 1041 1050 1038 1038 1038 1038 3399 3399 3365 3365
    3365 3365 3365 3333 3333 3333 3333 3333 3333 1038 1034 1034 3300
    3300 3300 3300 3300 3300 3300 3503 3503 3503 3503 3503 3468 3468
    3468 1054 1054 1054 1054 1054 1050 1050 1050 1050 3503 3503 1050
    1050 1054 1054 1057 1060 1050 1044 1044 1041 1041 1038 1038 1038
    1038 1038 1041 1041 1041 1041 1041 1041 1038 1038 1038 1038 1038
    1034 1031 1031 3365 3365 3365 3333 3333 3333 3333 1034 1031 1031
    1031 1028 1028 3300 3300 3300 3300 3300 3300 3503 3503 3503 3503
    3468 3468 1057 1054 1054 1054 1054 1054 1050 1050 1047 1047 1050
    1050 1050 1050 1050 1050 1050 1044 1044 1041 1041 1041 1041 1041
    1038 1038 1038 1038 1038 1041 1041 1038 1038 1038 1038 1038 1038
    1038 1038 1038 1034 1031 1031 1034 1034 1034 1034 1034 1034 1034
    1034 1031 1031 1031 1028 1028 1028 1031 1031 3300 3300 3300 3503
    3503 3503 1054 1054 1057 1054 1054 1054 1050 1050 1050 1050 1050
    1047 1047 1047 1047 1050 1047 1047 1047 1044 1044 1041 1041 1041
    1041 1041 1041 1038 1038 1038 1038 1041 1041 1041 1038 1038 1038
    1038 1038 1034 1034 1034 1034 1034 1034 1034 1034 1031 1031 1031
    1031 1031 1031 1028 1028 1031 1031 1031 1028 1028 1031 1031 1031
    3300 3300 0 0 1054 1054 1054 1054 1054 1054 1050 1050 1050 1050 1050
    1050 1050 1047 1047 1047 1047 1047 1047 1044 1044 1041 1041 1041
    1041 1041 1041 1041 1041 1041 1038 1038 1038 1038 1038 1038 1038
    1038 1038 1038 1034 1031 1031 1031 1034 1034 1034 1034 1031 1031
    1031 1031 1031 1031 1028 1028 1028 1028 1028 1031 1031 1031 1031 0 0
    3300 0 0 1054 1050 1050 1054 1050 1050 1050 1050 1050 1050 1050 1047
    1047 1047 1047 1047 1047 1044 1044 1044 1041 1041 1041 1041 1038
    1038 1038 1038 1041 1041 1038 1038 1038 1038 1038 1038 1038 1038
    1038 1038 1034 1031 1031 1031 1034 1034 1031 1031 1031 1031 1031
    1031 1028 1028 1028 1028 1028 1028 1028 1028 1028 1031 1031 0 0 3300
    0 0 1050 1050 1050 1050 1050 1050 1050 1050 1050 1050 1050 1047 1044
    1044 1041 1041 1044 1041 1041 1041 1041 1041 1041 1038 1038 1038
    1038 1038 1038 1038 1038 1038 1038 1034 1034 1038 1034 1034 1034
    1038 1034 1031 1031 1034 1034 1031 1031 1031 1031 1031 1031 1028
    1028 1028 1028 1028 1028 1028 1028 1028 1028 1031 1031 0 0 3300 0 0
    1050 1050 1050 1050 1050 1050 1050 1050 1050 1047 1047 1044 1044
    1041 1041 1041 1041 1041 1041 1041 1041 1041 1038 1038 1038 1038
    1038 1038 1038 1038 1038 1038 1038 1034 1034 1038 1034 1034 1034
    1034 1034 1034 1031 1031 1031 1031 1031 1031 1031 1031 1031 1028
    1028 1028 1028 1028 1028 1028 1025 1025 1025 1028 0 0 0 0 0 0 1047
    1047 1047 1050 1050 1050 1050 1050 1050 1047 1047 1044 1044 1041
    1041 1041 1041 1041 1041 1041 1041 1041 1038 1038 1038 1038 1038
    1038 1038 1038 1038 1038 1038 1034 1034 1034 1031 1031 1034 1034
    1031 1031 1031 1031 1031 1031 1031 1031 1031 1031 1031 1028 1028
    1028 1028 1028 1028 1028 1025 1022 1022 1025 0 0 0 3300 0 0 1047
    1047 1047 1050 1050 1050 1050 1050 1050 1047 1047 1044 1044 1041
    1041 1041 1041 1041 1041 1041 1041 1038 1038 1038 1038 1038 1038
    1034 1034 1034 1034 1034 1034 1034 1034 1034 1031 1031 1031 1031
    1031 1031 1031 1031 1031 1031 1028 1028 1028 1028 1028 1028 1028
    1028 1028 1028 1028 1025 1022 1022 1022 1025 0 0 0 3300 0 1054 1047
    1047 1047 1050 1050 1050 1050 1050 1047 1047 1044 1044 1041 1041
    1041 1041 1041 1041 1041 1041 1038 1038 1038 1038 1038 1038 1034
    1034 1031 1031 1031 1031 1034 1034 1034 1028 1028 1031 1031 1031
    1031 1031 1031 1031 1031 1031 1028 1028 1028 1028 1028 1028 1025
    1025 1025 1025 1028 1025 1022 1019 1019 1028 0 0 0 3269 0 1054 1050
    1047 1047 1047 1047 1047 1050 1047 1047 1044 1044 1041 1041 1041
    1041 1041 1041 1041 1041 1041 1038 1038 1034 1034 1034 1034 1034
    1031 1031 1031 1031 1031 1031 1028 1028 1028 1028 1028 1031 1031
    1031 1028 1028 1028 1028 1028 1028 1028 1028 1028 1028 1028 1025
    1025 1025 1025 1025 1025 1022 1019 1019 0 0 0 0 3269 0 1057 1050
    1044 1044 1044 1044 1047 1047 1044 1044 1041 1041 1041 1041 1041
    1041 1041 1041 1041 1038 1038 1038 1034 1034 1034 1034 1034 1034
    1031 1031 1031 1031 1031 1028 1028 1028 1028 1028 1028 1031 1031
    1031 1028 1028 1028 1028 1028 1028 1028 1028 1028 1028 1028 1025
    1025 1025 1022 1022 1025 1022 1019 1019 1019 0 0 0 3269 0 0 0 1044
    1044 1044 1044 1047 1041 1041 1041 1041 1041 1041 1038 1038 1038
    1038 1038 1038 1038 1038 1034 1034 1034 1034 1034 1034 1034 1034
    1031 1031 1028 1028 1028 1028 1028 1025 1025 1028 1031 1031 1028
    1028 1028 1028 1028 1028 1028 1025 1025 1025 1025 1025 1025 1025
    1022 1019 1019 1022 1022 1019 1019 1019 0 0 0 3269 0 0 1050 1047
    1047 1044 1044 1044 1041 1041 1041 1041 1041 1038 1038 1038 1038
    1038 1038 1038 1038 1034 1034 1034 1031 1031 1031 1031 1031 1034
    1031 1031 1028 1028 1028 1028 1025 1025 1025 1025 1028 1028 1028
    1028 1028 1028 1028 1028 1025 1025 1025 1022 1022 1025 1025 1025
    1022 1019 1019 1019 1019 1019 1019 1019 0 0 0 3269 0 0 1050 1047
    1044 1044 1041 1041 1041 1041 1041 1041 1038 1038 1038 1038 1038
    1034 1034 1038 1038 1034 1034 1031 1031 1031 1031 1031 1031 1031
    1031 1028 1028 1028 1028 1025 1025 1025 1025 1025 1028 1028 1028
    1028 1028 1028 1028 1028 1025 1025 1025 1022 1022 1022 1022 1019
    1019 1019 1019 1019 1019 1019 1019 1019 0 0 0 0 0 0 1050 1047 1044
    1044 1041 1041 1038 1038 1038 1038 1038 1038 1038 1038 1034 1034
    1034 1034 1034 1031 1031 1031 1031 1031 1028 1028 1028 1028 1028
    1028 1028 1028 1028 1025 1025 1025 1022 1022 1028 1028 1028 1028
    1028 1028 1025 1025 1025 1025 1025 1022 1022 1022 1019 1019 1019
    1019 1019 1019 1019 1019 1019 1019 1019 0 0 3269 0 0 1050 1044 1041
    1041 1041 1041 1038 1038 1038 1038 1038 1038 1038 1038 1034 1034
    1034 1034 1034 1031 1031 1028 1028 1028 1028 1028 1028 1028 1028
    1028 1028 1025 1025 1025 1025 1025 1022 1022 1028 1028 1025 1025
    1025 1025 1025 1022 1022 1022 1022 1022 1019 1019 1019 1019 1019
    1022 1022 1019 1019 1019 1019 1019 0 0 0 0 0 0 1050 1044 1041 1041
    1041 1041 1038 1038 1038 1038 1038 1038 1038 1038 1034 1034 1034
    1034 1031 1031 1028 1028 1028 1028 1028 1028 1028 1028 1028 1028
    1025 1025 1025 1025 1025 1025 1025 1025 1028 1025 1025 1022 1022
    1022 1022 1022 1022 1022 1022 1022 1019 1019 1019 1019 1019 1019
    1019 1019 1019 1019 1019 1019 0 0 0 0 0 0 0 1038 1038 1041 1041 1041
    1038 1038 1038 1038 1038 1038 1038 1038 1034 1034 1034 1031 1028
    1028 1028 1028 1025 1025 1025 1028 1028 1028 1025 1025 1025 1025
    1025 1025 1025 1025 1025 1025 1025 1025 1022 1022 1022 1019 1019
    1019 1019 1019 1019 1019 1019 1019 1019 1019 1019 1016 1016 1016
    1019 1019 1019 1019 0 0 0 0 0 0 0 1038 1038 1041 1041 1038 1038 1038
    1038 1038 1038 1038 1038 1034 1034 1034 1034 1031 1028 1028 1028
    1025 1025 1025 1025 1028 1028 1028 1025 1025 1025 1025 1022 1022
    1022 1022 1022 1022 1022 1022 1022 1022 1022 1019 1019 1019 1019
    1019 1019 1019 1019 1019 1019 1019 1019 1016 1016 1016 1016 1019
    1019 1016 1016 0 0 0 0 0 0 1038 1038 1038 1038 1038 1038 1038 1038
    1038 1038 1034 1034 1034 1034 1034 1031 1031 1028 1028 1028 1025
    1025 1025 1025 1025 1025 1025 1025 1025 1022 1022 1022 1022 1022
    1022 1022 1022 1022 1022 1022 1022 1022 1019 1019 1016 1016 1016
    1016 1016 1016 1016 1016 1016 1016 1016 1016 1016 1016 1016 1013
    1013 1016 0 0 0 0 0 0 1038 1038 1038 1038 1038 1034 1034 1034 1034
    1034 1034 1034 1034 1031 1031 1028 1028 1028 1028 1025 1025 1025
    1025 1025 1025 1025 1025 1025 1025 1022 1022 1022 1022 1019 1019
    1019 1019 1022 1022 1022 1022 1019 1019 1019 1016 1016 1016 1016
    1016 1016 1016 1016 1016 1016 1016 1016 1016 1013 1013 1013 1013
    1013 0 0 0 0 0 1038 1038 1038 1038 1038 1038 1034 1034 1034 1031
    1031 1031 1031 1031 1031 1028 1028 1028 1028 1025 1025 1025 1025
    1025 1025 1025 1025 1025 1025 1022 1022 1022 1022 1022 1019 1016
    1016 1016 1019 1019 1019 1019 1019 1019 1019 1019 1016 1016 1016
    1016 1016 1016 1016 1016 1016 1016 1013 1013 1013 1013 1013 1013
    1013 0 0 0 0 0 1038 1038 1038 1038 1038 1034 1034 1031 1031 1031
    1031 1028 1028 1028 1028 1028 1028 1028 1025 1025 1025 1025 1022
    1022 1022 1022 1022 1025 1025 1022 1022 1022 1022 1022 1019 1016
    1016 1016 1019 1019 1019 1019 1019 1019 1019 1019 1016 1016 1016
    1016 1013 1013 1016 1016 1016 1013 1013 1013 1013 1013 1013 1013
    1013 0 0 0 0 0 1038 1038 1038 1038 1034 1034 1034 1031 1031 1031
    1031 1028 1028 1028 1028 1028 1028 1028 1025 1025 1025 1025 1022
    1022 1022 1022 1022 1022 1022 1022 1019 1019 1019 1019 1019 1019
    1016 1016 1019 1019 1019 1016 1016 1019 1019 1019 1016 1016 1016
    1016 1013 1013 1013 1013 1016 1013 1013 1013 1013 1010 1010 1007
    1007 0 0 0 0 0 1038 1038 1038 1034 1034 1034 1031 1028 1028 1028
    1028 1028 1028 1028 1028 1028 1025 1025 1025 1025 1025 1025 1022
    1022 1022 1022 1019 1019 1019 1019 1019 1019 1019 1016 1016 1016
    1016 1016 1019 1019 1019 1016 1016 1019 1016 1016 1016 1016 1013
    1013 1013 1013 1013 1013 1013 1013 1013 1013 1013 1010 1010 1007
    1007 1007 0 0 0 0 1034 1034 1034 1034 1034 1031 1031 1028 1028 1028
    1028 1028 1028 1028 1028 1028 1025 1025 1025 1025 1025 1025 1022
    1022 1022 1019 1019 1019 1019 1019 1019 1019 1019 1016 1016 1016
    1016 1016 1016 1016 1019 1016 1016 1016 1016 1016 1016 1013 1013
    1013 1010 1010 1010 1010 1013 1010 1010 1010 1010 1010 1010 1010 0 0
    0 0 0 1034 1034 1034 1031 1031 1031 1031 1031 1031 1028 1028 1028
    1028 1028 1025 1025 1025 1025 1025 1025 1025 1025 1025 1022 1022
    1022 1019 1019 1019 1019 1016 1016 1016 1016 1016 1016 1016 1013
    1013 1016 1016 1019 1016 1016 1016 1016 1016 1016 1013 1013 1010
    1010 1010 1007 1007 1010 1010 1010 1007 1007 1010 1007 1007 0 0 0 0
    0 1034 1031 1031 1031 1028 1028 1031 1031 1028 1028 1028 1028 1028
    1025 1025 1025 1025 1025 1022 1022 1022 1022 1022 1022 1022 1022
    1019 1019 1019 1019 1016 1016 1016 1016 1016 1016 1013 1013 1013
    1016 1016 1019 1016 1016 1016 1016 1013 1013 1013 1010 1010 1007
    1007 1007 1007 1007 1007 1007 1007 1007 1010 1007 1007 1007 0 0 0 0
    0 1031 1031 1031 1028 1028 1028 1028 1028 1028 1028 1025 1025 1025
    1022 1022 1022 1025 1022 1022 1022 1019 1019 1019 1019 1019 1019
    1019 1019 1016 1016 1016 1016 1016 1016 1013 1013 1013 1013 1016
    1016 1016 1016 1016 1013 1013 1013 1013 1013 1010 1010 1007 1007
    1007 1007 1007 1007 1007 1007 1007 1007 1007 1007 1007 1007 1007 0 0
    0 1031 1031 1031 1028 1028 1028 1028 1028 1028 1025 1025 1025 1022
    1022 1022 1022 1022 1022 1022 1022 1019 1019 1019 1019 1019 1019
    1019 1016 1016 1013 1013 1013 1013 1013 1013 1013 1013 1013 1016
    1016 1016 1016 1013 1013 1013 1010 1010 1010 1010 1007 1007 1007
    1007 1007 1007 1007 1007 1007 1007 1007 1004 1004 1004 1007 0 0 0 0
    1028 1028 1028 1028 1025 1025 1025 1025 1025 1025 1025 1022 1022
    1019 1019 1019 1019 1022 1022 1022 1019 1016 1016 1016 1016 1016
    1016 1016 1016 1013 1013 1013 1013 1013 1013 1013 1013 1013 1016
    1016 1016 1013 1013 1013 1010 1010 1010 1010 1010 1007 1007 1007
    1007 1007 1007 1007 1007 1004 1004 1007 1004 1004 1004 1004 1004 0 0
    0 1028 1028 1028 1028 1025 1025 1025 1025 1025 1025 1025 1022 1022
    1019 1019 1019 1019 1019 1019 1019 1016 1016 1016 1016 1016 1016
    1016 1013 1013 1013 1013 1013 1013 1013 1013 1013 1013 1013 1013
    1013 1013 1013 1010 1010 1010 1010 1010 1010 1010 1007 1007 1007
    1007 1007 1004 1004 1004 1004 1004 1004 1004 1004 1004 1004 1004 0 0
    0 1028 1028 1025 1025 1025 1025 1025 1025 1025 1025 1025 1022 1022
    1019 1019 1019 1019 1016 1016 1016 1016 1016 1016 1016 1013 1013
    1013 1013 1013 1013 1013 1013 1013 1010 1010 1010 1010 1013 1013
    1013 1013 1013 1010 1010 1010 1010 1010 1007 1007 1007 1007 1007
    1007 1004 1004 1004 1004 1004 1004 1004 1004 1004 1001 1001 1001
    1001 0 0 1025 1025 1025 1025 1025 1025 1025 1025 1025 1022 1022 1019
    1019 1019 1019 1016 1016 1016 1016 1016 1016 1016 1016 1013 1013
    1013 1013 1013 1013 1013 1013 1010 1010 1010 1010 1010 1010 1010
    1010 1010 1010 1007 1007 1010 1007 1007 1007 1007 1007 1007 1007
    1007 1004 1004 1004 1004 1004 1001 1001 1004 1001 1001 1001 1001
    1001 0 0 0 1025 1025 1025 1025 1025 1025 1025 1022 1022 1022 1022
    1019 1019 1016 1016 1016 1016 1016 1016 1016 1013 1013 1013 1013
    1013 1013 1010 1010 1010 1010 1013 1010 1010 1010 1007 1007 1007
    1007 1010 1010 1010 1007 1007 1007 1007 1007 1007 1007 1007 1007
    1004 1004 1004 1004 1004 1004 1004 1001 1001 1001 1001 1001 1001
    1001 1001 0 0 0 1022 1022 1025 1022 1022 1019 1019 1019 1022 1022
    1022 1019 1016 1016 1016 1013 1013 1016 1016 1016 1013 1013 1013
    1013 1013 1013 1010 1010 1010 1010 1010 1010 1010 1010 1007 1007
    1004 1004 1010 1007 1007 1007 1007 1007 1004 1004 1004 1007 1004
    1004 1004 1004 1004 1004 1004 1001 1001 1001 1001 1001 1001 1001 998
    998 1001 0 0 0 1019 1019 1022 1022 1019 1019 1019 1019 1019 1019
    1019 1016 1016 1016 1016 1013 1013 1013 1013 1013 1013 1013 1013
    1013 1013 1013 1010 1007 1007 1010 1010 1010 1010 1007 1007 1004
    1004 1004 1007 1007 1007 1007 1007 1007 1004 1004 1004 1004 1004
    1004 1001 1001 1001 1001 1001 998 998 998 998 1001 998 998 998 998
    998 0 0 0 1016 1016 1022 1022 1019 1019 1019 1019 1019 1019 1019
    1016 1016 1016 1013 1013 1013 1013 1013 1013 1010 1010 1013 1013
    1013 1010 1007 1007 1007 1007 1007 1007 1007 1007 1004 1004 1004
    1004 1007 1007 1007 1007 1007 1007 1004 1004 1004 1004 1004 1004
    1001 1001 1001 1001 998 998 998 998 998 998 998 998 998 995 995 0 0
    1019 1016 1016 1019 1019 1019 1019 1019 1019 1019 1016 1016 1016
    1016 1016 1013 1013 1013 1013 1013 1013 1010 1010 1013 1013 1010
    1010 1007 1007 1007 1007 1007 1007 1007 1007 1004 1004 1004 1004
    1007 1007 1007 1007 1004 1004 1004 1004 1004 1004 1001 1001 1001
    1001 998 998 995 995 995 995 995 998 995 995 992 992 995 0 0 1019
    1016 1016 1019 1016 1016 1016 1019 1019 1016 1016 1016 1016 1016
    1016 1013 1013 1013 1013 1013 1013 1013 1010 1010 1010 1010 1010
    1007 1007 1007 1007 1007 1007 1007 1004 1004 1004 1004 1004 1004
    1004 1004 1004 1004 1004 1004 1004 1001 1001 1001 1001 1001 998 998
    998 995 995 995 995 995 998 995 992 992 992 992 0 0 1019 1019 1019
    1016 1016 1016 1016 1016 1016 1016 1016 1013 1013 1013 1013 1013
    1013 1013 1013 1013 1010 1010 1010 1010 1010 1010 1010 1007 1004
    1004 1004 1004 1004 1004 1004 1004 1004 1004 1004 1004 1004 1004
    1004 1001 1001 1001 1001 1001 1001 1001 1001 998 998 995 995 995 995
    995 995 995 998 992 992 992 992 992 0 0 0 1019 1019 1016 1016 1016
    1016 1016 1016 1016 1013 1013 1013 1013 1013 1013 1013 1013 1013
    1013 1010 1007 1007 1007 1007 1007 1007 1004 1004 1004 1004 1004
    1004 1004 1004 1004 1001 1001 1004 1004 1004 1004 1004 1001 1001
    1001 1001 1001 1001 998 998 998 998 995 995 995 995 995 995 995 992
    992 992 992 992 992 0 0 0 1019 1016 1016 1016 1016 1016 1016 1016
    1013 1013 1013 1013 1013 1013 1013 1013 1013 1013 1013 1010 1007
    1007 1007 1007 1007 1004 1004 1004 1004 1004 1004 1004 1004 1004
    1004 1001 1001 1001 1004 1004 1004 1004 1001 1001 1001 1001 1001 998
    998 998 998 998 995 995 995 995 995 995 995 992 992 989 989 989 989
    0 0 1022 1016 1016 1016 1016 1016 1016 1016 1016 1013 1013 1013 1013
    1013 1013 1013 1013 1013 1013 1010 1010 1007 1004 1004 1004 1004
    1004 1004 1004 1004 1004 1004 1004 1004 1004 1004 1001 1001 1001
    1004 1004 1004 1004 1001 1001 998 998 1001 998 998 995 995 995 995
    995 995 995 995 995 992 992 992 989 989 989 989 0 1022 1022 1016
    1016 1013 1013 1013 1013 1013 1013 1013 1013 1013 1010 1010 1010
    1010 1013 1010 1010 1010 1007 1007 1004 1004 1004 1004 1004 1004
    1001 1001 1001 1004 1004 1004 1004 1001 1001 1001 1001 1004 1004
    1001 1001 1001 1001 998 998 998 995 995 995 995 995 995 995 995 995
    995 992 989 989 989 989 989 989 0 0 1022 1022 1016 1016 1013 1013
    1013 1013 1013 1013 1013 1010 1010 1007 1007 1010 1010 1010 1007
    1007 1007 1007 1007 1004 1004 1004 1004 1004 1004 1001 1001 1001
    1001 1001 1001 1001 1001 1001 1001 1001 1001 1001 1001 1001 998 998
    995 995 998 995 995 995 995 995 995 995 995 992 992 992 989 989 989
    989 989 989 0 0 1022 1022 1019 1016 1013 1013 1013 1013 1013 1013
    1010 1007 1007 1007 1007 1007 1007 1004 1004 1004 1004 1004 1004
    1004 1004 1004 1004 1004 1001 1001 1001 1001 1001 1001 1001 1001
    1001 998 998 998 1001 1001 998 998 998 995 995 995 998 998 995 995
    995 995 995 995 995 992 992 992 989 989 989 987 987 987 0 0 1022
    1022 1016 1016 1013 1010 1010 1010 1010 1010 1007 1007 1007 1007
    1007 1007 1004 1004 1004 1004 1004 1004 1004 1001 1001 1001 1004
    1001 1001 1001 1001 1001 1001 1001 998 998 998 998 998 998 998 1001
    998 998 995 995 995 995 995 995 995 995 995 995 995 992 992 992 992
    992 989 987 987 987 987 987 987 0 1022 1022 1016 1013 1013 1010 1010
    1010 1010 1010 1004 1004 1004 1004 1007 1004 1004 1004 1001 1001
    1004 1004 1004 1001 1001 1001 1001 1001 1001 1001 1001 1001 1001
    1001 998 998 998 998 995 995 998 995 995 995 995 995 995 995 995 995
    995 995 992 992 992 992 992 989 989 989 989 987 987 987 984 984 984
    0 0 1022 1010 1010 1010 1010 1010 1010 1010 1007 1004 1004 1004 1004
    1004 1004 1004 1004 1001 1001 1001 1001 1004 1001 1001 1001 1001
    1001 998 998 998 998 998 995 995 995 995 995 995 995 995 995 995 995
    995 995 995 995 995 995 995 995 992 992 992 992 989 989 989 989 989
    987 987 987 984 984 984 0 0 0 1010 1010 1010 1010 1007 1007 1007
    1004 1004 1004 1004 1004 1004 1004 1004 1001 1001 1001 1001 1001
    1001 1001 1001 1001 1001 998 998 998 998 998 995 995 992 992 992 992
    992 995 995 998 998 995 995 995 995 995 995 995 992 992 992 992 992
    989 989 989 989 989 989 987 987 987 984 984 984 0 0 0 0 1007 1007
    1007 1007 1007 1004 1004 1004 1004 1004 1004 1004 1004 1004 1001
    1001 1001 1001 1001 1001 1001 1001 1001 1001 995 995 995 995 995 995
    992 992 992 992 992 992 992 995 995 995 995 995 995 995 992 992 992
    992 992 992 992 992 989 989 987 987 987 987 984 984 987 984 984 984
    0 0 0 1001 1001 1007 1007 1007 1007 1004 1004 1004 1004 1001 1001
    1004 1004 1001 1001 1001 1001 1001 1001 1001 998 998 998 998 995 992
    992 995 995 995 992 992 992 992 992 992 992 995 995 995 995 995 992
    992 989 989 989 989 989 989 989 989 992 989 987 984 984 984 984 984
    984 984 984 984 0 0 0 1001 1001 1007 1004 1004 1004 1004 1004 1004
    1004 1001 1001 1004 1001 1001 1001 998 998 998 1001 998 998 998 998
    998 995 992 992 992 992 992 992 992 989 989 989 992 992 992 995 995
    992 992 992 992 989 989 989 987 987 987 987 987 987 987 984 984 984
    984 984 984 984 984 981 981 981 0 0 1007 1007 1007 1004 1004 1004
    1004 1004 1004 1001 1001 1001 1001 1001 1001 998 998 998 998 998 998
    995 995 995 995 995 995 992 992 992 992 992 992 989 989 989 989 992
    992 992 992 992 992 992 989 989 987 987 987 987 987 987 987 984 984
    981 981 984 984 984 984 984 984 978 978 0 0 0 1004 1004 1004 1004
    1004 1004 1004 1001 1001 1001 1001 1001 1001 1001 1001 998 995 995
    995 998 998 995 995 995 995 995 995 995 992 992 992 992 992 989 989
    989 989 989 992 992 992 992 989 989 989 989 987 987 987 987 987 984
    984 981 981 981 981 984 984 984 981 981 981 973 973 973 0 0 1004
    1004 1004 1004 1001 1001 1001 1001 1001 1001 1001 1001 1001 1001 998
    998 995 995 995 995 992 992 995 995 995 995 995 992 992 992 989 989
    989 989 989 989 989 989 992 992 992 989 989 989 989 989 987 987 987
    987 984 984 984 981 981 981 981 984 984 981 981 981 981 973 973 973
    0 0 1001 1001 1004 1001 1001 1001 1001 1001 1001 1001 998 998 998
    998 998 995 995 995 995 995 992 992 992 992 992 992 995 992 992 989
    989 989 989 989 989 989 989 989 989 992 992 989 989 989 987 987 984
    984 987 984 984 981 981 981 981 981 981 984 984 981 981 981 981 975
    975 981 0 0 1001 1001 1001 1001 1001 1001 1001 1001 1001 998 998 998
    998 998 995 995 995 995 995 995 992 992 992 992 992 992 992 992 992
    989 989 989 989 989 989 989 987 987 989 989 989 987 987 987 987 987
    984 984 987 984 984 981 981 981 978 978 981 984 984 984 981 981 981
    981 981 981 0 0 1001 1001 1001 1001 1001 1001 1001 1001 998 998 998
    995 995 995 995 992 992 992 992 992 992 992 992 992 992 992 992 989
    989 989 989 989 989 989 989 989 987 987 989 989 989 987 987 987 987
    987 984 984 984 984 984 981 981 981 978 978 978 981 981 981 981 981
    981 981 981 984 0 0 1001 1001 1001 998 998 1001 1001 998 998 995 995
    995 995 995 992 992 992 992 992 992 992 992 992 992 992 992 989 989
    989 989 989 989 989 989 989 989 987 987 989 989 987 987 987 984 984
    987 984 984 984 984 984 981 981 981 978 978 978 981 981 981 981 981
    981 981 981 981 0 0 998 998 998 998 998 1001 1001 998 995 992 992
    992 992 992 992 992 992 992 992 992 992 989 989 989 992 992 989 989
    989 989 987 987 987 987 987 987 987 987 987 987 987 984 984 984 984
    984 984 984 984 984 984 981 981 981 978 978 978 978 981 981 981 981
    981 981 981 981 0 0 995 995 998 995 995 998 998 998 995 992 992 992
    992 992 992 992 992 992 992 992 992 989 989 989 989 989 989 989 989
    987 987 987 987 987 987 987 987 987 987 987 987 984 984 984 984 984
    984 984 984 984 984 981 981 981 978 978 978 978 981 981 981 978 978
    978 981 0 0 0 995 995 995 995 995 995 995 992 992 992 992 992 992
    992 992 992 992 992 992 992 992 989 989 987 987 989 989 989 987 987
    987 984 984 984 987 984 984 984 984 984 984 984 984 984 984 984 984
    984 984 984 984 981 981 981 978 978 978 981 981 978 978 975 973 973
    0 973 0 0 995 995 995 995 995 995 992 992 992 992 992 992 992 992
    992 992 989 989 989 989 992 989 989 987 987 989 987 987 987 984 984
    984 984 984 987 984 984 984 984 984 984 984 984 984 984 984 984 984
    984 984 984 981 981 981 978 978 975 975 975 975 975 973 970 970 0 0
    0 0 995 995 992 992 992 992 992 992 992 992 992 992 989 989 989 989
    989 989 989 987 987 987 989 989 989 987 984 984 984 984 984 984 984
    984 984 984 984 984 984 984 984 984 984 984 984 984 984 984 984 984
    981 981 981 978 975 975 975 975 973 973 973 973 970 970 973 0 0 0
    992 992 992 992 992 992 989 989 992 989 989 989 989 989 989 989 989
    989 987 987 987 987 989 989 989 987 984 984 984 981 981 981 981 981
    984 981 981 981 984 984 984 984 984 984 981 981 981 981 981 978 978
    978 978 978 975 975 975 973 973 973 973 973 973 973 970 970 0 0 987
    987 992 992 992 992 989 989 992 989 989 989 989 989 989 989 989 989
    987 987 987 987 987 987 987 987 984 984 981 981 981 981 981 981 981
    981 981 981 981 981 981 981 981 981 981 981 981 981 981 978 975 975
    975 975 975 975 973 973 973 973 973 973 973 973 970 970 0 0 987 987
    992 992 992 992 992 992 989 989 989 989 989 987 987 989 989 989 987
    984 984 984 987 987 987 987 984 984 981 978 978 981 981 981 981 981
    981 981 981 981 981 981 981 981 981 981 981 978 978 975 975 975 975
    975 973 973 973 973 973 973 973 973 973 970 970 970 0 0 989 989 992
    992 992 992 989 989 989 989 989 989 989 987 987 989 989 987 987 984
    984 984 984 984 984 984 984 984 981 978 978 981 981 981 981 978 978
    981 981 981 981 981 981 978 978 978 978 978 978 975 975 975 975 975
    973 973 973 973 973 973 973 973 973 970 964 964 0 0 989 989 992 989
    989 989 989 989 989 989 987 987 987 987 987 989 989 987 987 984 984
    984 984 984 984 981 981 984 981 978 978 978 978 978 981 978 978 981
    981 978 978 978 981 978 978 978 978 975 975 975 975 975 975 975 973
    973 973 973 973 973 973 973 970 967 962 962 0 0 989 989 989 989 989
    989 989 989 989 987 987 987 987 987 987 987 987 984 984 984 984 984
    984 984 984 981 981 981 978 978 978 978 978 978 978 978 978 978 978
    978 978 978 981 978 975 975 975 973 973 973 975 975 975 975 973 973
    973 973 970 970 973 973 970 967 962 962 0 984 984 989 989 989 989
    989 989 989 989 987 987 987 987 987 987 987 987 984 984 984 984 984
    984 981 981 981 981 981 978 978 978 978 978 978 978 978 978 978 978
    978 978 978 981 978 975 975 975 973 973 973 975 973 973 973 973 973
    973 970 970 970 970 970 970 967 962 962 0 984 984 989 989 989 989
    989 989 989 989 987 987 987 987 987 987 984 984 984 984 984 981 981
    984 981 981 978 978 978 978 978 978 978 978 978 978 978 978 978 978
    978 978 978 978 978 975 975 975 973 973 973 973 973 973 973 973 973
    970 970 970 970 970 970 970 967 962 962 0 984 984 989 989 989 989
    989 989 989 989 987 984 984 987 984 984 984 981 981 981 981 981 981
    981 981 981 978 978 978 978 978 978 978 978 978 975 975 975 978 975
    975 975 975 975 975 975 975 975 973 973 973 973 973 973 973 970 970
    970 970 970 967 967 967 970 970 967 967 0 984 984 989 989 989 989
    989 987 987 987 987 984 984 987 984 981 981 981 981 981 981 981 981
    981 981 981 978 978 978 978 978 978 978 978 975 975 975 975 978 973
    973 973 975 975 975 975 973 973 973 973 973 973 973 973 973 970 970
    970 970 967 964 964 964 967 964 962 962 0 981 981 987 989 989 989
    989 987 987 987 984 984 984 984 984 981 981 981 981 981 981 981 981
    981 981 978 978 978 978 978 978 978 978 978 975 975 975 975 973 973
    973 973 975 975 975 973 973 973 970 970 970 973 973 973 970 970 970
    967 967 964 962 962 964 964 964 962 959 0 981 981 987 987 989 989
    989 987 987 984 984 984 981 981 981 981 981 981 981 981 981 981 981
    981 978 978 978 978 978 978 978 978 975 975 975 975 973 973 973 973
    970 970 973 973 975 973 970 970 970 970 970 970 970 970 970 970 970
    967 967 964 962 962 964 964 962 959 959 0 981 981 987 987 987 987
    987 987 987 984 984 984 981 981 978 978 978 981 981 981 981 978 978
    978 978 978 978 978 975 975 975 975 975 975 975 973 973 973 973 973
    970 970 973 973 973 973 970 970 970 967 967 970 970 970 970 970 967
    967 967 962 962 962 964 964 962 959 959 0 989 989 989 987 987 987
    987 987 987 984 984 981 981 978 978 978 978 978 978 978 978 978 978
    978 978 978 975 975 975 973 970 970 970 973 973 973 973 973 970 970
    967 967 970 973 973 973 970 970 970 967 967 970 970 970 967 967 967
    964 964 962 962 962 962 962 962 962 962 0 0 989 989 987 987 984 984
    984 984 981 981 981 981 978 978 978 978 978 978 978 978 978 978 975
    975 975 975 975 975 973 970 970 970 973 970 970 973 973 970 970 967
    967 970 970 970 970 970 970 970 967 967 970 967 967 967 967 967 964
    964 962 962 962 962 962 959 959 959 0 0 989 989 987 984 984 981 981
    981 981 981 978 978 978 978 978 978 978 978 978 978 978 978 975 973
    973 975 973 973 973 970 970 973 973 970 970 970 970 970 967 967 967
    967 970 970 970 970 970 970 967 967 967 967 967 967 967 967 964 964
    962 962 959 959 959 959 959 959 0 0 984 984 987 984 981 981 981 978
    978 978 978 978 978 978 975 975 978 978 978 978 978 975 975 973 973
    975 973 973 973 970 970 973 970 970 970 970 970 970 967 967 967 967
    967 967 967 967 967 967 967 967 967 967 967 964 964 964 964 964 962
    962 959 959 959 959 959 959 0 0 984 984 984 981 981 981 978 978 978
    978 978 978 978 975 973 973 973 975 975 975 975 973 973 973 973 973
    970 970 970 970 970 970 970 970 970 970 970 970 970 967 967 967 967
    967 967 967 967 967 964 964 964 964 964 964 964 964 964 964 962 962
    962 959 959 959 959 959 0 0 984 984 984 981 981 978 978 978 978 975
    975 978 975 975 973 973 970 970 970 970 970 973 973 970 970 970 970
    970 970 970 970 970 970 970 970 967 967 970 967 967 967 967 967 967
    967 967 967 964 964 964 964 964 964 962 962 962 962 962 962 962 962
    959 959 959 959 959 0 0 984 981 981 981 978 978 978 978 975 975 975
    975 973 973 973 970 970 970 970 970 970 970 970 970 970 970 970 970
    970 970 967 967 967 967 967 967 967 970 967 967 964 964 964 964 967
    967 967 964 964 964 964 962 962 962 962 962 962 962 962 959 959 959
    959 959 959 959 0 0 981 981 981 981 978 978 978 975 975 975 973 973
    973 973 973 970 970 970 970 970 970 970 970 967 967 970 970 967 967
    967 967 967 967 967 967 967 967 967 964 964 964 964 964 964 964 964
    967 964 964 962 962 962 962 962 962 962 962 962 959 959 959 959 959
    959 959 956 0 0 981 981 978 978 978 975 975 975 975 975 973 973 973
    973 970 970 970 970 970 970 967 967 967 967 967 970 967 967 964 964
    967 967 964 964 964 967 967 967 964 964 964 964 964 964 964 964 967
    964 962 962 959 959 959 959 962 962 959 959 959 959 959 959 959 959
    959 956 0 0 981 978 978 978 975 975 975 975 975 973 973 973 970 970
    970 970 970 970 970 967 967 967 967 967 967 967 967 962 962 964 964
    964 964 964 962 962 962 964 964 964 964 964 964 964 964 964 964 962
    962 959 959 959 959 959 962 962 959 959 959 959 959 959 959 959 956
    954 0 0 975 975 975 975 975 973 973 973 973 973 973 973 970 970 970
    970 970 970 970 967 967 967 967 964 964 964 964 962 962 964 964 964
    964 962 959 959 959 962 962 962 962 962 962 962 962 962 962 962 962
    959 959 959 959 959 959 959 959 959 959 959 959 959 956 956 956 954
    0 0 975 975 973 973 973 973 973 973 973 973 973 970 970 970 970 970
    970 970 970 970 967 967 964 964 964 964 964 962 962 962 962 962 962
    962 959 959 959 962 962 962 962 962 962 962 962 962 962 962 959 959
    959 959 959 959 959 959 959 959 959 959 959 959 956 954 954 954 0 0
    973 973 973 973 973 970 970 970 970 970 970 970 970 970 970 970 967
    967 967 967 967 967 964 964 964 962 962 962 962 962 962 962 962 959
    959 959 959 962 962 962 962 962 962 962 962 959 959 959 959 959 959
    959 959 956 956 959 959 959 959 956 954 951 951 951 951 951 0 0 970
    970 970 970 970 970 970 970 970 970 970 970 970 970 970 970 967 967
    967 964 964 967 964 964 962 962 962 962 962 962 962 962 962 959 959
    959 959 962 962 962 962 962 962 962 962 959 959 959 959 959 959 959
    959 956 956 956 956 956 956 956 954 951 951 951 951 951 0 0 970 970
    970 970 970 970 970 970 967 967 967 967 967 967 967 967 967 964 964
    964 964 964 964 964 962 962 962 962 962 962 964 964 964 962 962 962
    962 959 959 959 962 962 959 959 959 959 959 959 959 959 959 959 959
    956 956 956 956 956 956 956 954 951 951 951 951 951 3208 3208 970
    970 967 967 967 967 967 970 967 967 967 967 967 967 967 967 967 964
    964 964 964 962 962 962 962 962 962 962 962 962 964 964 964 964 964
    959 959 959 959 959 962 962 959 959 956 956 956 956 956 959 959 959
    959 959 959 959 956 956 956 956 956 954 954 948 948 948 3178 3178
    973 970 967 967 967 967 967 970 970 967 967 967 967 967 967 967 967
    967 3178 3178 3178 962 962 962 962 962 964 964 964 964 964 964 3120
    3120 3120 959 959 959 3092 3092 962 962 959 959 956 956 954 954 956
    959 962 962 959 959 959 962 959 959 959 956 956 956 956 948 948 948
    3149 3149 3178 3178 3178 970 970 967 967 3238 3208 3208 3178 3149
    3149 3149 3149 3149 3149 3149 3149 3149 3149 3178 3149 3149 3149
    3149 3149 3149 3149 3120 3120 3120 3120 3120 3120 3092 3092 3092
    3092 3092 3092 3092 3092 3120 3120 956 954 954 956 3037 3037 3010
    3010 3010 3037 3037 3037 962 962 962 962 962 956 951 951 951 3149
    3149 3178 3178 3178 3178 3178 3178 3178 3208 3178 3178 3178 3149
    3149 3149 3149 3149 3149 3149 3149 3149 3149 3149 3149 3149 3149
    3149 3149 3149 3149 3120 3120 3120 3120 3120 3120 3120 3120 3092
    3092 3092 3092 3092 3092 3092 3092 3120 3092 3064 3064 3037 3037
    3010 3010 3010 3037 3037 3037 3037 964 962 962 962 962 962 3037 3037</data></Depth10065>
</opencv_storage>
