<?xml version="1.0"?>
<opencv_storage>
<Depth3701 type_id="opencv-matrix">
  <rows>62</rows>
  <cols>72</cols>
  <dt>w</dt>
  <data>
    1572 1579 1579 1579 1586 1586 1594 1594 1594 1594 1594 4911 4911
    4983 4983 4983 5132 5132 5132 5132 5132 5132 5210 5210 1647 1647
    1647 1647 1655 1655 5210 5210 5210 5210 5132 5132 5132 5132 5132
    5132 5132 5132 5132 5132 5132 5132 5132 5132 5132 5132 5056 5056
    5056 5056 5056 4983 4983 4983 4983 4983 4911 4911 4911 4911 4911
    4911 4911 4911 4911 4911 4911 4911 1564 1572 1579 1579 1586 1586
    1594 1594 1594 1594 4911 4911 4911 4983 4983 5056 5132 5132 5132
    5132 5132 5210 5210 1639 1639 1639 1647 1647 1655 1655 1655 5210
    5210 5210 5210 5210 5210 5210 5210 5210 5210 5210 5132 5132 5132
    5132 5132 5132 5132 5132 5132 5056 5056 5056 5056 4983 4983 5056
    5056 4983 4911 4911 4911 4911 4911 4911 4983 4983 4983 4911 4911
    4911 1564 1572 1579 1579 1586 1586 1594 1594 1594 1594 4911 4911
    4911 4983 4983 4983 5056 5056 5132 5210 5210 1655 1655 1639 1639
    1639 1647 1647 1655 1655 1655 1655 1655 5210 5210 5210 5210 5210
    5210 5210 5210 5210 5210 5210 5132 5132 5132 5132 5132 5132 5132
    5056 5056 5056 5056 5056 5056 5132 5056 5056 4983 4911 4911 4911
    4911 4983 5056 4983 4983 4983 4911 4911 1564 1572 1579 1586 1586
    1594 1601 1601 1601 1601 4911 4911 4911 4911 4911 4911 4983 5056
    5132 5132 1632 1632 1639 1647 1647 1647 1647 1647 1647 1655 1655
    1655 1655 1655 5210 5210 5210 5210 5210 5210 5210 5210 5210 5210
    5132 5132 5056 5056 5132 5132 5132 5132 5132 5056 5056 5132 5132
    5132 5132 5132 5056 5056 4911 4911 4911 5056 5056 5056 5056 5056
    4983 4983 1564 1564 1572 1579 1586 1594 1601 1609 1609 1609 4842
    1624 1624 4911 4911 4911 4911 5056 1632 1632 1632 1632 1632 1639
    1639 1639 1639 1639 1647 1647 1655 1655 1655 1671 1671 5291 5210
    5210 5210 5210 5210 5210 5210 5210 5132 5132 5056 5056 5132 5132
    5132 5132 5132 5132 5132 5132 5132 5132 5132 5132 5132 5132 5132
    5056 5056 5056 5056 5056 5056 5056 5056 4983 1564 1564 1572 1572
    1586 1594 1594 1594 4842 4842 4842 1624 1616 1616 1632 4911 4911
    1632 1632 1632 1632 1632 1632 1632 1639 1639 1639 1639 1647 1647
    1655 1655 1663 1663 1663 1671 1671 5291 5210 5210 5210 5210 5210
    5210 5132 5132 5132 5132 5132 5132 5132 5132 5132 5132 5132 5132
    5132 5132 5132 5132 5132 5132 5132 5132 5132 5132 5056 5056 5056
    5056 5056 5056 1557 1557 1564 1564 1586 1624 1624 1680 1680 1680
    4842 4842 1616 1616 1632 1632 1632 1624 1624 1632 1632 1632 1632
    1632 1632 1639 1639 1639 1647 1655 1655 1655 1655 1663 1663 1663
    1663 5291 5210 5210 5210 5210 5210 5210 5210 5132 5132 5132 5132
    5132 5132 5132 5132 5132 5132 5132 5132 5132 5132 5132 5132 5132
    5132 5056 5056 5056 5056 5056 5056 5056 5056 5056 1557 1557 1564
    1564 1624 1624 0 1680 1680 1680 1680 1624 1624 1624 1624 1624 1624
    1624 1624 1632 1632 1632 1632 1632 1632 1632 1647 1639 1639 1647
    1647 1655 1655 1655 1663 1663 1663 1663 1671 1671 5210 5210 5210
    5210 5210 5210 5210 5210 5210 5210 5210 5210 5210 5132 5132 5132
    5132 5132 5132 5132 5132 5132 5056 5056 5056 5056 5056 5056 5056
    5132 5056 5056 1557 1557 1564 0 0 0 1680 0 1680 1680 1688 1688 1632
    1632 1624 1624 1624 1624 1624 1632 1632 1632 1632 1632 1632 1632
    1647 1639 1639 1647 1647 1655 1655 1655 1663 1663 1663 1663 1671
    1663 1663 5210 5210 5210 5210 5210 5210 5210 5210 5210 5210 5210
    5210 5210 5210 5210 5132 5132 5132 5132 5132 5132 5056 5056 5056
    5056 5056 5056 5132 5132 5056 5056 1564 1564 1572 0 0 0 0 0 1680
    1680 1688 1688 1680 1624 1616 1616 1624 1624 1624 1624 1624 1624
    1624 1632 1632 1632 1639 1639 1639 1639 1639 1655 1655 1655 1655
    1663 1663 1671 1671 1663 1663 1663 1663 5210 5210 5210 5210 5210
    5210 5210 5210 5210 5210 5210 5210 5210 5132 5132 5132 5132 5132
    5132 5056 5056 5056 5056 5056 5132 5132 5132 5056 5056 1564 1572
    1586 0 0 0 0 0 1680 1680 1688 1688 1680 1624 1616 1616 1616 1616
    1616 1624 1624 1624 1624 1624 1632 1632 1632 1632 1639 1639 1639
    1655 1655 1655 1655 1663 1663 1663 1663 1663 1663 1663 1671 1671
    5291 5291 5291 5291 5291 5210 5210 5210 5210 5210 5210 5210 5132
    5132 5132 5132 5132 5132 5132 5132 5132 5056 5056 5132 5132 5056
    5056 5056 1572 1594 1594 1594 0 0 0 0 0 1688 1688 1688 1688 1609
    1609 1609 1609 1616 1616 1624 1624 1624 1624 1624 1632 1632 1632
    1632 1632 1639 1647 1647 1655 1655 1655 1663 1663 1663 1663 1663
    1663 1671 1671 1680 1688 1688 5374 5291 5291 5210 5210 5210 5210
    5210 5210 5210 5210 5210 5132 5132 5132 5132 5132 5132 5132 5132
    5132 5132 5132 5056 5056 5056 1572 1594 1594 1594 0 0 0 0 0 0 1688
    1688 1609 1601 1601 1609 1609 1609 1616 1624 1624 1624 1624 1624
    1632 1632 1632 1632 1632 1639 1639 1639 1647 1647 1655 1663 1663
    1663 1663 1663 1663 1671 1671 1680 1680 1680 1680 5291 5291 5210
    5210 5210 5210 5210 5210 5210 5210 5210 5210 5210 5132 5132 5132
    5132 5132 5132 5132 5132 5132 5132 5056 5056 1564 1564 0 0 0 0 0 0 0
    0 0 1601 1601 1601 1601 1601 1601 1609 1609 1616 1624 1624 1624 1624
    1632 1632 1632 1632 1632 1632 1639 1639 1647 1647 1655 1655 1663
    1663 1663 1663 1663 1671 1671 1680 1680 1680 1680 1680 5291 5210
    5210 5210 5210 5291 5210 5210 5210 5210 5210 5210 5210 5132 5132
    5132 5132 5132 5132 5132 5132 5132 5132 5056 0 0 0 0 0 0 0 0 0 0
    1572 1572 1601 1601 1601 1601 1601 1609 1609 1616 1624 1624 1624
    1624 1624 1624 1632 1632 1632 1632 1632 1639 1639 1647 1655 1655
    1663 1663 1663 1663 1671 1671 1671 1671 1680 1680 1680 1680 1688
    1688 5210 5210 5210 5210 5291 5291 5291 5210 5210 5210 5210 5210
    5210 5210 5132 5132 5132 5132 5132 5132 5132 5132 0 1655 1655 0 0 0
    0 0 1601 1586 1572 1572 1601 1601 1601 1601 1609 1609 1609 1616 1624
    1624 1624 1624 1624 1624 1624 1632 1632 1632 1632 1639 1639 1647
    1655 1655 1655 1655 1663 1663 1671 1671 1671 1671 1671 1680 1680
    1688 1688 1688 1688 5210 5210 5210 5291 5291 5291 5210 5210 5210
    5210 5210 5210 5210 5210 5210 5132 5132 5132 5132 5210 5132 4405
    1655 1655 1655 1655 1647 1632 1632 1601 1586 1586 1586 1601 1601
    1601 1601 1609 1609 1616 1616 1624 1624 1624 1624 1624 1624 1624
    1632 1632 1639 1639 1639 1647 1647 1655 1655 1655 1655 1655 1663
    1663 1671 1671 1671 1671 1680 1680 1688 1688 1680 1680 1680 5291
    5291 5291 5291 5291 5291 5291 5291 5210 5210 5210 5210 5210 5210
    5132 5132 5132 5132 5210 5132 0 0 1647 1647 1647 1647 1632 1632 1601
    1594 1594 1594 1594 1594 1594 1601 1601 1609 1616 1616 1624 1624
    1624 1624 1624 1624 1624 1624 1632 1632 1639 1639 1647 1647 1655
    1655 1655 1655 1655 1655 1663 1663 1663 1663 1671 1671 1680 1680
    1688 1680 1680 1680 5374 5374 5374 5374 5291 5291 5291 5291 5210
    5210 5210 5210 5210 5210 5210 5210 5210 5210 5210 5210 4405 4405
    1647 1639 1639 1647 1647 1647 1594 1586 1586 1594 1594 1594 1594
    1594 1594 1601 1609 1609 1616 1616 1624 1624 1624 1624 1624 1624
    1624 1632 1639 1639 1647 1647 1647 1655 1655 1655 1655 1655 1663
    1663 1663 1663 1663 1663 1671 1680 1688 1680 1680 1680 1680 1680
    5374 5374 5374 5291 5291 5291 5210 5210 5210 5210 5210 5210 5210
    5210 5210 5210 5210 5210 4405 4463 4463 1639 1639 1647 1601 1594
    1586 1579 1579 1586 1586 1594 1594 1594 1594 1601 1601 1601 1609
    1616 1624 1624 1624 1624 1624 1624 1624 1632 1632 1639 1647 1647
    1647 1647 1655 1655 1655 1655 1655 1663 1663 1663 1663 1663 1663
    1671 1680 1680 1680 1680 1680 1680 1688 1688 5460 5374 5291 5291
    5291 5210 5210 5210 5291 5210 5210 5210 5210 5210 5210 5210 4405
    4463 4463 4463 1572 1579 1579 1579 1579 1579 1579 1586 1586 1594
    1594 1594 1594 1594 1594 1601 1601 1609 1616 1616 1616 1616 1616
    1624 1624 1632 1632 1639 1639 1639 1639 1647 1647 1647 1655 1655
    1655 1663 1663 1663 1663 1663 1663 1671 1680 1680 1680 1680 1688
    1688 1688 1680 1680 5374 5291 5291 5291 5210 5210 5291 5291 5291
    5291 5210 5210 5210 5210 5210 4405 4405 4405 1572 1572 1572 1572
    1572 1572 1572 1579 1586 1594 1594 1594 1594 1594 1594 1594 1594
    1601 1601 1609 1616 1616 1616 1616 1624 1624 1632 1632 1632 1632
    1639 1639 1647 1647 1647 1655 1655 1655 1663 1663 1663 1663 1663
    1663 1671 1680 1680 1680 1680 1680 1688 1688 1680 1680 1680 5291
    5291 5291 5210 5210 5291 5291 5291 5291 5291 5210 5210 5210 5210
    4405 4405 4405 1572 1572 1572 1572 1572 1572 1572 1579 1586 1586
    1586 1586 1586 1594 1594 1594 1594 1601 1601 1609 1616 1616 1616
    1616 1624 1624 1632 1632 1632 1632 1632 1639 1647 1647 1647 1655
    1655 1663 1663 1663 1663 1663 1663 1663 1671 1671 1680 1680 1680
    1680 1688 1688 1688 1688 1696 1696 5291 5291 5210 5210 5291 5291
    5291 5291 5291 5291 5210 5210 5210 4405 4405 1564 1564 1564 1564
    1572 1572 1572 1572 1572 1586 1586 1586 1586 1586 1594 1601 1601
    1601 1601 1601 1609 1609 1616 1616 1616 1624 1632 1632 1632 1632
    1632 1632 1639 1639 1647 1647 1655 1655 1655 1663 1663 1663 1663
    1663 1663 1663 1671 1671 1680 1680 1680 1688 1688 1688 1688 1688
    1688 1688 1696 5291 5291 5291 5291 5291 5291 5291 5291 5291 5210
    5210 4349 1557 1557 1557 1557 1564 1572 1572 1572 1572 1572 1586
    1586 1586 1586 1594 1594 1594 1594 1601 1601 1601 1601 1609 1609
    1616 1616 1624 1624 1624 1624 1632 1632 1632 1639 1639 1639 1647
    1647 1655 1655 1655 1663 1663 1663 1663 1663 1663 1663 1671 1680
    1680 1680 1688 1688 1688 1688 1688 1688 1688 1696 1696 1696 5291
    5291 5291 5291 5374 5291 5291 5210 5210 4349 1550 1550 1550 1557
    1557 1564 1564 1572 1572 1579 1579 1579 1586 1586 1594 1594 1594
    1594 1601 1601 1601 1601 1601 1609 1609 1609 1616 1624 1624 1624
    1632 1632 1632 1632 1632 1639 1639 1647 1647 1655 1655 1655 1655
    1663 1663 1663 1663 1663 1663 1680 1680 1688 1688 1680 1680 1688
    1688 1688 1688 1688 1696 1696 1696 5460 5374 5374 5291 5291 5291
    5210 5210 1550 1550 1550 1550 1557 1557 1564 1564 1572 1572 1572
    1579 1579 1586 1586 1586 1594 1594 1594 1594 1601 1601 1601 1601
    1601 1601 1609 1616 1624 1624 1624 1632 1632 1632 1632 1632 1632
    1639 1639 1647 1655 1655 1655 1655 1655 1663 1663 1663 1663 1663
    1671 1680 1680 1680 1680 1680 1680 1688 1688 1688 1688 1696 1696
    1696 1705 5460 5374 5291 5291 5291 5210 5210 1564 1564 1557 1557
    1557 1557 1564 1564 1564 1564 1564 1572 1572 1579 1586 1586 1586
    1586 1594 1594 1594 1601 1601 1601 1601 1601 1601 1609 1616 1624
    1624 1624 1632 1632 1632 1632 1632 1632 1639 1647 1647 1647 1655
    1655 1655 1655 1655 1663 1663 1671 1671 1671 1680 1680 1680 1680
    1680 1688 1688 1688 1688 1696 1696 1696 1705 1705 5374 5374 5291
    5291 5210 5210 1564 1564 1564 1557 1557 1557 1564 1564 1564 1564
    1564 1572 1572 1579 1586 1586 1586 1586 1594 1594 1594 1601 1601
    1601 1601 1601 1601 1609 1609 1624 1624 1624 1624 1624 1624 1624
    1624 1632 1639 1647 1647 1647 1647 1647 1655 1655 1655 1663 1663
    1671 1671 1671 1680 1680 1680 1680 1680 1688 1688 1688 1688 1696
    1696 1696 1696 1696 1696 5374 5291 5210 5210 5210 1572 1572 1572
    1564 1564 1564 1572 1564 1564 1564 1564 1572 1579 1579 1586 1586
    1586 1586 1594 1594 1594 1594 1601 1601 1601 1601 1601 1609 1609
    1616 1624 1624 1624 1624 1624 1624 1624 1632 1632 1639 1647 1647
    1647 1647 1655 1655 1655 1655 1663 1663 1663 1671 1671 1671 1671
    1680 1680 1680 1688 1688 1688 1696 1696 1696 1696 1696 1696 1705
    1705 5210 5210 5210 1624 1601 1586 1586 1579 1579 1572 1564 1564
    1564 1564 1572 1579 1579 1579 1579 1586 1586 1594 1594 1594 1594
    1601 1601 1601 1601 1601 1609 1616 1616 1624 1624 1624 1624 1624
    1632 1632 1632 1632 1639 1639 1639 1647 1647 1655 1655 1655 1655
    1663 1663 1663 1671 1671 1671 1671 1680 1680 1680 1688 1688 1696
    1696 1696 1696 1696 1696 1696 1705 1705 1705 5210 5210 1624 1624
    1601 1601 1594 1586 1579 1572 1572 1572 1572 1579 1579 1579 1579
    1579 1586 1586 1594 1594 1594 1594 1601 1601 1601 1601 1601 1609
    1609 1616 1624 1624 1624 1624 1624 1632 1632 1632 1632 1639 1639
    1639 1647 1647 1647 1655 1655 1655 1663 1663 1663 1663 1671 1671
    1671 1680 1680 1680 1688 1688 1688 1688 1688 1696 1696 1696 1696
    1696 1696 1696 1705 1705 1632 1624 1616 1609 1609 1601 1594 1579
    1572 1572 1572 1572 1572 1579 1579 1579 1586 1586 1586 1586 1594
    1594 1601 1601 1601 1601 1601 1609 1609 1616 1624 1624 1624 1624
    1624 1624 1632 1632 1632 1639 1639 1639 1647 1647 1647 1647 1655
    1655 1655 1655 1663 1663 1671 1680 1680 1680 1671 1671 1680 1688
    1688 1688 1688 1688 1696 1696 1696 1696 1696 1696 1705 1713 4190
    1624 1624 1624 1616 1616 1601 1586 1579 1579 1579 1572 1572 1579
    1579 1579 1586 1586 1586 1586 1594 1594 1601 1594 1594 1594 1601
    1609 1609 1624 1624 1624 1624 1624 1624 1624 1624 1632 1632 1639
    1639 1639 1647 1647 1647 1647 1655 1655 1655 1655 1655 1663 1663
    1680 1680 1680 1671 1671 1680 1680 1688 1688 1688 1688 1688 1696
    1696 1696 1705 1705 1705 1713 4139 1632 1632 1632 1624 1616 1609
    1594 1594 1594 1579 1572 1572 1579 1579 1579 1586 1586 1586 1586
    1594 1594 1594 1594 1594 1594 1594 1601 1601 1624 1624 1624 1624
    1624 1624 1624 1624 1632 1632 1632 1639 1639 1647 1639 1639 1647
    1655 1655 1655 1655 1655 1655 1663 1680 1680 1680 1671 1671 1680
    1680 1680 1680 1680 1688 1688 1688 1696 1696 1705 1705 1705 1705
    4139 4139 1655 1655 1647 1632 1624 1601 1601 1601 1586 1579 1579
    1579 1579 1579 1586 1586 1586 1594 1594 1594 1594 1594 1594 1594
    1594 1601 1601 1616 1624 1624 1624 1624 1624 1624 1624 1624 1632
    1632 1639 1639 1639 1639 1639 1647 1655 1655 1655 1655 1655 1655
    1663 1671 1671 1671 1671 1671 1680 1680 1680 1680 1680 1688 1688
    1688 1696 1696 1705 1705 1705 1705 4190 4190 4190 4190 4190 1639
    1624 1616 1616 1609 1594 1594 1586 1586 1586 1586 1586 1586 1586
    1586 1594 1594 1594 1594 1594 1594 1594 1601 1601 1609 1609 1616
    1616 1616 1616 1624 1624 1624 1632 1632 1632 1632 1639 1639 1639
    1647 1655 1655 1655 1655 1655 1663 1663 1663 1663 1663 1671 1671
    1680 1680 1680 1680 1680 1688 1688 1688 1696 1696 1713 1713 1713
    5374 4241 4241 4241 4241 4190 4190 1647 1624 1624 1624 1601 1601
    1594 1594 1594 1586 1586 1586 1586 1586 1586 1586 1594 1594 1594
    1594 1594 1601 1601 1609 1609 1616 1616 1616 1616 1624 1624 1624
    1632 1632 1632 1632 1639 1639 1647 1647 1655 1655 1655 1655 1663
    1663 1663 1663 1663 1663 1663 1671 1671 1680 1680 1680 1680 1688
    1688 1688 1696 1705 1705 5374 5291 5374 4241 4241 4241 4295 4295
    4241 4241 4241 1647 1632 1632 1624 1624 1616 1601 1594 1594 1586
    1586 1586 1586 1586 1586 1586 1586 1594 1601 1601 1601 1601 1601
    1609 1609 1616 1616 1616 1616 1616 1624 1632 1632 1632 1639 1639
    1647 1647 1647 1647 1655 1655 1663 1663 1663 1663 1663 1663 1663
    1671 1671 1680 1680 1680 1680 1688 1688 1688 1696 1696 5374 5374
    5291 5291 4241 4241 4241 4295 4295 4241 4241 4241 4241 1663 1647
    1647 1632 1632 1624 1616 1601 1594 1594 1594 1586 1586 1586 1586
    1586 1594 1594 1594 1601 1601 1601 1601 1601 1609 1609 1616 1616
    1616 1624 1632 1632 1632 1632 1639 1639 1639 1647 1647 1655 1655
    1655 1655 1663 1663 1663 1663 1663 1663 1671 1671 1671 1671 1671
    1680 1688 1696 1696 1696 5210 5210 5291 5291 4190 4241 4241 4295
    4295 4295 4295 4295 4295 4241 1647 1647 1639 1632 1632 1624 1624
    1609 1609 1601 1594 1594 1586 1586 1586 1586 1594 1594 1594 1594
    1601 1601 1601 1601 1609 1609 1616 1616 1624 1632 1632 1632 1632
    1639 1639 1639 1647 1647 1655 1655 1655 1655 1655 1655 1663 1663
    1663 1663 1663 1663 1663 1671 1671 1680 1688 1696 1696 5210 5210
    5210 5291 5291 4190 4190 4190 4241 4241 4295 4295 4295 4295 4241
    4241 1655 1655 1632 1632 1632 1632 1624 1616 1609 1601 1594 1586
    1586 1586 1586 1594 1594 1594 1594 1601 1601 1601 1601 1609 1609
    1609 1616 1624 1624 1624 1624 1632 1632 1632 1632 1639 1639 1647
    1647 1655 1655 1655 1655 1663 1663 1663 1663 1663 1663 1663 1671
    1671 1680 1688 1688 5210 5210 5210 5210 5291 5291 4190 4190 4190
    4190 4241 4241 4241 4295 4295 4295 4295 4295 4295 1639 1639 1632
    1632 1632 1632 1624 1616 1609 1594 1594 1594 1594 1594 1594 1594
    1594 1601 1601 1601 1601 1601 1609 1609 1609 1616 1616 1624 1624
    1632 1632 1632 1632 1632 1632 1647 1647 1655 1655 1655 1655 1655
    1655 1655 1663 1663 1663 1663 1663 1671 1671 1671 5210 5210 5210
    5210 5210 5291 5291 4190 4190 4190 4190 4190 4241 4241 4241 4241
    4241 4241 4295 4349 4349 4349 1655 1655 1647 1647 1632 1632 1624
    1601 1601 1594 1594 1594 1594 1594 1601 1601 1601 1601 1601 1601
    1609 1609 1609 1609 1616 1616 1624 1632 1632 1632 1632 1632 1632
    1639 1639 1647 1655 1655 1655 1655 1655 1655 1663 1663 1663 1663
    1663 1671 1671 1671 5210 5210 5210 5210 5291 5374 5374 4139 4139
    4139 4190 4190 4190 4190 4241 4241 4241 4241 4295 4295 4349 4349
    4295 1663 1655 1655 1647 1639 1632 1616 1609 1601 1601 1601 1594
    1594 1601 1601 1601 1609 1609 1609 1609 1609 1609 1609 1616 1616
    1624 1624 1632 1632 1632 1632 1632 1639 1639 1639 1647 1647 1655
    1655 1655 1655 1655 1663 1663 1663 1671 1671 1671 5132 5132 5210
    5210 5210 5210 5291 5374 4139 4139 4139 4139 4190 4190 4190 4241
    4241 4241 4241 4241 4241 4295 4295 4295 4241 4241 1663 1655 1655
    1639 1624 1624 1609 1601 1601 1601 1601 1601 1601 1601 1601 1601
    1601 1609 1609 1609 1609 1616 1616 1624 1624 1624 1624 1632 1632
    1632 1639 1639 1639 1639 1647 1647 1655 1655 1655 1655 1663 1663
    1663 1671 1671 5056 5056 5132 5132 5210 5210 5210 5210 5374 4139
    4139 4139 4139 4190 4190 4241 4241 4241 4241 4295 4241 4241 4295
    4295 4295 4190 4190 4139 1663 1655 1647 1632 1632 1624 1601 1601
    1601 1601 1601 1601 1601 1601 1601 1601 1601 1609 1609 1609 1616
    1616 1624 1624 1624 1624 1624 1632 1632 1632 1632 1639 1639 1639
    1647 1647 1647 1647 1647 1655 1663 1663 1663 5056 5056 5056 5132
    5132 5132 5132 5210 5210 5210 4139 4139 4139 4139 4139 4190 4190
    4241 4241 4241 4241 4241 4241 4295 4295 4295 4190 4190 4139 4139
    1663 1655 1647 1639 1632 1616 1609 1601 1601 1601 1601 1601 1601
    1601 1601 1601 1609 1609 1616 1616 1616 1624 1624 1624 1624 1624
    1632 1632 1632 1632 1632 1632 1639 1647 1647 1647 1647 1647 1655
    1655 1663 1663 5056 5056 5056 5132 5132 5132 5132 5210 5210 5210
    4139 4139 4139 4139 4139 4139 4190 4241 4241 4241 4241 4241 4241
    4241 4295 4295 4295 4295 4295 4295 4349 1663 1655 1655 1655 1647
    1639 1624 1616 1609 1609 1609 1601 1601 1601 1601 1601 1601 1609
    1616 1616 1616 1616 1616 1624 1624 1624 1632 1632 1632 1632 1632
    1639 1639 1647 1647 1647 1655 1655 1655 1655 5056 5056 5056 5132
    5132 5132 5132 5132 5132 5210 5210 4139 4139 4139 4139 4139 4139
    4190 4190 4190 4241 4241 4241 4241 4241 4295 4295 4295 4295 4295
    4349 4349 4295 1663 1655 1655 1655 1655 1639 1632 1624 1616 1616
    1609 1609 1609 1601 1601 1601 1609 1609 1616 1616 1616 1616 1624
    1624 1624 1632 1632 1632 1632 1632 1639 1639 1647 1647 1647 1655
    1655 1655 4842 4842 5056 5056 5056 5132 5132 5132 5132 5132 5132
    5210 4041 4139 4139 4139 4139 4139 4190 4190 4190 4190 4190 4241
    4241 4241 4295 4295 4295 4349 4349 4349 4349 4295 1663 1647 1647
    1655 1655 1655 1639 1632 1624 1624 1616 1609 1609 1609 1601 1601
    1601 1609 1616 1616 1616 1616 1624 1624 1624 1632 1632 1632 1632
    1632 1632 1639 1647 1647 1647 1647 1655 1655 4842 4842 4983 4983
    5056 5132 5132 5132 5132 5132 5132 5132 4041 4041 4089 4139 4139
    4139 4190 4190 4190 4190 4190 4241 4241 4241 4241 4241 4295 4295
    4349 4349 4349 4349 4349 1647 1647 1655 1655 1655 1655 1647 1647
    1632 1632 1624 1616 1609 1601 1601 1601 1601 1616 1616 1616 1624
    1624 1624 1624 1632 1632 1632 1632 1632 1632 1639 1639 1639 1647
    1647 1655 4842 4842 4911 4911 4983 4983 5056 5056 5132 5132 5132
    5132 5132 3994 4041 4089 4139 4139 4139 4139 4139 4139 4190 4190
    4190 4190 4241 4241 4241 4295 4295 4349 4349 4349 4349 4349 4349
    4295 1655 1655 1663 1671 1663 1663 1647 1647 1639 1632 1624 1601
    1601 1601 1601 1609 1609 1616 1616 1624 1624 1624 1624 1624 1624
    1624 1632 1632 1639 1639 1639 1647 1647 4842 4842 4842 4911 4911
    4911 4911 4983 4983 5056 5056 5056 5132 5132 3994 3994 4089 4089
    4089 4089 4139 4139 4139 4139 4139 4190 4190 4190 4190 4241 4295
    4295 4349 4349 4349 4349 4349 4349 4349 4349 1663 1663 1663 1671
    1663 1663 1655 1655 1647 1624 1616 1609 1609 1609 1609 1609 1616
    1616 1616 1624 1624 1624 1624 1624 1624 1624 1624 1632 1632 1639
    1647 1647 4842 4842 4842 4911 4911 4911 4911 4983 4983 5056 5056
    5056 5056 5132 3994 3994 4089 4089 4089 4089 4139 4139 4139 4139
    4139 4190 4190 4190 4190 4190 4241 4241 4349 4349 4349 4349 4349
    4349 4349 4349 4349 1663 1663 1671 1671 1663 1663 1655 1647 1639
    1632 1624 1616 1616 1616 1616 1616 1616 1616 1624 1624 1624 1624
    1624 1624 1624 1624 1632 1632 1639 1647 1647 4842 4842 4911 4911
    4911 4911 4911 4911 4911 4983 4983 5056 5056 5056 3994 3994 4041
    4041 4041 4089 4089 4139 4139 4139 4139 4190 4190 4190 4190 4190
    4241 4241 4349 4349 4349 4349 4349 4349 4349 4349 4349 4349 1671
    1671 1680 1663 1663 1663 1655 1647 1647 1632 1624 1624 1616 1616
    1616 1616 1616 1624 1624 1624 1624 1632 1632 1624 1624 1632 1639
    1647 1647 4842 4842 4842 4911 4911 4911 4911 4911 4911 4911 4983
    4983 5056 5056 5056 3994 3994 3994 3994 3994 4041 4089 4089 4139
    4139 4139 4190 4190 4190 4190 4190 4190 4190 4349 4349 4349 4349
    4349 4349 4349 4349 4349 4349 4349 4349 4349 1688 1680 1671 1663
    1655 1655 1647 1632 1632 1624 1616 1616 1616 1616 1624 1624 1624
    1624 1624 1624 1624 1624 1632 1639 1639 4842 4842 4842 4842 4911
    4911 4911 4911 4911 4911 4911 4983 4983 4983 4983 4983 3994 3994
    3994 3994 3994 4041 4089 4089 4139 4139 4139 4190 4190 4190 4139
    4139 4139 4190 4190 4295 4295 4295 4295 4349 4349 4349 4349 4349
    4405 4349 4349 4349 1688 1680 1671 1663 1663 1655 1647 1639 1632
    1624 1624 1624 1624 1624 1624 1624 1624 1624 1624 1624 1624 1624
    1624 4842 4842 4774 4774 4842 4842 4842 4842 4842 4911 4911 4911
    4911 4983 4911 4911 4983 3994 3994 3994 3994 3994 3994 4041 4089
    4089 4139 4139 4190 4190 4190 4139 4139 4139 4190 4190 4241 4241
    4241 4295 4295 4349 4349 4349 4349 4349 4349 4349 4349 4349 1688
    1680 1671 1671 1663 1663 1663 1647 1632 1632 1632 1632 1624 1624
    1624 1624 1624 1624 1624 1624 1624 1624 4774 4774 4774 4774 4842
    4842 4842 4842 4842 4911 4911 4911 4911 4911 4911 4911 4983 3994
    3994 3994 3994 3994 3994 4041 4041 4089 4139 4139 4139 4139 4139
    4190 4190 4190 4190 4190 4190 4241 4241 4241 4241 4295 4349 4349
    4349 4349 4349 4349 4349 4349 4405 1680 1680 1680 1680 1680 1680
    1663 1647 1639 1632 1632 1624 1624 1624 1624 1624 1624 1624 1624
    1624 1624 4774 4774 4774 4774 4774 4842 4842 4842 4842 4842 4911
    4911 4911 4911 4911 4911 4983 3994 3994 3994 3994 3994 4041 4041
    4041 4089 4089 4089 4139 4139 4139 4190 4190 4190 4190 4190 4190
    4190 4190 4241 4241 4295 4349 4349 4349 4349 4349 4349 4349 4405
    4405 4405 4405 4349 1680 1680 1680 1680 1671 1663 1655 1639 1632
    1632 1624 1624 1624 1624 1624 1624 1632 1632 4645 4645 4708 4708
    4708 4774 4842 4842 4842 4842 4842 4911 4911 4911 4911 4911 4983
    3994 3994 3994 3994 3994 4041 4041 4041 4041 4089 4089 4139 4139
    4139 4139 4139 4190 4190 4190 4190 4190 4190 4241 4241 4295 4295
    4349 4349 4349 4349 4349 4349 4405 4405 4405 4405 4405 4405 4405
    4405 1688 1671 1663 1663 1647 1639 1639 1632 1632 1639 1655 1632
    1632 1632 4645 4645 4645 4645 4645 4708 4708 4774 4842 4842 4842
    4842 4842 4911 4911 4911 4911 4911</data></Depth3701>
</opencv_storage>
