<?xml version="1.0"?>
<opencv_storage>
<Depth11656 type_id="opencv-matrix">
  <rows>88</rows>
  <cols>33</cols>
  <dt>w</dt>
  <data>
    0 0 0 0 1415 1410 1452 1452 1452 1452 1452 1464 1464 1464 1354 1354
    1349 1343 1343 4522 4522 4405 4405 4463 4522 4582 4582 4582 4645
    4645 4645 4645 4645 0 1470 1470 0 0 0 0 1452 1452 1445 1445 1445
    1445 1445 1354 1354 1349 1343 1343 1343 4405 4405 4405 4463 4463
    4582 4582 4582 4582 4645 4645 4645 4645 1470 1470 1470 1433 1415
    1410 1392 1452 1452 1421 1421 1421 1433 1359 1354 1354 1349 1343
    1338 1333 1333 1333 4463 4463 4463 4582 4582 4582 4582 4582 4645
    4645 4645 1470 1427 1427 1433 1415 1410 1392 1392 1458 1410 1410
    1404 1404 1354 1354 1349 1343 1343 1338 1333 1333 1333 1333 4582
    4582 4582 4582 4582 4582 4582 4645 4645 4645 1415 1415 1415 1376
    1359 1359 1359 1359 1359 1359 1338 1338 1338 1349 1349 1349 1338
    1338 1333 1333 1333 1333 1333 1333 4645 4645 4645 4645 4645 4645
    4645 4645 4645 1415 1354 1354 1354 1349 1349 1343 1343 1343 1338
    1333 1333 1333 1338 1343 1343 1338 1333 1333 1333 1333 1333 1333
    1333 1333 4645 4645 4645 4645 4645 4645 4645 4645 1343 1343 1338
    1338 1338 1333 1333 1338 1338 1333 1333 1333 1333 1333 1338 1333
    1333 1333 1333 1333 1333 1333 1333 1333 0 4645 4645 4645 4645 4645
    4645 4645 4645 1338 1338 1333 1333 1333 1333 1328 1328 1333 1333
    1333 1333 1333 1333 1333 1333 1333 1333 1333 1333 1338 1338 1338
    1338 0 4645 4645 4645 4645 4645 4645 4645 4645 1333 1333 1333 1333
    1328 1328 1328 1328 1333 1333 1333 1333 1333 1333 1333 1333 1333
    1333 1333 1338 1338 1338 1338 1338 0 4582 4582 4582 4645 4645 4645
    4645 4645 1333 1333 1333 1333 1328 1328 1328 1328 1333 1333 1333
    1333 1333 1333 1333 1333 1333 1333 1338 1338 1338 1338 1338 1338
    1338 4582 4582 4582 4645 4645 4645 4645 4645 1333 1333 1333 1333
    1333 1333 1333 1333 1333 1333 1333 1333 1333 1333 1333 1333 1333
    1333 1338 1338 1338 1333 1333 1338 1338 4645 4645 4645 4645 4645
    4645 4645 4645 1333 1333 1333 1333 1333 1333 1333 1333 1333 1333
    1333 1333 1333 1333 1333 1333 1333 1333 1338 1338 1338 1333 1333
    1333 1333 1333 4645 4645 4645 4645 4645 4645 4645 1333 1333 1333
    1333 1333 1333 1333 1333 1333 1333 1333 1333 1333 1333 1333 1333
    1333 1333 1333 1333 1333 1333 1333 1333 1333 0 4645 4645 4645 4645
    4645 4645 4645 1338 1333 1333 1333 1333 1333 1333 1333 1333 1333
    1333 1333 1333 1333 1333 1333 1333 1333 1333 1333 1333 1333 1333
    1338 1338 0 4645 4645 4645 4645 4645 4645 4645 1338 1338 1333 1333
    1333 1333 1333 1333 1333 1333 1333 1333 1333 1333 1333 1333 1333
    1333 1338 1338 1338 1338 1338 1338 1338 0 4645 4645 4645 4645 4645
    4645 4645 1338 1338 1333 1333 1333 1333 1333 1333 1333 1333 1333
    1333 1333 1333 1333 1333 1333 1333 1338 1338 1338 1338 1343 1343
    1343 0 4582 4582 4582 4645 4645 4645 4708 1338 1333 1333 1333 1333
    1333 1333 1333 1333 1333 1333 1333 1333 1333 1333 1333 1333 1333
    1333 1338 1338 1338 1338 1338 1338 0 4582 4582 4582 4645 4645 4645
    4645 0 1333 1333 1333 1333 1333 1333 1333 1333 1333 1333 1333 1333
    1333 1333 1333 1333 1333 1333 1338 1338 1338 1333 1333 1333 0 4522
    4522 4522 4645 4645 4645 4645 0 1338 1333 1333 1333 1333 1333 1338
    1333 1333 1333 1333 1333 1333 1333 1333 1333 1333 1333 1338 1338
    1338 1333 1333 1333 1338 4522 4522 4522 4645 4645 4645 4645 1338
    1333 1333 1333 1333 1333 1333 1338 1333 1333 1333 1333 1333 1333
    1333 1333 1338 1333 1333 1338 1338 1338 1338 1338 1338 1338 0 4645
    4645 4645 4645 4645 4645 1338 1333 1333 1333 1333 1333 1333 1333
    1333 1333 1333 1333 1333 1333 1333 1333 1338 1338 1338 1338 1338
    1338 1338 1338 1338 1338 0 4645 4645 4645 4645 4645 4645 1354 1343
    1338 1333 1333 1333 1333 1333 1333 1333 1333 1333 1333 1333 1333
    1333 1338 1338 1338 1338 1338 1338 1338 1338 1338 1338 0 4645 4645
    4645 4645 4645 4645 1354 1343 1338 1333 1333 1333 1333 1333 1333
    1333 1333 1333 1333 1333 1333 1333 1338 1338 1338 1338 1338 1338
    1338 1338 1338 1338 0 4645 4645 4645 4645 4645 4645 1354 1349 1343
    1333 1333 1333 1333 1333 1333 1333 1333 1333 1333 1333 1333 1338
    1338 1338 1338 1338 1338 1338 1338 1338 1338 1338 1338 1338 4708
    4708 4708 4645 4645 1376 1354 1343 1338 1333 1333 1333 1333 1333
    1333 1333 1333 1333 1333 1333 1338 1338 1338 1338 1338 1333 1333
    1338 1333 1333 1338 1338 0 4708 4708 4645 4645 4582 0 1359 1349 1338
    1333 1333 1333 1333 1333 1333 1333 1333 1333 1333 1333 1338 1338
    1338 1338 1338 1333 1333 1333 1333 1333 1338 1338 0 4708 4708 4645
    4582 4522 0 0 1343 1338 1333 1333 1333 1333 1333 1333 1333 1333 1333
    1333 1333 1338 1338 1343 1338 1338 1333 1333 1333 1338 1338 1338
    1338 0 4463 4522 4522 4522 4463 0 0 1338 1338 1333 1333 1333 1333
    1333 1333 1333 1333 1333 1333 1333 1338 1338 1343 1343 1338 1338
    1338 1338 1338 1338 1338 1338 0 4463 4463 4463 4463 4463 0 0 1338
    1338 1333 1333 1333 1333 1333 1333 1333 1333 1333 1333 1338 1338
    1338 1338 1338 1343 1343 1343 1338 1338 1338 1338 1338 0 4405 4405
    4405 4463 4463 0 0 1338 1338 1333 1333 1333 1333 1333 1333 1333 1333
    1338 1338 1338 1338 1338 1338 1338 1338 1343 1343 1343 1343 1343
    1343 1343 1343 0 4405 4405 4463 4463 0 0 1338 1338 1333 1333 1333
    1333 1333 1333 1333 1333 1333 1338 1338 1338 1338 1338 1338 1338
    1343 1343 1343 1343 1343 1343 1343 1343 0 4405 4405 4463 4522 0 0
    1349 1338 1333 1333 1333 1333 1333 1333 1333 1333 1333 1338 1343
    1338 1338 1338 1338 1343 1338 1338 1343 1343 1343 1343 1343 1349
    1349 4463 4463 4463 4582 0 0 1349 1338 1338 1333 1333 1333 1338 1338
    1338 1333 1333 1333 1343 1343 1343 1338 1338 1343 1338 1338 1343
    1343 1343 1343 1343 1349 1349 1349 4645 4645 4645 0 0 1354 1343 1338
    1333 1333 1333 1333 1333 1338 1333 1333 1333 1338 1343 1338 1338
    1338 1338 1343 1343 1343 1343 1343 1343 1343 1349 1349 0 4645 4645
    4645 0 0 1381 1349 1343 1333 1333 1333 1333 1333 1338 1333 1333 1333
    1333 1338 1338 1338 1338 1338 1338 1338 1338 1343 1343 1343 1343
    1349 1349 4983 4645 4645 4645 0 0 1381 1354 1343 1333 1333 1333 1333
    1333 1333 1333 1333 1333 1333 1338 1338 1338 1338 1338 1338 1338
    1338 1343 1343 1343 1343 1349 1349 4983 4983 4911 4842 0 0 0 1354
    1343 1338 1338 1333 1333 1333 1333 1333 1333 1333 1333 1338 1333
    1333 1338 1338 1338 1338 1338 1343 1343 1343 1343 1343 1343 4911
    4911 4911 4774 0 0 0 1354 1343 1338 1338 1338 1338 1338 1338 1333
    1333 1333 1338 1338 1333 1333 1338 1338 1338 1338 1338 1343 1343
    1343 1343 1343 1343 4911 4911 4774 4645 0 0 0 1354 1349 1338 1338
    1338 1333 1333 1338 1338 1338 1338 1338 1338 1338 1338 1338 1338
    1338 1338 1338 1343 1343 1343 1343 1343 1343 4911 4911 4645 4522 0 0
    0 1354 1349 1343 1338 1333 1333 1333 1338 1338 1338 1343 1338 1338
    1338 1338 1338 1338 1338 1343 1343 1343 1343 1349 1343 1343 1349
    1349 4645 4645 4463 0 0 0 1354 1349 1338 1333 1333 1333 1333 1333
    1338 1343 1343 1338 1338 1338 1338 1338 1338 1338 1343 1343 1343
    1343 1343 1349 1349 1349 1349 1349 4405 4405 0 0 0 1354 1349 1338
    1333 1333 1333 1333 1333 1338 1343 1343 1338 1338 1338 1338 1338
    1343 1343 1343 1343 1343 1343 1343 1349 1349 1349 1349 0 4405 4405 0
    0 0 0 1354 1343 1338 1338 1333 1333 1333 1338 1343 1343 1338 1338
    1338 1338 1343 1343 1343 1343 1343 1343 1349 1349 1349 1349 1349
    1349 0 4405 4405 0 0 0 0 1359 1343 1338 1338 1333 1333 1338 1338
    1343 1343 1343 1338 1338 1338 1343 1343 1343 1343 1343 1343 1349
    1349 1349 1343 1343 1343 1349 4405 4405 0 0 0 0 1359 1349 1343 1338
    1338 1338 1338 1338 1338 1338 1338 1338 1338 1343 1343 1343 1343
    1343 1343 1343 1349 1349 1349 1343 1343 1349 1349 4405 4405 0 0 0 0
    1359 1354 1349 1343 1338 1338 1338 1338 1338 1338 1338 1338 1338
    1338 1338 1338 1343 1343 1343 1349 1349 1349 1349 1343 1343 1349
    1349 4463 4349 0 0 0 0 1359 1354 1349 1343 1338 1338 1338 1338 1338
    1338 1338 1338 1343 1338 1338 1338 1343 1343 1343 1349 1349 1349
    1349 1349 1349 1349 4463 4463 4295 0 0 0 0 1376 1359 1349 1343 1338
    1338 1338 1338 1338 1338 1338 1338 1343 1338 1338 1338 1343 1343
    1343 1349 1349 1349 1349 1349 1349 1349 1349 4295 4295 0 0 0 0 1376
    1359 1349 1343 1338 1338 1338 1338 1338 1338 1338 1338 1343 1343
    1343 1343 1343 1343 1343 1343 1349 1349 1349 1349 1349 1349 0 3238
    3238 0 0 0 0 1387 1359 1354 1343 1338 1338 1338 1338 1338 1338 1338
    1338 1338 1343 1343 1343 1343 1343 1343 1343 1343 1349 1349 1343
    1343 1343 0 3238 3238 0 0 0 0 0 1354 1354 1349 1343 1343 1343 1343
    1338 1338 1338 1338 1338 1343 1349 1349 1343 1343 1343 1343 1343
    1343 1349 1343 1343 1343 0 3208 3208 0 0 0 0 0 1354 1349 1349 1343
    1343 1343 1343 1343 1338 1338 1338 1343 1343 1349 1349 1343 1343
    1343 1343 1343 1343 1343 1343 1343 1343 0 3178 3178 0 0 0 0 0 1354
    1349 1349 1343 1343 1343 1343 1343 1338 1338 1338 1343 1343 1343
    1343 1349 1343 1343 1343 1343 1343 1343 1343 1343 1343 0 3149 3149 0
    0 0 0 0 0 1349 1349 1343 1343 1343 1343 1343 1343 1343 1343 1338
    1338 1343 1343 1349 1349 1349 1349 1349 1349 1349 1343 1343 1343
    1354 3120 3120 4522 0 0 0 0 0 1349 1349 1343 1343 1343 1343 1343
    1343 1343 1343 1338 1338 1343 1343 1349 1349 1349 1349 1349 1349
    1349 1349 1349 1354 1354 3120 3120 4522 0 0 0 0 0 1354 1354 1343
    1343 1343 1343 1343 1343 1343 1343 1343 1343 1343 1343 1343 1349
    1349 1349 1349 1349 1349 1349 1354 1354 1359 1359 3149 0 0 0 0 0 0
    1359 1359 1343 1343 1343 1343 1343 1343 1343 1343 1343 1343 1343
    1343 1343 1349 1349 1349 1349 1349 1349 1349 1354 1359 1359 1359
    3120 0 0 0 0 0 0 1365 1359 1343 1343 1338 1338 1343 1343 1349 1349
    1343 1343 1343 1343 1343 1343 1343 1349 1349 1349 1349 1349 1349
    1349 1349 3120 3120 4041 0 0 0 0 0 0 1349 1343 1343 1338 1338 1338
    1343 1349 1349 1349 1349 1343 1343 1343 1343 1343 1349 1349 1349
    1349 1349 1349 1349 1349 3120 3120 3994 0 0 0 0 0 0 1349 1343 1343
    1338 1338 1338 1349 1349 1349 1349 1349 1343 1343 1349 1349 1349
    1343 1343 1343 1349 1349 1349 1349 1349 1349 3120 3994 0 0 0 0 0 0
    1349 1343 1343 1343 1343 1343 1343 1343 1349 1349 1349 1349 1349
    1349 1349 1349 1343 1343 1343 1349 1349 1349 1349 1349 0 3092 0 0 0
    0 0 0 0 1349 1349 1343 1343 1343 1343 1343 1343 1343 1343 1343 1349
    1349 1349 1349 1349 1343 1343 1343 1349 1349 1349 1349 1354 0 0 0 0
    0 0 0 0 1370 1349 1343 1343 1343 1343 1349 1343 1343 1343 1343 1343
    1343 1349 1349 1349 1349 1349 1349 1349 1349 1349 1349 1349 1349 0 0
    2958 0 0 0 0 0 1370 1349 1343 1343 1343 1343 1349 1343 1343 1343
    1343 1343 1343 1349 1349 1349 1349 1349 1349 1349 1349 1349 1349
    1349 1349 0 0 2908 0 0 0 0 0 1370 1349 1349 1343 1343 1343 1349 1343
    1343 1343 1343 1343 1349 1349 1349 1349 1349 1349 1343 1343 1343
    1343 1349 1349 1349 0 0 2883 0 0 0 0 0 1354 1349 1349 1349 1343 1343
    1343 1343 1343 1343 1349 1349 1349 1349 1349 1349 1349 1349 1343
    1343 1343 1343 1349 1349 1349 0 0 2883 0 0 2933 0 0 1354 1354 1349
    1349 1343 1343 1343 1343 1343 1349 1349 1349 1349 1349 1349 1349
    1349 1349 1343 1343 1343 1343 1349 1349 1349 1349 0 2883 2908 2908
    2933 2933 0 1349 1349 1343 1343 1343 1343 1343 1343 1343 1349 1349
    1349 1349 1349 1349 1349 1349 1349 1343 1343 1343 1343 1349 1349
    1349 1349 0 2883 2883 2908 2908 2908 2908 1349 1349 1343 1343 1343
    1343 1343 1343 1343 1343 1343 1343 1349 1349 1349 1349 1349 1349
    1343 1343 1349 1349 1349 1349 1349 1349 0 2883 2883 2908 2908 2908
    2908 1349 1349 1343 1343 1343 1343 1343 1343 1343 1343 1343 1343
    1343 1349 1349 1349 1349 1349 1349 1349 1349 1349 1349 1349 1349
    1349 0 2883 2883 2908 2883 2883 2908 2908 1349 1343 1343 1343 1343
    1343 1343 1343 1343 1343 1343 1343 1349 1349 1349 1349 1349 1349
    1349 1349 1349 1349 1349 1349 1349 0 2883 2883 2908 2883 2883 2908
    2908 1349 1349 1343 1343 1343 1343 1343 1343 1343 1343 1343 1343
    1349 1349 1349 1349 1349 1349 1349 1349 1349 1349 1349 1349 1349 0
    2883 2883 2908 2883 2883 2908 2908 1349 1349 1349 1343 1343 1343
    1343 1343 1343 1343 1343 1343 1343 1349 1349 1349 1338 1338 1338
    1343 1343 1349 1349 1349 1349 0 2883 2883 2883 2883 2883 2908 2908
    1349 1343 1343 1349 1343 1343 1343 1343 1343 1343 1343 1343 1343
    1349 1349 1349 1333 1333 1333 1338 1343 1349 1349 1354 1354 0 2883
    2883 2883 2883 2883 2883 1516 1516 1343 1343 1343 1343 1343 1343
    1343 1343 1343 1343 1343 1343 1343 1349 1349 1333 1333 1333 1338
    1477 1483 1483 0 0 0 2883 2883 2883 2883 2883 1516 1509 1509 1496
    1343 1343 1343 1343 1343 1489 1343 1343 1343 1343 1343 1343 1349
    1349 1349 1452 1452 1464 1470 1470 1470 0 0 0 2883 2883 2883 2883
    1516 1509 1496 1496 1489 1489 1483 1483 1483 1445 1445 1483 1483
    1477 1477 1477 1470 1470 1458 1452 1452 1452 1458 1464 1452 1445
    1445 0 0 2789 2789 1503 1503 1503 1503 1496 1489 1483 1483 1470 1445
    1439 1439 1439 1458 1470 1464 1464 1458 1458 1458 1452 1452 1452
    1452 1458 1452 1439 1415 1415 0 0 2789 0 0 1496 1496 1489 1489 1477
    1470 1470 1464 1445 1439 1439 1439 1458 1458 1452 1452 1452 1445
    1445 1445 1439 1439 1439 1439 1427 1427 1415 1415 1415 0 2789 0 0
    1496 1496 1489 1477 1464 1458 1458 1452 1445 1439 1439 1439 1452
    1452 1445 1445 1445 1439 1439 1439 1427 1421 1421 1421 1421 1421
    1415 1410 1404 1404 0 0 0 0 1496 1489 1464 1452 1445 1445 1445 1445
    1439 1439 1439 1439 1433 1427 1427 1433 1433 1433 1427 1421 1415
    1415 1415 1415 1415 1415 1404 1398 1398 0 0 0 0 0 1452 1445 1445
    1445 1439 1439 1415 1415 1421 1421 1421 1421 1415 1415 1415 1415
    1415 1415 1415 1415 1415 1415 1410 1410 1410 1404 1398 1398 0 0 0 0
    0 1445 1439 1439 1439 1433 1421 1415 1415 1410 1410 1410 1410 1410
    1410 1404 1404 1410 1410 1410 1410 1410 1410 1410 1404 1404 1398
    1398 1398 0 0 0 0 1439 1439 1439 1433 1427 1415 1415 1410 1410 1404
    1404 1404 1404 1404 1404 1398 1398 1398 1404 1404 1410 1410 1410
    1404 1404 1404 1398 1398 1398 0 0 0 0 1439 1439 1439 1433 1415 1410
    1410 1404 1404 1398 1398 1398 1398 1398 1398 1398 1398 1398 1404
    1404 1410 1404 1404 1404 1404 1404 1404 1404 1398 0 0 0 0 1445 1445
    1439 1421 1410 1404 1404 1404 1398 1398 1398 1398 1398 1398 1398
    1398 1398 1398 1404 1404 1404 1404 1404 1404 1404 1404 1404 1404
    1398 0 0 0 0 0 0 1439 1404 1404 1398 1398 1398 1398 1398 1398 1398
    1398 1398 1398 1398 1398 1404 1404 1404 1404 1404 1404 1404 1404
    1404 1404 1404 1404 0 0 0 0 0 0 0 1404 1404 1398 1398 1398 1398 1398
    1398 1404 1398 1398 1398 1398 1398 1404 1404 1404 1404 1404 1404
    1404 1404 1404 1398 1398 1398</data></Depth11656>
</opencv_storage>
