<?xml version="1.0"?>
<opencv_storage>
<Depth6067 type_id="opencv-matrix">
  <rows>72</rows>
  <cols>49</cols>
  <dt>w</dt>
  <data>
    4405 4405 4349 4349 4405 4405 4405 4582 4522 4522 4522 4522 4582
    4522 4522 4522 4522 4463 4463 4463 4463 4463 4405 4405 4463 4463
    4463 4405 4405 4522 1516 1509 1509 1509 1503 1503 1503 1503 1503
    4463 4463 4463 4463 4405 4405 4405 4405 4405 4405 4349 4349 4349
    4349 4349 4349 4582 4582 4522 4522 4522 4522 4582 4582 4522 4522
    4522 4463 4463 4463 4463 4463 4405 4405 1523 1523 1529 1529 1529
    1523 1516 1509 1509 1509 1503 1503 1503 1503 1516 1523 4463 4463
    4405 4405 4405 4405 4405 4405 4405 4349 4349 4349 4349 4349 4349
    4582 4522 4463 4463 4463 4463 4522 4522 4522 4522 4463 4463 4463
    1564 1550 1543 1536 1529 1523 1523 1523 1523 1523 1523 1516 1509
    1503 1496 1496 1496 1503 1509 1516 1523 1543 1543 4405 4349 4349
    4405 4405 4405 4405 4349 4349 4349 4349 4349 4349 4582 4522 4463
    4463 4463 4405 4405 4463 4463 4522 1564 1564 1564 1557 1543 1543
    1536 1529 1529 1529 1523 1523 1516 1516 1516 1503 1496 1489 1489
    1489 1496 1509 1516 1523 1536 1543 1543 4349 4349 4405 4349 4349
    4349 4349 4349 4349 4349 4349 4349 4522 4522 4522 4522 4463 4405
    4405 4463 4463 4522 1564 1564 1557 1557 1543 1543 1536 1536 1529
    1529 1523 1516 1516 1516 1509 1503 1489 1489 1489 1489 1496 1503
    1516 1523 1536 1543 1543 4405 4405 4405 4349 4349 4349 4349 4349
    4349 4349 4349 4405 4522 4522 4582 4582 1594 1594 1564 1564 1564
    1564 1564 1557 1550 1543 1543 1536 1536 1536 1529 1529 1523 1516
    1509 1509 1503 1496 1489 1489 1483 1483 1496 1503 1516 1523 1536
    1543 1557 1557 4405 4405 4405 4349 4349 4405 4463 4463 4405 4295
    4295 4295 1594 1594 1594 1594 1594 1564 1564 1564 1557 1550 1550
    1543 1543 1536 1536 1536 1529 1529 1523 1516 1509 1509 1509 1503
    1496 1489 1483 1483 1483 1489 1496 1503 1523 1529 1543 1550 1572
    1572 4463 4405 4405 4405 4522 4522 4295 4295 4295 4295 4295 1586
    1586 1586 1579 1572 1564 1564 1564 1550 1543 1543 1543 1536 1536
    1536 1529 1529 1523 1516 1516 1509 1509 1509 1503 1489 1489 1483
    1483 1483 1489 1496 1496 1516 1523 1536 1543 1557 1557 1557 4405
    4405 4405 4582 1601 1601 1601 1601 1594 1594 1586 1586 1579 1572
    1572 1564 1564 1557 1550 1543 1543 1536 1536 1536 1536 1529 1529
    1523 1516 1516 1509 1509 1509 1496 1489 1489 1483 1483 1483 1489
    1496 1496 1509 1523 1536 1543 1557 1557 1557 1557 4405 4349 1601
    1601 1601 1601 1601 1594 1594 1586 1579 1579 1572 1572 1564 1564
    1557 1550 1543 1543 1536 1536 1536 1529 1529 1523 1516 1516 1509
    1509 1503 1503 1496 1489 1489 1483 1483 1483 1489 1489 1496 1509
    1523 1536 1536 1550 1550 1550 1550 4349 4349 1601 1601 1601 1601
    1601 1594 1586 1579 1572 1572 1572 1572 1564 1564 1550 1550 1543
    1536 1536 1536 1529 1529 1529 1516 1516 1516 1509 1509 1503 1503
    1489 1489 1489 1483 1483 1483 1483 1489 1489 1503 1509 1523 1529
    1543 1550 1550 1550 4349 4349 1601 1601 1601 1601 1594 1594 1586
    1579 1572 1572 1572 1572 1564 1557 1550 1543 1543 1536 1536 1529
    1523 1523 1523 1516 1516 1509 1509 1503 1496 1489 1489 1489 1483
    1483 1477 1477 1483 1483 1489 1496 1509 1516 1529 1543 1550 1550
    1550 4405 4405 1601 1601 1601 1594 1594 1586 1586 1579 1572 1572
    1572 1564 1557 1550 1543 1543 1543 1536 1529 1529 1523 1516 1516
    1516 1509 1509 1509 1503 1489 1489 1489 1483 1483 1477 1477 1477
    1477 1477 1483 1496 1503 1516 1523 1543 1550 1550 4405 4405 4405
    1594 1594 1594 1594 1594 1586 1586 1579 1572 1572 1564 1564 1550
    1550 1543 1543 1536 1536 1529 1523 1516 1516 1516 1509 1509 1509
    1503 1489 1489 1489 1483 1483 1483 1477 1470 1470 1470 1470 1477
    1489 1503 1509 1523 1536 1550 1550 4405 4405 4295 1594 1594 1594
    1594 1586 1579 1579 1579 1572 1572 1564 1557 1550 1543 1543 1536
    1536 1536 1529 1523 1516 1509 1509 1509 1509 1503 1503 1489 1489
    1483 1483 1477 1477 1470 1464 1464 1470 1470 1477 1489 1503 1509
    1523 1536 1550 1550 4349 4349 4295 1594 1594 1594 1586 1586 1579
    1572 1572 1564 1564 1564 1557 1543 1543 1536 1536 1536 1536 1529
    1523 1516 1509 1509 1509 1503 1496 1489 1489 1483 1483 1483 1477
    1470 1464 1464 1464 1464 1470 1470 1489 1496 1503 1523 1536 1543
    1550 1550 4349 4295 1601 1594 1594 1586 1586 1579 1572 1564 1564
    1557 1557 1543 1543 1536 1536 1536 1536 1529 1529 1523 1516 1509
    1509 1509 1503 1489 1489 1489 1483 1483 1477 1477 1470 1464 1464
    1464 1464 1470 1470 1483 1496 1503 1516 1529 1536 1543 1543 4241
    4241 1594 1594 1594 1586 1586 1572 1564 1564 1564 1557 1557 1543
    1543 1536 1536 1536 1529 1529 1523 1516 1509 1509 1509 1509 1503
    1489 1489 1489 1483 1483 1477 1477 1470 1464 1464 1464 1464 1470
    1470 1483 1496 1503 1509 1523 1529 1543 1543 4241 4241 1594 1594
    1594 1579 1579 1572 1564 1564 1557 1557 1550 1543 1543 1536 1536
    1529 1529 1523 1516 1516 1509 1509 1509 1503 1503 1489 1489 1489
    1483 1483 1477 1470 1464 1464 1464 1464 1464 1464 1470 1483 1489
    1496 1509 1523 1529 1536 1536 4241 4241 1594 1594 1594 1579 1572
    1572 1564 1557 1557 1557 1550 1543 1536 1536 1536 1529 1523 1523
    1516 1509 1509 1503 1503 1496 1489 1489 1489 1483 1483 1477 1470
    1464 1464 1464 1458 1458 1458 1458 1464 1483 1489 1496 1503 1516
    1523 1523 1523 4241 4241 1586 1586 1586 1579 1572 1564 1564 1557
    1550 1550 1543 1536 1529 1529 1529 1523 1523 1516 1516 1509 1509
    1503 1503 1489 1489 1483 1483 1483 1477 1470 1464 1464 1458 1458
    1452 1452 1452 1452 1458 1464 1489 1489 1496 1509 1516 1523 1523
    4295 4295 1579 1579 1572 1572 1564 1564 1557 1550 1543 1543 1543
    1536 1529 1523 1523 1523 1516 1516 1509 1509 1509 1503 1496 1489
    1483 1483 1483 1483 1477 1470 1464 1464 1458 1452 1452 1452 1452
    1452 1458 1464 1477 1489 1496 1503 1516 1523 1523 1523 4295 1579
    1572 1572 1572 1564 1564 1557 1550 1543 1543 1543 1536 1523 1523
    1516 1516 1516 1509 1509 1509 1503 1503 1496 1483 1483 1483 1483
    1477 1470 1464 1464 1458 1458 1452 1452 1452 1445 1445 1452 1458
    1470 1483 1496 1503 1516 1523 1523 1523 4241 1572 1572 1572 1572
    1564 1564 1557 1550 1543 1543 1543 1536 1523 1523 1516 1516 1516
    1509 1509 1503 1496 1496 1489 1483 1483 1483 1477 1470 1470 1464
    1458 1458 1458 1452 1452 1445 1445 1445 1452 1458 1464 1477 1496
    1496 1509 1516 1523 1523 4241 1572 1572 1572 1572 1564 1564 1557
    1550 1543 1543 1536 1529 1523 1523 1516 1516 1516 1509 1509 1503
    1496 1496 1483 1483 1483 1483 1477 1470 1464 1464 1458 1458 1458
    1452 1452 1445 1445 1445 1445 1452 1464 1470 1489 1496 1503 1509
    1509 1509 4190 1564 1564 1572 1572 1564 1557 1550 1550 1543 1536
    1536 1523 1523 1516 1516 1516 1509 1503 1503 1503 1496 1489 1483
    1483 1483 1477 1470 1464 1464 1458 1458 1458 1458 1452 1445 1445
    1439 1439 1445 1445 1458 1470 1489 1496 1496 1509 1509 0 4190 1564
    1564 1564 1564 1557 1557 1550 1543 1543 1536 1529 1523 1523 1516
    1516 1516 1509 1503 1503 1503 1496 1489 1483 1483 1483 1477 1470
    1464 1464 1458 1458 1452 1452 1445 1445 1445 1439 1439 1445 1445
    1452 1470 1483 1496 1496 1503 1503 0 4190 1557 1557 1564 1564 1557
    1550 1550 1543 1543 1536 1529 1523 1523 1516 1516 1509 1509 1509
    1503 1503 1496 1489 1483 1477 1477 1470 1464 1464 1458 1458 1452
    1452 1445 1439 1439 1439 1439 1439 1439 1445 1452 1470 1483 1489
    1496 1496 1496 4190 4190 1557 1557 1564 1564 1550 1543 1543 1543
    1543 1536 1529 1523 1516 1516 1509 1503 1503 1503 1496 1496 1496
    1489 1483 1477 1477 1470 1464 1458 1458 1458 1452 1445 1439 1439
    1439 1439 1439 1439 1439 1445 1445 1470 1477 1489 1496 1496 1496
    4190 4190 1557 1557 1564 1564 1550 1543 1543 1543 1536 1529 1523
    1516 1516 1516 1509 1503 1503 1496 1496 1489 1489 1483 1483 1477
    1477 1464 1464 1458 1458 1458 1445 1445 1439 1439 1439 1439 1439
    1439 1439 1439 1445 1470 1477 1483 1489 1496 1496 4190 4190 1557
    1557 1564 1557 1543 1543 1543 1543 1536 1529 1523 1516 1516 1509
    1503 1489 1489 1496 1489 1489 1483 1483 1483 1477 1477 1464 1464
    1458 1458 1452 1445 1445 1439 1439 1433 1433 1433 1433 1433 1433
    1439 1470 1477 1483 1489 1496 1496 4190 4190 1564 1564 1543 1536
    1536 1543 1536 1536 1536 1523 1523 1516 1509 1509 1503 1489 1489
    1496 1489 1483 1483 1477 1477 1477 1470 1464 1458 1458 1452 1452
    1445 1445 1439 1439 1433 1433 1427 1427 1427 1427 1439 1470 1477
    1483 1489 1496 1496 1496 4190 1564 1557 1543 1536 1536 1536 1536
    1529 1523 1516 1516 1516 1509 1509 1503 1496 1489 1489 1489 1483
    1483 1477 1470 1470 1464 1464 1458 1458 1452 1445 1445 1439 1439
    1433 1433 1433 1427 1427 1427 1427 1458 1464 1477 1483 1489 1489
    1489 1489 4190 1564 1557 1550 1543 1536 1536 1529 1523 1516 1516
    1509 1509 1503 1503 1503 1496 1489 1489 1489 1483 1483 1470 1464
    1464 1464 1458 1458 1452 1445 1445 1439 1439 1433 1433 1433 1433
    1427 1421 1421 1427 1445 1458 1470 1477 1489 1489 1489 1489 4190
    1550 1543 1543 1543 1536 1536 1523 1523 1516 1516 1509 1509 1503
    1503 1496 1496 1489 1489 1483 1483 1483 1464 1464 1458 1458 1452
    1452 1445 1445 1439 1439 1433 1433 1433 1433 1433 1427 1421 1421
    1427 1439 1445 1464 1470 1477 1489 1489 1489 4190 1550 1543 1543
    1536 1536 1536 1523 1516 1509 1509 1509 1503 1496 1496 1496 1489
    1489 1489 1483 1483 1470 1464 1458 1458 1458 1452 1445 1439 1439
    1439 1439 1433 1433 1427 1427 1427 1421 1421 1421 1427 1439 1445
    1458 1470 1477 1483 1489 1489 4190 1543 1543 1543 1536 1536 1529
    1516 1516 1509 1509 1509 1503 1496 1489 1489 1489 1483 1483 1483
    1483 1464 1464 1458 1458 1458 1458 1445 1439 1439 1439 1433 1433
    1433 1427 1421 1421 1421 1421 1421 1421 1439 1445 1458 1470 1477
    1483 1489 1489 4190 1543 1543 1543 1536 1536 1523 1516 1509 1509
    1509 1503 1503 1496 1489 1489 1489 1483 1483 1483 1477 1464 1464
    1458 1458 1458 1458 1445 1439 1439 1439 1433 1433 1433 1427 1421
    1415 1415 1415 1415 1421 1433 1445 1458 1470 1477 1477 1489 1489
    4190 1543 1543 1543 1536 1529 1523 1516 1509 1509 1509 1503 1503
    1496 1489 1489 1483 1483 1483 1477 1470 1464 1464 1458 1458 1458
    1458 1445 1439 1439 1439 1433 1427 1427 1415 1415 1415 1415 1415
    1415 1421 1433 1445 1452 1464 1470 1477 1489 1489 4139 1543 1543
    1543 1529 1523 1516 1516 1509 1509 1503 1503 1503 1496 1489 1489
    1483 1483 1477 1464 1464 1464 1458 1458 1458 1458 1452 1445 1439
    1439 1439 1433 1427 1415 1415 1415 1415 1415 1415 1415 1421 1421
    1433 1452 1464 1470 1477 1489 1489 4041 1536 1536 1536 1523 1516
    1516 1516 1509 1509 1503 1503 1496 1489 1483 1483 1483 1477 1477
    1464 1464 1464 1458 1452 1452 1452 1439 1439 1439 1433 1433 1427
    1421 1415 1415 1415 1415 1415 1415 1415 1421 1421 1433 1445 1458
    1470 1470 1489 1489 4041 1536 1536 1536 1516 1516 1516 1509 1509
    1503 1503 1496 1489 1489 1483 1483 1483 1477 1477 1464 1458 1458
    1452 1452 1452 1452 1439 1439 1439 1433 1433 1427 1421 1415 1415
    1415 1415 1410 1410 1415 1415 1421 1427 1445 1458 1464 1470 1483
    1483 4089 1516 1516 1516 1516 1516 1516 1509 1503 1496 1496 1496
    1489 1489 1483 1483 1477 1470 1470 1470 1458 1458 1452 1452 1445
    1445 1439 1439 1433 1433 1433 1427 1421 1415 1415 1415 1415 1410
    1410 1415 1415 1415 1427 1439 1452 1464 1464 1470 1470 4089 1516
    1516 1516 1516 1516 1509 1503 1496 1496 1489 1489 1489 1489 1483
    1477 1470 1470 1470 1464 1458 1458 1452 1452 1445 1439 1439 1439
    1433 1433 1427 1421 1415 1415 1410 1410 1415 1404 1404 1410 1410
    1410 1421 1433 1445 1452 1464 1470 1477 1477 1529 1529 1523 1516
    1516 1509 1503 1496 1489 1489 1489 1489 1489 1483 1477 1470 1464
    1464 1464 1458 1458 1452 1452 1445 1439 1439 1433 1433 1433 1427
    1421 1415 1415 1410 1410 1415 1404 1404 1404 1404 1404 1421 1433
    1439 1452 1458 1470 1470 1470 1536 1516 1516 1516 1516 1509 1503
    1489 1489 1489 1489 1489 1483 1477 1477 1470 1464 1464 1464 1458
    1452 1445 1445 1439 1439 1433 1433 1427 1427 1421 1415 1415 1410
    1410 1410 1410 1404 1404 1398 1398 1404 1415 1427 1439 1445 1458
    1464 1470 1470 1536 1509 1509 1516 1509 1509 1496 1489 1489 1489
    1483 1483 1483 1477 1470 1464 1464 1464 1458 1452 1445 1439 1439
    1439 1433 1433 1427 1427 1421 1415 1415 1410 1410 1410 1410 1404
    1398 1398 1398 1398 1398 1410 1427 1439 1445 1452 1458 1458 4190
    1509 1509 1509 1516 1509 1509 1496 1489 1489 1483 1483 1483 1483
    1470 1464 1464 1464 1464 1452 1452 1445 1439 1439 1433 1433 1427
    1427 1421 1421 1415 1415 1410 1410 1404 1404 1404 1398 1398 1392
    1392 1398 1404 1421 1433 1445 1452 1458 1458 4139 1509 1509 1509
    1509 1509 1496 1496 1489 1489 1483 1483 1477 1470 1464 1464 1464
    1464 1464 1452 1445 1439 1439 1433 1433 1433 1427 1421 1415 1415
    1415 1415 1410 1410 1404 1404 1398 1398 1392 1392 1392 1392 1404
    1421 1433 1439 1445 1458 1458 4089 1503 1503 1503 1509 1509 1489
    1489 1483 1483 1483 1477 1477 1464 1464 1464 1458 1458 1458 1452
    1439 1439 1439 1433 1433 1433 1427 1421 1415 1415 1415 1415 1410
    1404 1398 1398 1398 1392 1392 1392 1392 1392 1404 1415 1427 1433
    1445 1452 1470 1470 1503 1503 1503 1503 1503 1489 1489 1483 1483
    1483 1477 1477 1464 1464 1464 1458 1458 1452 1445 1439 1439 1439
    1433 1433 1427 1421 1421 1415 1415 1415 1410 1410 1404 1398 1398
    1398 1392 1392 1392 1392 1398 1404 1415 1421 1433 1445 1452 1464
    1464 0 1509 1503 1503 1489 1489 1483 1483 1483 1477 1470 1470 1464
    1464 1458 1452 1452 1445 1439 1439 1439 1433 1433 1427 1427 1421
    1421 1415 1415 1415 1410 1404 1404 1398 1398 1392 1392 1392 1392
    1392 1398 1404 1415 1421 1433 1439 1445 1458 1458 0 1509 1503 1489
    1489 1483 1483 1483 1477 1477 1470 1470 1464 1464 1458 1452 1445
    1439 1439 1439 1439 1433 1433 1427 1421 1415 1415 1415 1410 1410
    1410 1404 1398 1392 1392 1392 1392 1387 1387 1387 1398 1404 1410
    1421 1427 1439 1445 1452 1452 0 1509 1503 1489 1483 1483 1483 1477
    1477 1477 1470 1464 1464 1458 1452 1445 1445 1439 1439 1433 1433
    1427 1427 1427 1415 1415 1415 1415 1410 1410 1398 1398 1392 1392
    1392 1392 1387 1387 1387 1387 1392 1398 1410 1415 1421 1439 1445
    1445 1445 0 1509 1496 1489 1483 1483 1483 1477 1470 1470 1464 1464
    1464 1458 1452 1445 1445 1439 1439 1433 1433 1427 1427 1421 1415
    1415 1415 1410 1410 1404 1398 1392 1392 1387 1387 1387 1381 1376
    1376 1376 1381 1392 1404 1415 1421 1433 1445 1445 1445 1509 1509
    1489 1489 1483 1483 1477 1477 1470 1464 1464 1464 1458 1458 1452
    1445 1439 1439 1439 1433 1433 1427 1421 1421 1415 1415 1415 1410
    1410 1398 1392 1392 1392 1387 1387 1381 1381 1376 1376 1376 1376
    1381 1398 1410 1415 1427 1439 1445 1445 1503 1503 1489 1489 1483
    1483 1477 1477 1470 1464 1464 1458 1458 1458 1445 1445 1439 1439
    1433 1433 1427 1421 1421 1421 1415 1415 1410 1410 1404 1398 1392
    1392 1387 1387 1387 1381 1381 1376 1376 1376 1376 1381 1387 1398
    1410 1427 1439 1445 1445 0 1503 1489 1483 1483 1483 1477 1470 1464
    1464 1458 1458 1458 1452 1445 1439 1433 1433 1433 1433 1427 1421
    1421 1415 1415 1410 1410 1410 1404 1392 1392 1392 1387 1387 1387
    1381 1381 1376 1376 1376 1376 1381 1387 1398 1410 1421 1433 1445
    1445 1503 1503 1489 1477 1477 1477 1470 1470 1464 1458 1458 1458
    1458 1452 1445 1439 1433 1433 1433 1427 1421 1415 1415 1415 1410
    1410 1404 1398 1398 1392 1392 1387 1387 1387 1387 1387 1381 1381
    1381 1381 1381 1387 1387 1398 1410 1421 1433 1439 1445 1489 1489
    1483 1477 1477 1470 1470 1470 1464 1458 1458 1458 1452 1445 1439
    1439 1433 1433 1433 1427 1421 1415 1415 1415 1410 1410 1404 1398
    1398 1392 1392 1387 1387 1387 1387 1392 1392 1387 1387 1387 1392
    1392 1392 1404 1410 1421 1433 1439 1439 1477 1477 1477 1470 1470
    1470 1464 1464 1464 1458 1458 1452 1452 1439 1439 1439 1433 1433
    1433 1427 1421 1415 1415 1415 1410 1410 1404 1404 1398 1392 1392
    1387 1387 1387 1392 1410 1410 1404 1404 1404 1404 1398 1398 1410
    1415 1427 1433 1439 1439 1477 1477 1477 1470 1464 1464 1464 1464
    1464 1458 1458 1452 1445 1439 1433 1433 1433 1433 1433 1427 1421
    1415 1415 1415 1410 1410 1410 1410 1404 1398 1398 1392 1392 1404
    1415 1421 1421 1421 1421 1421 1421 1421 1421 1421 1427 1433 1433
    1439 1439 1483 1483 1477 1470 1464 1464 1464 1464 1458 1458 1458
    1452 1445 1439 1433 1433 1433 1433 1433 1427 1421 1415 1415 1415
    1415 1415 1415 1415 1415 1415 1415 1415 1439 1439 1445 1433 1433
    1433 1433 1445 1445 1445 1445 1439 1439 1439 1445 1445 1445 1483
    1483 1477 1470 1464 1464 1458 1458 1458 1458 1458 1452 1445 1439
    1439 1439 1439 1439 1433 1433 1433 1427 1421 1421 1427 1427 1427
    1427 1427 1427 1433 1439 1439 1439 1452 1452 1452 1452 1452 1458
    1464 1464 1464 1464 1464 4041 4041 4041 3994 1489 1470 1470 1464
    1464 1464 1458 1458 1464 1458 1458 1452 1452 1445 1445 1439 1439
    1439 1439 1439 1439 1439 1477 1470 1452 1439 1439 1433 1433 1439
    1445 1452 1452 0 1470 1464 1464 1464 1464 1464 1464 1464 1464 4089
    4041 4041 4041 3994 3994 1464 1464 1464 1464 1458 1458 1464 1464
    1464 1464 1464 1464 1458 1458 1452 1445 1445 1445 1452 1452 1464
    1464 1477 1477 1477 1470 1470 0 0 1458 1458 1458 1458 0 0 1477 1477
    1477 1470 1470 1470 3994 3994 4041 4041 4041 4041 3994 3994 4241
    1464 1464 1464 1458 1458 1464 1464 1464 1470 1470 1470 1470 1470
    1464 1445 1445 1445 1452 1470 1483 1489 1489 1489 1489 1483 1483 0 0
    0 1470 1470 0 0 0 0 0 0 3994 3994 3994 3994 3994 4041 4041 4041 4041
    3994 3994 4190 4190 4241 1464 1464 1464 1470 1483 1483 1483 1489
    1489 1496 1489 1477 1439 1439 1433 1433 1496 1496 1503 1503 1503
    1503 1503 0 0 0 0 0 0 0 0 0 0 0 0 4041 4041 3994 3994 4041 4041 4041
    4041 4041 3994 3994 4139 4190 4089 4089 3994 3948 3948 1523 1516
    1516 1516 1516 1516 1503 1503 1439 1433 1427 1415 1415 1509 1509
    1503 1503 1503 0 0 0 0 0 0 0 0 0 0 0 0 0 4041 4041 4041 4041 4041
    4041 4041 4041 4041 3994 3994 4139 4190 4089 4089 3994 3948 3948
    1529 1523 1523 1523 1529 1529 1536 1523 1439 1433 1427 1415 1415
    1516 1509 1509 1509 1509 1509 0 0 0 0 0 0 0 0 0 0 0 4089 4041 4041
    4041 4041 4041 4041 4041 3994 3994 3994 3994 4139 4139 4139 4089
    3994 3994 3994 3994 3994 4089 4139 4139 1543 1543 4041 1427 1427
    1427 1421 1421 1421 1421 1421 1370 0 0 0 0 0 0 0 0 0 0 0 0 0 4041
    4041 4041 3994 3994 4041 4041 4041 3994 3994 3948 3948 4139 4139
    4139 4089 4041 4041 3994 3994 3994 4089 4139 4139 4139 4089 1421
    1421 1427 1421 1421 1427 1427 0 0 0 0 0 0 0 1365 1365 1365 0 0 0 0 0
    0 3994 3994 3994 3994 3994 3994 3994 3994 3994 3994 3948 3948</data></Depth6067>
</opencv_storage>
