<?xml version="1.0"?>
<opencv_storage>
<Depth19085 type_id="opencv-matrix">
  <rows>76</rows>
  <cols>64</cols>
  <dt>w</dt>
  <data>
    0 0 0 0 0 0 0 0 0 0 1105 1101 1094 1087 1077 1063 1054 1044 1031
    1025 1019 1016 1004 995 978 973 967 962 951 940 938 930 923 915 908
    906 903 903 903 903 903 906 906 908 908 908 908 910 910 910 910 913
    913 913 915 915 918 920 920 920 923 923 925 925 0 0 0 0 0 0 0 0 0 0
    1105 1097 1094 1084 1077 1060 1054 1044 1031 1025 1019 1013 1001 992
    978 973 967 959 948 940 938 930 920 913 906 903 903 903 903 903 903
    906 906 906 908 908 908 910 910 910 910 913 913 913 915 915 918 920
    920 920 923 923 925 925 0 0 0 0 0 0 0 0 0 1123 1105 1097 1094 1084
    1077 1057 1054 1041 1028 1022 1016 1007 1001 987 978 970 964 956 948
    943 938 930 918 913 903 903 903 903 903 903 903 906 906 906 908 908
    908 910 910 913 913 913 915 915 915 915 918 920 920 923 923 923 925
    925 0 0 0 0 0 0 0 0 1115 1115 1108 1097 1094 1087 1077 1057 1050
    1041 1028 1019 1016 1007 998 987 978 970 962 954 946 943 940 933 918
    913 903 903 903 903 903 903 903 906 906 906 908 908 910 910 910 910
    913 913 915 915 915 915 918 920 920 923 923 923 925 925 0 0 0 0 0 0
    0 1126 1115 1115 1105 1097 1090 1087 1060 1054 1047 1041 1028 1019
    1016 1007 998 984 975 967 956 948 946 940 935 925 918 910 903 903
    903 903 903 903 903 906 906 908 908 908 910 910 910 910 913 913 915
    915 915 915 918 920 920 923 923 923 925 925 2503 2503 2522 2522 0 0
    0 1126 1119 1112 1101 1097 1090 1084 1060 1054 1047 1041 1028 1019
    1016 1010 1001 984 973 967 954 948 946 938 930 920 915 908 903 903
    903 903 903 903 903 906 906 908 908 908 910 910 910 910 910 913 915
    915 915 915 915 918 920 923 923 925 925 925 2503 2503 2522 2522 0 0
    0 1126 1119 1112 1101 1097 1090 1084 1060 1054 1047 1038 1028 1019
    1013 1007 989 975 973 967 954 948 946 938 930 920 913 906 906 903
    903 903 901 901 903 903 906 908 908 908 910 910 910 910 910 913 915
    915 915 915 915 918 920 923 923 923 923 920 2503 2503 2522 2522 2522
    2522 0 1123 1119 1112 1101 1094 1087 1084 1060 1054 1047 1038 1028
    1019 1013 1007 989 975 970 962 954 948 946 935 928 918 913 906 903
    903 903 903 901 901 903 903 906 906 908 910 910 910 910 910 910 913
    913 915 915 915 915 918 920 920 923 923 923 920 2522 2522 2522 2541
    2522 2522 2522 1123 1115 1108 1097 1090 1087 1080 1057 1050 1047
    1038 1028 1016 1010 1004 989 975 970 962 956 951 946 935 923 918 910
    906 903 903 901 901 903 903 903 903 906 906 908 908 910 910 910 910
    910 913 913 915 915 918 918 918 920 920 923 923 923 923 2541 2541
    2541 2541 2522 2522 2522 1112 1112 1108 1097 1090 1084 1077 1057
    1050 1047 1038 1025 1016 1007 1001 987 978 970 962 956 951 943 935
    923 915 910 906 903 903 901 901 903 903 903 906 906 908 908 908 910
    910 910 910 910 913 913 913 913 918 918 920 920 920 923 923 923 923
    2560 2560 2560 2560 2560 2560 1112 1112 1112 1108 1097 1090 1084
    1077 1057 1054 1047 1034 1025 1016 1007 998 987 978 964 962 956 951
    940 933 925 915 910 906 903 903 901 901 903 903 903 906 906 908 908
    908 910 910 910 910 913 913 913 913 913 918 918 920 920 920 923 923
    923 923 2598 2579 2579 2560 2560 2560 1112 1112 1108 1105 1097 1090
    1084 1077 1057 1050 1047 1034 1025 1016 1010 987 981 973 964 962 956
    951 935 933 923 915 908 903 903 903 901 901 903 903 903 903 903 906
    906 908 910 910 910 910 913 913 913 915 915 915 915 918 920 920 923
    923 923 0 2598 2618 2598 2579 2579 2579 1115 1115 1108 1105 1097
    1090 1080 1073 1057 1050 1044 1028 1019 1016 1007 987 978 973 967
    962 956 946 933 930 923 915 908 903 903 901 901 901 903 903 903 903
    903 906 906 908 910 910 910 910 913 913 913 915 915 915 915 918 920
    920 923 920 920 0 2598 2639 2639 2639 2639 2639 1119 1119 1112 1108
    1097 1090 1080 1073 1057 1047 1041 1028 1019 1013 1004 987 978 973
    964 962 956 946 933 925 920 915 906 903 903 901 901 901 903 903 903
    903 903 903 906 910 910 910 910 910 913 913 913 915 915 918 918 918
    920 920 923 920 920 0 2618 2639 2639 2639 2639 0 1119 1119 1112 1108
    1097 1090 1080 1073 1057 1047 1038 1025 1019 1010 1004 984 978 973
    964 959 954 943 933 925 920 913 906 903 903 901 901 901 903 903 903
    903 903 903 906 910 910 910 910 910 913 913 913 915 918 918 918 918
    920 920 920 920 0 0 2598 2598 2618 2639 2639 0 1119 1119 1112 1108
    1097 1090 1080 1070 1057 1044 1031 1022 1016 1010 1001 984 978 970
    964 959 951 940 933 925 918 913 906 903 903 903 901 901 903 903 903
    903 903 903 906 908 910 910 910 910 913 913 913 915 918 918 918 918
    920 920 920 920 920 0 2598 2598 2598 2598 2598 0 1112 1112 1112 1105
    1097 1087 1077 1070 1057 1044 1031 1022 1016 1010 992 984 978 970
    962 956 951 940 933 920 915 910 906 903 903 903 901 901 903 903 903
    903 903 906 906 908 910 910 910 910 913 913 913 915 915 918 918 918
    920 920 920 920 920 0 2579 2560 2560 2560 0 1119 1112 1112 1112 1101
    1094 1087 1077 1063 1057 1044 1031 1022 1016 1010 992 987 978 970
    962 956 951 943 933 920 915 910 906 901 901 901 901 901 903 903 903
    906 903 903 906 908 910 910 910 910 913 913 915 915 915 918 918 918
    918 920 920 920 920 0 2579 2560 2560 2560 2541 1119 1119 1112 1105
    1097 1094 1087 1073 1060 1050 1041 1031 1022 1016 1010 992 987 975
    964 959 956 951 943 925 920 915 908 903 901 901 901 901 901 901 903
    903 903 903 903 906 908 910 910 910 910 913 913 915 915 915 918 918
    918 918 920 920 920 920 0 2579 2560 2541 2541 2541 1123 1119 1108
    1105 1097 1094 1087 1073 1057 1050 1041 1031 1022 1016 1007 992 987
    975 964 959 956 951 943 923 918 915 908 903 901 901 901 901 901 901
    901 903 903 906 906 906 908 908 910 910 910 913 913 915 915 915 918
    918 918 920 920 923 923 923 0 2579 2560 2541 2541 2541 1123 1119
    1108 1101 1097 1094 1080 1060 1057 1050 1038 1028 1019 1016 1007 989
    984 973 964 959 956 951 935 923 918 913 906 903 901 898 898 898 901
    901 901 903 903 906 906 906 908 908 910 910 910 913 913 915 915 918
    918 918 918 920 920 923 920 920 0 2579 2560 2560 2560 2560 1115 1115
    1108 1101 1101 1090 1080 1060 1057 1050 1034 1025 1019 1010 1004 989
    981 973 964 959 954 946 933 925 918 910 903 901 901 898 898 898 901
    901 903 903 903 906 906 906 908 908 910 910 910 913 913 915 915 918
    918 918 918 920 920 923 920 920 0 2579 2579 2541 2541 2541 1112 1112
    1108 1101 1097 1087 1077 1063 1057 1044 1028 1025 1019 1010 1001 989
    978 967 962 959 954 943 933 925 920 910 903 901 901 901 901 901 901
    903 903 903 903 906 906 906 908 908 908 910 910 913 913 915 918 918
    918 918 920 920 920 923 920 920 0 2579 2579 2541 2541 2541 1112 1112
    1108 1101 1097 1087 1077 1060 1054 1044 1028 1025 1019 1007 1001 987
    975 964 962 956 948 938 930 925 918 910 903 901 901 901 901 901 903
    903 903 903 903 903 906 906 908 908 908 910 910 913 913 915 918 918
    918 918 918 920 920 920 918 918 0 2579 2579 2560 2560 2560 1112 1112
    1108 1101 1097 1087 1077 1060 1054 1041 1031 1025 1016 1007 992 981
    973 964 962 956 948 938 928 923 918 908 903 901 901 901 901 901 903
    903 903 903 903 903 906 906 908 910 910 910 910 910 913 913 915 918
    918 918 918 920 920 920 918 918 0 2579 2579 2579 2579 2579 1112 1112
    1105 1097 1094 1087 1063 1060 1054 1041 1031 1022 1013 1007 989 978
    970 964 959 954 946 938 928 923 915 903 903 901 901 901 901 901 901
    903 903 903 903 903 906 906 908 910 910 910 910 910 913 913 913 913
    915 918 920 920 920 920 920 920 0 2579 2579 2579 2579 1115 1115 1108
    1101 1097 1094 1087 1060 1057 1050 1041 1031 1019 1013 1007 989 975
    970 964 959 954 946 938 925 920 913 903 903 901 901 901 901 901 901
    903 903 903 903 903 906 906 908 910 910 913 913 913 913 913 913 913
    915 918 920 923 920 920 920 0 0 2560 2560 2579 2579 1112 1112 1105
    1101 1094 1090 1084 1060 1057 1047 1041 1028 1019 1013 1007 989 975
    970 964 959 954 946 938 923 920 910 901 901 901 901 901 901 901 903
    903 903 903 903 903 906 906 908 910 910 913 913 913 913 913 913 913
    915 918 920 923 920 918 918 0 0 2541 2541 2541 2541 1130 1112 1105
    1097 1094 1087 1080 1060 1054 1047 1041 1022 1016 1010 1001 989 975
    964 962 959 954 943 928 923 920 910 901 901 901 898 898 898 901 903
    903 903 903 906 906 906 906 908 910 910 910 913 913 913 913 913 913
    918 918 920 920 920 913 913 0 0 2503 2503 2522 2522 1130 1101 1101
    1097 1094 1087 1080 1060 1054 1047 1034 1022 1016 1010 992 989 975
    964 962 959 948 940 928 920 918 910 901 901 901 898 898 898 901 903
    903 903 903 906 906 906 906 908 910 910 910 913 913 913 913 913 913
    918 918 920 920 920 913 913 0 0 2503 2503 2522 2522 1101 1101 1101
    1097 1094 1087 1080 1060 1054 1047 1031 1019 1016 1007 992 984 975
    967 962 959 946 938 928 920 918 910 903 903 901 901 901 901 901 901
    901 901 901 903 906 906 906 906 910 910 910 913 913 913 913 913 913
    918 918 920 920 920 918 918 0 0 2503 2503 2522 2522 1101 1101 1101
    1101 1094 1087 1077 1060 1054 1044 1031 1019 1016 1007 989 981 973
    967 962 956 946 938 928 923 918 910 903 903 901 901 901 901 901 901
    901 901 901 903 906 906 906 906 910 910 910 913 913 913 913 913 913
    918 920 920 920 920 920 920 0 0 2503 2503 2503 2503 1108 1108 1105
    1101 1094 1087 1077 1060 1054 1044 1028 1022 1016 1010 989 981 973
    967 962 954 946 938 930 923 915 908 903 901 901 901 901 901 901 903
    903 903 903 906 906 906 906 908 910 910 913 913 913 913 913 913 915
    918 920 920 920 920 920 920 0 0 2541 2541 2541 1119 1112 1112 1105
    1097 1094 1087 1077 1060 1050 1041 1025 1022 1016 1010 987 975 973
    967 959 954 946 933 928 920 913 903 901 901 901 901 901 901 901 903
    903 903 903 906 906 906 906 908 910 910 913 913 915 915 915 915 915
    915 920 920 920 920 920 920 0 0 2579 2579 2579 1119 1119 1112 1105
    1097 1090 1084 1077 1060 1050 1038 1025 1022 1016 1007 984 975 973
    967 959 951 946 930 928 918 910 903 901 901 901 901 901 901 901 903
    903 903 903 906 906 908 908 908 910 910 913 913 913 913 913 915 915
    915 920 920 920 920 923 0 0 0 2579 2579 1108 1115 1115 1112 1105
    1097 1090 1084 1063 1057 1047 1038 1025 1019 1010 992 984 975 970
    967 959 951 943 930 925 918 910 903 901 901 901 901 901 901 901 903
    903 903 906 906 906 908 908 910 910 910 910 913 913 913 913 913 915
    915 920 920 920 920 0 0 0 0 2560 1108 0 1108 1108 1112 1105 1097
    1090 1077 1063 1054 1047 1038 1025 1016 1007 992 984 975 970 964 959
    951 943 930 923 918 910 903 901 901 901 901 901 901 901 903 903 903
    906 906 906 908 908 910 910 910 910 913 913 913 913 913 915 918 918
    920 920 920 920 0 0 3064 0 0 0 1108 1108 1108 1101 1094 1084 1073
    1060 1054 1044 1038 1025 1016 1007 992 984 975 970 964 956 951 943
    928 923 918 910 906 901 901 901 901 901 901 901 903 903 903 906 906
    906 908 910 910 910 910 910 913 913 913 913 913 915 918 918 920 920
    920 0 0 0 3037 2744 0 1115 1115 1108 1105 1097 1090 1084 1073 1057
    1050 1044 1038 1022 1013 1004 989 984 978 970 962 954 948 943 925
    920 918 908 901 898 898 901 901 901 903 903 903 903 903 906 906 906
    908 910 910 910 910 910 913 913 915 913 913 915 918 920 920 920 923
    923 0 0 0 2744 0 1108 1108 1105 1101 1097 1090 1084 1077 1057 1050
    1044 1038 1019 1013 1004 989 978 975 967 959 954 948 933 925 920 915
    906 898 898 898 898 898 901 903 903 903 903 903 906 906 906 908 910
    910 910 910 910 913 915 915 915 915 918 918 920 920 920 923 0 0 0 0
    2767 0 0 1101 1101 1101 1097 1090 1084 1077 1057 1050 1044 1028 1019
    1013 1007 989 975 973 964 959 951 946 930 925 920 913 903 898 898
    898 898 898 901 901 903 903 903 903 903 906 906 910 910 910 910 910
    910 913 915 915 915 915 915 920 920 920 920 923 0 0 0 0 0 0 0 1101
    1101 1101 1094 1090 1084 1063 1054 1047 1041 1028 1016 1010 1001 989
    975 973 964 956 951 943 928 925 918 910 903 898 898 898 898 898 901
    901 903 903 903 903 903 906 906 908 910 910 910 910 910 913 913 913
    913 915 915 920 920 920 923 930 0 0 0 3064 0 0 0 1101 1101 1101 1094
    1087 1080 1063 1054 1047 1041 1028 1016 1007 1001 989 978 973 967
    956 951 943 928 923 918 910 903 898 896 896 898 898 901 901 901 903
    903 903 903 906 906 908 910 910 910 910 913 913 913 913 913 915 918
    920 920 920 923 0 0 0 0 3064 0 0 1112 1101 1101 1097 1094 1087 1080
    1060 1054 1047 1041 1022 1013 1007 1001 989 978 973 964 954 948 940
    928 923 915 908 901 898 896 896 898 898 901 901 901 903 903 903 903
    906 908 908 910 910 910 910 913 913 913 913 913 915 918 920 920 920
    923 0 0 0 0 3064 0 0 1112 1108 1108 1097 1094 1087 1077 1060 1054
    1047 1038 1019 1010 1007 992 987 978 970 962 954 946 933 925 920 915
    908 901 898 896 896 898 898 901 901 901 903 903 903 906 906 908 910
    910 910 910 910 913 913 913 913 913 915 918 920 920 920 920 0 0 0 0
    0 0 0 1112 1112 1108 1101 1094 1087 1077 1060 1054 1047 1031 1019
    1010 1007 992 981 975 970 959 951 946 930 925 920 913 906 901 898
    896 896 898 898 901 901 903 903 903 906 906 908 908 910 910 910 910
    910 913 913 913 915 915 915 918 918 920 920 920 0 0 0 0 0 0 0 1112
    1112 1108 1101 1094 1084 1077 1060 1054 1044 1028 1019 1013 1010 992
    981 975 967 954 951 946 928 925 918 913 903 898 896 896 896 898 898
    901 901 903 903 906 906 906 908 908 910 910 910 910 910 913 913 913
    915 915 915 918 918 918 913 913 0 0 0 0 0 0 0 1112 1112 1108 1097
    1090 1084 1073 1057 1047 1041 1028 1019 1013 1007 989 981 975 964
    954 951 946 928 923 918 913 903 898 896 894 894 898 901 901 901 903
    903 906 906 906 908 908 910 910 910 910 910 913 913 913 915 915 918
    918 918 918 913 913 0 0 0 0 3816 0 0 1112 1112 1108 1097 1087 1080
    1073 1054 1044 1041 1028 1019 1013 1004 989 984 973 962 954 948 933
    928 923 918 913 903 898 896 894 894 898 901 901 901 903 903 906 906
    906 908 908 908 910 910 910 910 913 913 913 913 913 918 918 920 920
    920 0 0 0 0 0 3816 0 0 0 1108 1105 1097 1087 1077 1070 1054 1044
    1038 1022 1016 1010 1004 989 984 973 962 951 948 933 925 920 918 913
    903 896 894 894 896 898 901 901 901 901 903 903 906 906 908 908 908
    910 910 910 910 913 913 913 913 913 918 920 920 920 920 0 0 0 0 0
    3816 0 0 1108 1108 1101 1094 1087 1073 1063 1050 1044 1034 1022 1016
    1010 1001 987 978 970 959 951 948 933 925 920 918 910 903 896 894
    894 896 898 901 901 901 901 903 903 906 906 906 908 908 910 910 910
    913 913 913 913 913 913 918 920 923 923 923 0 0 0 0 0 3859 0 1108
    1105 1105 1101 1094 1087 1073 1060 1050 1041 1028 1022 1016 1010
    1001 984 973 967 959 951 946 933 925 920 915 908 901 898 896 894 894
    898 901 901 901 901 903 903 906 906 906 908 908 910 910 913 913 913
    913 913 913 915 920 920 920 923 923 0 0 0 0 0 3903 0 1108 1108 1105
    1097 1094 1087 1073 1057 1047 1041 1028 1022 1016 1010 992 981 973
    967 962 951 946 933 925 920 913 906 901 898 896 894 894 898 901 901
    901 901 903 903 906 906 906 908 908 910 910 913 913 913 913 913 913
    918 920 920 920 923 923 0 0 0 0 0 3859 0 1108 1108 1105 1097 1090
    1077 1063 1057 1044 1038 1025 1019 1013 1007 992 981 970 967 962 951
    943 933 925 920 910 903 898 896 896 896 896 898 901 901 903 903 903
    903 906 906 908 908 908 910 910 913 913 913 913 913 915 918 920 920
    920 920 920 0 0 0 0 0 3859 1112 1108 1108 1105 1097 1090 1073 1063
    1054 1044 1038 1025 1019 1013 1007 992 978 970 967 962 951 943 930
    923 920 910 903 898 896 896 896 896 901 901 901 901 903 903 903 906
    906 908 908 908 910 910 913 913 913 913 913 915 918 920 920 920 920
    920 0 0 0 0 3859 3859 1112 1112 1108 1105 1097 1084 1073 1063 1054
    1044 1034 1025 1019 1010 1004 992 978 970 964 956 948 943 930 923
    920 910 903 898 896 896 896 896 901 901 901 901 903 903 903 906 906
    908 908 908 910 910 913 913 913 915 915 915 918 918 920 920 920 0 0
    0 0 3816 3816 3859 1112 1112 1112 1105 1097 1084 1073 1063 1054 1041
    1031 1025 1019 1010 1004 989 978 970 964 954 948 943 930 923 918 908
    901 898 896 896 896 898 901 901 901 903 903 906 906 906 908 908 908
    908 910 910 913 913 913 915 915 915 918 918 920 920 0 0 0 0 0 3816
    3816 3859 1112 1112 1108 1105 1094 1084 1080 1060 1050 1041 1031
    1025 1019 1010 992 987 975 967 959 951 948 943 928 920 915 908 901
    898 896 896 896 898 901 901 901 903 903 906 906 906 908 908 910 910
    910 910 913 913 913 913 913 913 918 920 920 920 0 0 0 0 0 3859 3859
    3903 1115 1112 1108 1105 1094 1084 1080 1057 1047 1041 1031 1025
    1016 1010 992 984 973 964 959 951 948 930 925 920 913 908 901 898
    898 896 896 896 901 901 903 903 903 906 906 906 908 908 910 910 913
    913 913 913 913 913 913 913 915 920 920 920 0 0 0 0 0 3903 3903 3903
    1115 1108 1105 1101 1094 1087 1080 1054 1044 1041 1031 1022 1016
    1007 989 981 973 962 956 954 948 930 925 918 913 908 901 898 898 898
    896 896 901 901 901 903 903 906 906 906 906 908 910 913 913 913 913
    913 913 913 913 913 915 920 920 920 0 0 0 0 0 3948 3903 3903 1108
    1108 1105 1097 1094 1084 1063 1050 1044 1041 1031 1019 1010 1004 989
    981 970 962 956 954 948 930 923 918 913 906 901 898 898 898 898 898
    901 901 901 903 903 903 906 906 906 908 910 910 913 913 913 913 913
    913 913 913 915 920 920 920 0 0 0 0 0 3948 3948 3948 0 1108 1105
    1097 1090 1084 1063 1050 1044 1041 1031 1019 1007 1001 992 978 970
    962 956 951 943 930 923 918 908 903 898 898 898 898 898 898 901 901
    903 903 903 903 906 906 906 906 908 910 913 913 913 913 913 913 913
    915 915 918 918 918 0 0 0 0 0 3948 3948 3948 0 1105 1101 1094 1087
    1080 1077 1050 1041 1041 1028 1019 1007 1001 992 975 967 962 956 951
    943 928 923 915 906 901 898 898 896 896 898 898 901 901 903 903 906
    906 906 906 906 906 908 910 910 913 913 913 913 913 913 915 915 918
    918 918 0 0 0 0 0 3948 3948 3948 0 1105 1101 1094 1087 1080 1063
    1050 1041 1038 1028 1016 1007 1001 992 975 967 962 956 951 940 928
    920 913 906 901 898 898 896 896 896 896 901 901 903 903 906 906 906
    908 908 908 908 910 910 910 913 913 913 913 913 915 918 918 918 918
    0 0 0 0 0 3903 3903 3903 0 1105 1101 1094 1087 1080 1063 1047 1041
    1034 1028 1016 1007 1001 989 973 967 962 956 948 933 928 915 908 906
    901 898 898 896 896 896 896 898 901 903 903 903 906 908 908 908 908
    908 910 910 910 910 913 913 913 913 915 918 918 918 918 0 0 0 0 3948
    3903 3903 3903 0 1101 1097 1090 1084 1077 1057 1047 1041 1031 1022
    1016 1007 992 984 973 970 964 956 948 933 928 910 908 906 901 898
    896 896 896 896 896 898 901 903 903 903 903 906 906 908 908 910 910
    910 910 910 913 913 915 915 918 920 920 920 0 0 0 0 0 3948 3903 3903
    3903 1108 1101 1097 1090 1084 1063 1057 1047 1041 1031 1022 1013
    1007 992 981 975 970 964 959 943 933 933 910 908 906 901 898 896 896
    896 898 898 901 901 903 903 903 903 906 906 908 908 910 910 910 910
    910 913 913 915 915 918 920 920 920 920 0 0 0 0 3948 3903 3903 3903
    1108 1105 1097 1090 1084 1060 1057 1047 1041 1028 1019 1013 1007 987
    978 975 970 964 964 943 935 930 910 908 908 901 898 898 896 896 898
    898 901 901 901 903 903 903 906 906 908 910 910 910 910 910 913 913
    913 915 915 918 920 920 920 920 0 0 0 0 3948 3948 3948 3948 1108
    1105 1097 1090 1084 1060 1057 1050 1041 1025 1016 1010 1004 987 978
    975 970 962 962 962 935 930 925 913 910 903 901 898 896 896 898 898
    901 901 901 903 903 906 906 906 910 910 910 910 910 910 913 915 915
    915 918 918 920 920 920 0 0 0 0 0 3948 3948 3948 3948 1112 1105 1097
    1087 1084 1063 1054 1044 1034 1025 1016 1010 1004 987 978 975 970
    962 962 962 0 0 0 925 925 925 920 913 910 906 906 903 901 901 901
    903 906 906 906 906 910 910 910 910 910 910 913 915 915 915 918 918
    920 920 920 0 0 0 0 0 3948 3948 3948 3948 1108 1105 1094 1084 1080
    1073 1054 1044 1031 1022 1016 1010 989 984 978 978 978 964 962 962 0
    0 0 930 928 923 920 913 913 908 908 910 910 910 910 910 908 908 908
    908 910 913 913 913 913 913 913 915 915 915 915 915 920 918 918 0 0
    0 0 0 3948 3948 3948 3948 1105 1101 1090 1084 1077 1063 1050 1041
    1031 1022 1016 1010 987 984 978 978 978 0 0 0 0 0 0 0 0 913 913 913
    910 910 910 910 910 0 0 920 920 913 913 913 915 915 915 915 915 915
    915 918 915 915 915 915 920 918 918 0 0 0 3948 0 3948 3948 3948 3948
    1105 1101 1090 1084 1077 1057 1047 1041 1031 1022 1019 1013 987 987
    1022 1016 1016 0 0 0 0 0 0 0 0 910 910 910 910 908 908 910 910 0 0 0
    928 928 930 933 935 935 933 928 920 920 920 918 915 915 918 918 920
    920 920 0 0 0 3948 3948 3948 3948 3948 3948 1105 1105 1097 1090 1090
    1057 1047 1041 1038 1034 1028 1022 1022 1031 1022 1016 1016 0 0 0 0
    0 0 0 0 910 910 910 910 908 908 910 0 0 0 933 933 933 938 938 938
    935 935 935 935 933 925 923 920 918 918 918 920 920 920 0 3994 3994
    3948 3948 3948 3948 3948 3948 1108 1108 1108 1108 1112 1123 1123
    1123 1050 1050 1050 1050 1041 1034 1025 1019 1019 0 0 0 0 0 0 0 0 0
    918 918 0 0 0 0 0 0 0 0 0 970 964 954 943 938 938 938 938 933 928
    928 925 923 920 920 920 920 920 4041 3994 3994 3948 3948 3948 3948
    3948 3948 1112 1112 1115 1115 1123 1123 1123 0 0 2744 0 0 0 0 0 0 0
    0 0 0 0 0 0 0 0 0 0 0 0 0 0 0 0 0 0 0 0 970 964 962 943 940 940 940
    938 935 933 930 930 930 3994 3994 3994 3948 3948 3994 3994 3994 3948
    3948 3948 3948 3948 3948</data></Depth19085>
</opencv_storage>
