<?xml version="1.0"?>
<opencv_storage>
<Depth type_id="opencv-matrix">
  <rows>40</rows>
  <cols>40</cols>
  <dt>f</dt>
  <data>
    0. 0. 0. 0. 0. 0. 0. 0. 0. 0. 0. 0. 0. 0. 0. 0. 0. 0. 0. 0. 0. 0. 0.
    0. 0. 0. 0. 0. 0. 0. 0. 0. 0. 0. 0. 0. 0. 0. 0. 0. 0. 0. 0. 0. 0. 0.
    0. 0. 0. 0. 0. 0. 0. 0. 0. 0. 0. 0. 0. 0. 0. 0. 0. 0. 0. 0. 0. 0. 0.
    0. 0. 0. 0. 0. 0. 0. 0. 0. 0. 0. 0. 0. 0. 0. 0. 0. 0. 0. 0. 0. 0. 0.
    0. 0. 0. 0. 0. 0. 0. 2.97399998e+00 2.09500003e+00 2.07100010e+00
    2.07100010e+00 2.07100010e+00 2.07100010e+00 2.07100010e+00
    2.07100010e+00 2.04299998e+00 2.03500009e+00 2.65000010e+00 0. 0. 0.
    0. 0. 0. 0. 0. 0. 0. 0. 0. 0. 0. 0. 0. 0. 0. 0. 0. 0. 0. 0. 0. 0. 0.
    0. 2.83999991e+00 2.79600000e+00 2.37800002e+00 2.07900000e+00
    2.07100010e+00 2.07100010e+00 2.07100010e+00 2.05999994e+00
    2.04699993e+00 2.04699993e+00 2.03800011e+00 2.02300000e+00
    2.22099996e+00 2.67899990e+00 2.69700003e+00 0. 0. 0. 0. 0. 0. 0. 0.
    0. 0. 0. 0. 0. 0. 0. 0. 0. 0. 0. 0. 0. 0. 0. 0. 2.97300005e+00
    2.10700011e+00 2.07800007e+00 2.07100010e+00 2.07100010e+00
    2.07100010e+00 2.07100010e+00 2.07100010e+00 2.05500007e+00
    2.03500009e+00 2.03500009e+00 2.03500009e+00 2.01600003e+00 2. 2.
    2.00399995e+00 2.67700005e+00 2.47799993e+00 1.06599998e+00 0. 0. 0.
    0. 0. 0. 0. 0. 0. 0. 0. 0. 0. 0. 0. 0. 0. 0. 0. 0. 2.99000001e+00
    2.10800004e+00 2.10700011e+00 2.08400011e+00 2.07900000e+00
    2.07900000e+00 2.07900000e+00 2.07900000e+00 2.07299995e+00
    2.05500007e+00 2.03500009e+00 2.03500009e+00 2.03500009e+00
    2.01999998e+00 2.00699997e+00 2.00399995e+00 1.97099996e+00
    1.96500003e+00 0. 0. 0. 0. 0. 0. 0. 0. 0. 0. 0. 0. 0. 0. 0. 0. 0. 0.
    0. 0. 2.31200004e+00 2.18799996e+00 2.14899993e+00 2.10800004e+00
    2.10800004e+00 2.10700011e+00 2.10700011e+00 2.10700011e+00
    2.10700011e+00 2.10700011e+00 2.08299994e+00 2.05500007e+00
    2.03500009e+00 2.03500009e+00 2.03500009e+00 2.03500009e+00
    2.03399992e+00 2.02800012e+00 1.97500002e+00 1.96500003e+00
    1.93700004e+00 1.28799999e+00 0. 0. 0. 0. 0. 0. 0. 0. 0. 0. 0. 0. 0.
    0. 0. 0. 2.70099998e+00 2.58100009e+00 2.17700005e+00 2.14599991e+00
    2.12700009e+00 2.10800004e+00 2.10800004e+00 2.10800004e+00
    2.10800004e+00 2.10800004e+00 2.10800004e+00 2.10800004e+00
    2.08299994e+00 2.05500007e+00 2.03500009e+00 2.03500009e+00
    2.03500009e+00 2.03500009e+00 2.03500009e+00 2.03099990e+00
    1.99699998e+00 1.99100006e+00 1.99100006e+00 1.83800006e+00
    1.18400002e+00 1.12600005e+00 1.54299998e+00 1.73300004e+00
    1.11899996e+00 0. 0. 0. 0. 0. 0. 0. 0. 0. 0. 2.57699990e+00
    2.17000008e+00 2.14599991e+00 2.14599991e+00 2.14599991e+00
    2.12700009e+00 2.10800004e+00 2.10800004e+00 2.10800004e+00
    2.09699988e+00 2.08899999e+00 2.08899999e+00 2.08899999e+00
    2.06399989e+00 2.04399991e+00 2.03500009e+00 2.03500009e+00
    2.03500009e+00 2.03500009e+00 2.02900004e+00 2.01500010e+00
    2.00200009e+00 2. 2. 2. 2. 1.97500002e+00 1.96500003e+00
    1.96500003e+00 1.96500003e+00 0. 0. 0. 0. 0. 0. 0. 0. 0.
    2.38599992e+00 2.17300010e+00 2.16300011e+00 2.14599991e+00
    2.14599991e+00 2.13800001e+00 2.12199998e+00 2.10500002e+00
    2.09699988e+00 2.09699988e+00 2.08200002e+00 2.06699991e+00
    2.05999994e+00 2.05999994e+00 2.04299998e+00 2.03500009e+00
    2.03500009e+00 2.03500009e+00 2.03500009e+00 2.02900004e+00
    2.01699996e+00 1.99899995e+00 1.99100006e+00 1.98899996e+00
    1.98899996e+00 1.98899996e+00 1.98899996e+00 1.96399999e+00
    1.95500004e+00 1.95500004e+00 1.95500004e+00 0. 0. 0. 0. 0.
    2.60200000e+00 2.10800004e+00 2.11899996e+00 2.14599991e+00
    2.14599991e+00 2.14599991e+00 2.14499998e+00 2.14299989e+00
    2.14100003e+00 2.11500001e+00 2.10500002e+00 2.09599996e+00
    2.07100010e+00 2.07100010e+00 2.07100010e+00 2.05800009e+00
    2.03500009e+00 2.03500009e+00 2.03500009e+00 2.03500009e+00
    2.03399992e+00 2.03200006e+00 2.03200006e+00 2.01500010e+00
    1.99899995e+00 1.99500000e+00 1.97000003e+00 1.96500003e+00
    1.96500003e+00 1.96500003e+00 1.96500003e+00 1.94000006e+00
    1.93099999e+00 1.93099999e+00 1.93099999e+00 0. 0. 0. 0.
    2.50799990e+00 2.19700003e+00 2.10800004e+00 2.11899996e+00
    2.14599991e+00 2.14599991e+00 2.14599991e+00 2.13299990e+00
    2.10899997e+00 2.08400011e+00 2.07800007e+00 2.07699990e+00
    2.07500005e+00 2.07100010e+00 2.07100010e+00 2.07100010e+00
    2.05800009e+00 2.03500009e+00 2.03500009e+00 2.03500009e+00
    2.03500009e+00 2.02800012e+00 2.00600004e+00 2.00500011e+00
    2.00200009e+00 1.99100006e+00 1.97000003e+00 1.96599996e+00
    1.96500003e+00 1.96500003e+00 1.96500003e+00 1.96500003e+00
    1.94000006e+00 1.93099999e+00 1.93099999e+00 1.93099999e+00 0. 0. 0.
    2.83299994e+00 2.16300011e+00 2.11700010e+00 2.10800004e+00
    2.11899996e+00 2.14599991e+00 2.14599991e+00 2.13100004e+00
    2.10800004e+00 2.08299994e+00 2.07200003e+00 2.05500007e+00
    2.04900002e+00 2.04900002e+00 2.04900002e+00 2.04900002e+00
    2.04900002e+00 2.04399991e+00 2.03200006e+00 2.01500010e+00
    2.01300001e+00 2.01300001e+00 2.00999999e+00 2. 2. 2. 1.98899996e+00
    1.96300006e+00 1.94700003e+00 1.94400001e+00 1.93499994e+00
    1.92299998e+00 1.92299998e+00 1.91299999e+00 1.90999997e+00
    1.91600001e+00 1.93099999e+00 0. 2.63400006e+00 2.17799997e+00
    2.16499996e+00 2.14599991e+00 2.11700010e+00 2.10800004e+00
    2.11899996e+00 2.14499998e+00 2.13299990e+00 2.11700010e+00
    2.09299994e+00 2.06900001e+00 2.05800009e+00 2.04099989e+00
    2.03500009e+00 2.03500009e+00 2.03500009e+00 2.03500009e+00
    2.03500009e+00 2.03500009e+00 2.03099990e+00 2.00300002e+00 2. 2.
    1.99699998e+00 1.98599994e+00 1.98599994e+00 1.97899997e+00
    1.96599996e+00 1.95000005e+00 1.93400002e+00 1.93099999e+00
    1.91700006e+00 1.89699996e+00 1.89699996e+00 1.89699996e+00
    1.89699996e+00 1.90600002e+00 1.93099999e+00 2.18499994e+00
    2.18499994e+00 2.16799998e+00 2.14499998e+00 2.14000010e+00
    2.11599994e+00 2.10800004e+00 2.11899996e+00 2.14299989e+00
    2.11400008e+00 2.10800004e+00 2.09599996e+00 2.06999993e+00
    2.03800011e+00 2.03500009e+00 2.03500009e+00 2.03500009e+00
    2.03500009e+00 2.03500009e+00 2.03500009e+00 2.03500009e+00
    2.03099990e+00 2.00300002e+00 2. 2. 1.99199998e+00 1.96500003e+00
    1.96500003e+00 1.94700003e+00 1.93099999e+00 1.93099999e+00
    1.93099999e+00 1.92700005e+00 1.91400003e+00 1.89699996e+00
    1.89699996e+00 1.89699996e+00 1.89699996e+00 1.90600002e+00
    1.93099999e+00 2.18499994e+00 2.18499994e+00 2.16799998e+00
    2.13899994e+00 2.11100006e+00 2.10899997e+00 2.10800004e+00
    2.11899996e+00 2.14299989e+00 2.11400008e+00 2.10800004e+00
    2.10700011e+00 2.09400010e+00 2.03900003e+00 2.03500009e+00
    2.03500009e+00 2.03500009e+00 2.03500009e+00 2.03500009e+00
    2.03500009e+00 2.03500009e+00 2.03099990e+00 2.00300002e+00 2. 2.
    1.99199998e+00 1.96500003e+00 1.96500003e+00 1.94700003e+00
    1.93099999e+00 1.93099999e+00 1.93099999e+00 1.91100001e+00
    1.89800000e+00 1.89699996e+00 1.89699996e+00 1.89699996e+00
    1.89699996e+00 1.90600002e+00 1.93099999e+00 2.15700006e+00
    2.15700006e+00 2.14100003e+00 2.11700010e+00 2.10800004e+00
    2.10800004e+00 2.10800004e+00 2.11100006e+00 2.11800003e+00
    2.10999990e+00 2.09200001e+00 2.08200002e+00 2.07800007e+00
    2.06200004e+00 2.04200006e+00 2.03500009e+00 2.03500009e+00
    2.03500009e+00 2.03500009e+00 2.03500009e+00 2.03500009e+00
    2.03099990e+00 2.00300002e+00 2. 1.98899996e+00 1.97300005e+00
    1.96500003e+00 1.96500003e+00 1.94700003e+00 1.93099999e+00
    1.93099999e+00 1.93099999e+00 1.90900004e+00 1.89699996e+00
    1.89699996e+00 1.89699996e+00 1.89699996e+00 1.89699996e+00
    1.89999998e+00 1.90699995e+00 2.12700009e+00 2.12700009e+00
    2.11899996e+00 2.10800004e+00 2.10800004e+00 2.10800004e+00
    2.10800004e+00 2.10800004e+00 2.10700011e+00 2.09299994e+00
    2.07800007e+00 2.07100010e+00 2.07100010e+00 2.07100010e+00
    2.04500008e+00 2.03500009e+00 2.03500009e+00 2.03500009e+00
    2.03500009e+00 2.02500010e+00 2.01799989e+00 2.01600003e+00
    2.00200009e+00 2. 1.98399997e+00 1.96500003e+00 1.96500003e+00
    1.96500003e+00 1.95599997e+00 1.94200003e+00 1.93099999e+00
    1.93099999e+00 1.91999996e+00 1.90699995e+00 1.89699996e+00
    1.89699996e+00 1.88600004e+00 1.87300003e+00 1.86500001e+00
    1.86500001e+00 2.10800004e+00 2.10800004e+00 2.10800004e+00
    2.10599995e+00 2.09899998e+00 2.09800005e+00 2.10299993e+00
    2.10500002e+00 2.09599996e+00 2.07500005e+00 2.07100010e+00
    2.06699991e+00 2.06200004e+00 2.06200004e+00 2.04299998e+00
    2.03500009e+00 2.03500009e+00 2.03500009e+00 2.03500009e+00
    2.01500010e+00 2. 2. 2. 2. 1.98399997e+00 1.96500003e+00
    1.96500003e+00 1.96500003e+00 1.96500003e+00 1.95400000e+00
    1.93099999e+00 1.93099999e+00 1.93099999e+00 1.91700006e+00
    1.89699996e+00 1.89699996e+00 1.87399995e+00 1.84800005e+00
    1.83200002e+00 1.83200002e+00 2.10800004e+00 2.10800004e+00
    2.10800004e+00 2.09999990e+00 2.07200003e+00 2.07100010e+00
    2.08999991e+00 2.09599996e+00 2.07100010e+00 2.07100010e+00
    2.06999993e+00 2.05599999e+00 2.03500009e+00 2.03500009e+00
    2.03500009e+00 2.03500009e+00 2.03500009e+00 2.03500009e+00
    2.03500009e+00 2.01500010e+00 2. 2. 2. 2. 1.98399997e+00
    1.96500003e+00 1.96500003e+00 1.96399999e+00 1.96399999e+00
    1.95400000e+00 1.93099999e+00 1.93099999e+00 1.93200004e+00
    1.91799998e+00 1.89800000e+00 1.89800000e+00 1.87500000e+00
    1.85000002e+00 1.83299994e+00 1.83299994e+00 2.10800004e+00
    2.10800004e+00 2.10800004e+00 2.09999990e+00 2.07200003e+00
    2.07100010e+00 2.07500005e+00 2.07599998e+00 2.07100010e+00
    2.07100010e+00 2.05299997e+00 2.03900003e+00 2.03500009e+00
    2.03500009e+00 2.03500009e+00 2.03500009e+00 2.03500009e+00
    2.03500009e+00 2.03500009e+00 2.01500010e+00 2. 2. 2. 2.
    1.98399997e+00 1.96500003e+00 1.96500003e+00 1.94400001e+00
    1.93799996e+00 1.93499994e+00 1.93099999e+00 1.93099999e+00
    1.94799995e+00 1.94500005e+00 1.92400002e+00 1.92400002e+00
    1.89999998e+00 1.87500000e+00 1.85899997e+00 1.85899997e+00 0.
    2.54800010e+00 2.11999989e+00 2.10500002e+00 2.09299994e+00
    2.09200001e+00 2.08100009e+00 2.06500006e+00 2.04999995e+00
    2.04999995e+00 2.04099989e+00 2.03500009e+00 2.03500009e+00
    2.03500009e+00 2.03500009e+00 2.03500009e+00 2.03500009e+00
    2.03500009e+00 2.03500009e+00 2.01500010e+00 2. 2. 2. 1.98599994e+00
    1.97300005e+00 1.96500003e+00 1.96500003e+00 1.93900001e+00
    1.93099999e+00 1.93099999e+00 1.93099999e+00 1.93099999e+00
    1.95299995e+00 1.95899999e+00 1.94700003e+00 1.93200004e+00
    1.92100000e+00 1.89999998e+00 1.88399994e+00 1.88399994e+00 0.
    2.87599993e+00 2.13700008e+00 2.10299993e+00 2.08299994e+00
    2.08200002e+00 2.06999993e+00 2.05100012e+00 2.03500009e+00
    2.03500009e+00 2.03500009e+00 2.02999997e+00 2.02300000e+00
    2.02300000e+00 2.03099990e+00 2.03500009e+00 2.03500009e+00
    2.03500009e+00 2.02500010e+00 2.00900006e+00 1.99600005e+00
    1.98800004e+00 1.98800004e+00 1.97200000e+00 1.96500003e+00
    1.96500003e+00 1.96500003e+00 1.94799995e+00 1.94299996e+00
    1.94299996e+00 1.94299996e+00 1.94299996e+00 1.95700002e+00
    1.97000003e+00 1.97099996e+00 1.94500005e+00 1.94299996e+00
    1.93200004e+00 2.11800003e+00 2.63800001e+00 0. 2.89599991e+00
    2.15400004e+00 2.09299994e+00 2.03600001e+00 2.03500009e+00
    2.03500009e+00 2.03500009e+00 2.03500009e+00 2.03500009e+00
    2.03200006e+00 2.01900005e+00 2. 2. 2.02500010e+00 2.03500009e+00
    2.03399992e+00 2.02999997e+00 2.00600004e+00 1.99699998e+00
    1.98500001e+00 1.96500003e+00 1.96500003e+00 1.96200001e+00
    1.96099997e+00 1.96200001e+00 1.96500003e+00 1.96500003e+00
    1.96500003e+00 1.96500003e+00 1.96500003e+00 1.96500003e+00
    1.96800005e+00 1.98199999e+00 1.99399996e+00 1.97099996e+00
    2.14599991e+00 2.21700001e+00 2.70799994e+00 0. 0. 2.91599989e+00
    2.17199993e+00 2.09299994e+00 2.03600001e+00 2.03500009e+00
    2.03500009e+00 2.03500009e+00 2.03500009e+00 2.03500009e+00
    2.01500010e+00 2.00200009e+00 2. 2. 2.02500010e+00 2.03500009e+00
    2.02699995e+00 2.00300002e+00 2.00099993e+00 1.98199999e+00
    1.96700001e+00 1.96500003e+00 1.96500003e+00 1.94400001e+00
    1.93400002e+00 1.94099998e+00 1.96500003e+00 1.96500003e+00
    1.96500003e+00 1.96500003e+00 1.96500003e+00 1.96500003e+00
    1.98500001e+00 1.99800003e+00 1.99899995e+00 1.99699998e+00 0. 0. 0.
    0. 0. 2.91799998e+00 2.17400002e+00 2.09299994e+00 2.03600001e+00
    2.03500009e+00 2.03500009e+00 2.03500009e+00 2.03500009e+00
    2.03500009e+00 2.01300001e+00 2. 2. 2. 2.02500010e+00 2.02399993e+00
    2.00799990e+00 2. 2. 1.98000002e+00 1.96500003e+00 1.96500003e+00
    1.96500003e+00 1.94200003e+00 1.93099999e+00 1.93799996e+00
    1.96500003e+00 1.96500003e+00 1.96500003e+00 1.96500003e+00
    1.96500003e+00 1.96500003e+00 1.98699999e+00 2. 2.22199988e+00 0. 0.
    0. 0. 0. 0. 0. 2.62199998e+00 2.09299994e+00 2.03600001e+00
    2.03500009e+00 2.03500009e+00 2.03500009e+00 2.03500009e+00
    2.03500009e+00 2.01300001e+00 2. 2. 2. 2.02500010e+00 2.01799989e+00
    2. 2. 2. 1.98000002e+00 1.96500003e+00 1.96500003e+00 1.96500003e+00
    1.95200002e+00 1.94599998e+00 1.95400000e+00 1.98000002e+00
    1.98099995e+00 1.97200000e+00 1.96500003e+00 1.96500003e+00
    1.96500003e+00 2.50399995e+00 2.81500006e+00 2.99699998e+00 0. 0. 0.
    0. 0. 0. 0. 0. 2.09299994e+00 2.03600001e+00 2.03500009e+00
    2.03500009e+00 2.03500009e+00 2.03500009e+00 2.03500009e+00
    2.01799989e+00 2.00799990e+00 2.00600004e+00 2. 2.01900005e+00
    2.01399994e+00 2. 2. 2. 1.98399997e+00 1.97300005e+00 1.97300005e+00
    1.97300005e+00 1.96800005e+00 1.96500003e+00 1.97300005e+00 2. 2.
    1.98500001e+00 1.97500002e+00 2.01799989e+00 2.35200000e+00 0. 0. 0.
    0. 0. 0. 0. 0. 0. 0. 0. 2.09299994e+00 2.03600001e+00 2.03500009e+00
    2.03500009e+00 2.03500009e+00 2.03500009e+00 2.03500009e+00
    2.03500009e+00 2.03500009e+00 2.02900004e+00 2.00200009e+00 2. 2. 2.
    2. 2. 2. 2. 2. 2. 1.97599995e+00 1.96500003e+00 1.97300005e+00 2. 2.
    2. 2.01099992e+00 2.20499992e+00 0. 0. 0. 0. 0. 0. 0. 0. 0. 0. 0. 0.
    0. 2.06100011e+00 2.03500009e+00 2.03500009e+00 2.03500009e+00
    2.03500009e+00 2.03500009e+00 2.03500009e+00 2.03500009e+00
    2.02900004e+00 2.00200009e+00 2. 2. 2. 2. 2. 2. 2. 2. 2.
    1.99500000e+00 1.99199998e+00 1.99399996e+00 2. 2. 2.82599998e+00 0.
    0. 0. 0. 0. 0. 0. 0. 0. 0. 0. 0. 0. 0. 0. 0. 2.30800009e+00
    2.03500009e+00 2.03500009e+00 2.03500009e+00 2.03500009e+00
    2.03500009e+00 2.03500009e+00 2.02900004e+00 2.00200009e+00 2. 2. 2.
    2. 2. 2. 2. 2.00200009e+00 2.01699996e+00 2.01900005e+00
    2.01900005e+00 2.01900005e+00 2.01900005e+00 2.83100009e+00 0. 0. 0.
    0. 0. 0. 0. 0. 0. 0. 0. 0. 0. 0. 0. 0. 0. 0. 2.67700005e+00
    2.48799992e+00 2.04500008e+00 2.03699994e+00 2.02800012e+00
    2.02399993e+00 2.01999998e+00 2.00099993e+00 2. 2. 2. 2. 2. 2.
    2.00399995e+00 2.01399994e+00 2.03299999e+00 2.04299998e+00
    2.04600000e+00 2.17899990e+00 2.64599991e+00 0. 0. 0. 0. 0. 0. 0. 0.
    0. 0. 0. 0. 0. 0. 0. 0. 0. 0. 0. 0. 0. 2.06800008e+00 2.04099989e+00
    2.01300001e+00 2. 2. 2. 2. 2. 2. 2. 2. 2. 2.01200008e+00
    2.03500009e+00 2.03500009e+00 2.17199993e+00 2.23900008e+00
    2.62599993e+00 0. 0. 0. 0. 0. 0. 0. 0. 0. 0. 0. 0. 0. 0. 0. 0. 0. 0.
    0. 0. 0. 0. 2.06800008e+00 2.04099989e+00 2.01300001e+00 2. 2. 2. 2.
    2. 2. 2. 2. 2. 2.01200008e+00 2.03500009e+00 2.03500009e+00 0. 0. 0.
    0. 0. 0. 0. 0. 0. 0. 0. 0. 0. 0. 0. 0. 0. 0. 0. 0. 0. 0. 0. 0. 0. 0.
    2.22700000e+00 2.01300001e+00 2. 2.00399995e+00 2.02099991e+00
    2.02200007e+00 2.02200007e+00 2.01600003e+00 2. 2. 2. 2.01200008e+00
    2.19300008e+00 0. 0. 0. 0. 0. 0. 0. 0. 0. 0. 0. 0. 0. 0. 0. 0. 0. 0.
    0. 0. 0. 0. 0. 0. 0. 0. 0. 2.33500004e+00 2.00399995e+00
    1.98599994e+00 1.99199998e+00 2.01900005e+00 2.03099990e+00
    2.03500009e+00 2.02999997e+00 2.04099989e+00 2.65799999e+00
    2.81200004e+00 2.81900001e+00 2.98000002e+00 0. 0. 0. 0. 0. 0. 0. 0.
    0. 0. 0. 0. 0. 0. 0. 0. 0. 0. 0. 0. 0. 0. 0. 0. 0. 0. 0.
    2.33500004e+00 1.99199998e+00 1.96500003e+00 1.97099996e+00
    1.99800003e+00 2.02500010e+00 2.03500009e+00 2.03500009e+00
    2.10100007e+00 0. 0. 0. 0. 0. 0. 0. 0. 0. 0. 0. 0. 0. 0. 0. 0. 0. 0.
    0. 0. 0. 0. 0. 0. 0. 0. 0. 0. 0. 0. 0. 0. 0. 0. 0. 0. 0. 0. 0. 0. 0.
    0. 0. 0. 0. 0. 0. 0. 0. 0. 0. 0. 0. 0. 0. 0. 0. 0. 0. 0. 0. 0. 0. 0.
    0. 0. 0. 0. 0. 0. 0. 0. 0. 0. 0. 0. 0. 0. 0. 0. 0. 0. 0. 0. 0. 0. 0.
    0. 0. 0. 0. 0. 0. 0. 0. 0. 0. 0. 0. 0. 0. 0. 0. 0. 0. 0. 0. 0. 0. 0.
    0. 0. 0. 0. 0. 0. 0. 0. 0. 0. 0. 0. 0. 0. 0. 0. 0. 0. 0. 0. 0. 0. 0.
    0. 0. 0. 0. 0. 0. 0. 0. 0.</data></Depth>
</opencv_storage>
