<?xml version="1.0"?>
<opencv_storage>
<Depth type_id="opencv-matrix">
  <rows>40</rows>
  <cols>40</cols>
  <dt>f</dt>
  <data>
    0. 0. 0. 0. 0. 0. 0. 0. 1.99800003e+00 1.99800003e+00 1.99600005e+00
    1.99899995e+00 1.99800003e+00 2. 2. 2. 1.99699998e+00 1.99899995e+00
    2. 2. 2.00399995e+00 2. 2. 2.00399995e+00 2.00399995e+00
    2.00600004e+00 2.00699997e+00 2.01099992e+00 2.00999999e+00
    2.00999999e+00 2.00699997e+00 2.67899990e+00 0. 0. 0. 0. 0. 0. 0. 0.
    0. 0. 0. 0. 0. 0. 0. 0. 1.99300003e+00 1.99600005e+00 1.99399996e+00
    1.99699998e+00 1.99699998e+00 1.99800003e+00 1.99800003e+00 2. 2.
    1.99699998e+00 2. 2. 2. 2.00099993e+00 2.00399995e+00 2.00399995e+00
    2.00399995e+00 2.00600004e+00 2.00699997e+00 2.01200008e+00
    2.00699997e+00 2.00999999e+00 2.00699997e+00 1.77600002e+00 0. 0. 0.
    0. 0. 0. 0. 0. 0. 0. 0. 0. 0. 0. 0. 0. 1.99500000e+00 1.99800003e+00
    1.99699998e+00 1.99699998e+00 1.99699998e+00 1.99699998e+00
    1.99699998e+00 2. 2. 2. 2. 2. 2. 2.00399995e+00 2.00399995e+00
    2.00399995e+00 2.00399995e+00 2.00699997e+00 2.00699997e+00
    2.01500010e+00 2.01099992e+00 2.01099992e+00 2.01099992e+00
    2.59999990e+00 0. 0. 0. 0. 0. 0. 0. 0. 0. 0. 0. 0. 0. 0. 0. 0.
    1.98899996e+00 1.99699998e+00 1.99699998e+00 1.99699998e+00
    1.99699998e+00 1.99699998e+00 1.99699998e+00 2. 1.99899995e+00 2.
    1.99699998e+00 2. 2. 2. 2.00399995e+00 2.00399995e+00 2.00399995e+00
    2.00699997e+00 2.00699997e+00 2.01099992e+00 2.01099992e+00
    2.01099992e+00 2.01500010e+00 2.38800001e+00 0. 0. 0. 0. 0. 0. 0. 0.
    0. 0. 0. 0. 0. 0. 0. 0. 1.98800004e+00 1.99699998e+00 1.99699998e+00
    1.99399996e+00 1.99699998e+00 1.99699998e+00 1.99699998e+00 2.
    1.99699998e+00 2. 2. 2. 2. 2. 2.00399995e+00 2.00399995e+00
    2.00399995e+00 2.00399995e+00 2.00699997e+00 2.01099992e+00
    2.01099992e+00 2.01300001e+00 2.01799989e+00 1.66299999e+00 0. 0. 0.
    0. 0. 0. 0. 0. 0. 0. 0. 0. 0. 0. 0. 0. 1.99300003e+00 1.99399996e+00
    1.99399996e+00 1.99399996e+00 1.99699998e+00 1.99699998e+00
    1.99800003e+00 1.99899995e+00 1.99800003e+00 2. 2.00399995e+00
    2.00399995e+00 2.00300002e+00 2. 2.00099993e+00 2.00500011e+00
    2.00399995e+00 2.00399995e+00 2.00699997e+00 2.01099992e+00
    2.01099992e+00 2.01600003e+00 2.01799989e+00 1.83700001e+00 0. 0. 0.
    0. 0. 0. 0. 0. 0. 0. 0. 0. 0. 0. 0. 0. 1.99199998e+00 1.99500000e+00
    1.99699998e+00 1.99699998e+00 1.99699998e+00 1.99699998e+00
    1.99699998e+00 1.99699998e+00 1.99800003e+00 2. 2. 2. 2.00399995e+00
    2.00099993e+00 2.00399995e+00 2.00399995e+00 2.00399995e+00
    2.00399995e+00 2.00399995e+00 2.01099992e+00 2.01099992e+00
    2.01500010e+00 2.01799989e+00 2.02200007e+00 0. 0. 0. 0. 0. 0. 0. 0.
    0. 0. 0. 0. 0. 0. 0. 0. 1.99199998e+00 1.99399996e+00 1.99699998e+00
    1.99699998e+00 1.99899995e+00 2. 2. 1.99699998e+00 1.99699998e+00 2.
    2. 2. 2. 2.00399995e+00 2.00399995e+00 2.00399995e+00 2.00399995e+00
    2.00500011e+00 2.00399995e+00 2.01099992e+00 2.01500010e+00
    2.01500010e+00 2.01799989e+00 2.01799989e+00 0. 0. 0. 0. 0. 0. 0. 0.
    0. 0. 0. 0. 0. 0. 0. 0. 1.99399996e+00 1.99399996e+00 1.99399996e+00
    1.99399996e+00 1.99899995e+00 2. 1.99899995e+00 1.99699998e+00
    1.99800003e+00 2. 2. 2. 2. 2.00399995e+00 2.00399995e+00
    2.00399995e+00 2.00399995e+00 2.00600004e+00 2.01099992e+00
    2.01099992e+00 2.01500010e+00 2.01500010e+00 2.01200008e+00
    1.65600002e+00 0. 0. 0. 0. 0. 0. 0. 0. 0. 0. 0. 0. 0. 0. 0. 0.
    1.99300003e+00 1.99399996e+00 1.99699998e+00 1.99699998e+00
    1.99699998e+00 2. 2. 2. 2. 2. 2.00399995e+00 2.00099993e+00
    2.00399995e+00 2. 2.00399995e+00 2.00399995e+00 2.00500011e+00
    2.00600004e+00 2.00399995e+00 2.01099992e+00 2.01099992e+00
    2.01300001e+00 2.01099992e+00 1.65499997e+00 0. 0. 0. 0. 0. 0. 0. 0.
    0. 0. 0. 0. 0. 0. 0. 0. 1.99500000e+00 1.99399996e+00 1.99699998e+00
    1.99699998e+00 1.99699998e+00 1.99699998e+00 1.99699998e+00 2.
    2.00099993e+00 2.00300002e+00 2. 2. 2.00399995e+00 2.00099993e+00
    2.00399995e+00 2.00399995e+00 2.00699997e+00 2.00399995e+00
    2.00699997e+00 2.01099992e+00 2.01099992e+00 2.01099992e+00
    2.01399994e+00 1.65799999e+00 0. 0. 0. 0. 0. 0. 0. 0. 0. 0. 0. 0. 0.
    0. 0. 0. 1.99199998e+00 1.99500000e+00 1.99699998e+00 1.99699998e+00
    1.99699998e+00 1.99699998e+00 1.99699998e+00 1.99800003e+00 2.
    2.00300002e+00 2. 2. 2. 2.00300002e+00 2.00399995e+00 2.00699997e+00
    2.00699997e+00 2.00699997e+00 2.01099992e+00 2.01099992e+00
    2.01200008e+00 2.01399994e+00 2.01500010e+00 1.65999997e+00 0. 0. 0.
    0. 0. 0. 0. 0. 0. 0. 0. 0. 0. 0. 0. 0. 1.99399996e+00 1.99600005e+00
    1.99699998e+00 1.99699998e+00 1.99699998e+00 1.99899995e+00 2.
    1.99800003e+00 2. 2. 2. 2. 2.00099993e+00 2.00399995e+00
    2.00399995e+00 2.00500011e+00 2.00699997e+00 2.00900006e+00
    2.01099992e+00 2.01399994e+00 2.01500010e+00 2.01300001e+00
    2.01099992e+00 1.65499997e+00 0. 0. 0. 0. 0. 0. 0. 0. 0. 0. 0. 0. 0.
    0. 0. 0. 1.99399996e+00 1.99699998e+00 1.99699998e+00 1.99699998e+00
    1.99699998e+00 1.99699998e+00 2. 2. 1.99899995e+00 2. 2.
    2.00300002e+00 2.00399995e+00 2.00399995e+00 2.00399995e+00
    2.00500011e+00 2.00399995e+00 2.00399995e+00 2.00699997e+00
    2.01099992e+00 2.01399994e+00 2.01500010e+00 2.01500010e+00
    1.65799999e+00 0. 0. 0. 0. 0. 0. 0. 0. 0. 0. 0. 0. 0. 0. 0. 0.
    1.99399996e+00 1.99899995e+00 1.99600005e+00 1.99699998e+00
    1.99699998e+00 1.99399996e+00 1.99800003e+00 2. 2. 2. 2.
    2.00300002e+00 2.00399995e+00 2.00399995e+00 2.00399995e+00
    2.00399995e+00 2.00399995e+00 2.00500011e+00 2.00699997e+00
    2.01200008e+00 2.01099992e+00 2.01099992e+00 2.01099992e+00
    1.65900004e+00 0. 0. 0. 0. 0. 0. 0. 0. 0. 0. 0. 0. 0. 0. 0. 0.
    1.99399996e+00 1.99699998e+00 1.99500000e+00 1.99399996e+00 2. 2. 2.
    2. 2. 2. 2. 2.00399995e+00 2.00399995e+00 2.00399995e+00
    2.00399995e+00 2.00399995e+00 2.00399995e+00 2.00399995e+00
    2.00699997e+00 2.01099992e+00 2.01099992e+00 2.00900006e+00
    2.01500010e+00 1.65999997e+00 0. 0. 0. 0. 0. 0. 0. 0. 0. 0. 0. 0. 0.
    0. 0. 0. 1.99699998e+00 1.99500000e+00 1.99600005e+00 1.99600005e+00
    1.99800003e+00 2. 2. 2. 2. 2. 2.00399995e+00 2.00399995e+00
    2.00399995e+00 2.00399995e+00 2.00399995e+00 2.00699997e+00
    2.00600004e+00 2.00600004e+00 2.01099992e+00 2.01500010e+00
    2.01099992e+00 2.01300001e+00 2.01500010e+00 1.65799999e+00 0. 0. 0.
    0. 0. 0. 0. 0. 0. 0. 0. 0. 0. 0. 0. 0. 1.99699998e+00 1.99399996e+00
    1.99600005e+00 1.99699998e+00 1.99699998e+00 2. 2. 2. 1.99699998e+00
    2. 2.00099993e+00 2.00399995e+00 2.00399995e+00 2.00399995e+00
    2.00399995e+00 2.00699997e+00 2.00699997e+00 2.00900006e+00
    2.01099992e+00 2.01099992e+00 2.01099992e+00 2.01300001e+00
    2.01099992e+00 1.65499997e+00 0. 0. 0. 0. 0. 0. 0. 0. 0. 0. 0. 0. 0.
    0. 0. 0. 1.99500000e+00 1.99399996e+00 1.99399996e+00 1.99399996e+00
    1.99699998e+00 1.99699998e+00 1.99699998e+00 2. 2. 2. 2.
    2.00399995e+00 2.00399995e+00 2.00399995e+00 2.00399995e+00
    2.00399995e+00 2.00399995e+00 2.00600004e+00 2.01300001e+00
    2.01500010e+00 2.01500010e+00 2.01500010e+00 2.01300001e+00
    1.65699995e+00 0. 0. 0. 0. 0. 0. 0. 0. 0. 0. 0. 0. 0. 0. 0. 0.
    1.70400000e+00 1.99399996e+00 1.99399996e+00 1.99399996e+00
    1.99699998e+00 1.99699998e+00 1.99699998e+00 2. 1.99699998e+00 2.
    2.00099993e+00 2.00399995e+00 2.00399995e+00 2.00399995e+00
    2.00399995e+00 2.00699997e+00 2.00399995e+00 2.00699997e+00
    2.01099992e+00 2.01500010e+00 2.01099992e+00 2.01099992e+00
    2.01500010e+00 1.68099999e+00 0. 0. 0. 0. 0. 0. 0. 0. 0. 0. 0. 0. 0.
    0. 0. 0. 1.99500000e+00 1.99399996e+00 1.99600005e+00 1.99500000e+00
    1.99699998e+00 1.99899995e+00 2. 2. 1.99699998e+00 2. 2. 2. 2.
    2.00399995e+00 2.00399995e+00 2.00699997e+00 2.00500011e+00
    2.00600004e+00 2.00900006e+00 2.01399994e+00 2.01300001e+00
    2.01099992e+00 2.01399994e+00 1.80400002e+00 0. 0. 0. 0. 0. 0. 0. 0.
    0. 0. 0. 0. 0. 0. 0. 0. 1.99500000e+00 1.99399996e+00 1.99699998e+00
    1.99699998e+00 1.99699998e+00 1.99699998e+00 1.99899995e+00 2.
    1.99899995e+00 2. 2. 2. 2. 2.00399995e+00 2.00500011e+00
    2.00699997e+00 2.00699997e+00 2.00500011e+00 2.00399995e+00
    2.01099992e+00 2.01500010e+00 2.01399994e+00 2.01500010e+00
    2.01799989e+00 0. 0. 0. 0. 0. 0. 0. 0. 0. 0. 0. 0. 0. 0. 0. 0.
    1.70500004e+00 1.99699998e+00 1.99399996e+00 1.99399996e+00
    1.99699998e+00 1.99699998e+00 1.99800003e+00 1.99899995e+00
    1.99899995e+00 2. 2.00399995e+00 2.00099993e+00 2.00300002e+00
    2.00399995e+00 2.00399995e+00 2.00600004e+00 2.00500011e+00
    2.00399995e+00 2.00699997e+00 2.01200008e+00 2.01099992e+00
    2.01500010e+00 2.01500010e+00 2.00999999e+00 0. 0. 0. 0. 0. 0. 0. 0.
    0. 0. 0. 0. 0. 0. 0. 0. 1.70599997e+00 1.99500000e+00 1.99399996e+00
    1.99399996e+00 1.99699998e+00 1.99699998e+00 1.99800003e+00
    1.99899995e+00 1.99800003e+00 2. 2.00099993e+00 2.00300002e+00
    2.00300002e+00 2.00399995e+00 2.00399995e+00 2.00600004e+00
    2.00699997e+00 2.00699997e+00 2.00699997e+00 2.01500010e+00
    2.01399994e+00 2.01500010e+00 2.01799989e+00 2.01699996e+00 0. 0. 0.
    0. 0. 0. 0. 0. 0. 0. 0. 0. 0. 0. 0. 0. 2. 1.99399996e+00
    1.99399996e+00 1.99399996e+00 1.99600005e+00 1.99399996e+00 2. 2. 2.
    2. 2.00099993e+00 2.00399995e+00 2.00399995e+00 2.00399995e+00
    2.00500011e+00 2.00500011e+00 2.00799990e+00 2.00799990e+00
    2.01099992e+00 2.01500010e+00 2.01099992e+00 2.01500010e+00
    2.01799989e+00 2.01799989e+00 0. 0. 0. 0. 0. 0. 0. 0. 0. 0. 0. 0. 0.
    0. 0. 0. 1.70400000e+00 1.99600005e+00 1.99399996e+00 1.99399996e+00
    1.99699998e+00 1.99699998e+00 1.99800003e+00 2. 2. 2. 2. 2.
    2.00099993e+00 2.00399995e+00 2.00699997e+00 2.01099992e+00
    2.01099992e+00 2.00699997e+00 2.01099992e+00 2.01500010e+00
    2.01500010e+00 2.01500010e+00 2.01799989e+00 2.01799989e+00 0. 0. 0.
    0. 0. 0. 0. 0. 0. 0. 0. 0. 0. 0. 0. 0. 2.00099993e+00 1.99899995e+00
    1.99500000e+00 1.99399996e+00 1.99699998e+00 1.99699998e+00 2. 2. 2.
    2. 2.00399995e+00 2. 2.00399995e+00 2.00399995e+00 2.00399995e+00
    2.00699997e+00 2.00699997e+00 2.00900006e+00 2.00699997e+00
    2.01099992e+00 2.01500010e+00 2.01500010e+00 2.01799989e+00
    2.01799989e+00 0. 0. 0. 0. 0. 0. 0. 0. 0. 0. 0. 0. 0. 0. 0. 0.
    1.70899999e+00 1.99899995e+00 1.99699998e+00 1.99600005e+00
    1.99699998e+00 1.99899995e+00 2. 2. 2. 2. 2.00399995e+00
    2.00399995e+00 2.00399995e+00 2.00399995e+00 2.00399995e+00
    2.00699997e+00 2.00699997e+00 2.00500011e+00 2.00699997e+00
    2.01099992e+00 2.01500010e+00 2.01799989e+00 2.01799989e+00
    2.01799989e+00 0. 0. 0. 0. 0. 0. 0. 0. 0. 0. 0. 0. 0. 0. 0. 0.
    1.70400000e+00 1.99699998e+00 1.99699998e+00 1.99699998e+00
    1.99699998e+00 2. 2. 2. 2.00399995e+00 2. 2. 2.00399995e+00
    2.00399995e+00 2.00399995e+00 2.00399995e+00 2.00699997e+00
    2.00699997e+00 2.00399995e+00 2.00699997e+00 2.01500010e+00
    2.01500010e+00 2.01500010e+00 2.01799989e+00 2.01799989e+00 0. 0. 0.
    0. 0. 0. 0. 0. 0. 0. 0. 0. 0. 0. 0. 0. 1.69900000e+00 1.99500000e+00
    1.99600005e+00 1.99399996e+00 1.99600005e+00 2. 2. 2.00200009e+00
    2.00300002e+00 2. 2.00099993e+00 2.00399995e+00 2.00399995e+00
    2.00399995e+00 2.00399995e+00 2.00399995e+00 2.00699997e+00
    2.00799990e+00 2.00900006e+00 2.01399994e+00 2.01500010e+00
    2.01500010e+00 2.01500010e+00 2.01900005e+00 0. 0. 0. 0. 0. 0. 0. 0.
    0. 0. 0. 0. 0. 0. 0. 0. 1.71300006e+00 1.99899995e+00 1.99399996e+00
    1.99699998e+00 1.99699998e+00 2. 2. 2. 2.00200009e+00 2.
    2.00399995e+00 2.00399995e+00 2.00399995e+00 2.00399995e+00
    2.00399995e+00 2.00600004e+00 2.00699997e+00 2.00500011e+00
    2.00399995e+00 2.01399994e+00 2.01799989e+00 2.01500010e+00
    2.01500010e+00 2.01600003e+00 0. 0. 0. 0. 0. 0. 0. 0. 0. 0. 0. 0. 0.
    0. 0. 0. 1.87500000e+00 1.99600005e+00 1.99500000e+00 1.99699998e+00
    1.99600005e+00 2. 2. 2. 2. 2. 2. 2.00300002e+00 2.00399995e+00
    2.00399995e+00 2.00399995e+00 2.00600004e+00 2.00900006e+00
    2.00500011e+00 2.00399995e+00 2.01500010e+00 2.01699996e+00
    2.01699996e+00 2.01600003e+00 2.01799989e+00 0. 0. 0. 0. 0. 0. 0. 0.
    0. 0. 0. 0. 0. 0. 0. 0. 1.71099997e+00 1.99899995e+00 1.99699998e+00
    1.99399996e+00 1.99399996e+00 2. 2. 2. 2. 2. 2. 2.00399995e+00
    2.00399995e+00 2.00399995e+00 2.00399995e+00 2.00399995e+00
    2.00699997e+00 2.00699997e+00 2.00699997e+00 2.01500010e+00
    2.01500010e+00 2.01799989e+00 2.01799989e+00 2.01399994e+00 0. 0. 0.
    0. 0. 0. 0. 0. 0. 0. 0. 0. 0. 0. 0. 0. 0. 1.99600005e+00
    1.99600005e+00 1.99800003e+00 1.99399996e+00 1.99600005e+00
    1.99899995e+00 2. 2. 2. 2.00300002e+00 2.00399995e+00 2.00399995e+00
    2.00399995e+00 2. 2.00399995e+00 2.00699997e+00 2.00699997e+00
    2.00699997e+00 2.01600003e+00 2.01600003e+00 2.01500010e+00
    2.01300001e+00 2.01600003e+00 0. 0. 0. 0. 0. 0. 0. 0. 0. 0. 0. 0. 0.
    0. 0. 0. 0. 1.99899995e+00 1.99399996e+00 1.99399996e+00
    1.99399996e+00 1.99100006e+00 1.99399996e+00 2. 2. 2.00399995e+00 2.
    2. 2.00500011e+00 2.00500011e+00 2.00399995e+00 2.00699997e+00
    2.01099992e+00 2.01099992e+00 0. 0. 2.12199998e+00 0. 0. 0. 0. 0. 0.
    0. 0. 0. 0. 0. 0. 0. 0. 0. 0. 0. 0. 0. 0. 1.99500000e+00
    1.98399997e+00 1.98000002e+00 1.99000001e+00 1.99000001e+00
    1.62199998e+00 1.62100005e+00 1.56700003e+00 2.00999999e+00
    2.00300002e+00 2.00099993e+00 1.66499996e+00 1.37100005e+00
    2.01500010e+00 2.01699996e+00 2.21099997e+00 0. 0. 0. 0. 0. 0. 0. 0.
    0. 0. 0. 0. 0. 0. 0. 0. 0. 0. 0. 0. 0. 0. 0. 0. 0. 0. 0. 0. 0.
    2.03500009e+00 1.82000005e+00 1.26100004e+00 2.00699997e+00
    2.00600004e+00 2.10200000e+00 2.10700011e+00 1.83200002e+00
    1.88699996e+00 1.00199997e+00 1.14199996e+00 0. 0. 0. 0. 0. 0. 0. 0.
    0. 0. 0. 0. 0. 0. 0. 0. 0. 0. 0. 0. 0. 0. 0. 0. 0. 0. 0. 0. 0.
    2.09999990e+00 2.09100008e+00 2.09899998e+00 2.01600003e+00
    2.04500008e+00 2.09999990e+00 2.09599996e+00 2.08999991e+00
    2.08299994e+00 2.02099991e+00 1.93499994e+00 1.17700005e+00 0. 0. 0.
    0. 0. 0. 0. 0. 0. 0. 0. 0. 0. 0. 0. 0. 0. 0. 0. 0. 0. 0. 0. 0. 0. 0.
    2.92300010e+00 2.09500003e+00 2.08800006e+00 2.07299995e+00
    2.06999993e+00 2.01900005e+00 2.03699994e+00 2.07800007e+00
    2.06900001e+00 2.06699991e+00 2.06900001e+00 2.03099990e+00
    2.03699994e+00 2.05900002e+00 0. 0. 0. 0. 0. 0. 0. 0. 0. 0. 0. 0. 0.
    0. 0. 0. 0. 0. 0. 0. 0. 0. 0. 0. 0. 0. 0. 1.87199998e+00
    1.97800004e+00 2.05399990e+00 2.05599999e+00 2.01500010e+00
    2.02200007e+00 2.04600000e+00 2.04299998e+00 2.03900003e+00
    2.03200006e+00 2.02800012e+00 2.03299999e+00 2.03699994e+00
    2.03200006e+00 0. 0. 0. 0. 0. 0. 0. 0. 0. 0. 0. 0. 0.</data></Depth>
</opencv_storage>
