<?xml version="1.0"?>
<opencv_storage>
<Depth type_id="opencv-matrix">
  <rows>40</rows>
  <cols>40</cols>
  <dt>f</dt>
  <data>
    0. 0. 0. 0. 0. 0. 0. 0. 0. 0. 0. 0. 0. 0. 0. 0. 0. 0. 0. 0. 0. 0. 0.
    0. 0. 0. 0. 0. 0. 0. 0. 0. 0. 0. 0. 0. 0. 0. 0. 0. 0. 0. 0. 0. 0. 0.
    0. 0. 0. 0. 0. 0. 0. 0. 0. 0. 0. 0. 0. 0. 0. 0. 0. 0. 0. 0. 0. 0. 0.
    0. 0. 0. 0. 0. 0. 0. 0. 0. 0. 0. 0. 0. 0. 0. 0. 0. 0. 0. 0. 0. 0. 0.
    0. 0. 0. 0. 0. 0. 0. 0. 0. 0. 0. 0. 0. 0. 0. 0. 0. 0. 0. 0. 0. 0. 0.
    0. 0. 0. 0. 0. 0. 0. 0. 0. 0. 0. 0. 0. 0. 0. 0. 0. 0. 0. 0. 0. 0. 0.
    0. 0. 0. 0. 0. 0. 0. 0. 0. 0. 0. 0. 0. 0. 0. 0. 0. 0. 0. 0. 0. 0. 0.
    0. 0. 0. 0. 0. 0. 0. 0. 0. 0. 0. 0. 0. 0. 0. 0. 0. 0. 0. 0. 0. 0. 0.
    0. 0. 0. 0. 0. 0. 0. 0. 0. 0. 0. 0. 0. 0. 0. 0. 0. 0. 0. 0. 0. 0. 0.
    0. 0. 0. 0. 0. 0. 0. 0. 0. 0. 0. 0. 0. 0. 0. 0. 0. 0. 0. 0. 0. 0. 0.
    0. 0. 0. 0. 0. 0. 0. 0. 0. 0. 0. 0. 0. 0. 0. 0. 0. 0. 0. 0. 0. 0. 0.
    0. 0. 0. 0. 0. 0. 0. 0. 0. 0. 0. 0. 0. 0. 0. 0. 0. 0. 0. 0. 0. 0. 0.
    0. 0. 0. 0. 0. 0. 0. 0. 0. 0. 0. 0. 0. 0. 0. 0. 0. 0. 0. 0. 0. 0. 0.
    0. 0. 0. 0. 0. 0. 0. 0. 0. 0. 0. 0. 0. 0. 0. 0. 0. 0. 0. 0. 0. 0. 0.
    0. 0. 0. 0. 0. 0. 0. 0. 0. 0. 0. 0. 0. 0. 0. 0. 0. 0. 0. 0. 0. 0. 0.
    0. 0. 0. 0. 0. 0. 0. 0. 0. 0. 0. 0. 0. 0. 0. 1.70099998e+00
    1.72099996e+00 1.75800002e+00 1.77300000e+00 1.77300000e+00
    1.77300000e+00 1.77300000e+00 1.77300000e+00 1.77300000e+00
    1.77300000e+00 1.77300000e+00 1.77300000e+00 1.77300000e+00
    1.77300000e+00 1.77300000e+00 1.77300000e+00 1.77300000e+00
    1.80999994e+00 1.84599996e+00 1.84599996e+00 1.84599996e+00
    1.84599996e+00 1.84599996e+00 1.84599996e+00 1.84599996e+00
    1.84599996e+00 1.84599996e+00 1.84599996e+00 1.84599996e+00
    1.84599996e+00 1.84599996e+00 1.84599996e+00 1.84599996e+00
    1.84599996e+00 1.84599996e+00 1.84599996e+00 1.84599996e+00
    1.84599996e+00 1.84599996e+00 1.84599996e+00 1.70099998e+00
    1.72599995e+00 1.77300000e+00 1.79299998e+00 1.79299998e+00
    1.78600001e+00 1.77600002e+00 1.77300000e+00 1.77300000e+00
    1.77300000e+00 1.77300000e+00 1.78100002e+00 1.79200006e+00
    1.79299998e+00 1.79299998e+00 1.79299998e+00 1.79299998e+00
    1.82000005e+00 1.84599996e+00 1.84599996e+00 1.84599996e+00
    1.84599996e+00 1.84599996e+00 1.84599996e+00 1.84599996e+00
    1.84599996e+00 1.84599996e+00 1.84599996e+00 1.85000002e+00
    1.86000001e+00 1.86300004e+00 1.85200000e+00 1.84599996e+00
    1.84599996e+00 1.85099995e+00 1.86199999e+00 1.86699998e+00
    1.86699998e+00 1.87300003e+00 1.88399994e+00 1.70099998e+00
    1.73599994e+00 1.80299997e+00 1.83000004e+00 1.83000004e+00
    1.81099999e+00 1.78199995e+00 1.77300000e+00 1.77300000e+00
    1.77300000e+00 1.77300000e+00 1.79700005e+00 1.82700002e+00
    1.83000004e+00 1.83000004e+00 1.83000004e+00 1.83000004e+00
    1.83800006e+00 1.84599996e+00 1.84599996e+00 1.84599996e+00
    1.84599996e+00 1.84599996e+00 1.84599996e+00 1.84599996e+00
    1.84599996e+00 1.84599996e+00 1.84599996e+00 1.85599995e+00
    1.88699996e+00 1.89400005e+00 1.86300004e+00 1.84599996e+00
    1.84599996e+00 1.86199999e+00 1.89199996e+00 1.90600002e+00
    1.90600002e+00 1.92499995e+00 1.95700002e+00 1.70099998e+00
    1.74000001e+00 1.81500006e+00 1.84599996e+00 1.84599996e+00
    1.82200003e+00 1.78400004e+00 1.77300000e+00 1.77300000e+00
    1.78199995e+00 1.79299998e+00 1.81599998e+00 1.84300005e+00
    1.84599996e+00 1.84599996e+00 1.84599996e+00 1.84599996e+00
    1.85800004e+00 1.86899996e+00 1.86899996e+00 1.86899996e+00
    1.86899996e+00 1.86899996e+00 1.86899996e+00 1.86899996e+00
    1.86899996e+00 1.86899996e+00 1.86899996e+00 1.87800002e+00
    1.90499997e+00 1.90699995e+00 1.86800003e+00 1.84599996e+00
    1.84599996e+00 1.86600006e+00 1.90499997e+00 1.92200005e+00
    1.92200005e+00 1.94700003e+00 1.98699999e+00 1.70099998e+00
    1.74000001e+00 1.81500006e+00 1.84599996e+00 1.84599996e+00
    1.82200003e+00 1.78400004e+00 1.77300000e+00 1.77300000e+00
    1.79600000e+00 1.82700002e+00 1.83800006e+00 1.84500003e+00
    1.84599996e+00 1.84599996e+00 1.84599996e+00 1.84599996e+00
    1.87800002e+00 1.90799999e+00 1.90799999e+00 1.90799999e+00
    1.90799999e+00 1.90799999e+00 1.90799999e+00 1.90799999e+00
    1.90799999e+00 1.90799999e+00 1.90799999e+00 1.90999997e+00
    1.91799998e+00 1.90699995e+00 1.86800003e+00 1.84599996e+00
    1.84599996e+00 1.86600006e+00 1.90499997e+00 1.92200005e+00
    1.92200005e+00 1.94700003e+00 1.98699999e+00 1.70099998e+00
    1.74000001e+00 1.81500006e+00 1.84599996e+00 1.84599996e+00
    1.83000004e+00 1.80499995e+00 1.79700005e+00 1.79700005e+00
    1.81599998e+00 1.84099996e+00 1.84599996e+00 1.84599996e+00
    1.84599996e+00 1.84599996e+00 1.84599996e+00 1.84599996e+00
    1.88499999e+00 1.92299998e+00 1.93599999e+00 1.94599998e+00
    1.93299997e+00 1.92200005e+00 1.92200005e+00 1.92200005e+00
    1.92200005e+00 1.92200005e+00 1.92200005e+00 1.92200005e+00
    1.92200005e+00 1.91199994e+00 1.88600004e+00 1.87100005e+00
    1.87100005e+00 1.87800002e+00 1.89100003e+00 1.89699996e+00
    1.89699996e+00 1.91299999e+00 1.94000006e+00 1.70099998e+00
    1.74000001e+00 1.81500006e+00 1.84599996e+00 1.84599996e+00
    1.84200001e+00 1.83599997e+00 1.83500004e+00 1.83500004e+00
    1.83899999e+00 1.84500003e+00 1.84599996e+00 1.84599996e+00
    1.84599996e+00 1.84599996e+00 1.84599996e+00 1.84599996e+00
    1.88499999e+00 1.92400002e+00 1.95799994e+00 1.98399997e+00
    1.95099998e+00 1.92200005e+00 1.92200005e+00 1.92200005e+00
    1.92200005e+00 1.92200005e+00 1.92200005e+00 1.92200005e+00
    1.92200005e+00 1.91999996e+00 1.91400003e+00 1.90999997e+00
    1.90999997e+00 1.89699996e+00 1.87000000e+00 1.85800004e+00
    1.85800004e+00 1.86199999e+00 1.86800003e+00 1.72700000e+00
    1.75899994e+00 1.82099998e+00 1.84599996e+00 1.84599996e+00
    1.84599996e+00 1.84599996e+00 1.84599996e+00 1.84599996e+00
    1.84599996e+00 1.84599996e+00 1.84599996e+00 1.84599996e+00
    1.84599996e+00 1.84599996e+00 1.84599996e+00 1.84599996e+00
    1.89900005e+00 1.95099998e+00 1.97700000e+00 1.99600005e+00
    1.95599997e+00 1.92200005e+00 1.92200005e+00 1.92200005e+00
    1.92200005e+00 1.92200005e+00 1.92200005e+00 1.92200005e+00
    1.92200005e+00 1.92200005e+00 1.92200005e+00 1.91600001e+00
    1.90199995e+00 1.88199997e+00 1.85699999e+00 1.84599996e+00
    1.84599996e+00 1.84599996e+00 1.84599996e+00 1.76400006e+00
    1.78600001e+00 1.82900000e+00 1.84599996e+00 1.84599996e+00
    1.84599996e+00 1.84599996e+00 1.84599996e+00 1.84599996e+00
    1.84599996e+00 1.84599996e+00 1.84599996e+00 1.84599996e+00
    1.84599996e+00 1.84599996e+00 1.84599996e+00 1.84599996e+00
    1.91900003e+00 1.99100006e+00 1.99600005e+00 1.99600005e+00
    1.95599997e+00 1.92200005e+00 1.92200005e+00 1.92200005e+00
    1.92200005e+00 1.92200005e+00 1.92200005e+00 1.92200005e+00
    1.92200005e+00 1.92200005e+00 1.92200005e+00 1.90699995e+00
    1.87199998e+00 1.85300004e+00 1.84800005e+00 1.84599996e+00
    1.84599996e+00 1.84599996e+00 1.84599996e+00 1.77300000e+00
    1.79299998e+00 1.83000004e+00 1.84599996e+00 1.84599996e+00
    1.85599995e+00 1.87100005e+00 1.87600005e+00 1.87600005e+00
    1.87600005e+00 1.87600005e+00 1.87600005e+00 1.87600005e+00
    1.86199999e+00 1.84700000e+00 1.84599996e+00 1.84599996e+00
    1.92400002e+00 2. 2. 1.99699998e+00 1.97300005e+00 1.95000005e+00
    1.93400002e+00 1.92200005e+00 1.92200005e+00 1.92200005e+00
    1.92200005e+00 1.92200005e+00 1.92200005e+00 1.92200005e+00
    1.92200005e+00 1.90400004e+00 1.86500001e+00 1.84599996e+00
    1.84599996e+00 1.83800006e+00 1.82299995e+00 1.80900002e+00
    1.79400003e+00 1.77300000e+00 1.79299998e+00 1.83000004e+00
    1.84599996e+00 1.84599996e+00 1.86899996e+00 1.90400004e+00
    1.91499996e+00 1.91499996e+00 1.91499996e+00 1.91499996e+00
    1.91499996e+00 1.91499996e+00 1.88399994e+00 1.84800005e+00
    1.84599996e+00 1.84599996e+00 1.92400002e+00 2. 2. 2. 1.99600005e+00
    1.98699999e+00 1.95000005e+00 1.92200005e+00 1.92200005e+00
    1.92200005e+00 1.92200005e+00 1.92200005e+00 1.92200005e+00
    1.92200005e+00 1.92200005e+00 1.90400004e+00 1.86500001e+00
    1.84599996e+00 1.84599996e+00 1.82700002e+00 1.79299998e+00
    1.75899994e+00 1.72599995e+00 1.77300000e+00 1.79299998e+00
    1.83000004e+00 1.86600006e+00 1.89900005e+00 1.91400003e+00
    1.91999996e+00 1.92200005e+00 1.92200005e+00 1.92200005e+00
    1.92200005e+00 1.92200005e+00 1.92200005e+00 1.90199995e+00
    1.87899995e+00 1.89400005e+00 1.90999997e+00 1.95599997e+00 2. 2.
    1.99800003e+00 1.98099995e+00 1.96399999e+00 1.94000006e+00
    1.91799998e+00 1.90199995e+00 1.88999999e+00 1.88999999e+00
    1.88999999e+00 1.88999999e+00 1.88399994e+00 1.86800003e+00
    1.84899998e+00 1.82700002e+00 1.81500006e+00 1.81500006e+00
    1.79400003e+00 1.75699997e+00 1.72899997e+00 1.70799994e+00
    1.77300000e+00 1.79299998e+00 1.83000004e+00 1.88900006e+00
    1.96399999e+00 1.96700001e+00 1.93200004e+00 1.92200005e+00
    1.92200005e+00 1.92200005e+00 1.92200005e+00 1.92200005e+00
    1.92200005e+00 1.91999996e+00 1.91700006e+00 1.95200002e+00
    1.99000001e+00 1.99500000e+00 2. 2. 1.99600005e+00 1.95899999e+00
    1.92700005e+00 1.92400002e+00 1.91400003e+00 1.87699997e+00
    1.85099995e+00 1.85099995e+00 1.85099995e+00 1.85099995e+00
    1.83700001e+00 1.80200005e+00 1.78199995e+00 1.77900004e+00
    1.77800000e+00 1.77800000e+00 1.75699997e+00 1.72000003e+00
    1.70400000e+00 1.70200002e+00 1.84000003e+00 1.86000001e+00
    1.89900005e+00 1.94099998e+00 1.98399997e+00 1.98599994e+00
    1.96399999e+00 1.95700002e+00 1.95700002e+00 1.95700002e+00
    1.95700002e+00 1.95700002e+00 1.95700002e+00 1.95700002e+00
    1.95700002e+00 1.97800004e+00 2. 1.98199999e+00 1.96500003e+00
    1.96500003e+00 1.96099997e+00 1.92100000e+00 1.88800001e+00
    1.88800001e+00 1.87899995e+00 1.84099996e+00 1.81299996e+00
    1.81299996e+00 1.81299996e+00 1.81299996e+00 1.79900002e+00
    1.76100004e+00 1.74100006e+00 1.74100006e+00 1.74100006e+00
    1.74100006e+00 1.72899997e+00 1.70899999e+00 1.69099998e+00
    1.67499995e+00 1.91700006e+00 1.93799996e+00 1.97800004e+00
    1.99600005e+00 1.99899995e+00 1.99899995e+00 1.99800003e+00
    1.99699998e+00 1.99699998e+00 1.99699998e+00 1.99699998e+00
    1.99699998e+00 1.99699998e+00 1.99699998e+00 1.99699998e+00
    1.99899995e+00 2. 1.96200001e+00 1.92499995e+00 1.92499995e+00
    1.92100000e+00 1.88199997e+00 1.84899998e+00 1.84899998e+00
    1.84099996e+00 1.80299997e+00 1.77600002e+00 1.77600002e+00
    1.77600002e+00 1.77600002e+00 1.76100004e+00 1.72399998e+00
    1.70400000e+00 1.70400000e+00 1.70400000e+00 1.70400000e+00
    1.70299995e+00 1.70200002e+00 1.67999995e+00 1.64600003e+00
    1.92200005e+00 1.94299996e+00 1.98300004e+00 2. 2. 2. 2.
    1.98699999e+00 1.96700001e+00 1.96300006e+00 1.96300006e+00
    1.96300006e+00 1.96300006e+00 1.96300006e+00 1.96300006e+00
    1.96300006e+00 1.96300006e+00 1.92299998e+00 1.88499999e+00
    1.86699998e+00 1.84899998e+00 1.82799995e+00 1.81099999e+00
    1.81099999e+00 1.80700004e+00 1.78699994e+00 1.77300000e+00
    1.77300000e+00 1.77300000e+00 1.77300000e+00 1.75899994e+00
    1.72099996e+00 1.70099998e+00 1.70099998e+00 1.69200003e+00
    1.67499995e+00 1.66799998e+00 1.66799998e+00 1.65600002e+00
    1.63800001e+00 1.92200005e+00 1.94299996e+00 1.98300004e+00 2. 2. 2.
    2. 1.97200000e+00 1.93200004e+00 1.92200005e+00 1.92200005e+00
    1.92200005e+00 1.92200005e+00 1.92200005e+00 1.92200005e+00
    1.92200005e+00 1.92200005e+00 1.88399994e+00 1.84500003e+00
    1.80700004e+00 1.77400005e+00 1.77400005e+00 1.77300000e+00
    1.77300000e+00 1.77300000e+00 1.77300000e+00 1.77300000e+00
    1.77300000e+00 1.77300000e+00 1.77300000e+00 1.75899994e+00
    1.72099996e+00 1.70099998e+00 1.70099998e+00 1.68299997e+00
    1.64800000e+00 1.63199997e+00 1.63199997e+00 1.63199997e+00
    1.63199997e+00 1.92200005e+00 1.93200004e+00 1.95200002e+00
    1.96000004e+00 1.96000004e+00 1.96000004e+00 1.96000004e+00
    1.93299997e+00 1.89300001e+00 1.88300002e+00 1.88300002e+00
    1.88300002e+00 1.88300002e+00 1.88300002e+00 1.88300002e+00
    1.86600006e+00 1.84599996e+00 1.80900002e+00 1.77100003e+00
    1.73399997e+00 1.70099998e+00 1.70099998e+00 1.70400000e+00
    1.72200000e+00 1.73599994e+00 1.73599994e+00 1.73599994e+00
    1.73599994e+00 1.73599994e+00 1.73599994e+00 1.72899997e+00
    1.71099997e+00 1.70099998e+00 1.70099998e+00 1.68299997e+00
    1.64800000e+00 1.63199997e+00 1.63199997e+00 1.63199997e+00
    1.63199997e+00 1.92200005e+00 1.92200005e+00 1.92200005e+00
    1.92100000e+00 1.92100000e+00 1.91999996e+00 1.91999996e+00
    1.89300001e+00 1.85500002e+00 1.84599996e+00 1.84599996e+00
    1.84500003e+00 1.84399998e+00 1.84399998e+00 1.84300005e+00
    1.80799997e+00 1.76999998e+00 1.73399997e+00 1.69799995e+00
    1.66299999e+00 1.63199997e+00 1.63199997e+00 1.63800001e+00
    1.67200005e+00 1.69900000e+00 1.69900000e+00 1.70000005e+00
    1.70000005e+00 1.70099998e+00 1.70099998e+00 1.70099998e+00
    1.70099998e+00 1.70099998e+00 1.70099998e+00 1.68299997e+00
    1.64900005e+00 1.63399994e+00 1.63399994e+00 1.63399994e+00
    1.63399994e+00 1.92200005e+00 1.92200005e+00 1.92200005e+00
    1.90999997e+00 1.88900006e+00 1.88100004e+00 1.88100004e+00
    1.86800003e+00 1.85000002e+00 1.84599996e+00 1.84599996e+00
    1.83000004e+00 1.80900002e+00 1.78900003e+00 1.76900005e+00
    1.73399997e+00 1.69799995e+00 1.67999995e+00 1.66299999e+00
    1.64699996e+00 1.63199997e+00 1.63199997e+00 1.63499999e+00
    1.65100002e+00 1.66400003e+00 1.66400003e+00 1.66900003e+00
    1.68799996e+00 1.70099998e+00 1.70099998e+00 1.70099998e+00
    1.70099998e+00 1.70099998e+00 1.70099998e+00 1.69299996e+00
    1.67600000e+00 1.66900003e+00 1.66900003e+00 1.66900003e+00
    1.66900003e+00 1.92200005e+00 1.92200005e+00 1.92200005e+00
    1.89900005e+00 1.86000001e+00 1.84599996e+00 1.84599996e+00
    1.84599996e+00 1.84599996e+00 1.84599996e+00 1.84599996e+00
    1.81500006e+00 1.77800000e+00 1.74100006e+00 1.70400000e+00
    1.66799998e+00 1.63199997e+00 1.63199997e+00 1.63199997e+00
    1.63199997e+00 1.63199997e+00 1.63199997e+00 1.63199997e+00
    1.63199997e+00 1.63199997e+00 1.63199997e+00 1.64199996e+00
    1.67700005e+00 1.70099998e+00 1.70099998e+00 1.70099998e+00
    1.70099998e+00 1.70099998e+00 1.70099998e+00 1.70099998e+00
    1.70099998e+00 1.70099998e+00 1.70099998e+00 1.70099998e+00
    1.70099998e+00 0. 0. 0. 0. 0. 0. 0. 0. 0. 0. 0. 0. 0. 0. 0. 0. 0. 0.
    0. 0. 0. 0. 0. 0. 0. 0. 0. 0. 0. 0. 0. 0. 0. 0. 0. 0. 0. 0. 0. 0. 0.
    0. 0. 0. 0. 0. 0. 0. 0. 0. 0. 0. 0. 0. 0. 0. 0. 0. 0. 0. 0. 0. 0. 0.
    0. 0. 0. 0. 0. 0. 0. 0. 0. 0. 0. 0. 0. 0. 0. 0. 0. 0. 0. 0. 0. 0. 0.
    0. 0. 0. 0. 0. 0. 0. 0. 0. 0. 0. 0. 0. 0. 0. 0. 0. 0. 0. 0. 0. 0. 0.
    0. 0. 0. 0. 0. 0. 0. 0. 0. 0. 0. 0. 0. 0. 0. 0. 0. 0. 0. 0. 0. 0. 0.
    0. 0. 0. 0. 0. 0. 0. 0. 0. 0. 0. 0. 0. 0. 0. 0. 0. 0. 0. 0. 0. 0. 0.
    0. 0. 0. 0. 0. 0. 0. 0. 0. 0. 0. 0. 0. 0. 0. 0. 0. 0. 0. 0. 0. 0. 0.
    0. 0. 0. 0. 0. 0. 0. 0. 0. 0. 0. 0. 0. 0. 0. 0. 0. 0. 0. 0. 0. 0. 0.
    0. 0. 0. 0. 0. 0. 0. 0. 0. 0. 0. 0. 0. 0. 0. 0. 0. 0. 0. 0. 0. 0. 0.
    0. 0. 0. 0. 0. 0. 0. 0. 0. 0. 0. 0. 0. 0. 0. 0. 0. 0. 0. 0. 0. 0. 0.
    0. 0. 0. 0. 0. 0. 0. 0. 0. 0. 0. 0. 0. 0. 0. 0. 0. 0. 0. 0. 0. 0. 0.
    0. 0. 0. 0. 0. 0. 0. 0. 0. 0. 0. 0. 0. 0. 0. 0. 0. 0. 0. 0. 0. 0. 0.
    0. 0. 0. 0. 0. 0. 0. 0. 0. 0. 0. 0. 0. 0. 0. 0. 0. 0. 0. 0. 0. 0. 0.
    0. 0. 0. 0. 0. 0. 0. 0. 0. 0. 0. 0. 0. 0. 0. 0. 0. 0. 0. 0. 0. 0. 0.
    0. 0. 0. 0. 0. 0. 0. 0. 0. 0. 0. 0. 0. 0. 0. 0. 0. 0. 0. 0. 0. 0. 0.
    0. 0. 0. 0. 0. 0. 0. 0. 0. 0. 0. 0. 0. 0. 0. 0. 0. 0. 0. 0. 0. 0. 0.
    0. 0. 0. 0. 0. 0. 0. 0. 0. 0. 0. 0. 0. 0.</data></Depth>
</opencv_storage>
