<?xml version="1.0"?>
<opencv_storage>
<Depth type_id="opencv-matrix">
  <rows>40</rows>
  <cols>40</cols>
  <dt>f</dt>
  <data>
    0. 0. 0. 0. 0. 0. 0. 0. 0. 0. 0. 0. 0. 0. 0. 0. 0. 0. 0. 0. 0. 0. 0.
    0. 0. 0. 0. 0. 0. 0. 0. 0. 0. 0. 0. 0. 0. 0. 0. 0. 0. 0. 0. 0.
    1.41600001e+00 1.77300000e+00 1.77300000e+00 1.79900002e+00
    1.83700001e+00 1.87600005e+00 1.91499996e+00 1.88999999e+00
    1.85099995e+00 1.84599996e+00 1.84599996e+00 1.81099999e+00
    1.77300000e+00 1.77300000e+00 1.77300000e+00 1.77300000e+00
    1.77300000e+00 1.77300000e+00 1.77300000e+00 1.77300000e+00
    1.77300000e+00 1.77300000e+00 1.77300000e+00 1.77300000e+00
    1.77300000e+00 1.77300000e+00 1.77300000e+00 1.77300000e+00
    1.75600004e+00 1.71899998e+00 1.70099998e+00 1.70099998e+00
    1.72200000e+00 1.75899994e+00 1.77300000e+00 0. 0. 0. 0. 0. 0.
    1.43200004e+00 1.72599995e+00 1.83299994e+00 1.86000001e+00
    1.88800001e+00 1.91700006e+00 1.89900005e+00 1.87000000e+00
    1.85699999e+00 1.84700000e+00 1.82099998e+00 1.79299998e+00
    1.79299998e+00 1.79299998e+00 1.79299998e+00 1.79299998e+00
    1.79299998e+00 1.79100001e+00 1.78100002e+00 1.77300000e+00
    1.77300000e+00 1.77300000e+00 1.77300000e+00 1.77300000e+00
    1.77300000e+00 1.77300000e+00 1.77300000e+00 1.75600004e+00
    1.71899998e+00 1.70099998e+00 1.70099998e+00 1.72200000e+00
    1.75899994e+00 1.77300000e+00 0. 0. 0. 0. 0. 0. 0. 1.63600004e+00
    1.89600003e+00 1.90400004e+00 1.91199994e+00 1.91999996e+00
    1.91499996e+00 1.90699995e+00 1.87899995e+00 1.84800005e+00
    1.83899999e+00 1.83099997e+00 1.83000004e+00 1.83000004e+00
    1.83000004e+00 1.83000004e+00 1.83000004e+00 1.82599998e+00
    1.79600000e+00 1.77300000e+00 1.77300000e+00 1.77300000e+00
    1.77300000e+00 1.77300000e+00 1.77300000e+00 1.77300000e+00
    1.77300000e+00 1.75600004e+00 1.71899998e+00 1.70099998e+00
    1.70099998e+00 1.72200000e+00 1.75899994e+00 1.77300000e+00 0. 0. 0.
    0. 0. 0. 0. 1.67400002e+00 1.90699995e+00 1.91900003e+00
    1.92200005e+00 1.92200005e+00 1.92200005e+00 1.92200005e+00
    1.88800001e+00 1.84899998e+00 1.84599996e+00 1.84599996e+00
    1.84599996e+00 1.84599996e+00 1.84599996e+00 1.84599996e+00
    1.84599996e+00 1.84200001e+00 1.81599998e+00 1.79299998e+00
    1.78100002e+00 1.77300000e+00 1.77300000e+00 1.77300000e+00
    1.77300000e+00 1.77300000e+00 1.77300000e+00 1.75600004e+00
    1.71899998e+00 1.70099998e+00 1.70099998e+00 1.71599996e+00
    1.74100006e+00 1.75100005e+00 0. 0. 0. 0. 0. 1.17299998e+00
    1.60300004e+00 1.80100000e+00 1.88199997e+00 1.91400003e+00
    1.92200005e+00 1.92200005e+00 1.92200005e+00 1.92200005e+00
    1.88800001e+00 1.84899998e+00 1.84599996e+00 1.84599996e+00
    1.84599996e+00 1.84599996e+00 1.84599996e+00 1.84599996e+00
    1.84599996e+00 1.84500003e+00 1.83800006e+00 1.82599998e+00
    1.79499996e+00 1.77300000e+00 1.77300000e+00 1.77300000e+00
    1.77300000e+00 1.77300000e+00 1.77300000e+00 1.75600004e+00
    1.71899998e+00 1.70099998e+00 1.70099998e+00 1.70500004e+00
    1.71200001e+00 1.71399999e+00 0. 0. 0. 0. 0. 1.59800005e+00
    1.84599996e+00 1.84599996e+00 1.87300003e+00 1.91299999e+00
    1.92200005e+00 1.92200005e+00 1.92200005e+00 1.92200005e+00
    1.88800001e+00 1.84899998e+00 1.84599996e+00 1.84599996e+00
    1.84599996e+00 1.84599996e+00 1.84599996e+00 1.84700000e+00
    1.86000001e+00 1.86899996e+00 1.85599995e+00 1.84099996e+00
    1.81500006e+00 1.79400003e+00 1.78100002e+00 1.77300000e+00
    1.77300000e+00 1.77800000e+00 1.78999996e+00 1.78100002e+00
    1.74300003e+00 1.72500002e+00 1.72500002e+00 1.71800005e+00
    1.70599997e+00 1.70099998e+00 0. 0. 0. 1.17600000e+00 1.62899995e+00
    1.78900003e+00 1.84599996e+00 1.84599996e+00 1.87300003e+00
    1.91299999e+00 1.92200005e+00 1.92200005e+00 1.92200005e+00
    1.92200005e+00 1.88800001e+00 1.84899998e+00 1.84599996e+00
    1.84599996e+00 1.84599996e+00 1.84599996e+00 1.84599996e+00
    1.84899998e+00 1.88300002e+00 1.90499997e+00 1.87199998e+00
    1.84500003e+00 1.83899999e+00 1.82599998e+00 1.79400003e+00
    1.77300000e+00 1.77300000e+00 1.78499997e+00 1.81700003e+00
    1.81799996e+00 1.77999997e+00 1.76199996e+00 1.76199996e+00
    1.74399996e+00 1.71300006e+00 1.70099998e+00 0. 0. 0. 1.58099997e+00
    1.84599996e+00 1.84599996e+00 1.84599996e+00 1.84599996e+00
    1.87300003e+00 1.91299999e+00 1.92200005e+00 1.92200005e+00
    1.92200005e+00 1.92200005e+00 1.89999998e+00 1.87500000e+00
    1.86000001e+00 1.84599996e+00 1.84599996e+00 1.84599996e+00
    1.84599996e+00 1.85000002e+00 1.88900006e+00 1.91600001e+00
    1.87699997e+00 1.84599996e+00 1.84599996e+00 1.83899999e+00
    1.81500006e+00 1.79900002e+00 1.79900002e+00 1.80900002e+00
    1.83299994e+00 1.83500004e+00 1.81099999e+00 1.79200006e+00
    1.77900004e+00 1.75199997e+00 1.71500003e+00 1.70099998e+00 0.
    1.66499996e+00 1.71399999e+00 1.80700004e+00 1.84599996e+00
    1.84599996e+00 1.84599996e+00 1.84599996e+00 1.87300003e+00
    1.91299999e+00 1.92200005e+00 1.92200005e+00 1.92200005e+00
    1.92200005e+00 1.91799998e+00 1.91299999e+00 1.88100004e+00
    1.84599996e+00 1.84599996e+00 1.84599996e+00 1.84599996e+00
    1.85000002e+00 1.88900006e+00 1.91600001e+00 1.87699997e+00
    1.84599996e+00 1.84599996e+00 1.84500003e+00 1.84000003e+00
    1.83700001e+00 1.83700001e+00 1.83899999e+00 1.84300005e+00
    1.84399998e+00 1.83899999e+00 1.82000005e+00 1.78699994e+00
    1.75199997e+00 1.71500003e+00 1.70099998e+00 0. 1.89199996e+00
    1.88000000e+00 1.85599995e+00 1.84599996e+00 1.84599996e+00
    1.85599995e+00 1.87100005e+00 1.89199996e+00 1.91600001e+00
    1.93400002e+00 1.95000005e+00 1.94000006e+00 1.92400002e+00
    1.92200005e+00 1.92200005e+00 1.88600004e+00 1.84599996e+00
    1.84599996e+00 1.84599996e+00 1.84599996e+00 1.85000002e+00
    1.88900006e+00 1.91799998e+00 1.89400005e+00 1.87600005e+00
    1.87600005e+00 1.87100005e+00 1.85599995e+00 1.84599996e+00
    1.84599996e+00 1.84599996e+00 1.84599996e+00 1.84599996e+00
    1.84599996e+00 1.82700002e+00 1.78900003e+00 1.75999999e+00
    1.73800004e+00 1.72899997e+00 0. 1.85300004e+00 1.85099995e+00
    1.84800005e+00 1.84599996e+00 1.84599996e+00 1.86899996e+00
    1.90400004e+00 1.91700006e+00 1.92100000e+00 1.95000005e+00
    1.98599994e+00 1.96300006e+00 1.92700005e+00 1.92200005e+00
    1.92200005e+00 1.88600004e+00 1.84599996e+00 1.84599996e+00
    1.84599996e+00 1.84599996e+00 1.85000002e+00 1.88900006e+00
    1.92100000e+00 1.91799998e+00 1.91499996e+00 1.91499996e+00
    1.90499997e+00 1.87000000e+00 1.84599996e+00 1.84599996e+00
    1.84599996e+00 1.84599996e+00 1.84599996e+00 1.84599996e+00
    1.82700002e+00 1.78900003e+00 1.77100003e+00 1.76800001e+00
    1.76600003e+00 0. 1.84599996e+00 1.84599996e+00 1.84599996e+00
    1.84599996e+00 1.84599996e+00 1.87100005e+00 1.90999997e+00
    1.93400002e+00 1.95099998e+00 1.97200000e+00 1.99600005e+00
    1.98099995e+00 1.95799994e+00 1.94000006e+00 1.92299998e+00
    1.90100002e+00 1.87800002e+00 1.87800002e+00 1.87800002e+00
    1.87800002e+00 1.88000000e+00 1.90300000e+00 1.92200005e+00
    1.92200005e+00 1.92200005e+00 1.92200005e+00 1.91100001e+00
    1.87199998e+00 1.84599996e+00 1.84599996e+00 1.84599996e+00
    1.84599996e+00 1.84599996e+00 1.84599996e+00 1.83500004e+00
    1.81299996e+00 1.80400002e+00 1.80400002e+00 1.80400002e+00 0.
    1.84599996e+00 1.84599996e+00 1.84599996e+00 1.84599996e+00
    1.84599996e+00 1.87100005e+00 1.90999997e+00 1.94799995e+00
    1.98599994e+00 1.99699998e+00 2. 1.99800003e+00 1.99500000e+00
    1.96200001e+00 1.92499995e+00 1.91999996e+00 1.91700006e+00
    1.91700006e+00 1.91700006e+00 1.91700006e+00 1.91700006e+00
    1.91999996e+00 1.92200005e+00 1.92200005e+00 1.92200005e+00
    1.92200005e+00 1.91100001e+00 1.87199998e+00 1.84599996e+00
    1.84599996e+00 1.84599996e+00 1.84599996e+00 1.84599996e+00
    1.84599996e+00 1.84500003e+00 1.84200001e+00 1.84099996e+00
    1.84099996e+00 1.84099996e+00 0. 1.84599996e+00 1.84599996e+00
    1.84599996e+00 1.85599995e+00 1.87399995e+00 1.90600002e+00
    1.94500005e+00 1.97300005e+00 1.99500000e+00 2. 2. 2. 2.
    1.98099995e+00 1.95899999e+00 1.95700002e+00 1.95700002e+00
    1.95700002e+00 1.95599997e+00 1.93799996e+00 1.92200005e+00
    1.92200005e+00 1.92200005e+00 1.92200005e+00 1.92200005e+00
    1.92200005e+00 1.91600001e+00 1.89499998e+00 1.88000000e+00
    1.88000000e+00 1.87300003e+00 1.85599995e+00 1.84599996e+00
    1.84599996e+00 1.84599996e+00 1.84599996e+00 1.84599996e+00
    1.84599996e+00 1.84599996e+00 0. 1.84599996e+00 1.84599996e+00
    1.84599996e+00 1.86800003e+00 1.90600002e+00 1.94500005e+00
    1.98500001e+00 1.99800003e+00 2. 2. 2. 2. 2. 1.99899995e+00
    1.99699998e+00 1.99699998e+00 1.99699998e+00 1.99699998e+00
    1.99500000e+00 1.95700002e+00 1.92200005e+00 1.92200005e+00
    1.92200005e+00 1.92200005e+00 1.92200005e+00 1.92200005e+00
    1.92200005e+00 1.91999996e+00 1.91900003e+00 1.91900003e+00
    1.90499997e+00 1.86699998e+00 1.84599996e+00 1.84599996e+00
    1.84599996e+00 1.84599996e+00 1.84599996e+00 1.84599996e+00
    1.84599996e+00 0. 1.88199997e+00 1.88199997e+00 1.88199997e+00
    1.90600002e+00 1.94500005e+00 1.97300005e+00 1.99399996e+00 2. 2.
    2.01500010e+00 2.03500009e+00 2.03900003e+00 2.03900003e+00
    2.02099991e+00 2.00099993e+00 2. 2. 2. 1.99899995e+00 1.97800004e+00
    1.95899999e+00 1.95899999e+00 1.95899999e+00 1.95899999e+00
    1.95500004e+00 1.93599999e+00 1.92200005e+00 1.92200005e+00
    1.92200005e+00 1.92200005e+00 1.90699995e+00 1.86800003e+00
    1.84599996e+00 1.84599996e+00 1.84599996e+00 1.84599996e+00
    1.84599996e+00 1.84599996e+00 1.84599996e+00 0. 1.92200005e+00
    1.92200005e+00 1.92200005e+00 1.94500005e+00 1.98500001e+00 2. 2. 2.
    2. 2.03099990e+00 2.07299995e+00 2.08100009e+00 2.08100009e+00
    2.04399991e+00 2.00300002e+00 2. 2. 2. 2. 2. 2. 2. 2. 2.
    1.99100006e+00 1.95099998e+00 1.92200005e+00 1.92200005e+00
    1.92200005e+00 1.92200005e+00 1.90699995e+00 1.86800003e+00
    1.84599996e+00 1.84599996e+00 1.84599996e+00 1.84599996e+00
    1.84599996e+00 1.84599996e+00 1.84599996e+00 0. 1.92200005e+00
    1.92200005e+00 1.92200005e+00 1.94599998e+00 1.98599994e+00 2. 2. 2.
    2. 2.03200006e+00 2.07299995e+00 2.06399989e+00 2.04200006e+00
    2.02200007e+00 2.00099993e+00 2. 2. 2. 2. 2. 2. 2. 2. 2.
    1.99100006e+00 1.95099998e+00 1.92200005e+00 1.92200005e+00
    1.92200005e+00 1.92200005e+00 1.90699995e+00 1.86800003e+00
    1.84599996e+00 1.84599996e+00 1.85599995e+00 1.87600005e+00
    1.87300003e+00 1.85399997e+00 1.84599996e+00 0. 1.92400002e+00
    1.92400002e+00 1.92400002e+00 1.94700003e+00 1.98599994e+00 2. 2. 2.
    2. 2.03200006e+00 2.07299995e+00 2.04699993e+00 2.00500011e+00 2. 2.
    2. 2. 2. 2. 2. 2. 2. 2. 2. 1.99100006e+00 1.95200002e+00
    1.92400002e+00 1.92299998e+00 1.92200005e+00 1.92200005e+00
    1.90699995e+00 1.86899996e+00 1.84700000e+00 1.84599996e+00
    1.86500001e+00 1.90300000e+00 1.89900005e+00 1.86099994e+00
    1.84599996e+00 0. 1.96399999e+00 1.96399999e+00 1.96399999e+00
    1.97500002e+00 1.99300003e+00 2. 2. 2. 2. 2.03200006e+00
    2.07299995e+00 2.04699993e+00 2.00500011e+00 2. 2. 2. 2. 2. 2. 2. 2.
    2. 2. 2. 1.99600005e+00 1.97700000e+00 1.95799994e+00 1.93599999e+00
    1.92200005e+00 1.92200005e+00 1.91499996e+00 1.89699996e+00
    1.87699997e+00 1.85599995e+00 1.85500002e+00 1.87300003e+00
    1.87100005e+00 1.85300004e+00 1.84599996e+00 0. 2. 2. 2. 2. 2. 2. 2.
    2. 2. 2.03200006e+00 2.07299995e+00 2.04900002e+00 2.00900006e+00
    2.00200009e+00 2. 2. 2. 2. 2. 2. 2. 2. 2. 2. 2. 2. 1.98899996e+00
    1.94900000e+00 1.92200005e+00 1.92200005e+00 1.92200005e+00
    1.92200005e+00 1.90400004e+00 1.86500001e+00 1.84599996e+00
    1.84599996e+00 1.84599996e+00 1.84599996e+00 1.84599996e+00 0. 2. 2.
    2. 2. 2. 2. 2. 2. 2. 2.03200006e+00 2.07299995e+00 2.06599998e+00
    2.04800010e+00 2.02500010e+00 2.00200009e+00 2. 2. 2. 2. 2. 2. 2. 2.
    2. 2. 2. 1.98899996e+00 1.94900000e+00 1.92200005e+00 1.92200005e+00
    1.92200005e+00 1.92200005e+00 1.90400004e+00 1.86500001e+00
    1.84599996e+00 1.84599996e+00 1.84599996e+00 1.84599996e+00
    1.84599996e+00 0. 2.01399994e+00 2.01200008e+00 2.00799990e+00
    2.00699997e+00 2.00699997e+00 2.00399995e+00 2.00099993e+00 2. 2.
    2.03200006e+00 2.07299995e+00 2.08100009e+00 2.08100009e+00
    2.04500008e+00 2.00300002e+00 2. 2. 2. 2. 2. 2. 2. 2. 2. 2. 2.
    1.98899996e+00 1.94900000e+00 1.92200005e+00 1.92200005e+00
    1.92200005e+00 1.92200005e+00 1.90400004e+00 1.86500001e+00
    1.84599996e+00 1.84599996e+00 1.84599996e+00 1.84599996e+00
    1.84599996e+00 0. 2.09800005e+00 2.08400011e+00 2.05900002e+00
    2.04800010e+00 2.04800010e+00 2.03200006e+00 2.00699997e+00 2. 2.
    2.03200006e+00 2.07299995e+00 2.08100009e+00 2.08100009e+00
    2.04500008e+00 2.00300002e+00 2. 2. 2. 2. 2. 2. 2. 2. 2. 2. 2.
    1.98899996e+00 1.94900000e+00 1.92200005e+00 1.92200005e+00
    1.92200005e+00 1.92200005e+00 1.90400004e+00 1.86500001e+00
    1.84599996e+00 1.84599996e+00 1.84599996e+00 1.84599996e+00
    1.84599996e+00 0. 2.15499997e+00 2.13199997e+00 2.08999991e+00
    2.07200003e+00 2.07200003e+00 2.04800010e+00 2.01099992e+00 2. 2.
    2.02800012e+00 2.06500006e+00 2.07200003e+00 2.07200003e+00
    2.03999996e+00 2.00300002e+00 2. 2. 2. 2. 2. 2. 2. 2. 2. 2. 2.
    1.98899996e+00 1.94900000e+00 1.92200005e+00 1.92200005e+00
    1.92200005e+00 1.92200005e+00 1.90400004e+00 1.86500001e+00
    1.84599996e+00 1.84599996e+00 1.84599996e+00 1.84599996e+00
    1.84599996e+00 0. 2.11199999e+00 2.08999991e+00 2.04800010e+00
    2.02999997e+00 2.02999997e+00 2.01999998e+00 2.00500011e+00 2. 2.
    2.01200008e+00 2.02699995e+00 2.02999997e+00 2.02999997e+00
    2.01699996e+00 2.00099993e+00 2. 2. 2. 2. 2. 2. 2. 2. 2. 2. 2.
    1.98899996e+00 1.94900000e+00 1.92200005e+00 1.92200005e+00
    1.92200005e+00 1.92200005e+00 1.90400004e+00 1.86500001e+00
    1.84599996e+00 1.84599996e+00 1.84599996e+00 1.84599996e+00
    1.84599996e+00 0. 1.71700001e+00 1.79400003e+00 1.94000006e+00 2. 2.
    2.00399995e+00 2.00999999e+00 2.00699997e+00 2.00099993e+00
    1.86399996e+00 1.68400002e+00 1.65100002e+00 1.65100002e+00
    1.65100002e+00 1.65100002e+00 1.65100002e+00 1.65100002e+00
    1.82799995e+00 2. 2. 2. 2. 2. 2. 2. 2. 1.98899996e+00 1.94900000e+00
    1.92200005e+00 1.92200005e+00 1.92200005e+00 1.92200005e+00
    1.90699995e+00 1.87300003e+00 1.85399997e+00 1.84800005e+00
    1.84599996e+00 1.84599996e+00 1.84599996e+00 0. 0. 0. 1.65799999e+00
    2. 2. 2.01799989e+00 2.04500008e+00 2.03399992e+00 2.00699997e+00
    1.36800003e+00 0. 0. 0. 0. 0. 0. 0. 1.20500004e+00 2. 2. 2. 2. 2. 2.
    2. 2. 1.98899996e+00 1.94900000e+00 1.92200005e+00 1.92200005e+00
    1.92200005e+00 1.92200005e+00 1.91600001e+00 1.90300000e+00
    1.88300002e+00 1.85699999e+00 1.84599996e+00 1.84599996e+00
    1.84599996e+00 0. 0. 0. 1.13499999e+00 1.70700002e+00 1.93299997e+00
    2.04099989e+00 2.08299994e+00 1.90900004e+00 1.64199996e+00 0. 0. 0.
    0. 0. 0. 0. 0. 0. 2. 2. 2. 2. 2. 2. 2. 2. 1.99100006e+00
    1.95799994e+00 1.93299997e+00 1.92600000e+00 1.92200005e+00
    1.92200005e+00 1.92200005e+00 1.92200005e+00 1.90600002e+00
    1.87300003e+00 1.85500002e+00 1.84899998e+00 1.84599996e+00 0. 0. 0.
    0. 0. 1.73199999e+00 2.08299994e+00 2.12500000e+00 1.47800004e+00 0.
    0. 0. 0. 0. 0. 0. 0. 0. 0. 2. 2. 2. 2. 2. 2. 2. 2. 1.99699998e+00
    1.98399997e+00 1.96599996e+00 1.93900001e+00 1.92200005e+00
    1.92200005e+00 1.92200005e+00 1.92200005e+00 1.91600001e+00
    1.90400004e+00 1.88300002e+00 1.85599995e+00 1.84599996e+00 0. 0. 0.
    0. 0. 1.18499994e+00 1.58299994e+00 1.61699998e+00 0. 0. 0. 0. 0. 0.
    0. 0. 0. 0. 0. 1.51699996e+00 1.77100003e+00 2. 2. 2. 2. 2. 2. 2. 2.
    1.98899996e+00 1.95700002e+00 1.93799996e+00 1.93799996e+00
    1.82599998e+00 1.57500005e+00 1.45200002e+00 1.45200002e+00
    1.43299997e+00 1.39900005e+00 1.38600004e+00 0. 0. 0. 0. 0. 0. 0. 0.
    0. 0. 0. 0. 0. 0. 0. 0. 0. 0. 0. 0. 1.18499994e+00 2. 2. 2. 2. 2. 2.
    2. 2. 1.99600005e+00 1.98500001e+00 1.97800004e+00 1.97800004e+00
    1.57900000e+00 0. 0. 0. 0. 0. 0. 0. 0. 0. 0. 0. 0. 0. 0. 0. 0. 0. 0.
    0. 0. 0. 0. 0. 0. 0. 0. 0. 1.46200001e+00 1.75399995e+00 2. 2. 2. 2.
    2. 2. 2. 2. 2. 2. 1.44099998e+00 0. 0. 0. 0. 0. 0. 0. 0. 0. 0. 0. 0.
    0. 0. 0. 0. 0. 0. 0. 0. 0. 0. 0. 0. 0. 0. 0. 0. 1.20599997e+00 2. 2.
    2. 2. 2. 2. 2. 2. 2. 2. 1.43900001e+00 0. 0. 0. 0. 0. 0. 0. 0. 0. 0.
    0. 0. 0. 0. 0. 0. 0. 0. 0. 0. 0. 0. 0. 0. 0. 0. 0. 0. 0.
    2.02099991e+00 2.02099991e+00 2.02099991e+00 2.02099991e+00
    1.92700005e+00 1.58299994e+00 1.35399997e+00 1.35399997e+00
    1.35399997e+00 1.35399997e+00 0. 0. 0. 0. 0. 0. 0. 0. 0. 0. 0. 0. 0.
    0. 0. 0. 0. 0. 0. 0. 0. 0. 0. 0. 0. 0. 0. 0. 0. 0. 2.06299996e+00
    2.06299996e+00 2.06299996e+00 2.06299996e+00 1.78100002e+00 0. 0. 0.
    0. 0. 0. 0. 0. 0. 0. 0. 0. 0. 0. 0. 0. 0. 0. 0. 0. 0. 0. 0. 0. 0. 0.
    0. 0. 0. 0. 0. 0. 0. 0. 0. 2.08100009e+00 2.08100009e+00
    2.08100009e+00 2.08100009e+00 1.71700001e+00 0. 0. 0. 0. 0. 0. 0. 0.
    0. 0. 0. 0. 0. 0. 0. 0. 0. 0. 0. 0. 0. 0. 0. 0. 0. 0. 0. 0. 0. 0. 0.
    0. 0. 0. 0. 0. 0. 0. 0. 0. 0. 0. 0. 0. 0. 0. 0. 0. 0. 0. 0. 0. 0. 0.
    0. 0. 0. 0. 0. 0. 0. 0. 0. 0. 0. 0. 0. 0. 0. 0. 0. 0. 0. 0. 0. 0. 0.
    0. 0. 0. 0. 0. 0. 0. 0. 0. 0. 0. 0. 0. 0. 0. 0.</data></Depth>
</opencv_storage>
