<?xml version="1.0"?>
<opencv_storage>
<Depth type_id="opencv-matrix">
  <rows>40</rows>
  <cols>40</cols>
  <dt>f</dt>
  <data>
    0. 0. 0. 0. 0. 0. 0. 0. 0. 0. 0. 0. 0. 0. 0. 0. 0. 0. 0. 0. 0. 0. 0.
    0. 0. 0. 0. 0. 0. 0. 0. 0. 0. 0. 0. 0. 0. 0. 0. 0. 0. 0. 0. 0. 0. 0.
    0. 0. 0. 0. 0. 0. 0. 0. 0. 0. 0. 0. 0. 0. 0. 0. 0. 0. 0. 0. 0. 0. 0.
    0. 0. 0. 0. 0. 0. 0. 0. 0. 0. 0. 0. 0. 0. 0. 0. 0. 0. 0. 0. 0. 0. 0.
    0. 0. 0. 0. 0. 0. 0. 0. 0. 0. 0. 0. 0. 0. 0. 0. 0. 0. 0. 0. 0. 0. 0.
    0. 0. 0. 0. 0. 0. 0. 0. 0. 0. 0. 0. 0. 0. 0. 0. 0. 0. 0. 0. 0. 0. 0.
    0. 0. 0. 0. 0. 0. 0. 0. 0. 0. 0. 0. 0. 0. 0. 0. 0. 0. 0. 0. 0. 0. 0.
    0. 0. 0. 0. 0. 0. 0. 0. 0. 0. 0. 0. 0. 0. 0. 0. 0. 0. 0. 0. 0. 0. 0.
    0. 0. 0. 0. 0. 0. 0. 0. 0. 0. 0. 0. 0. 0. 0. 0. 0. 0. 0. 0. 0. 0. 0.
    0. 0. 0. 0. 0. 0. 0. 0. 0. 0. 0. 0. 0. 0. 0. 0. 0. 0. 0. 0. 0. 0. 0.
    0. 0. 0. 0. 0. 0. 0. 0. 0. 0. 0. 0. 0. 0. 0. 0. 0. 0. 0. 0. 0. 0. 0.
    0. 0. 0. 0. 0. 0. 0. 0. 0. 0. 0. 0. 0. 0. 0. 0. 0. 0. 0. 0. 0. 0. 0.
    0. 0. 0. 0. 0. 0. 0. 0. 0. 0. 0. 0. 0. 0. 0. 0. 0. 0. 0. 0. 0. 0. 0.
    0. 0. 0. 0. 0. 0. 0. 0. 0. 0. 0. 0. 0. 0. 0. 0. 0. 0. 0. 0. 0. 0. 0.
    0. 0. 0. 0. 0. 0. 0. 0. 0. 0. 0. 0. 0. 0. 0. 0. 0. 0. 0. 0. 0. 0. 0.
    0. 0. 0. 0. 0. 0. 0. 0. 0. 0. 0. 0. 0. 0. 0. 2.98200011e+00
    2.98200011e+00 2.98200011e+00 2.98200011e+00 2.98200011e+00
    2.98200011e+00 2.98200011e+00 2.98200011e+00 2.98200011e+00
    2.98200011e+00 2.98200011e+00 2.98200011e+00 2.98200011e+00
    2.98200011e+00 2.98200011e+00 2.98200011e+00 2.98200011e+00
    2.98200011e+00 2.98200011e+00 2.98200011e+00 2.98200011e+00
    2.98200011e+00 2.98200011e+00 2.98200011e+00 2.96300006e+00
    2.90400004e+00 2.85700011e+00 2.85700011e+00 2.83899999e+00
    2.67199993e+00 2.50500011e+00 2.35599995e+00 2.20600009e+00
    2.19199991e+00 2.19199991e+00 2.15499997e+00 2.10800004e+00
    2.09400010e+00 2.09400010e+00 2.09400010e+00 2.98200011e+00
    2.98200011e+00 2.98200011e+00 2.98200011e+00 2.98200011e+00
    2.98200011e+00 2.98200011e+00 2.98200011e+00 2.98200011e+00
    2.98200011e+00 2.96900010e+00 2.95600009e+00 2.93300009e+00
    2.90899992e+00 2.90499997e+00 2.90499997e+00 2.89599991e+00
    2.88499999e+00 2.88000011e+00 2.88000011e+00 2.88000011e+00
    2.88000011e+00 2.88000011e+00 2.88000011e+00 2.86899996e+00
    2.83400011e+00 2.80599999e+00 2.80599999e+00 2.78699994e+00
    2.61199999e+00 2.43799996e+00 2.31100011e+00 2.18300009e+00
    2.17100000e+00 2.17100000e+00 2.14199996e+00 2.10500002e+00
    2.08699989e+00 2.07800007e+00 2.07399988e+00 2.98200011e+00
    2.98200011e+00 2.98200011e+00 2.98200011e+00 2.98200011e+00
    2.98200011e+00 2.98200011e+00 2.98200011e+00 2.98200011e+00
    2.98000002e+00 2.94000006e+00 2.89899993e+00 2.82299995e+00
    2.74499989e+00 2.73200011e+00 2.73200011e+00 2.70499992e+00
    2.66799998e+00 2.65400004e+00 2.65400004e+00 2.65400004e+00
    2.65400004e+00 2.65400004e+00 2.65400004e+00 2.66000009e+00
    2.67799997e+00 2.69300008e+00 2.69300008e+00 2.67199993e+00
    2.48000002e+00 2.28900003e+00 2.21099997e+00 2.13199997e+00
    2.12400007e+00 2.12400007e+00 2.11299992e+00 2.09800005e+00
    2.07200003e+00 2.04200006e+00 2.02900004e+00 2.98200011e+00
    2.97799993e+00 2.96799994e+00 2.96099997e+00 2.96099997e+00
    2.94700003e+00 2.88700008e+00 2.83599997e+00 2.83599997e+00
    2.83500004e+00 2.80900002e+00 2.78299999e+00 2.68600011e+00
    2.58299994e+00 2.56500006e+00 2.56500006e+00 2.53299999e+00
    2.48799992e+00 2.47099996e+00 2.47099996e+00 2.46700001e+00
    2.45900011e+00 2.45099998e+00 2.44400001e+00 2.45199990e+00
    2.49699998e+00 2.53299999e+00 2.53299999e+00 2.51300001e+00
    2.33599997e+00 2.16000009e+00 2.12100005e+00 2.08200002e+00
    2.07900000e+00 2.07900000e+00 2.07900000e+00 2.07900000e+00
    2.04299998e+00 1.99100006e+00 1.97000003e+00 2.98200011e+00
    2.96499991e+00 2.92700005e+00 2.90199995e+00 2.90199995e+00
    2.84599996e+00 2.61299992e+00 2.41400003e+00 2.41400003e+00
    2.41599989e+00 2.48699999e+00 2.55900002e+00 2.49499989e+00
    2.42300010e+00 2.41000009e+00 2.41000009e+00 2.39599991e+00
    2.37700009e+00 2.36999989e+00 2.36999989e+00 2.35400009e+00
    2.32299995e+00 2.29299998e+00 2.26300001e+00 2.24799991e+00
    2.26799989e+00 2.28299999e+00 2.28299999e+00 2.27200007e+00
    2.17000008e+00 2.06900001e+00 2.05200005e+00 2.03500009e+00
    2.03399992e+00 2.03399992e+00 2.03399992e+00 2.03399992e+00
    1.98399997e+00 1.91299999e+00 1.88499999e+00 2.96799994e+00
    2.92499995e+00 2.83100009e+00 2.76900005e+00 2.76900005e+00
    2.69099998e+00 2.36999989e+00 2.09400010e+00 2.09400010e+00
    2.09899998e+00 2.22700000e+00 2.35400009e+00 2.32200003e+00
    2.27699995e+00 2.26999998e+00 2.26999998e+00 2.26999998e+00
    2.26999998e+00 2.26999998e+00 2.26999998e+00 2.24799991e+00
    2.20499992e+00 2.16100001e+00 2.11500001e+00 2.08299994e+00
    2.08299994e+00 2.08299994e+00 2.08299994e+00 2.07900000e+00
    2.03900003e+00 2. 2. 2. 2. 2. 1.99600005e+00 1.99100006e+00
    1.93299997e+00 1.85300004e+00 1.82000005e+00 2.90799999e+00
    2.80100012e+00 2.56200004e+00 2.40599990e+00 2.40599990e+00
    2.36999989e+00 2.22199988e+00 2.09400010e+00 2.09400010e+00
    2.09599996e+00 2.15499997e+00 2.21399999e+00 2.19899988e+00
    2.17899990e+00 2.17499995e+00 2.17499995e+00 2.17499995e+00
    2.17499995e+00 2.17499995e+00 2.17499995e+00 2.16499996e+00
    2.14499998e+00 2.11500001e+00 2.06999993e+00 2.03800011e+00
    2.03800011e+00 2.03800011e+00 2.03800011e+00 2.03600001e+00
    2.01799989e+00 2. 2. 2. 2. 2. 1.97899997e+00 1.95299995e+00
    1.90400004e+00 1.84399998e+00 1.82000005e+00 2.80599999e+00
    2.65400004e+00 2.31599998e+00 2.09400010e+00 2.09400010e+00
    2.09400010e+00 2.09400010e+00 2.09400010e+00 2.09400010e+00
    2.09400010e+00 2.09400010e+00 2.09400010e+00 2.09400010e+00
    2.09400010e+00 2.09400010e+00 2.09400010e+00 2.09400010e+00
    2.09400010e+00 2.09200001e+00 2.08899999e+00 2.08800006e+00
    2.08800006e+00 2.06999993e+00 2.02900004e+00 2. 2. 2. 2. 2. 2. 2.
    1.99699998e+00 1.99399996e+00 1.99399996e+00 1.99399996e+00
    1.96099997e+00 1.91999996e+00 1.87899995e+00 1.83700001e+00
    1.82000005e+00 2.44300008e+00 2.36899996e+00 2.20300007e+00
    2.09400010e+00 2.09400010e+00 2.09400010e+00 2.09400010e+00
    2.09400010e+00 2.09400010e+00 2.09400010e+00 2.09400010e+00
    2.09400010e+00 2.09400010e+00 2.09400010e+00 2.09400010e+00
    2.09400010e+00 2.09400010e+00 2.09400010e+00 2.07900000e+00
    2.05500007e+00 2.04299998e+00 2.04299998e+00 2.03399992e+00
    2.01399994e+00 2. 2. 2. 2. 2. 2. 2. 1.97599995e+00 1.95200002e+00
    1.95000005e+00 1.95000005e+00 1.93400002e+00 1.91400003e+00
    1.87899995e+00 1.83700001e+00 1.82000005e+00 2.09400010e+00
    2.09400010e+00 2.09400010e+00 2.09400010e+00 2.09400010e+00
    2.09400010e+00 2.09400010e+00 2.09400010e+00 2.09299994e+00
    2.09200001e+00 2.09200001e+00 2.09200001e+00 2.09200001e+00
    2.09200001e+00 2.09200001e+00 2.09200001e+00 2.09200001e+00
    2.09200001e+00 2.06500006e+00 2.02099991e+00 2. 2. 2. 2. 2. 2. 2. 2.
    2. 2. 2. 1.95599997e+00 1.91199994e+00 1.90799999e+00 1.90799999e+00
    1.90799999e+00 1.90799999e+00 1.87899995e+00 1.83800006e+00
    1.82200003e+00 2.09400010e+00 2.09400010e+00 2.09400010e+00
    2.09400010e+00 2.09400010e+00 2.09400010e+00 2.09400010e+00
    2.09100008e+00 2.06900001e+00 2.04800010e+00 2.04800010e+00
    2.04800010e+00 2.04800010e+00 2.04800010e+00 2.04800010e+00
    2.04800010e+00 2.04800010e+00 2.04800010e+00 2.03299999e+00
    2.01099992e+00 2. 2. 2. 2. 2. 2. 2. 2. 2. 2. 2. 1.95599997e+00
    1.91199994e+00 1.90799999e+00 1.90799999e+00 1.90799999e+00
    1.90799999e+00 1.89300001e+00 1.87199998e+00 1.86300004e+00
    2.09400010e+00 2.09400010e+00 2.09400010e+00 2.09400010e+00
    2.09400010e+00 2.09400010e+00 2.09400010e+00 2.08800006e+00
    2.04500008e+00 2.00300002e+00 2.00300002e+00 2.00300002e+00
    2.00300002e+00 2.00300002e+00 2.00300002e+00 2.00300002e+00
    2.00300002e+00 2.00300002e+00 2.00200009e+00 2.00099993e+00 2. 2. 2.
    2. 2. 2. 2. 2. 2. 2. 2. 1.95599997e+00 1.91199994e+00 1.90799999e+00
    1.90799999e+00 1.90799999e+00 1.90799999e+00 1.90699995e+00
    1.90600002e+00 1.90499997e+00 2.05200005e+00 2.05200005e+00
    2.05200005e+00 2.05200005e+00 2.05200005e+00 2.05699992e+00
    2.07699990e+00 2.08800006e+00 2.04299998e+00 2. 2. 2. 2. 2. 2. 2. 2.
    2. 2. 2. 2. 2. 1.99199998e+00 1.97200000e+00 1.95899999e+00
    1.95899999e+00 1.95899999e+00 1.95899999e+00 1.95899999e+00
    1.95899999e+00 1.95899999e+00 1.93499994e+00 1.90999997e+00
    1.90799999e+00 1.90799999e+00 1.90799999e+00 1.90799999e+00
    1.90799999e+00 1.90799999e+00 1.90799999e+00 2.00799990e+00
    2.00799990e+00 2.00799990e+00 2.00799990e+00 2.00799990e+00
    2.01799989e+00 2.05900002e+00 2.08800006e+00 2.04299998e+00 2. 2. 2.
    2. 2. 2. 2. 2. 2. 2. 2. 2. 2. 1.98300004e+00 1.94299996e+00
    1.91499996e+00 1.91499996e+00 1.91499996e+00 1.91499996e+00
    1.91499996e+00 1.91499996e+00 1.91499996e+00 1.91199994e+00
    1.90799999e+00 1.90799999e+00 1.90799999e+00 1.90799999e+00
    1.90799999e+00 1.90799999e+00 1.90799999e+00 1.90799999e+00 2. 2. 2.
    2. 2. 2.01099992e+00 2.05599999e+00 2.08800006e+00 2.04299998e+00 2.
    2. 2. 2. 2. 2. 2. 2. 2. 1.98899996e+00 1.97200000e+00 1.96399999e+00
    1.96399999e+00 1.95299995e+00 1.92600000e+00 1.90300000e+00
    1.88600004e+00 1.87300003e+00 1.87300003e+00 1.87500000e+00
    1.89199996e+00 1.90799999e+00 1.89100003e+00 1.87500000e+00
    1.87300003e+00 1.87300003e+00 1.86000001e+00 1.84399998e+00
    1.83899999e+00 1.83899999e+00 1.83899999e+00 2. 2. 2. 2. 2.
    2.01099992e+00 2.05599999e+00 2.08800006e+00 2.04299998e+00 2. 2. 2.
    2. 2. 2. 2. 2. 2. 1.97599995e+00 1.93799996e+00 1.91999996e+00
    1.91999996e+00 1.91799998e+00 1.91199994e+00 1.89600003e+00
    1.86000001e+00 1.83099997e+00 1.83099997e+00 1.83500004e+00
    1.87199998e+00 1.90799999e+00 1.87100005e+00 1.83500004e+00
    1.83099997e+00 1.83099997e+00 1.80299997e+00 1.76699996e+00
    1.75600004e+00 1.75600004e+00 1.75600004e+00 2. 2.00699997e+00
    2.02200007e+00 2.03299999e+00 2.03299999e+00 2.03999996e+00
    2.06900001e+00 2.08999991e+00 2.06100011e+00 2.03299999e+00
    2.03299999e+00 2.03299999e+00 2.03299999e+00 2.03299999e+00
    2.01999998e+00 2.00399995e+00 2. 2. 1.97300005e+00 1.92900002e+00
    1.90799999e+00 1.90799999e+00 1.90799999e+00 1.90799999e+00
    1.89499998e+00 1.85300004e+00 1.82000005e+00 1.82000005e+00
    1.82500005e+00 1.86600006e+00 1.90799999e+00 1.86600006e+00
    1.82400000e+00 1.82000005e+00 1.82000005e+00 1.78699994e+00
    1.74600005e+00 1.73399997e+00 1.73399997e+00 1.73399997e+00 2.
    2.01600003e+00 2.05299997e+00 2.07699990e+00 2.07699990e+00
    2.07900000e+00 2.08699989e+00 2.09299994e+00 2.08500004e+00
    2.07699990e+00 2.07699990e+00 2.07699990e+00 2.07699990e+00
    2.07699990e+00 2.04699993e+00 2.00999999e+00 2. 2. 1.97300005e+00
    1.92900002e+00 1.90799999e+00 1.90799999e+00 1.90799999e+00
    1.90799999e+00 1.89499998e+00 1.85300004e+00 1.82000005e+00
    1.82000005e+00 1.82500005e+00 1.86600006e+00 1.90799999e+00
    1.86600006e+00 1.82400000e+00 1.82000005e+00 1.82000005e+00
    1.78699994e+00 1.74600005e+00 1.73399997e+00 1.73399997e+00
    1.73399997e+00 2. 2.01999998e+00 2.06500006e+00 1.81400001e+00
    1.00300002e+00 0. 0. 0. 1.31299996e+00 2.09400010e+00 2.09400010e+00
    2.09400010e+00 2.09400010e+00 2.09400010e+00 2.05699992e+00
    2.01200008e+00 2. 2. 1.97300005e+00 1.92900002e+00 1.90799999e+00
    1.90799999e+00 1.90799999e+00 1.90799999e+00 1.90699995e+00
    1.90400004e+00 1.90100002e+00 1.90100002e+00 1.91900003e+00
    2.07399988e+00 2.22700000e+00 2.19799995e+00 2.16799998e+00
    2.16599989e+00 2.16599989e+00 2.14199996e+00 2.11400008e+00
    1.45000005e+00 0. 0. 2. 2.01999998e+00 2.06500006e+00 1.36600006e+00
    0. 0. 0. 0. 0. 2.09400010e+00 2.09400010e+00 2.09400010e+00
    2.09400010e+00 2.09400010e+00 2.05699992e+00 2.01200008e+00 2. 2.
    1.97300005e+00 1.92900002e+00 1.90799999e+00 1.90799999e+00
    1.90799999e+00 1.90799999e+00 1.92700005e+00 1.98500001e+00
    2.03200006e+00 2.03200006e+00 2.06900001e+00 2.40499997e+00
    2.73799992e+00 2.72799993e+00 2.71900010e+00 2.71799994e+00
    2.71799994e+00 2.71099997e+00 2.70099998e+00 0. 0. 0. 2.
    2.01999998e+00 2.06500006e+00 1.15199995e+00 0. 0. 0. 0. 0.
    2.09400010e+00 2.09400010e+00 2.09400010e+00 2.09400010e+00
    2.09400010e+00 2.05699992e+00 2.01200008e+00 2. 2. 1.97300005e+00
    1.92900002e+00 1.90799999e+00 1.90799999e+00 1.90799999e+00
    1.90799999e+00 1.93599999e+00 2.02399993e+00 2.09400010e+00
    2.09400010e+00 2.14100003e+00 2.56299996e+00 2.98200011e+00
    2.98200011e+00 2.98200011e+00 2.98200011e+00 2.98200011e+00
    2.98200011e+00 2.98200011e+00 0. 0. 0. 0. 0. 0. 0. 0. 0. 0. 0. 0. 0.
    0. 0. 0. 0. 0. 0. 0. 0. 0. 0. 0. 0. 0. 0. 0. 0. 0. 0. 0. 0. 0. 0. 0.
    0. 0. 0. 0. 0. 0. 0. 0. 0. 0. 0. 0. 0. 0. 0. 0. 0. 0. 0. 0. 0. 0. 0.
    0. 0. 0. 0. 0. 0. 0. 0. 0. 0. 0. 0. 0. 0. 0. 0. 0. 0. 0. 0. 0. 0. 0.
    0. 0. 0. 0. 0. 0. 0. 0. 0. 0. 0. 0. 0. 0. 0. 0. 0. 0. 0. 0. 0. 0. 0.
    0. 0. 0. 0. 0. 0. 0. 0. 0. 0. 0. 0. 0. 0. 0. 0. 0. 0. 0. 0. 0. 0. 0.
    0. 0. 0. 0. 0. 0. 0. 0. 0. 0. 0. 0. 0. 0. 0. 0. 0. 0. 0. 0. 0. 0. 0.
    0. 0. 0. 0. 0. 0. 0. 0. 0. 0. 0. 0. 0. 0. 0. 0. 0. 0. 0. 0. 0. 0. 0.
    0. 0. 0. 0. 0. 0. 0. 0. 0. 0. 0. 0. 0. 0. 0. 0. 0. 0. 0. 0. 0. 0. 0.
    0. 0. 0. 0. 0. 0. 0. 0. 0. 0. 0. 0. 0. 0. 0. 0. 0. 0. 0. 0. 0. 0. 0.
    0. 0. 0. 0. 0. 0. 0. 0. 0. 0. 0. 0. 0. 0. 0. 0. 0. 0. 0. 0. 0. 0. 0.
    0. 0. 0. 0. 0. 0. 0. 0. 0. 0. 0. 0. 0. 0. 0. 0. 0. 0. 0. 0. 0. 0. 0.
    0. 0. 0. 0. 0. 0. 0. 0. 0. 0. 0. 0. 0. 0. 0. 0. 0. 0. 0. 0. 0. 0. 0.
    0. 0. 0. 0. 0. 0. 0. 0. 0. 0. 0. 0. 0. 0. 0. 0. 0. 0. 0. 0. 0. 0. 0.
    0. 0. 0. 0. 0. 0. 0. 0. 0. 0. 0. 0. 0. 0. 0. 0. 0. 0. 0. 0. 0. 0. 0.
    0. 0. 0. 0. 0. 0. 0. 0. 0. 0. 0. 0. 0. 0. 0. 0. 0. 0. 0. 0. 0. 0. 0.
    0. 0. 0. 0. 0. 0. 0. 0. 0. 0. 0. 0. 0. 0. 0. 0. 0. 0. 0. 0. 0. 0. 0.
    0. 0. 0. 0. 0. 0. 0. 0. 0. 0. 0. 0. 0. 0. 0. 0. 0. 0. 0. 0. 0. 0.</data></Depth>
</opencv_storage>
