<?xml version="1.0"?>
<opencv_storage>
<Depth type_id="opencv-matrix">
  <rows>40</rows>
  <cols>40</cols>
  <dt>f</dt>
  <data>
    0. 0. 0. 0. 0. 0. 0. 0. 0. 2.67400002e+00 1.98599994e+00
    1.96300006e+00 1.96300006e+00 2.00999999e+00 2.03800011e+00
    2.03800011e+00 2.03800011e+00 2.01399994e+00 2. 2. 2. 1.97700000e+00
    1.96300006e+00 1.96300006e+00 1.96300006e+00 1.96300006e+00
    1.97700000e+00 2.00500011e+00 2.03299999e+00 0. 0. 0. 0. 0. 0. 0. 0.
    0. 0. 0. 0. 0. 0. 0. 0. 0. 2.65499997e+00 2.67400002e+00
    2.67400002e+00 2.25300002e+00 1.98599994e+00 1.96300006e+00
    1.96300006e+00 1.99500000e+00 2.01399994e+00 2.01699996e+00
    2.03500009e+00 2.01399994e+00 2. 1.99699998e+00 1.98000002e+00
    1.96800005e+00 1.96300006e+00 1.96300006e+00 1.96300006e+00
    1.96300006e+00 1.97700000e+00 2.00200009e+00 2.01200008e+00
    2.42700005e+00 0. 0. 0. 0. 0. 0. 0. 0. 0. 0. 0. 0. 0. 0. 0.
    2.43099999e+00 2.01799989e+00 2. 2. 2. 1.98599994e+00 1.96300006e+00
    1.96300006e+00 1.98599994e+00 2. 2.00300002e+00 2.02099991e+00
    2.00900006e+00 1.99500000e+00 1.98300004e+00 1.96599996e+00
    1.96300006e+00 1.96300006e+00 1.96300006e+00 1.96300006e+00
    1.96300006e+00 1.97200000e+00 1.98800004e+00 1.99800003e+00 2.
    2.64299989e+00 0. 0. 0. 0. 0. 0. 0. 0. 0. 0. 0. 0. 0. 2.07699990e+00
    2.07699990e+00 2.04999995e+00 2.00500011e+00 2.00500011e+00
    2.00500011e+00 1.99300003e+00 1.97200000e+00 1.97200000e+00
    1.99000001e+00 2. 2. 2. 2. 1.98599994e+00 1.96300006e+00
    1.96300006e+00 1.96300006e+00 1.96300006e+00 1.96300006e+00
    1.96300006e+00 1.96300006e+00 1.96300006e+00 1.96700001e+00
    1.99100006e+00 1.99800003e+00 2.64700007e+00 0. 0. 0. 0. 0. 0. 0. 0.
    0. 0. 0. 0. 0. 2.07699990e+00 2.07699990e+00 2.06100011e+00
    2.03299999e+00 2.03299999e+00 2.03299999e+00 2.03200006e+00
    2.02900004e+00 2.02900004e+00 2.01099992e+00 2. 2. 2. 2.
    1.98599994e+00 1.96300006e+00 1.96300006e+00 1.96300006e+00
    1.96300006e+00 1.96300006e+00 1.96300006e+00 1.96300006e+00
    1.96300006e+00 1.96399999e+00 1.96700001e+00 1.98800004e+00
    2.67000008e+00 0. 0. 0. 0. 0. 0. 0. 0. 0. 0. 0. 0. 0. 2.07699990e+00
    2.07699990e+00 2.07200003e+00 2.06200004e+00 2.06200004e+00
    2.04699993e+00 2.03800011e+00 2.03500009e+00 2.01699996e+00
    2.00500011e+00 2. 2. 2. 2. 1.99500000e+00 1.98300004e+00
    1.96599996e+00 1.96300006e+00 1.96300006e+00 1.96000004e+00
    1.94299996e+00 1.94000006e+00 1.94900000e+00 1.96300006e+00
    1.96300006e+00 1.97200000e+00 2.66000009e+00 0. 0. 0. 0. 0. 0. 0. 0.
    0. 0. 0. 0. 0. 2.07699990e+00 2.07699990e+00 2.07699990e+00
    2.07699990e+00 2.07699990e+00 2.05299997e+00 2.03800011e+00
    2.03299999e+00 2.00500011e+00 2. 2. 2. 2. 2. 1.99500000e+00
    1.98300004e+00 1.96599996e+00 1.96300006e+00 1.96300006e+00
    1.95799994e+00 1.93200004e+00 1.92700005e+00 1.94000006e+00
    1.96300006e+00 1.96300006e+00 1.96300006e+00 2.65100002e+00 0. 0. 0.
    0. 0. 0. 0. 0. 0. 0. 0. 0. 0. 2.07699990e+00 2.07699990e+00
    2.07699990e+00 2.07599998e+00 2.07299995e+00 2.05100012e+00
    2.03800011e+00 2.03399992e+00 2.00900006e+00 2.00200009e+00 2. 2. 2.
    1.99699998e+00 1.98300004e+00 1.96300006e+00 1.96300006e+00
    1.96300006e+00 1.96300006e+00 1.95799994e+00 1.93200004e+00
    1.92700005e+00 1.94000006e+00 1.96300006e+00 1.96300006e+00
    1.96300006e+00 2.56500006e+00 0. 0. 0. 0. 0. 0. 0. 0. 0. 0. 0. 0. 0.
    2.07699990e+00 2.07699990e+00 2.07699990e+00 2.07299995e+00
    2.04699993e+00 2.03999996e+00 2.03800011e+00 2.03699994e+00
    2.03399992e+00 2.01200008e+00 2. 2. 2. 1.98000002e+00 1.96599996e+00
    1.96300006e+00 1.96300006e+00 1.96300006e+00 1.96300006e+00
    1.95799994e+00 1.93200004e+00 1.92700005e+00 1.94000006e+00
    1.96300006e+00 1.96300006e+00 1.96300006e+00 2.04900002e+00
    2.38400006e+00 0. 0. 0. 0. 0. 0. 0. 0. 0. 0. 0. 0. 2.07699990e+00
    2.07699990e+00 2.06800008e+00 2.05100012e+00 2.03999996e+00
    2.03800011e+00 2.03800011e+00 2.03800011e+00 2.03800011e+00
    2.01399994e+00 2. 2. 2. 1.97700000e+00 1.96300006e+00 1.96300006e+00
    1.96300006e+00 1.96300006e+00 1.96300006e+00 1.96099997e+00
    1.95099998e+00 1.95000005e+00 1.95500004e+00 1.96300006e+00
    1.96300006e+00 1.96300006e+00 1.96300006e+00 2.18199992e+00 0. 0. 0.
    0. 0. 0. 0. 0. 0. 0. 0. 0. 2.07699990e+00 2.07699990e+00
    2.06200004e+00 2.03800011e+00 2.03800011e+00 2.03800011e+00
    2.03800011e+00 2.03600001e+00 2.02600002e+00 2.00900006e+00 2. 2. 2.
    1.98599994e+00 1.97200000e+00 1.96300006e+00 1.96300006e+00
    1.96300006e+00 1.96300006e+00 1.96300006e+00 1.96300006e+00
    1.96300006e+00 1.96300006e+00 1.96300006e+00 1.96300006e+00
    1.96300006e+00 1.96300006e+00 2.18199992e+00 0. 0. 0. 0. 0. 0. 0. 0.
    0. 0. 0. 0. 2.07699990e+00 2.07699990e+00 2.06399989e+00
    2.04200006e+00 2.03900003e+00 2.03800011e+00 2.03600001e+00
    2.02900004e+00 2.00399995e+00 2. 2. 2. 2. 2. 1.98599994e+00
    1.96300006e+00 1.96300006e+00 1.96300006e+00 1.96300006e+00
    1.96300006e+00 1.96300006e+00 1.96300006e+00 1.96300006e+00
    1.96300006e+00 1.96300006e+00 1.96300006e+00 1.96300006e+00
    2.18199992e+00 0. 0. 0. 0. 0. 0. 0. 0. 0. 0. 0. 0. 2.07699990e+00
    2.07699990e+00 2.07500005e+00 2.06800008e+00 2.04200006e+00
    2.03800011e+00 2.02600002e+00 2.00399995e+00 2.00099993e+00 2. 2. 2.
    2. 2. 1.98599994e+00 1.96300006e+00 1.96300006e+00 1.96300006e+00
    1.96300006e+00 1.96300006e+00 1.96300006e+00 1.96300006e+00
    1.96300006e+00 1.96300006e+00 1.96300006e+00 1.96300006e+00
    1.96300006e+00 2.18199992e+00 0. 0. 0. 0. 0. 0. 0. 0. 0. 0. 0. 0.
    2.07699990e+00 2.07699990e+00 2.07699990e+00 2.07200003e+00
    2.04299998e+00 2.03800011e+00 2.02399993e+00 2. 2. 2. 2. 2. 2. 2.
    1.98599994e+00 1.96300006e+00 1.96300006e+00 1.96300006e+00
    1.96300006e+00 1.96300006e+00 1.96300006e+00 1.96300006e+00
    1.96300006e+00 1.96300006e+00 1.96300006e+00 1.96300006e+00
    1.96300006e+00 2.18199992e+00 0. 0. 0. 0. 0. 0. 0. 0. 0. 0. 0. 0.
    2.07699990e+00 2.07699990e+00 2.07699990e+00 2.07399988e+00
    2.05599999e+00 2.04299998e+00 2.02399993e+00 2. 2. 2. 2. 2. 2. 2.
    1.98599994e+00 1.96300006e+00 1.96300006e+00 1.96300006e+00
    1.96300006e+00 1.96300006e+00 1.96300006e+00 1.96300006e+00
    1.96300006e+00 1.96300006e+00 1.96300006e+00 1.96300006e+00
    1.96300006e+00 2.09999990e+00 2.92100000e+00 0. 0. 0. 0. 0. 0. 0. 0.
    0. 0. 0. 2.27200007e+00 2.15300012e+00 2.07999992e+00 2.07699990e+00
    2.07699990e+00 2.05299997e+00 2.02600002e+00 2.00399995e+00
    2.00099993e+00 2. 2. 2. 2. 2. 1.98599994e+00 1.96300006e+00
    1.96300006e+00 1.96300006e+00 1.96300006e+00 1.96300006e+00
    1.96300006e+00 1.96300006e+00 1.96300006e+00 1.96300006e+00
    1.96300006e+00 1.96300006e+00 1.96300006e+00 1.96300006e+00
    1.96300006e+00 0. 0. 0. 0. 0. 0. 0. 0. 0. 0. 0. 0. 2.60899997e+00
    2.09800005e+00 2.07699990e+00 2.07699990e+00 2.05299997e+00
    2.03600001e+00 2.02900004e+00 2.00399995e+00 2. 2. 2. 2. 2.
    1.98599994e+00 1.96300006e+00 1.96300006e+00 1.96300006e+00
    1.96300006e+00 1.96300006e+00 1.96300006e+00 1.96300006e+00
    1.96300006e+00 1.96300006e+00 1.96300006e+00 1.96300006e+00
    1.96300006e+00 1.96300006e+00 1.96300006e+00 0. 0. 0. 0. 0. 0. 0. 0.
    0. 0. 0. 0. 2.68499994e+00 2.10100007e+00 2.07699990e+00
    2.07699990e+00 2.06800008e+00 2.05299997e+00 2.03600001e+00
    2.02600002e+00 2.02399993e+00 2.02399993e+00 2.02099991e+00
    2.00300002e+00 2. 1.98599994e+00 1.96300006e+00 1.96300006e+00
    1.96300006e+00 1.96300006e+00 1.96300006e+00 1.96300006e+00
    1.96300006e+00 1.95500004e+00 1.94000006e+00 1.94000006e+00
    1.95500004e+00 1.96300006e+00 1.96300006e+00 1.96300006e+00 0. 0. 0.
    0. 0. 0. 0. 0. 0. 0. 0. 0. 2.68799996e+00 2.09200001e+00
    2.07500005e+00 2.06399989e+00 2.06200004e+00 2.05299997e+00
    2.03800011e+00 2.03800011e+00 2.03800011e+00 2.03800011e+00
    2.03299999e+00 2.00500011e+00 2. 1.98599994e+00 1.96300006e+00
    1.96300006e+00 1.96300006e+00 1.96300006e+00 1.96300006e+00
    1.96300006e+00 1.95500004e+00 1.94099998e+00 1.92700005e+00
    1.92700005e+00 1.94099998e+00 1.95000005e+00 1.95000005e+00
    1.95000005e+00 2.61100006e+00 0. 0. 0. 0. 0. 0. 0. 0. 0. 0. 0.
    2.69099998e+00 2.07699990e+00 2.07200003e+00 2.04299998e+00
    2.03800011e+00 2.03800011e+00 2.03800011e+00 2.03800011e+00
    2.03500009e+00 2.03299999e+00 2.02900004e+00 2.00399995e+00 2.
    1.98800004e+00 1.96700001e+00 1.96399999e+00 1.96300006e+00
    1.96300006e+00 1.96300006e+00 1.96300006e+00 1.94000006e+00
    1.92700005e+00 1.92700005e+00 1.92700005e+00 1.92700005e+00
    1.92700005e+00 1.92700005e+00 1.92700005e+00 1.94700003e+00
    1.95799994e+00 0. 0. 0. 0. 0. 0. 0. 0. 0. 0. 2.69099998e+00
    2.07699990e+00 2.07200003e+00 2.04299998e+00 2.03800011e+00
    2.03800011e+00 2.03800011e+00 2.03800011e+00 2.01699996e+00
    2.00500011e+00 2.00399995e+00 2.00099993e+00 2. 1.99800003e+00
    1.99100006e+00 1.96700001e+00 1.96300006e+00 1.96300006e+00
    1.96300006e+00 1.96300006e+00 1.94000006e+00 1.92700005e+00
    1.92700005e+00 1.92700005e+00 1.92700005e+00 1.92700005e+00
    1.92700005e+00 1.92700005e+00 1.92999995e+00 1.93200004e+00 0. 0. 0.
    0. 0. 0. 0. 0. 0. 0. 2.70600009e+00 2.09200001e+00 2.07500005e+00
    2.06399989e+00 2.04699993e+00 2.03800011e+00 2.03500009e+00
    2.01699996e+00 1.99100006e+00 1.97700000e+00 1.98000002e+00
    1.99699998e+00 2. 2. 1.99500000e+00 1.96800005e+00 1.96300006e+00
    1.96300006e+00 1.96300006e+00 1.96300006e+00 1.94000006e+00
    1.92700005e+00 1.92700005e+00 1.92700005e+00 1.92700005e+00
    1.92700005e+00 1.92700005e+00 1.92700005e+00 1.92700005e+00
    1.92700005e+00 0. 0. 0. 0. 0. 0. 0. 0. 0. 0. 2.70600009e+00
    2.09200001e+00 2.07699990e+00 2.07699990e+00 2.05299997e+00
    2.03800011e+00 2.03299999e+00 2.00500011e+00 1.97700000e+00
    1.96300006e+00 1.96599996e+00 1.98300004e+00 1.98599994e+00
    1.98599994e+00 1.98300004e+00 1.96599996e+00 1.96300006e+00
    1.96300006e+00 1.96300006e+00 1.96300006e+00 1.94000006e+00
    1.92700005e+00 1.92700005e+00 1.92700005e+00 1.92700005e+00
    1.92700005e+00 1.92700005e+00 1.92700005e+00 1.92700005e+00
    1.92700005e+00 0. 0. 0. 0. 0. 0. 0. 0. 0. 0. 2.69099998e+00
    2.07699990e+00 2.07599998e+00 2.07299995e+00 2.05100012e+00
    2.03800011e+00 2.03399992e+00 2.00900006e+00 1.97899997e+00
    1.96300006e+00 1.96300006e+00 1.96300006e+00 1.96300006e+00
    1.96300006e+00 1.96300006e+00 1.96300006e+00 1.96300006e+00
    1.96300006e+00 1.96200001e+00 1.95899999e+00 1.93900001e+00
    1.92700005e+00 1.92700005e+00 1.92700005e+00 1.92700005e+00
    1.92700005e+00 1.92700005e+00 1.92700005e+00 1.92700005e+00
    1.92700005e+00 0. 0. 0. 0. 0. 0. 0. 0. 0. 0. 2.69099998e+00
    2.07699990e+00 2.07299995e+00 2.04699993e+00 2.03999996e+00
    2.03800011e+00 2.03699994e+00 2.03399992e+00 1.98899996e+00
    1.96300006e+00 1.96300006e+00 1.96300006e+00 1.96300006e+00
    1.96300006e+00 1.96300006e+00 1.96300006e+00 1.96300006e+00
    1.96300006e+00 1.95899999e+00 1.93499994e+00 1.92900002e+00
    1.92700005e+00 1.92700005e+00 1.92700005e+00 1.92700005e+00
    1.92700005e+00 1.92700005e+00 1.92700005e+00 1.92700005e+00
    1.92700005e+00 0. 0. 0. 0. 0. 0. 0. 0. 0. 0. 0. 2.71700001e+00
    2.07200003e+00 2.04299998e+00 2.03800011e+00 2.03800011e+00
    2.03500009e+00 2.01699996e+00 1.99699998e+00 1.98599994e+00
    1.98599994e+00 1.98599994e+00 1.98599994e+00 1.98599994e+00
    1.98300004e+00 1.96599996e+00 1.96300006e+00 1.96300006e+00
    1.95799994e+00 1.93200004e+00 1.92700005e+00 1.92700005e+00
    1.92700005e+00 1.92700005e+00 1.92700005e+00 1.92700005e+00
    1.92700005e+00 1.92700005e+00 1.92700005e+00 1.92700005e+00 0. 0. 0.
    0. 0. 0. 0. 0. 0. 0. 0. 0. 2.07399988e+00 2.05599999e+00
    2.04299998e+00 2.03800011e+00 2.03299999e+00 2.00500011e+00 2. 2. 2.
    2. 2. 2. 1.99500000e+00 1.96800005e+00 1.96300006e+00 1.96300006e+00
    1.95799994e+00 1.93200004e+00 1.92700005e+00 1.92700005e+00
    1.92700005e+00 1.92700005e+00 1.92700005e+00 1.92700005e+00
    1.92700005e+00 1.92700005e+00 1.92700005e+00 1.92700005e+00 0. 0. 0.
    0. 0. 0. 0. 0. 0. 0. 0. 0. 2.07699990e+00 2.07699990e+00
    2.05299997e+00 2.03800011e+00 2.03299999e+00 2.00500011e+00 2. 2. 2.
    2. 2. 2. 1.99600005e+00 1.97200000e+00 1.96500003e+00 1.96300006e+00
    1.95799994e+00 1.93200004e+00 1.92700005e+00 1.92700005e+00
    1.92700005e+00 1.92700005e+00 1.92700005e+00 1.92700005e+00
    1.92700005e+00 1.92700005e+00 1.92400002e+00 1.92299998e+00 0. 0. 0.
    0. 0. 0. 0. 0. 0. 0. 0. 0. 2.07699990e+00 2.07699990e+00
    2.05299997e+00 2.03800011e+00 2.03299999e+00 2.00500011e+00 2. 2. 2.
    2. 2. 2. 1.99899995e+00 1.99600005e+00 1.97500002e+00 1.96300006e+00
    1.95799994e+00 1.93200004e+00 1.92700005e+00 1.92700005e+00
    1.92700005e+00 1.92700005e+00 1.92700005e+00 1.92700005e+00
    1.92700005e+00 1.92700005e+00 1.90799999e+00 1.89600003e+00 0. 0. 0.
    0. 0. 0. 0. 0. 0. 0. 0. 0. 2.92799997e+00 2.19899988e+00
    2.05299997e+00 2.03800011e+00 2.03299999e+00 2.00500011e+00 2. 2. 2.
    2. 2. 2. 2. 2. 1.97700000e+00 1.96300006e+00 1.96099997e+00
    1.95099998e+00 1.93499994e+00 1.92700005e+00 1.92700005e+00
    1.92700005e+00 1.92700005e+00 1.92700005e+00 1.92700005e+00
    1.92700005e+00 1.90499997e+00 1.89199996e+00 0. 0. 0. 0. 0. 0. 0. 0.
    0. 0. 0. 0. 0. 2.28399992e+00 2.05800009e+00 2.03800011e+00
    2.03299999e+00 2.00500011e+00 2. 2. 2. 2. 2. 2. 2. 2. 1.97700000e+00
    1.96300006e+00 1.96300006e+00 1.96300006e+00 1.94000006e+00
    1.92700005e+00 1.92700005e+00 1.92700005e+00 1.92700005e+00
    1.92700005e+00 1.92700005e+00 1.92700005e+00 1.91299999e+00
    1.90499997e+00 0. 0. 0. 0. 0. 0. 0. 0. 0. 0. 0. 0. 0. 2.30599999e+00
    2.06999993e+00 2.04099989e+00 2.03299999e+00 2.00500011e+00 2. 2. 2.
    2. 2. 2. 2. 2. 1.97700000e+00 1.96300006e+00 1.96300006e+00
    1.96300006e+00 1.94299996e+00 1.92999995e+00 1.92700005e+00
    1.92700005e+00 1.92700005e+00 1.92700005e+00 1.92700005e+00
    1.92700005e+00 1.92700005e+00 1.92700005e+00 0. 0. 0. 0. 0. 0. 0. 0.
    0. 0. 0. 0. 0. 2.30599999e+00 2.08899999e+00 2.05900002e+00
    2.03299999e+00 2.00500011e+00 2. 2. 2. 2. 2. 2. 2. 2. 1.97700000e+00
    1.96300006e+00 1.96300006e+00 1.96300006e+00 1.96000004e+00
    1.94700003e+00 1.92700005e+00 1.92700005e+00 1.92700005e+00
    1.92700005e+00 1.92700005e+00 1.92700005e+00 1.92700005e+00
    1.92700005e+00 0. 0. 0. 0. 0. 0. 0. 0. 0. 0. 0. 0. 0. 2.29099989e+00
    2.08200002e+00 2.06200004e+00 2.03299999e+00 2.00500011e+00 2. 2. 2.
    2. 2. 2. 2. 2. 1.97700000e+00 1.96300006e+00 1.96300006e+00
    1.96300006e+00 1.96300006e+00 1.95000005e+00 1.92700005e+00
    1.92700005e+00 1.92700005e+00 1.92700005e+00 1.92700005e+00
    1.92700005e+00 1.92700005e+00 1.92700005e+00 0. 0. 0. 0. 0. 0. 0. 0.
    0. 0. 0. 0. 0. 2.28200006e+00 2.07699990e+00 2.06200004e+00
    2.03299999e+00 2.00500011e+00 2. 2. 2. 2. 2. 2. 1.99800003e+00
    1.98800004e+00 1.97200000e+00 1.96300006e+00 1.96300006e+00
    1.96300006e+00 1.96300006e+00 1.95500004e+00 1.93900001e+00
    1.92900002e+00 1.92700005e+00 1.93200004e+00 1.94000006e+00
    1.94000006e+00 1.94000006e+00 1.94000006e+00 0. 0. 0. 0. 0. 0. 0. 0.
    0. 0. 0. 0. 0. 2.28999996e+00 2.08400011e+00 2.06699991e+00
    2.03800011e+00 2.00999999e+00 2.00200009e+00 2. 2. 2. 2.
    1.99800003e+00 1.99100006e+00 1.96700001e+00 1.96300006e+00
    1.96300006e+00 1.96300006e+00 1.96300006e+00 1.96300006e+00
    1.96300006e+00 1.95899999e+00 1.93499994e+00 1.93200004e+00
    1.94299996e+00 1.96300006e+00 1.96300006e+00 1.96300006e+00
    1.96300006e+00 0. 0. 0. 0. 0. 0. 0. 0. 0. 0. 0. 0. 0. 2.34200001e+00
    2.12400007e+00 2.09599996e+00 2.06699991e+00 2.03800011e+00
    2.01200008e+00 2. 2. 2. 2. 1.98800004e+00 1.96700001e+00
    1.96399999e+00 1.96300006e+00 1.96300006e+00 1.96300006e+00
    1.96300006e+00 1.96300006e+00 1.96300006e+00 1.96200001e+00
    1.95899999e+00 1.95799994e+00 1.96000004e+00 1.96300006e+00
    1.96300006e+00 1.96300006e+00 1.96300006e+00 0. 0. 0. 0. 0. 0. 0. 0.
    0. 0. 0. 0. 0. 2.37400007e+00 2.14100003e+00 2.10100007e+00
    2.06900001e+00 2.02200007e+00 2.00500011e+00 2.00900006e+00
    2.02399993e+00 2.02399993e+00 2.00900006e+00 1.98599994e+00
    1.96300006e+00 1.96300006e+00 1.96300006e+00 1.96300006e+00
    1.96300006e+00 1.96300006e+00 1.96300006e+00 1.96300006e+00
    1.96300006e+00 1.96300006e+00 1.96300006e+00 1.96300006e+00
    1.96300006e+00 1.96300006e+00 2.61599994e+00 0. 0. 0. 0. 0. 0. 0. 0.
    0. 0. 0. 0. 0. 0. 2.85899997e+00 2.70400000e+00 2.45700002e+00
    2.06699991e+00 2.00999999e+00 2. 2.01399994e+00 2.03800011e+00
    2.03800011e+00 2.01399994e+00 1.99100006e+00 1.97700000e+00
    1.97700000e+00 1.97700000e+00 1.97700000e+00 1.97500002e+00
    1.96500003e+00 1.96300006e+00 1.96300006e+00 2.04099989e+00
    2.51099992e+00 2.60899997e+00 2.61999989e+00 2.61999989e+00
    2.61999989e+00 0. 0. 0. 0. 0. 0. 0. 0. 0. 0. 0. 0. 0. 0. 0. 0. 0. 0.
    2.06699991e+00 2.00999999e+00 2. 2.01399994e+00 2.03800011e+00
    2.03800011e+00 2.01399994e+00 2. 2. 2. 2. 2. 1.99500000e+00
    1.96800005e+00 1.96300006e+00 1.96300006e+00 2.17199993e+00 0. 0. 0.
    0. 0. 0. 0. 0. 0. 0. 0. 0.</data></Depth>
</opencv_storage>
