<?xml version="1.0"?>
<opencv_storage>
<Depth type_id="opencv-matrix">
  <rows>40</rows>
  <cols>40</cols>
  <dt>f</dt>
  <data>
    0. 0. 0. 0. 0. 0. 0. 0. 0. 0. 0. 0. 0. 0. 0. 0. 0. 0. 0. 0. 0. 0. 0.
    0. 0. 0. 0. 0. 0. 0. 0. 0. 0. 0. 0. 0. 0. 0. 0. 0. 0. 0. 0. 0. 0. 0.
    0. 0. 0. 0. 0. 0. 0. 0. 0. 0. 0. 0. 0. 0. 0. 0. 0. 0. 0. 0. 0. 0. 0.
    0. 0. 0. 0. 0. 0. 0. 0. 0. 0. 0. 0. 0. 0. 0. 0. 0. 0. 0. 0. 0. 0. 0.
    0. 0. 0. 0. 0. 0. 0. 0. 0. 0. 0. 0. 0. 0. 0. 0. 0. 0. 0. 0. 0. 0. 0.
    0. 0. 0. 0. 0. 0. 0. 0. 0. 0. 0. 0. 0. 0. 0. 0. 0. 0. 0. 0. 0. 0. 0.
    0. 0. 0. 0. 0. 0. 0. 0. 0. 0. 0. 0. 0. 0. 0. 0. 0. 0. 0. 0. 0. 0. 0.
    0. 0. 0. 0. 0. 0. 0. 0. 0. 0. 0. 0. 0. 0. 0. 0. 0. 0. 0. 0. 0. 0. 0.
    0. 0. 0. 0. 0. 0. 0. 0. 0. 0. 0. 0. 0. 0. 0. 0. 0. 0. 0. 0. 0. 0.
    2.01799989e+00 2.01799989e+00 2.01600003e+00 2.01500010e+00
    2.01399994e+00 2.10200000e+00 0. 0. 0. 0. 0. 0. 0. 0. 0. 0. 0. 0. 0.
    0. 0. 0. 0. 0. 0. 0. 0. 2.63599992e+00 1.22899997e+00 1.22899997e+00
    1.22899997e+00 1.22899997e+00 0. 0. 0. 0. 0. 2.81999993e+00 0.
    2.01200008e+00 2.01399994e+00 2.01300001e+00 2.01099992e+00
    2.01200008e+00 2.01099992e+00 2.00999999e+00 2.00900006e+00
    2.00600004e+00 2.00799990e+00 2.01200008e+00 2.53900003e+00 0. 0. 0.
    0. 0. 0. 0. 0. 0. 0. 0. 0. 0. 0. 0. 0. 0. 1.22899997e+00
    1.22899997e+00 1.22899997e+00 1.22899997e+00 0. 0. 0. 0. 0.
    1.22899997e+00 2.00999999e+00 2.01200008e+00 2.01300001e+00
    2.00900006e+00 2.00900006e+00 2.01200008e+00 2.00900006e+00
    2.00900006e+00 2.00600004e+00 2.00500011e+00 2.00500011e+00
    2.00300002e+00 2.00300002e+00 2. 2. 2. 1.99800003e+00 1.99300003e+00
    1.99500000e+00 0. 0. 0. 0. 0. 0. 0. 0. 0. 0. 0. 1.22899997e+00
    1.22899997e+00 1.22899997e+00 1.22899997e+00 0. 0. 0. 0. 0.
    1.22899997e+00 1.92999995e+00 2.01099992e+00 2.01200008e+00
    2.00999999e+00 2.00999999e+00 2.01200008e+00 2.00999999e+00
    2.00900006e+00 2.00699997e+00 2.00500011e+00 2.00300002e+00
    2.00099993e+00 2. 1.99800003e+00 1.99800003e+00 1.99699998e+00
    1.99399996e+00 1.99300003e+00 1.99300003e+00 1.99300003e+00
    1.99100006e+00 1.98800004e+00 0. 0. 0. 0. 0. 0. 0. 0. 0.
    1.22899997e+00 1.22899997e+00 1.22899997e+00 0. 0. 0. 0. 0.
    1.22899997e+00 2.01300001e+00 2.01600003e+00 2.01399994e+00
    2.01200008e+00 2.01099992e+00 2.00999999e+00 2.00999999e+00
    2.00900006e+00 2.00699997e+00 2.00500011e+00 2.00300002e+00
    2.00200009e+00 2. 1.99800003e+00 1.99699998e+00 1.99500000e+00
    1.99300003e+00 1.99000001e+00 1.98899996e+00 1.98800004e+00
    1.98800004e+00 1.98399997e+00 1.98399997e+00 1.98300004e+00
    1.98099995e+00 1.98300004e+00 1.98099995e+00 1.98000002e+00
    1.98699999e+00 0. 0. 1.34300005e+00 1.22899997e+00 1.22899997e+00 0.
    0. 0. 0. 0. 1.22899997e+00 2.01399994e+00 2.01600003e+00
    2.01300001e+00 2.01200008e+00 2.01200008e+00 2.01399994e+00
    2.01200008e+00 2.00999999e+00 2.00799990e+00 2.00500011e+00
    2.00399995e+00 2.00200009e+00 2. 2. 1.99800003e+00 1.99600005e+00
    1.99300003e+00 1.99199998e+00 1.99100006e+00 1.98800004e+00
    1.98800004e+00 1.98399997e+00 1.98099995e+00 1.98199999e+00
    1.98099995e+00 1.97899997e+00 1.97899997e+00 1.97700000e+00
    1.97700000e+00 1.97500002e+00 1.97700000e+00 1.97800004e+00
    1.70299995e+00 1.48000002e+00 0. 0. 0. 0. 2.65100002e+00
    1.22899997e+00 2.01600003e+00 2.01799989e+00 2.01500010e+00
    2.01399994e+00 2.01200008e+00 2.01399994e+00 2.01200008e+00
    2.00999999e+00 2.00699997e+00 2.00699997e+00 2.00500011e+00
    2.00300002e+00 2.00099993e+00 2. 1.99699998e+00 1.99500000e+00
    1.99300003e+00 1.99100006e+00 1.99100006e+00 1.99000001e+00
    1.98800004e+00 1.98599994e+00 1.98399997e+00 1.98300004e+00
    1.98099995e+00 1.97800004e+00 1.97599995e+00 1.97500002e+00
    1.97500002e+00 1.97399998e+00 1.97300005e+00 1.97500002e+00
    1.97500002e+00 1.97099996e+00 0. 0. 0. 0. 1.79799998e+00
    1.22899997e+00 2.01799989e+00 2.01900005e+00 2.01799989e+00
    2.01600003e+00 2.01399994e+00 2.01399994e+00 2.01200008e+00
    2.01099992e+00 2.00900006e+00 2.00600004e+00 2.00500011e+00
    2.00200009e+00 2. 2. 1.99800003e+00 1.99600005e+00 1.99399996e+00
    1.99100006e+00 1.99199998e+00 1.99000001e+00 1.98800004e+00
    1.98599994e+00 1.98399997e+00 1.98199999e+00 1.98099995e+00
    1.97899997e+00 1.97899997e+00 1.97700000e+00 1.97500002e+00
    1.97500002e+00 1.97300005e+00 1.97200000e+00 1.97099996e+00
    1.97000003e+00 0. 0. 0. 0. 1.22899997e+00 1.24000001e+00
    2.01799989e+00 2.01900005e+00 2.01699996e+00 2.01399994e+00
    2.01200008e+00 2.01600003e+00 2.01399994e+00 2.01200008e+00
    2.00900006e+00 2.00699997e+00 2.00500011e+00 2.00300002e+00 2. 2. 2.
    1.99800003e+00 1.99600005e+00 1.99300003e+00 1.99300003e+00
    1.99000001e+00 1.98800004e+00 1.98599994e+00 1.98399997e+00
    1.98300004e+00 1.98099995e+00 1.97899997e+00 1.97800004e+00
    1.97700000e+00 1.97500002e+00 1.97500002e+00 1.97300005e+00
    1.97399998e+00 1.97300005e+00 1.97000003e+00 0. 0. 0. 0.
    1.22899997e+00 1.38399994e+00 2.01799989e+00 2.01900005e+00
    2.01799989e+00 2.01600003e+00 2.01300001e+00 2.01399994e+00
    2.01200008e+00 2.01200008e+00 2.00999999e+00 2.00799990e+00
    2.00600004e+00 2.00500011e+00 2.00200009e+00 2.00099993e+00 2.
    1.99800003e+00 1.99600005e+00 1.99399996e+00 1.99300003e+00
    1.99100006e+00 1.99000001e+00 1.98699999e+00 1.98599994e+00
    1.98300004e+00 1.98099995e+00 1.98000002e+00 1.97800004e+00
    1.97599995e+00 1.97500002e+00 1.97300005e+00 1.97300005e+00
    1.97200000e+00 1.97099996e+00 1.97000003e+00 0. 0. 0. 0.
    1.22899997e+00 2.02399993e+00 2.02099991e+00 2.01900005e+00
    2.01900005e+00 2.01900005e+00 2.01799989e+00 2.01900005e+00
    2.01600003e+00 2.01399994e+00 2.01099992e+00 2.00699997e+00
    2.00500011e+00 2.00200009e+00 2. 2. 1.99899995e+00 1.99800003e+00
    1.99500000e+00 1.99300003e+00 1.99300003e+00 1.99100006e+00
    1.98800004e+00 1.98699999e+00 1.98399997e+00 1.98300004e+00
    1.98099995e+00 1.97899997e+00 1.97899997e+00 1.97700000e+00
    1.97500002e+00 1.97500002e+00 1.97500002e+00 1.97399998e+00
    1.97099996e+00 1.97099996e+00 0. 0. 0. 0. 1.22899997e+00
    2.02200007e+00 2.02200007e+00 2.02099991e+00 2.01900005e+00
    2.01900005e+00 2.01799989e+00 2.01900005e+00 2.01799989e+00
    2.01600003e+00 2.01300001e+00 2.01099992e+00 2.00799990e+00
    2.00699997e+00 2.00300002e+00 2.00200009e+00 2. 1.99500000e+00
    1.99300003e+00 1.99300003e+00 1.99300003e+00 1.99300003e+00
    1.99000001e+00 1.98699999e+00 1.98599994e+00 1.98399997e+00
    1.98300004e+00 1.98000002e+00 1.97899997e+00 1.97800004e+00
    1.97500002e+00 1.97500002e+00 1.97300005e+00 1.97500002e+00
    1.97099996e+00 1.97000003e+00 0. 0. 0. 0. 1.22899997e+00
    2.01900005e+00 2.02399993e+00 2.02200007e+00 2.01900005e+00
    2.01900005e+00 2.01799989e+00 2.01900005e+00 2.01600003e+00
    2.01399994e+00 2.01200008e+00 2.00999999e+00 2.00699997e+00
    2.00699997e+00 2.00600004e+00 2.00500011e+00 2.00200009e+00 2.
    1.99699998e+00 1.99300003e+00 1.99300003e+00 1.99100006e+00
    1.98800004e+00 1.98800004e+00 1.98599994e+00 1.98599994e+00
    1.98300004e+00 1.98099995e+00 1.97899997e+00 1.97800004e+00
    1.97599995e+00 1.97599995e+00 1.97500002e+00 1.97500002e+00
    1.97300005e+00 1.97099996e+00 0. 0. 0. 0. 1.22899997e+00
    2.02300000e+00 2.02600002e+00 2.02300000e+00 2.01900005e+00
    2.01900005e+00 2.01900005e+00 2.01900005e+00 2.01600003e+00
    2.01600003e+00 2.01300001e+00 2.01099992e+00 2.00699997e+00
    2.00600004e+00 2.00500011e+00 2.00300002e+00 2.00200009e+00 2. 2.
    1.99699998e+00 1.99500000e+00 1.99500000e+00 1.99300003e+00
    1.98899996e+00 1.98699999e+00 1.98500001e+00 1.98099995e+00
    1.97899997e+00 1.97899997e+00 1.97899997e+00 1.97700000e+00
    1.97500002e+00 1.97500002e+00 1.97599995e+00 1.97300005e+00
    1.97300005e+00 0. 0. 0. 1.22899997e+00 1.22899997e+00 2.02500010e+00
    2.02999997e+00 2.02300000e+00 2.01900005e+00 2.01900005e+00
    2.01900005e+00 2.01900005e+00 2.01799989e+00 2.01399994e+00
    2.01099992e+00 2.00999999e+00 2.00999999e+00 2.00699997e+00
    2.00600004e+00 2.00500011e+00 2.00300002e+00 2. 1.99899995e+00
    1.99500000e+00 1.99600005e+00 1.99500000e+00 1.99300003e+00
    1.99300003e+00 1.99000001e+00 1.98800004e+00 1.98599994e+00
    1.98300004e+00 1.98099995e+00 1.97899997e+00 1.97800004e+00
    1.97500002e+00 1.97500002e+00 1.97500002e+00 1.97300005e+00
    1.97300005e+00 0. 0. 0. 1.22899997e+00 1.22899997e+00 2.02500010e+00
    2.02900004e+00 2.02699995e+00 2.02399993e+00 2.02399993e+00
    2.02300000e+00 2.02200007e+00 2.01900005e+00 2.01799989e+00
    2.01399994e+00 2.00900006e+00 2.00900006e+00 2.00699997e+00
    2.00500011e+00 2.00500011e+00 2.00399995e+00 2. 1.99899995e+00
    1.99800003e+00 1.99600005e+00 1.99500000e+00 1.99300003e+00
    1.99100006e+00 1.98899996e+00 1.98800004e+00 1.98800004e+00
    1.98599994e+00 1.98399997e+00 1.98099995e+00 1.98099995e+00
    1.97899997e+00 1.97700000e+00 1.97800004e+00 1.97300005e+00
    1.97099996e+00 0. 0. 0. 1.22899997e+00 1.80200005e+00 2.03099990e+00
    2.02999997e+00 2.02699995e+00 2.02500010e+00 2.02300000e+00
    2.02099991e+00 2.02300000e+00 2.02099991e+00 2.01900005e+00
    2.01799989e+00 2.01399994e+00 2.00999999e+00 2.00699997e+00
    2.00699997e+00 2.00500011e+00 2.00300002e+00 2. 1.99699998e+00
    1.99600005e+00 1.99600005e+00 1.99500000e+00 1.99500000e+00
    1.99300003e+00 1.99000001e+00 1.98800004e+00 1.98800004e+00
    1.98399997e+00 1.98300004e+00 1.98099995e+00 1.98099995e+00
    1.97899997e+00 1.97800004e+00 1.97800004e+00 1.97599995e+00
    1.97300005e+00 0. 0. 0. 1.22899997e+00 2.03699994e+00 2.03699994e+00
    2.02800012e+00 2.02600002e+00 2.02600002e+00 2.02500010e+00
    2.02300000e+00 2.02300000e+00 2.01999998e+00 2.01900005e+00
    2.01799989e+00 2.01500010e+00 2.01399994e+00 2.01200008e+00
    2.00999999e+00 2.00699997e+00 2.00500011e+00 2.00399995e+00 2.
    1.99800003e+00 1.99600005e+00 1.99500000e+00 1.99100006e+00
    1.99300003e+00 1.99100006e+00 1.98899996e+00 1.98699999e+00
    1.98399997e+00 1.98399997e+00 1.98300004e+00 1.97899997e+00
    1.97899997e+00 1.97800004e+00 1.97800004e+00 1.97700000e+00
    1.97300005e+00 0. 0. 0. 1.22899997e+00 1.82200003e+00 2.05299997e+00
    2.02999997e+00 2.02699995e+00 2.02699995e+00 2.02500010e+00
    2.02300000e+00 2.02399993e+00 2.02099991e+00 2.01900005e+00
    2.01799989e+00 2.01600003e+00 2.01399994e+00 2.01200008e+00
    2.00699997e+00 2.00900006e+00 2.00699997e+00 2.00500011e+00
    2.00399995e+00 2.00200009e+00 2. 1.99600005e+00 1.99500000e+00
    1.99300003e+00 1.99100006e+00 1.98800004e+00 1.98399997e+00
    1.98599994e+00 1.98399997e+00 1.98300004e+00 1.98099995e+00
    1.98000002e+00 1.97800004e+00 1.97800004e+00 1.97899997e+00
    1.97399998e+00 0. 0. 0. 2.04999995e+00 2.05100012e+00 2.03900003e+00
    2.03299999e+00 2.03099990e+00 2.02900004e+00 2.02699995e+00
    2.02500010e+00 2.02500010e+00 2.02200007e+00 2.02099991e+00
    2.01900005e+00 2.01600003e+00 2.01300001e+00 2.01200008e+00
    2.00999999e+00 2.00900006e+00 2.00500011e+00 2.00500011e+00
    2.00300002e+00 2.00099993e+00 2.00099993e+00 2. 1.99800003e+00
    1.99500000e+00 1.99399996e+00 1.99199998e+00 1.98899996e+00
    1.98599994e+00 1.98399997e+00 1.98099995e+00 1.98099995e+00
    1.98000002e+00 1.97800004e+00 1.97899997e+00 1.97899997e+00
    1.97300005e+00 0. 0. 0. 2.04600000e+00 2.03399992e+00 2.03600001e+00
    2.03200006e+00 2.02900004e+00 2.03099990e+00 2.02699995e+00
    2.02699995e+00 2.02699995e+00 2.02300000e+00 2.02099991e+00
    2.01900005e+00 2.01600003e+00 2.01399994e+00 2.01399994e+00
    2.01200008e+00 2.00900006e+00 2.00699997e+00 2.00500011e+00
    2.00300002e+00 2.00200009e+00 2. 1.99800003e+00 1.99600005e+00
    1.99500000e+00 1.99500000e+00 1.99300003e+00 1.99100006e+00
    1.99000001e+00 1.98699999e+00 1.98599994e+00 1.98199999e+00
    1.98099995e+00 1.97800004e+00 1.97800004e+00 1.97500002e+00
    1.97500002e+00 0. 0. 0. 2.27999997e+00 2.03399992e+00 2.03399992e+00
    2.03299999e+00 2.02900004e+00 2.02900004e+00 2.02699995e+00
    2.02500010e+00 2.02500010e+00 2.02099991e+00 2.02099991e+00
    2.01999998e+00 2.01799989e+00 2.01500010e+00 2.01200008e+00
    2.01200008e+00 2.00999999e+00 2.00699997e+00 2.00500011e+00
    2.00300002e+00 2.00099993e+00 2.00200009e+00 2. 1.99800003e+00
    1.99500000e+00 1.99500000e+00 1.99199998e+00 1.99100006e+00
    1.99000001e+00 1.98800004e+00 1.98699999e+00 1.98399997e+00
    1.98300004e+00 1.98099995e+00 1.98099995e+00 1.97599995e+00
    1.97300005e+00 0. 0. 0. 2.84800005e+00 2.03200006e+00 2.03200006e+00
    2.03200006e+00 2.02900004e+00 2.02900004e+00 2.02699995e+00
    2.02699995e+00 2.02500010e+00 2.02200007e+00 2.02099991e+00
    2.01900005e+00 2.01600003e+00 2.01399994e+00 2.01399994e+00
    2.01099992e+00 2.00999999e+00 2.00799990e+00 2.00500011e+00
    2.00500011e+00 2. 2.00200009e+00 2.00200009e+00 2. 1.99500000e+00
    1.99500000e+00 1.99300003e+00 1.99000001e+00 1.98800004e+00
    1.99000001e+00 1.98599994e+00 1.98599994e+00 1.98300004e+00
    1.98099995e+00 1.98099995e+00 1.97599995e+00 1.97399998e+00 0. 0. 0.
    0. 0. 2.28099990e+00 0. 2.23699999e+00 2.02699995e+00 2.02500010e+00
    2.02200007e+00 2.02300000e+00 2.02099991e+00 2.02099991e+00
    2.01900005e+00 2.01600003e+00 2.01399994e+00 2.01200008e+00
    2.01099992e+00 2.00900006e+00 2.00699997e+00 2.00699997e+00
    2.00399995e+00 2.00200009e+00 2.00200009e+00 2.00200009e+00 2.
    1.99800003e+00 1.99500000e+00 1.99300003e+00 1.99300003e+00
    1.99000001e+00 1.99000001e+00 1.98699999e+00 1.98599994e+00
    1.98300004e+00 1.98099995e+00 1.98099995e+00 1.97800004e+00
    1.97399998e+00 0. 0. 0. 0. 0. 2.99799991e+00 0. 2.99799991e+00
    2.99799991e+00 2.96799994e+00 2.02099991e+00 2.02099991e+00
    2.02099991e+00 2.01900005e+00 2.01799989e+00 2.01500010e+00
    2.01399994e+00 2.01200008e+00 2.01200008e+00 2.00900006e+00
    2.00699997e+00 2.00600004e+00 2.00399995e+00 2.00200009e+00
    2.00200009e+00 2.00200009e+00 2.00099993e+00 2. 1.99699998e+00
    1.99500000e+00 1.99300003e+00 1.99100006e+00 1.98899996e+00
    1.98800004e+00 1.98599994e+00 1.98399997e+00 1.98099995e+00
    1.98000002e+00 1.97800004e+00 1.97399998e+00 0. 0. 0. 0.
    2.99099994e+00 2.98600006e+00 2.97799993e+00 2.98200011e+00
    2.97700000e+00 2.97399998e+00 2.96600008e+00 2.98200011e+00
    2.97700000e+00 2.98399997e+00 2.59200001e+00 2.01500010e+00
    2.21099997e+00 2.00799990e+00 2.01099992e+00 2.00900006e+00
    2.00699997e+00 2.00600004e+00 2.00500011e+00 2.00099993e+00 2. 2. 2.
    1.99800003e+00 1.99500000e+00 1.99500000e+00 1.99399996e+00
    1.99100006e+00 1.99000001e+00 1.98800004e+00 1.98599994e+00
    1.98300004e+00 1.98099995e+00 1.98099995e+00 1.97800004e+00
    1.97200000e+00 0. 0. 0. 2.97900009e+00 2.96799994e+00 2.97000003e+00
    2.96099997e+00 2.95900011e+00 2.95000005e+00 2.93700004e+00
    2.94000006e+00 2.94499993e+00 2.95400000e+00 2.96300006e+00
    2.96300006e+00 2.96199989e+00 2.96900010e+00 2.97900009e+00
    2.84999990e+00 2.67499995e+00 2.00500011e+00 2.00500011e+00
    2.00300002e+00 2.00099993e+00 2.00200009e+00 2. 1.99800003e+00
    1.99800003e+00 1.99500000e+00 1.99500000e+00 1.99300003e+00
    1.99100006e+00 1.98899996e+00 1.98800004e+00 1.98599994e+00
    1.98399997e+00 1.98399997e+00 1.98300004e+00 1.97800004e+00
    1.97300005e+00 0. 0. 0. 2.96700001e+00 2.96000004e+00 2.94199991e+00
    2.93400002e+00 2.93400002e+00 2.93400002e+00 2.92499995e+00
    2.92899990e+00 2.93400002e+00 2.93400002e+00 2.94099998e+00
    2.93400002e+00 2.93400002e+00 2.94099998e+00 2.94199991e+00
    2.95300007e+00 2.96600008e+00 2.97700000e+00 2.98499990e+00
    2.98900008e+00 2.31800008e+00 2.00200009e+00 2. 2. 2. 1.99600005e+00
    1.99500000e+00 1.99500000e+00 1.99300003e+00 1.98800004e+00
    1.98800004e+00 1.98399997e+00 1.98300004e+00 1.97899997e+00
    1.98099995e+00 1.97800004e+00 1.97399998e+00 0. 0. 0. 2.94499993e+00
    2.94300008e+00 2.93400002e+00 2.92799997e+00 2.92499995e+00
    2.92000008e+00 2.91700006e+00 2.92000008e+00 2.92499995e+00
    2.92000008e+00 2.92000008e+00 2.91199994e+00 2.92000008e+00
    2.92600012e+00 2.92799997e+00 2.92799997e+00 2.94099998e+00
    2.96799994e+00 2.97600007e+00 2.97700000e+00 2.98000002e+00
    2.99499989e+00 0. 0. 2.64899993e+00 2.51399994e+00 1.99500000e+00
    1.99300003e+00 1.99000001e+00 1.99100006e+00 1.98800004e+00
    1.98500001e+00 1.98199999e+00 1.98000002e+00 1.97700000e+00
    1.97500002e+00 1.97300005e+00 0. 0. 0. 0. 0. 0. 0. 0. 0. 0. 0. 0. 0.
    0. 0. 0. 0. 0. 0. 0. 0. 0. 0. 0. 0. 0. 0. 0. 0. 0. 0. 0. 0. 0. 0. 0.
    0. 0. 0. 0. 0. 0. 0. 0. 0. 0. 0. 0. 0. 0. 0. 0. 0. 0. 0. 0. 0. 0. 0.
    0. 0. 0. 0. 0. 0. 0. 0. 0. 0. 0. 0. 0. 0. 0. 0. 0. 0. 0. 0. 0. 0. 0.
    0. 0. 0. 0. 0. 0. 0. 0. 0. 0. 0. 0. 0. 0. 0. 0. 0. 0. 0. 0. 0. 0. 0.
    0. 0. 0. 0. 0. 0. 0. 0. 0. 0. 0. 0. 0. 0. 0. 0. 0. 0. 0. 0. 0. 0. 0.
    0. 0. 0. 0. 0. 0. 0. 0. 0. 0. 0. 0. 0. 0. 0. 0. 0. 0. 0. 0. 0. 0. 0.
    0. 0. 0. 0. 0. 0. 0. 0. 0. 0. 0. 0. 0. 0. 0. 0. 0. 0. 0. 0. 0. 0. 0.
    0. 0. 0. 0. 0. 0. 0. 0. 0. 0. 0. 0. 0. 0. 0. 0. 0. 0. 0. 0. 0. 0. 0.
    0. 0. 0. 0. 0. 0. 0. 0. 0. 0. 0. 0. 0. 0. 0. 0. 0. 0. 0. 0. 0. 0. 0.
    0. 0. 0. 0. 0. 0. 0. 0. 0. 0. 0. 0. 0. 0. 0. 0. 0. 0. 0. 0. 0. 0.</data></Depth>
</opencv_storage>
