<?xml version="1.0"?>
<opencv_storage>
<Depth type_id="opencv-matrix">
  <rows>40</rows>
  <cols>40</cols>
  <dt>f</dt>
  <data>
    0. 0. 0. 0. 0. 0. 0. 0. 0. 0. 0. 0. 0. 0. 0. 0. 0. 0. 0. 0. 0. 0. 0.
    0. 0. 0. 0. 0. 0. 0. 0. 0. 0. 0. 0. 0. 0. 0. 0. 0. 0. 0.
    2.43600011e+00 2.40899992e+00 2.36500001e+00 2.35800004e+00
    2.35800004e+00 2.35800004e+00 2.33500004e+00 2.25200009e+00
    2.20900011e+00 2.20900011e+00 2.20900011e+00 2.20900011e+00
    2.20900011e+00 1.78900003e+00 0. 0. 0. 0. 0. 0. 0. 0. 0. 0. 0. 0. 0.
    0. 0. 0. 0. 0. 0. 0. 0. 0. 0. 0. 0. 0. 2.40899992e+00 2.39199996e+00
    2.36299992e+00 2.35800004e+00 2.35800004e+00 2.35800004e+00
    2.33899999e+00 2.26999998e+00 2.22700000e+00 2.21300006e+00
    2.20900011e+00 2.20900011e+00 2.20900011e+00 1.92900002e+00 0. 0. 0.
    0. 0. 0. 0. 0. 0. 0. 0. 0. 0. 0. 0. 0. 0. 0. 0. 0. 0. 0. 0. 0. 0. 0.
    2.36500001e+00 2.36299992e+00 2.35899997e+00 2.35800004e+00
    2.35800004e+00 2.35800004e+00 2.34500003e+00 2.29900002e+00
    2.25699997e+00 2.22000003e+00 2.20900011e+00 2.20900011e+00
    2.20900011e+00 2.15799999e+00 1.81900001e+00 1.60599995e+00
    1.60599995e+00 0. 0. 0. 0. 0. 0. 0. 0. 0. 0. 0. 0. 0. 0. 0. 0. 0. 0.
    0. 0. 0. 0. 0. 2.35800004e+00 2.35800004e+00 2.35800004e+00
    2.35800004e+00 2.35700011e+00 2.33699989e+00 2.31599998e+00
    2.29399991e+00 2.26200008e+00 2.22099996e+00 2.19600010e+00
    2.17700005e+00 2.17499995e+00 2.16599989e+00 2.10599995e+00
    2.06800008e+00 2.06800008e+00 1.49000001e+00 0. 0. 0. 0. 0. 0. 0. 0.
    0. 0. 0. 0. 0. 0. 0. 0. 0. 0. 0. 0. 0. 0. 2.35800004e+00
    2.35800004e+00 2.35800004e+00 2.35800004e+00 2.35599995e+00
    2.31299996e+00 2.28200006e+00 2.28200006e+00 2.26200008e+00
    2.22099996e+00 2.18000007e+00 2.14000010e+00 2.13700008e+00
    2.13100004e+00 2.09200001e+00 2.06800008e+00 2.06800008e+00
    2.06800008e+00 2.06800008e+00 2.06800008e+00 2.01399994e+00 0. 0. 0.
    0. 0. 0. 0. 0. 0. 0. 0. 0. 0. 0. 0. 0. 0. 0. 0. 2.35800004e+00
    2.35800004e+00 2.35800004e+00 2.35800004e+00 2.35599995e+00
    2.31299996e+00 2.28200006e+00 2.28200006e+00 2.26200008e+00
    2.22099996e+00 2.18000007e+00 2.14000010e+00 2.13700008e+00
    2.13100004e+00 2.09200001e+00 2.06800008e+00 2.06800008e+00
    2.06800008e+00 2.06800008e+00 2.06800008e+00 2.04500008e+00
    1.28699994e+00 0. 0. 0. 0. 0. 0. 0. 0. 0. 0. 0. 0. 0. 0. 0. 0. 0. 0.
    2.35800004e+00 2.35800004e+00 2.35800004e+00 2.35299993e+00
    2.34500003e+00 2.30800009e+00 2.28200006e+00 2.28200006e+00
    2.26200008e+00 2.22099996e+00 2.18000007e+00 2.14000010e+00
    2.13700008e+00 2.13100004e+00 2.09200001e+00 2.06800008e+00
    2.06800008e+00 2.06800008e+00 2.06800008e+00 2.06299996e+00
    2.05800009e+00 2.05800009e+00 1.66499996e+00 0. 0. 0. 0. 0. 0. 0. 0.
    0. 0. 0. 0. 0. 0. 0. 0. 0. 2.35800004e+00 2.35800004e+00
    2.35800004e+00 2.33299994e+00 2.30299997e+00 2.29099989e+00
    2.28200006e+00 2.28200006e+00 2.26200008e+00 2.22099996e+00
    2.18000007e+00 2.14000010e+00 2.13700008e+00 2.13100004e+00
    2.09200001e+00 2.06800008e+00 2.06800008e+00 2.06800008e+00
    2.06800008e+00 2.04600000e+00 2.01900005e+00 2.01900005e+00
    1.88699996e+00 1.35599995e+00 1.06099999e+00 1.03400004e+00 0. 0. 0.
    0. 0. 0. 0. 0. 0. 0. 0. 0. 0. 0. 2.35800004e+00 2.35800004e+00
    2.35800004e+00 2.32299995e+00 2.28200006e+00 2.28200006e+00
    2.28200006e+00 2.28200006e+00 2.26200008e+00 2.22099996e+00
    2.18000007e+00 2.14000010e+00 2.13700008e+00 2.13299990e+00
    2.10500002e+00 2.08299994e+00 2.07200003e+00 2.06800008e+00
    2.06800008e+00 2.03699994e+00 2. 2. 1.99699998e+00 1.98699999e+00
    1.96899998e+00 1.94200003e+00 1.03299999e+00 0. 0. 0. 0. 0.
    1.32400000e+00 1.87100005e+00 1.87100005e+00 1.87100005e+00 0. 0. 0.
    0. 2.35800004e+00 2.35800004e+00 2.35800004e+00 2.32299995e+00
    2.28200006e+00 2.28200006e+00 2.28200006e+00 2.28200006e+00
    2.26200008e+00 2.22099996e+00 2.18000007e+00 2.14000010e+00
    2.13700008e+00 2.13599992e+00 2.13000011e+00 2.11400008e+00
    2.08100009e+00 2.06800008e+00 2.06800008e+00 2.03699994e+00 2. 2.
    1.99199998e+00 1.96099997e+00 1.94200003e+00 1.93599999e+00
    1.71200001e+00 1.39100003e+00 1.36199999e+00 1.36199999e+00
    1.36199999e+00 1.46200001e+00 1.74800003e+00 1.87100005e+00
    1.87100005e+00 1.87100005e+00 0. 0. 0. 0. 2.35800004e+00
    2.34800005e+00 2.33100009e+00 2.30599999e+00 2.28200006e+00
    2.28200006e+00 2.28200006e+00 2.28200006e+00 2.26200008e+00
    2.22099996e+00 2.18000007e+00 2.14000010e+00 2.13700008e+00
    2.13499999e+00 2.11899996e+00 2.10100007e+00 2.07800007e+00
    2.06800008e+00 2.06800008e+00 2.03699994e+00 2. 1.98500001e+00
    1.96800005e+00 1.94599998e+00 1.93400002e+00 1.93400002e+00
    1.90999997e+00 1.87399995e+00 1.87100005e+00 1.87100005e+00
    1.87100005e+00 1.87100005e+00 1.87100005e+00 1.87100005e+00
    1.87100005e+00 1.87100005e+00 0. 0. 0. 0. 2.35800004e+00
    2.33299994e+00 2.29200006e+00 2.28399992e+00 2.28200006e+00
    2.28200006e+00 2.28200006e+00 2.28200006e+00 2.26200008e+00
    2.22099996e+00 2.18000007e+00 2.14000010e+00 2.13700008e+00
    2.13100004e+00 2.09400010e+00 2.06999993e+00 2.06900001e+00
    2.06800008e+00 2.06800008e+00 2.03699994e+00 1.99899995e+00
    1.96300006e+00 1.93599999e+00 1.93499994e+00 1.93400002e+00
    1.93400002e+00 1.90999997e+00 1.87399995e+00 1.87100005e+00
    1.87100005e+00 1.87100005e+00 1.87100005e+00 1.87100005e+00
    1.87100005e+00 1.87100005e+00 1.87100005e+00 0. 0. 0. 0.
    2.35800004e+00 2.33200002e+00 2.28900003e+00 2.28200006e+00
    2.28200006e+00 2.28200006e+00 2.28200006e+00 2.28200006e+00
    2.26200008e+00 2.22099996e+00 2.18000007e+00 2.14000010e+00
    2.13700008e+00 2.13100004e+00 2.09200001e+00 2.06800008e+00
    2.06800008e+00 2.05599999e+00 2.03600001e+00 2.01799989e+00
    1.99899995e+00 1.96200001e+00 1.93400002e+00 1.93400002e+00
    1.93400002e+00 1.93400002e+00 1.92200005e+00 1.90499997e+00
    1.90400004e+00 1.90199995e+00 1.88300002e+00 1.87100005e+00
    1.87100005e+00 1.87100005e+00 1.87100005e+00 1.87100005e+00 0. 0. 0.
    0. 2.35800004e+00 2.33200002e+00 2.28900003e+00 2.28200006e+00
    2.28200006e+00 2.28200006e+00 2.28200006e+00 2.28200006e+00
    2.26200008e+00 2.22099996e+00 2.18000007e+00 2.14000010e+00
    2.13700008e+00 2.13100004e+00 2.09200001e+00 2.06800008e+00
    2.06800008e+00 2.04500008e+00 2.00699997e+00 2. 1.99899995e+00
    1.96200001e+00 1.93400002e+00 1.93400002e+00 1.93400002e+00
    1.93400002e+00 1.93400002e+00 1.93400002e+00 1.93400002e+00
    1.92900002e+00 1.89400005e+00 1.87100005e+00 1.87100005e+00
    1.87100005e+00 1.87100005e+00 1.87100005e+00 0. 0. 0. 0.
    2.35800004e+00 2.33200002e+00 2.28900003e+00 2.28200006e+00
    2.28200006e+00 2.28200006e+00 2.28200006e+00 2.28200006e+00
    2.26200008e+00 2.22099996e+00 2.18000007e+00 2.14000010e+00
    2.13700008e+00 2.13100004e+00 2.09200001e+00 2.06800008e+00
    2.06800008e+00 2.04500008e+00 2.00699997e+00 2. 1.99899995e+00
    1.96200001e+00 1.93400002e+00 1.93400002e+00 1.93400002e+00
    1.93400002e+00 1.93400002e+00 1.93400002e+00 1.93400002e+00
    1.92900002e+00 1.89400005e+00 1.87100005e+00 1.87100005e+00
    1.87100005e+00 1.87100005e+00 1.87100005e+00 0. 0. 0. 0.
    2.35800004e+00 2.33699989e+00 2.30399990e+00 2.28999996e+00
    2.28200006e+00 2.27300000e+00 2.26699996e+00 2.26699996e+00
    2.25099993e+00 2.21799994e+00 2.18000007e+00 2.14000010e+00
    2.13000011e+00 2.11800003e+00 2.08699989e+00 2.06500006e+00
    2.05699992e+00 2.03600001e+00 2.00600004e+00 2. 1.99899995e+00
    1.96200001e+00 1.93400002e+00 1.93400002e+00 1.93099999e+00
    1.92299998e+00 1.92100000e+00 1.92100000e+00 1.92100000e+00
    1.91700006e+00 1.88900006e+00 1.87100005e+00 1.87100005e+00
    1.87100005e+00 1.87100005e+00 1.87100005e+00 0. 0. 0. 0.
    2.35800004e+00 2.35200000e+00 2.34200001e+00 2.31299996e+00
    2.27999997e+00 2.24900007e+00 2.22600007e+00 2.22600007e+00
    2.22099996e+00 2.21199989e+00 2.18000007e+00 2.14000010e+00
    2.10899997e+00 2.08299994e+00 2.07399988e+00 2.05699992e+00
    2.02800012e+00 2.00999999e+00 2.00200009e+00 2. 1.99899995e+00
    1.96200001e+00 1.93400002e+00 1.93400002e+00 1.92100000e+00
    1.89400005e+00 1.88600004e+00 1.88600004e+00 1.88600004e+00
    1.88399994e+00 1.87600005e+00 1.87100005e+00 1.87100005e+00
    1.87100005e+00 1.87100005e+00 1.87100005e+00 0. 0. 0. 0.
    2.35800004e+00 2.34899998e+00 2.33500004e+00 2.30900002e+00
    2.27999997e+00 2.23900008e+00 2.20900011e+00 2.20900011e+00
    2.20900011e+00 2.20900011e+00 2.18000007e+00 2.14000010e+00
    2.10100007e+00 2.06800008e+00 2.06800008e+00 2.05399990e+00
    2.01600003e+00 2. 2. 2. 1.99899995e+00 1.96200001e+00 1.93099999e+00
    1.91900003e+00 1.90199995e+00 1.87800002e+00 1.87100005e+00
    1.87100005e+00 1.87100005e+00 1.87100005e+00 1.87100005e+00
    1.86699998e+00 1.85500002e+00 1.85000002e+00 1.85000002e+00
    1.85000002e+00 0. 0. 0. 0. 2.35800004e+00 2.33500004e+00
    2.29699993e+00 2.28600001e+00 2.27999997e+00 2.23900008e+00
    2.20900011e+00 2.20900011e+00 2.20900011e+00 2.20900011e+00
    2.18000007e+00 2.14000010e+00 2.10100007e+00 2.06800008e+00
    2.06800008e+00 2.05399990e+00 2.01600003e+00 2. 2. 2. 1.99899995e+00
    1.96200001e+00 1.92600000e+00 1.89400005e+00 1.87600005e+00
    1.87199998e+00 1.87100005e+00 1.87100005e+00 1.87100005e+00
    1.87100005e+00 1.87100005e+00 1.86000001e+00 1.82799995e+00
    1.81500006e+00 1.81500006e+00 1.81500006e+00 0. 0. 0. 0.
    2.32299995e+00 2.30900002e+00 2.28600001e+00 2.26699996e+00
    2.24799991e+00 2.22499990e+00 2.20900011e+00 2.20900011e+00
    2.20000005e+00 2.18199992e+00 2.16100001e+00 2.13899994e+00
    2.10100007e+00 2.06800008e+00 2.06800008e+00 2.05399990e+00
    2.01600003e+00 2. 2. 2. 1.99899995e+00 1.96200001e+00 1.92499995e+00
    1.88999999e+00 1.87100005e+00 1.87100005e+00 1.87100005e+00
    1.87100005e+00 1.87100005e+00 1.87100005e+00 1.87100005e+00
    1.85899997e+00 1.82299995e+00 1.80799997e+00 1.80799997e+00
    1.80799997e+00 0. 0. 0. 0. 2.28200006e+00 2.28200006e+00
    2.28200006e+00 2.24799991e+00 2.20900011e+00 2.20900011e+00
    2.20900011e+00 2.20900011e+00 2.18899989e+00 2.14899993e+00
    2.13700008e+00 2.13700008e+00 2.10100007e+00 2.06800008e+00
    2.06800008e+00 2.05399990e+00 2.01600003e+00 2. 2. 2. 1.99899995e+00
    1.96200001e+00 1.92499995e+00 1.88999999e+00 1.87100005e+00
    1.87100005e+00 1.87100005e+00 1.87100005e+00 1.87100005e+00
    1.87100005e+00 1.87100005e+00 1.85899997e+00 1.82299995e+00
    1.80799997e+00 1.80799997e+00 1.80799997e+00 0. 0. 0. 0.
    2.28200006e+00 2.28200006e+00 2.28200006e+00 2.24799991e+00
    2.20900011e+00 2.20900011e+00 2.20900011e+00 2.20900011e+00
    2.18899989e+00 2.14899993e+00 2.13700008e+00 2.13700008e+00
    2.10100007e+00 2.06800008e+00 2.06800008e+00 2.05399990e+00
    2.01600003e+00 2. 2. 2. 1.99899995e+00 1.96200001e+00 1.92499995e+00
    1.88999999e+00 1.87100005e+00 1.87100005e+00 1.87100005e+00
    1.87100005e+00 1.87100005e+00 1.87100005e+00 1.87100005e+00
    1.85899997e+00 1.82299995e+00 1.80799997e+00 1.80799997e+00
    1.80799997e+00 0. 0. 0. 0. 2.27200007e+00 2.27200007e+00
    2.27200007e+00 2.24200010e+00 2.20900011e+00 2.20900011e+00
    2.20900011e+00 2.20900011e+00 2.18899989e+00 2.14899993e+00
    2.13700008e+00 2.13700008e+00 2.09599996e+00 2.05800009e+00
    2.05800009e+00 2.04600000e+00 2.01300001e+00 2. 2. 2. 1.99899995e+00
    1.96200001e+00 1.92499995e+00 1.88999999e+00 1.87100005e+00
    1.87100005e+00 1.87100005e+00 1.87100005e+00 1.87100005e+00
    1.87100005e+00 1.87100005e+00 1.86000001e+00 1.83000004e+00
    1.81700003e+00 1.81700003e+00 1.81700003e+00 0. 0. 0. 0.
    2.23099995e+00 2.23099995e+00 2.23099995e+00 2.22099996e+00
    2.20900011e+00 2.20900011e+00 2.20900011e+00 2.20900011e+00
    2.18899989e+00 2.14899993e+00 2.13700008e+00 2.13700008e+00
    2.07599998e+00 2.01999998e+00 2.01999998e+00 2.01600003e+00
    2.00500011e+00 2. 2. 2. 1.99899995e+00 1.96200001e+00 1.92499995e+00
    1.88999999e+00 1.87100005e+00 1.87100005e+00 1.87100005e+00
    1.87100005e+00 1.87100005e+00 1.87100005e+00 1.87100005e+00
    1.86699998e+00 1.85699999e+00 1.85200000e+00 1.85200000e+00
    1.85200000e+00 0. 0. 0. 0. 2.20900011e+00 2.20900011e+00
    2.20900011e+00 2.20900011e+00 2.20900011e+00 2.20900011e+00
    2.20900011e+00 2.20900011e+00 2.18899989e+00 2.14899993e+00
    2.13700008e+00 2.13700008e+00 2.06500006e+00 2. 2. 2. 2. 2. 2. 2.
    1.99899995e+00 1.96200001e+00 1.92700005e+00 1.90100002e+00
    1.88300002e+00 1.87399995e+00 1.87100005e+00 1.87100005e+00
    1.87100005e+00 1.87100005e+00 1.87100005e+00 1.87100005e+00
    1.87100005e+00 1.47899997e+00 0. 0. 0. 0. 0. 0. 2.20900011e+00
    2.20900011e+00 2.20900011e+00 2.20900011e+00 2.20900011e+00
    2.20900011e+00 2.20900011e+00 2.20900011e+00 2.18899989e+00
    2.14899993e+00 2.13700008e+00 2.13700008e+00 2.06500006e+00 2. 2. 2.
    2. 2. 2. 2. 1.99899995e+00 1.96200001e+00 1.93200004e+00
    1.92600000e+00 1.90900004e+00 1.88000000e+00 1.87100005e+00
    1.87100005e+00 1.87100005e+00 1.87100005e+00 1.87100005e+00
    1.87100005e+00 1.87100005e+00 0. 0. 0. 0. 0. 0. 0. 2.20900011e+00
    2.20900011e+00 2.20900011e+00 2.20900011e+00 2.20900011e+00
    2.20900011e+00 2.20499992e+00 2.18899989e+00 2.16899991e+00
    2.14400005e+00 2.12599993e+00 2.11100006e+00 2.05299997e+00 2. 2. 2.
    2. 2. 2. 2. 1.99899995e+00 1.96200001e+00 1.93400002e+00
    1.93400002e+00 1.91700006e+00 1.88199997e+00 1.87100005e+00
    1.87100005e+00 1.87100005e+00 1.87100005e+00 1.87100005e+00
    1.87100005e+00 1.87100005e+00 0. 0. 0. 0. 0. 0. 0. 2.20900011e+00
    2.20900011e+00 2.20900011e+00 2.20900011e+00 2.20900011e+00
    2.20900011e+00 2.19899988e+00 2.16000009e+00 2.14000010e+00
    2.13800001e+00 2.11100006e+00 2.07399988e+00 2.03399992e+00 2. 2. 2.
    2. 2. 2. 2. 1.99899995e+00 1.96200001e+00 1.93400002e+00
    1.93400002e+00 1.91700006e+00 1.88199997e+00 1.87100005e+00
    1.87100005e+00 1.87100005e+00 1.87100005e+00 1.87100005e+00
    1.87100005e+00 1.87100005e+00 0. 0. 0. 0. 0. 0. 0. 2.20900011e+00
    2.19600010e+00 2.17600012e+00 2.17199993e+00 2.17199993e+00
    2.17199993e+00 2.16700006e+00 2.14700007e+00 2.13700008e+00
    2.13700008e+00 2.10899997e+00 2.07100010e+00 2.03200006e+00 2. 2. 2.
    2. 2. 2. 1.98500001e+00 1.96599996e+00 1.94799995e+00 1.93400002e+00
    1.93400002e+00 1.91700006e+00 1.88199997e+00 1.87100005e+00
    1.87100005e+00 0. 0. 0. 0. 0. 0. 0. 0. 0. 0. 0. 0. 2.20900011e+00
    2.18400002e+00 2.14400005e+00 2.13700008e+00 2.13700008e+00
    2.13700008e+00 2.13599992e+00 2.13299990e+00 2.13199997e+00
    2.13199997e+00 2.10599995e+00 2.07100010e+00 2.03500009e+00
    2.00500011e+00 2.00500011e+00 2.00500011e+00 2.00500011e+00
    2.00300002e+00 2.00099993e+00 1.97000003e+00 1.93400002e+00
    1.93099999e+00 1.92900002e+00 1.92900002e+00 1.91400003e+00
    1.88100004e+00 1.87100005e+00 1.87100005e+00 0. 0. 0. 0. 0. 0. 0. 0.
    0. 0. 0. 0. 2.20900011e+00 2.18400002e+00 2.14400005e+00
    2.13700008e+00 2.13700008e+00 2.13700008e+00 2.13000011e+00
    2.10599995e+00 2.09299994e+00 2.09299994e+00 2.08299994e+00
    2.06900001e+00 2.05500007e+00 2.04299998e+00 2.04299998e+00
    2.04299998e+00 2.04299998e+00 2.02900004e+00 2.00500011e+00
    1.97000003e+00 1.93299997e+00 1.91100001e+00 1.89400005e+00
    1.89400005e+00 1.88800001e+00 1.87500000e+00 1.87100005e+00
    1.87100005e+00 0. 0. 0. 0. 0. 0. 0. 0. 0. 0. 0. 0. 1.61500001e+00
    1.79900002e+00 2.09999990e+00 2.14499998e+00 2.13700008e+00
    2.13700008e+00 2.12700009e+00 2.08800006e+00 2.06800008e+00
    2.06800008e+00 2.06800008e+00 2.06800008e+00 2.06800008e+00
    2.06800008e+00 2.06800008e+00 2.06500006e+00 2.05800009e+00
    2.03699994e+00 2.00600004e+00 1.97000003e+00 1.93299997e+00
    1.89800000e+00 1.87100005e+00 1.87100005e+00 1.87100005e+00
    1.87100005e+00 1.87100005e+00 1.87100005e+00 0. 0. 0. 0. 0. 0. 0. 0.
    0. 0. 0. 0. 0. 0. 1.97399998e+00 2.16599989e+00 2.13700008e+00
    2.13700008e+00 2.12700009e+00 2.08800006e+00 2.06800008e+00
    2.06800008e+00 2.06800008e+00 2.06800008e+00 2.06800008e+00
    2.06800008e+00 2.06800008e+00 2.05699992e+00 2.02800012e+00
    2.01099992e+00 2.00200009e+00 1.97000003e+00 1.93299997e+00
    1.89800000e+00 1.87100005e+00 1.87100005e+00 1.87100005e+00
    1.87100005e+00 1.87100005e+00 1.87100005e+00 1.29700005e+00 0. 0. 0.
    0. 0. 0. 0. 0. 0. 0. 0. 0. 0. 1.04100001e+00 1.21399999e+00
    1.21500003e+00 1.74800003e+00 2.13000011e+00 2.10400009e+00
    2.08400011e+00 2.07200003e+00 2.06800008e+00 2.06800008e+00
    2.06800008e+00 2.06599998e+00 2.05399990e+00 2.03699994e+00
    2.01099992e+00 1.99300003e+00 1.98099995e+00 1.95799994e+00
    1.93299997e+00 1.89800000e+00 1.87100005e+00 1.87100005e+00
    1.87100005e+00 1.87100005e+00 1.29499996e+00 0. 0. 0. 0. 0. 0. 0. 0.
    0. 0. 0. 0. 0. 0. 0. 0. 0. 0. 1.06500006e+00 2.13599992e+00
    2.13100004e+00 2.11199999e+00 2.07800007e+00 2.06800008e+00
    2.06800008e+00 2.06800008e+00 2.06299996e+00 2.02900004e+00
    2.00600004e+00 2.00200009e+00 1.98099995e+00 1.94799995e+00
    1.93799996e+00 1.93299997e+00 1.89800000e+00 1.87100005e+00
    1.87100005e+00 1.87100005e+00 1.87100005e+00 0. 0. 0. 0. 0. 0. 0. 0.
    0. 0. 0. 0. 0. 0. 0. 0. 0. 0. 0. 0. 0. 0. 1.15799999e+00
    1.86300004e+00 2.06800008e+00 2.06800008e+00 2.06800008e+00
    2.06200004e+00 2.02399993e+00 2. 2. 1.97800004e+00 1.94099998e+00
    1.92100000e+00 1.90499997e+00 1.88600004e+00 1.87100005e+00
    1.87100005e+00 1.87100005e+00 1.87100005e+00 0. 0. 0. 0. 0. 0. 0. 0.
    0. 0. 0. 0. 0. 0. 0. 0. 0. 0. 0. 0. 0. 0. 0. 1.59300005e+00
    2.06800008e+00 2.06800008e+00 2.06800008e+00 2.06200004e+00
    2.02399993e+00 2. 2. 1.97800004e+00 1.94099998e+00 1.90499997e+00
    1.87100005e+00 1.87100005e+00 1.87100005e+00 1.87100005e+00
    1.87100005e+00 1.87100005e+00 0. 0. 0. 0. 0. 0. 0. 0. 0. 0. 0. 0. 0.
    0. 0. 0. 0. 0. 0. 0. 0. 0. 0. 0. 0. 0. 0. 0. 0. 0. 0. 0. 0. 0. 0. 0.
    0. 0. 0. 0. 0. 0. 0. 0. 0. 0. 0. 0. 0. 0. 0. 0. 0. 0. 0. 0. 0. 0. 0.
    0. 0. 0. 0. 0. 0. 0. 0. 0. 0. 0. 0. 0. 0. 0. 0. 0. 0. 0. 0. 0. 0. 0.
    0. 0. 0. 0. 0. 0. 0. 0. 0. 0.</data></Depth>
</opencv_storage>
