<?xml version="1.0"?>
<opencv_storage>
<Depth type_id="opencv-matrix">
  <rows>40</rows>
  <cols>40</cols>
  <dt>f</dt>
  <data>
    0. 0. 0. 0. 0. 0. 0. 0. 0. 0. 0. 0. 0. 0. 0. 0. 0. 0. 0.
    2.09100008e+00 2.08200002e+00 2.07699990e+00 0. 0. 0. 0. 0. 0. 0. 0.
    0. 0. 0. 0. 0. 0. 0. 0. 0. 0. 0. 0. 0. 0. 0. 0. 0. 0. 0. 0. 0. 0. 0.
    0. 0. 0. 0. 0. 2.09100008e+00 2.08800006e+00 2.07599998e+00
    2.07500005e+00 2.02399993e+00 2.01900005e+00 2.01799989e+00
    2.00900006e+00 1.82599998e+00 1.14600003e+00 0. 0. 0. 0. 0. 0. 0. 0.
    0. 0. 0. 0. 0. 0. 0. 0. 0. 0. 0. 0. 0. 0. 0. 0. 0. 0. 0.
    2.07999992e+00 2.07900000e+00 2.07399988e+00 2.07100010e+00
    2.06299996e+00 2.05200005e+00 2.01799989e+00 2.01600003e+00
    2.01200008e+00 2.00699997e+00 2.00699997e+00 2.00200009e+00
    1.14600003e+00 0. 0. 0. 0. 0. 0. 0. 0. 0. 0. 0. 0. 0. 0. 0. 0. 0. 0.
    0. 0. 0. 0. 0. 0. 0. 2.06999993e+00 2.06800008e+00 2.05999994e+00
    2.05900002e+00 2.02900004e+00 2.00399995e+00 2.00399995e+00
    2.00500011e+00 2.00399995e+00 2.00999999e+00 2.00799990e+00
    2.00600004e+00 2.00799990e+00 2.00300002e+00 1.14600003e+00
    2.46099997e+00 0. 0. 0. 0. 0. 0. 0. 0. 0. 0. 0. 0. 0. 0. 0. 0. 0. 0.
    0. 0. 2.94000006e+00 2.94899988e+00 2.05699992e+00 2.05100012e+00
    2.04900002e+00 2.04500008e+00 2.00300002e+00 1.99600005e+00
    1.99699998e+00 1.99300003e+00 1.99199998e+00 2.00300002e+00
    2.00500011e+00 2.00999999e+00 2.00999999e+00 2.01099992e+00
    2.01099992e+00 2.00799990e+00 1.37300003e+00 1.14600003e+00 0. 0. 0.
    0. 0. 0. 0. 0. 0. 0. 0. 0. 0. 0. 0. 0. 0. 0. 2.59599996e+00
    2.10299993e+00 2.04900002e+00 2.04399991e+00 2.02600002e+00
    2.00099993e+00 1.99300003e+00 1.98899996e+00 1.98800004e+00
    1.99000001e+00 1.99300003e+00 1.99300003e+00 1.99399996e+00
    2.00399995e+00 2.00600004e+00 2.00799990e+00 2.00799990e+00
    2.00999999e+00 2.00799990e+00 2.01099992e+00 1.50500000e+00
    1.14600003e+00 0. 0. 0. 0. 0. 0. 0. 0. 0. 0. 0. 0. 0. 0. 0. 0.
    2.19199991e+00 2.04999995e+00 2.03099990e+00 2.02699995e+00
    2.02399993e+00 1.98899996e+00 1.98199999e+00 1.98199999e+00
    1.98099995e+00 1.98300004e+00 1.98500001e+00 1.99100006e+00
    1.99300003e+00 1.99399996e+00 2.00200009e+00 2.00200009e+00
    2.00200009e+00 2.00600004e+00 2.00799990e+00 2.00999999e+00
    2.00999999e+00 2.01399994e+00 2.00799990e+00 1.14600003e+00
    1.40100002e+00 0. 0. 0. 0. 0. 0. 0. 0. 0. 0. 0. 0. 2.05599999e+00
    2.04800010e+00 1.98599994e+00 1.97800004e+00 1.96899998e+00
    2.01200008e+00 1.97800004e+00 1.97500002e+00 1.97500002e+00
    1.97500002e+00 1.97500002e+00 1.97700000e+00 1.98500001e+00
    1.98899996e+00 1.99100006e+00 1.99100006e+00 1.99399996e+00
    2.00200009e+00 2. 2.00200009e+00 2.00600004e+00 2.00799990e+00
    2.00999999e+00 2.00999999e+00 2.01099992e+00 2.00900006e+00
    1.14600003e+00 1.14600003e+00 0. 0. 0. 0. 0. 0. 0. 0. 0. 0. 0. 0.
    2.05200005e+00 2.04500008e+00 2.03200006e+00 1.97099996e+00
    1.96700001e+00 1.96700001e+00 1.96899998e+00 1.97099996e+00
    1.97599995e+00 1.98099995e+00 1.98000002e+00 1.98199999e+00
    1.98699999e+00 1.98599994e+00 1.98899996e+00 1.99300003e+00
    1.99100006e+00 2. 2. 2.00200009e+00 2.00500011e+00 2.00799990e+00
    2.00999999e+00 2.00999999e+00 2.00999999e+00 2.01099992e+00
    1.38399994e+00 1.14600003e+00 0. 0. 0. 0. 0. 0. 0. 0. 0. 0. 0. 0.
    2.04399991e+00 2.03500009e+00 1.96899998e+00 1.96399999e+00
    1.96200001e+00 1.96399999e+00 1.97200000e+00 1.97500002e+00
    1.97700000e+00 1.97599995e+00 1.98000002e+00 1.98099995e+00
    1.98699999e+00 1.98699999e+00 1.98899996e+00 1.99300003e+00
    1.99100006e+00 1.99600005e+00 2.00200009e+00 2.00300002e+00
    2.00500011e+00 2.00999999e+00 2.00999999e+00 2.01399994e+00
    2.01300001e+00 2.01500010e+00 2.00900006e+00 1.14600003e+00
    1.15600002e+00 0. 0. 0. 0. 0. 0. 0. 0. 0. 0. 0. 1.20899999e+00
    2.03299999e+00 1.99100006e+00 1.96399999e+00 1.96200001e+00
    1.96800005e+00 1.97200000e+00 1.97300005e+00 1.97300005e+00
    1.97500002e+00 1.97700000e+00 1.98000002e+00 1.98500001e+00
    1.98699999e+00 1.99100006e+00 1.99100006e+00 1.99300003e+00 2.
    2.00399995e+00 2.00500011e+00 2.00799990e+00 2.00900006e+00
    2.00999999e+00 2.01399994e+00 2.01399994e+00 2.01500010e+00
    2.00900006e+00 1.26300001e+00 1.15400004e+00 0. 0. 0. 0. 0. 0. 0. 0.
    0. 0. 0. 2.06999993e+00 2.04999995e+00 1.65900004e+00 1.96800005e+00
    1.96500003e+00 1.96700001e+00 1.96899998e+00 1.97099996e+00
    1.97300005e+00 1.97599995e+00 1.97800004e+00 1.98000002e+00
    1.98300004e+00 1.98699999e+00 1.99100006e+00 1.99300003e+00
    1.99300003e+00 1.99500000e+00 2.00500011e+00 2.00600004e+00
    2.00600004e+00 2.00999999e+00 2.00999999e+00 2.01399994e+00
    2.01399994e+00 2.01300001e+00 2.01500010e+00 1.26400006e+00
    1.14600003e+00 0. 0. 0. 0. 0. 0. 0. 0. 0. 0. 0. 1.14600003e+00
    2.05599999e+00 1.14600003e+00 1.97700000e+00 1.96599996e+00
    1.96899998e+00 1.96899998e+00 1.97200000e+00 1.97300005e+00
    1.97599995e+00 1.97700000e+00 1.98099995e+00 1.97899997e+00
    1.98699999e+00 1.99100006e+00 1.99300003e+00 1.99500000e+00
    1.99500000e+00 2.00099993e+00 2.00600004e+00 2.00799990e+00
    2.00900006e+00 2.01300001e+00 2.01500010e+00 2.01600003e+00
    2.01200008e+00 2.01600003e+00 2.01500010e+00 1.14600003e+00 0. 0. 0.
    0. 0. 0. 0. 0. 0. 0. 0. 1.14600003e+00 1.14600003e+00 1.14600003e+00
    1.23199999e+00 1.96599996e+00 1.96899998e+00 1.96899998e+00
    1.97099996e+00 1.97500002e+00 1.97599995e+00 1.97899997e+00
    1.98300004e+00 1.98500001e+00 1.98699999e+00 1.99100006e+00
    1.99100006e+00 1.99399996e+00 1.99300003e+00 1.99899995e+00
    2.00600004e+00 2.00600004e+00 2.00999999e+00 2.01300001e+00
    2.01699996e+00 2.01799989e+00 2.01600003e+00 2.01699996e+00
    2.01099992e+00 1.14600003e+00 1.89699996e+00 0. 0. 0. 0. 0. 0. 0. 0.
    0. 0. 1.14600003e+00 1.14600003e+00 1.14600003e+00 1.14600003e+00
    1.96700001e+00 1.96899998e+00 1.97099996e+00 1.97300005e+00
    1.97300005e+00 1.97700000e+00 1.98099995e+00 1.98199999e+00
    1.98300004e+00 1.98500001e+00 1.99100006e+00 1.99300003e+00
    1.99800003e+00 2. 2. 2.00799990e+00 2.00799990e+00 2.00999999e+00
    2.01300001e+00 2.01500010e+00 2.01600003e+00 2.01699996e+00
    2.01699996e+00 2.01500010e+00 1.14600003e+00 1.61199999e+00 0. 0. 0.
    2.93899989e+00 2.42499995e+00 0. 0. 0. 0. 0. 1.14600003e+00
    1.14600003e+00 1.14600003e+00 1.14600003e+00 1.97300005e+00
    1.96700001e+00 1.97300005e+00 1.97300005e+00 1.97300005e+00
    1.97700000e+00 1.98000002e+00 1.98199999e+00 1.98500001e+00
    1.98500001e+00 1.99800003e+00 1.99300003e+00 1.99600005e+00 2. 2.
    2.00500011e+00 2.00999999e+00 2.00999999e+00 2.00999999e+00
    2.01399994e+00 2.01699996e+00 2.01799989e+00 2.01699996e+00
    2.01900005e+00 1.14600003e+00 1.52499998e+00 0. 0. 2.43499994e+00
    2.42199993e+00 2.42400002e+00 0. 0. 0. 0. 0. 2.10500002e+00
    1.14600003e+00 1.14600003e+00 1.14600003e+00 1.67200005e+00
    1.97000003e+00 1.97200000e+00 1.97500002e+00 1.97500002e+00
    1.97700000e+00 1.98000002e+00 1.98300004e+00 1.98500001e+00
    1.98300004e+00 1.99399996e+00 1.99399996e+00 2. 2. 2. 2.
    2.00999999e+00 2.00799990e+00 2.00999999e+00 2.01399994e+00
    2.01600003e+00 2.01900005e+00 2.01699996e+00 2.01999998e+00
    2.01600003e+00 1.20500004e+00 0. 2.42400002e+00 2.42400002e+00
    2.41899991e+00 0. 0. 0. 0. 0. 0. 0. 1.14600003e+00 1.14600003e+00
    1.14600003e+00 1.43299997e+00 1.97399998e+00 1.97099996e+00
    1.97300005e+00 1.97500002e+00 1.97700000e+00 1.98000002e+00
    1.98300004e+00 1.98500001e+00 1.98800004e+00 1.99199998e+00
    1.99500000e+00 1.99600005e+00 2. 2.00200009e+00 2.00200009e+00
    2.00799990e+00 2.00999999e+00 2.01300001e+00 2.01500010e+00
    2.01799989e+00 2.01900005e+00 2.01900005e+00 2.01799989e+00
    2.01500010e+00 1.92499995e+00 2.42600012e+00 2.41499996e+00
    2.41000009e+00 0. 0. 0. 0. 0. 0. 0. 0. 1.14600003e+00 1.14600003e+00
    1.14600003e+00 1.14600003e+00 1.78799999e+00 1.97300005e+00
    1.97300005e+00 1.97500002e+00 1.97700000e+00 1.98099995e+00
    1.98300004e+00 1.98500001e+00 1.98599994e+00 1.98899996e+00
    1.99399996e+00 1.99800003e+00 2.00099993e+00 2.00200009e+00
    2.00200009e+00 2.00699997e+00 2.00999999e+00 2.01300001e+00
    2.01500010e+00 2.01799989e+00 2.01999998e+00 2.02099991e+00
    2.01900005e+00 2.01900005e+00 2.40499997e+00 2.41199994e+00
    2.40700006e+00 2.40499997e+00 0. 0. 0. 0. 0. 0. 0. 0. 0.
    1.14600003e+00 1.14600003e+00 1.14600003e+00 1.14600003e+00
    1.97300005e+00 1.97300005e+00 1.97700000e+00 1.97899997e+00
    1.98099995e+00 1.98300004e+00 1.98699999e+00 1.98699999e+00
    1.99100006e+00 1.99399996e+00 1.99699998e+00 2. 2.00200009e+00
    2.00200009e+00 2.00200009e+00 2.01500010e+00 2.00999999e+00
    2.01600003e+00 2.01699996e+00 2.01900005e+00 2.02099991e+00
    2.01699996e+00 2.02099991e+00 2.07599998e+00 2.40499997e+00 0. 0. 0.
    0. 0. 0. 0. 0. 0. 0. 0. 1.14600003e+00 1.14600003e+00 1.14600003e+00
    1.80400002e+00 1.97599995e+00 1.97300005e+00 1.97700000e+00
    1.97899997e+00 1.98099995e+00 1.98300004e+00 1.98500001e+00
    1.98899996e+00 1.99300003e+00 1.99199998e+00 1.99699998e+00 2. 2.
    2.00200009e+00 2.00200009e+00 2.01300001e+00 2.01399994e+00
    2.01699996e+00 2.01500010e+00 2.01799989e+00 2.02099991e+00
    2.02099991e+00 2.02399993e+00 2.00600004e+00 1.32500005e+00
    2.44000006e+00 0. 0. 0. 0. 0. 0. 0. 0. 0. 0. 1.14600003e+00
    1.14600003e+00 1.14600003e+00 1.14600003e+00 1.90699995e+00
    1.97500002e+00 1.97700000e+00 1.97800004e+00 1.98199999e+00
    1.98300004e+00 1.98599994e+00 1.98899996e+00 1.99300003e+00
    1.99300003e+00 1.99399996e+00 1.99800003e+00 2.00300002e+00
    2.00699997e+00 2.00799990e+00 2.00799990e+00 2.01300001e+00
    2.01600003e+00 2.01500010e+00 2.01999998e+00 2.02099991e+00
    2.02399993e+00 2.02399993e+00 2.02600002e+00 1.14600003e+00
    2.41799998e+00 0. 0. 0. 0. 0. 0. 0. 0. 0. 0. 0. 1.14600003e+00
    1.14600003e+00 1.14600003e+00 1.14600003e+00 1.97500002e+00
    1.97700000e+00 1.97800004e+00 1.98099995e+00 1.98300004e+00
    1.98500001e+00 1.98699999e+00 1.99300003e+00 1.99300003e+00
    2.00200009e+00 2.00200009e+00 2.00200009e+00 2.00399995e+00
    2.00799990e+00 2.00399995e+00 2.01500010e+00 2.01600003e+00
    2.01699996e+00 2.01900005e+00 2.02099991e+00 2.02399993e+00
    2.02099991e+00 2.02800012e+00 1.24699998e+00 1.14600003e+00 0. 0. 0.
    0. 0. 0. 0. 0. 0. 0. 0. 1.14600003e+00 1.14600003e+00 1.14600003e+00
    1.14600003e+00 1.97500002e+00 1.97500002e+00 1.97899997e+00
    1.98099995e+00 1.98399997e+00 1.98699999e+00 1.98899996e+00
    1.99300003e+00 1.99300003e+00 1.99800003e+00 2.00200009e+00
    2.00200009e+00 2.00200009e+00 2.00600004e+00 2.00500011e+00
    2.01500010e+00 2.01500010e+00 2.01699996e+00 2.01900005e+00
    2.01900005e+00 2.02300000e+00 2.01900005e+00 2.02600002e+00
    2.02099991e+00 1.82200003e+00 0. 0. 0. 0. 0. 0. 0. 0. 0. 0. 0.
    1.14600003e+00 1.14600003e+00 1.14600003e+00 1.14600003e+00
    1.99100006e+00 1.97800004e+00 1.98099995e+00 1.98099995e+00
    1.98399997e+00 1.98899996e+00 1.98899996e+00 1.99300003e+00
    1.99300003e+00 1.99399996e+00 2.00200009e+00 2.00200009e+00
    2.00300002e+00 2.00600004e+00 2.00799990e+00 2.01699996e+00
    2.01500010e+00 2.01699996e+00 2.01900005e+00 2.01999998e+00
    2.02600002e+00 2.02600002e+00 2.02699995e+00 2.02800012e+00
    1.14600003e+00 0. 0. 0. 0. 0. 0. 0. 0. 0. 0. 0. 1.14600003e+00
    1.14600003e+00 1.14600003e+00 1.14600003e+00 1.19200003e+00
    1.98099995e+00 1.98099995e+00 1.98199999e+00 1.98300004e+00
    1.98699999e+00 1.99000001e+00 1.99300003e+00 1.99600005e+00
    1.99699998e+00 2.00399995e+00 2.00200009e+00 2.00399995e+00
    2.00600004e+00 2.00799990e+00 2.01200008e+00 2.01699996e+00
    2.01600003e+00 2.01900005e+00 2.02200007e+00 2.02600002e+00
    2.02699995e+00 2.02600002e+00 2.02800012e+00 1.35599995e+00
    2.39199996e+00 0. 0. 0. 0. 0. 0. 0. 0. 0. 0. 0. 1.14600003e+00
    1.14600003e+00 1.14600003e+00 1.14600003e+00 1.98000002e+00
    1.98099995e+00 1.98099995e+00 1.98399997e+00 1.98699999e+00
    1.99100006e+00 1.99300003e+00 1.99500000e+00 1.99699998e+00
    1.99899995e+00 2.00399995e+00 2.00399995e+00 2.00699997e+00
    2.00799990e+00 2.00799990e+00 2.01900005e+00 2.01699996e+00
    2.01900005e+00 2.01900005e+00 2.02399993e+00 2.02800012e+00
    2.02800012e+00 2.03099990e+00 1.92700005e+00 2.37599993e+00 0. 0. 0.
    0. 0. 0. 0. 0. 0. 0. 0. 2.18499994e+00 1.14600003e+00 1.14600003e+00
    1.14600003e+00 1.98399997e+00 1.97899997e+00 1.98199999e+00
    1.98599994e+00 1.98699999e+00 1.99100006e+00 1.99500000e+00
    1.99699998e+00 1.99699998e+00 1.99899995e+00 2.00300002e+00
    2.00300002e+00 2.00600004e+00 2.00799990e+00 2.00999999e+00
    2.01999998e+00 2.01699996e+00 2.01900005e+00 2.02099991e+00
    2.02399993e+00 2.02600002e+00 2.02800012e+00 2.03099990e+00
    2.03099990e+00 1.57900000e+00 0. 0. 0. 0. 0. 0. 0. 0. 0. 0. 0. 0.
    1.14600003e+00 1.14600003e+00 1.14600003e+00 2. 1.98099995e+00
    1.98399997e+00 1.98699999e+00 1.98899996e+00 1.98899996e+00
    1.99300003e+00 1.99500000e+00 2. 1.99699998e+00 2.00099993e+00
    2.00300002e+00 2.00600004e+00 2.00999999e+00 2.01300001e+00
    2.01799989e+00 2.01799989e+00 2.01900005e+00 2.02099991e+00
    2.02600002e+00 2.02600002e+00 2.03099990e+00 2.03299999e+00
    2.03099990e+00 1.53199995e+00 2.66400003e+00 0. 0. 0. 0. 0. 0. 0. 0.
    0. 0. 0. 1.14600003e+00 1.14600003e+00 1.14600003e+00 1.14600003e+00
    1.98599994e+00 1.98300004e+00 1.98500001e+00 1.98899996e+00
    1.98899996e+00 1.99300003e+00 1.99500000e+00 2. 2.00200009e+00
    2.00500011e+00 2.00900006e+00 2.00799990e+00 2.01300001e+00
    2.01500010e+00 2.01399994e+00 2.01900005e+00 2.01900005e+00
    2.02300000e+00 2.02600002e+00 2.02600002e+00 2.03099990e+00
    2.03099990e+00 2.03299999e+00 2.03399992e+00 1.14600003e+00 0. 0. 0.
    0. 0. 0. 0. 0. 0. 0. 0. 1.86800003e+00 1.14600003e+00 1.14600003e+00
    1.14600003e+00 1.98800004e+00 1.98300004e+00 1.98399997e+00
    1.98899996e+00 1.99100006e+00 1.99399996e+00 1.99600005e+00
    2.00099993e+00 2.00200009e+00 2.00300002e+00 2.00900006e+00
    2.00799990e+00 2.01200008e+00 2.01500010e+00 2.01399994e+00
    2.02099991e+00 2.02099991e+00 2.02399993e+00 2.02600002e+00
    2.02600002e+00 2.03200006e+00 2.02999997e+00 2.02999997e+00
    2.03500009e+00 1.40499997e+00 1.14600003e+00 0. 0. 0. 0. 0. 0. 0. 0.
    0. 0. 0. 1.14600003e+00 1.14600003e+00 1.14600003e+00 1.26600003e+00
    1.98399997e+00 1.98599994e+00 1.99000001e+00 1.99100006e+00
    1.99300003e+00 2. 2. 2.00200009e+00 2.00200009e+00 2.00600004e+00
    2.00799990e+00 2.00999999e+00 2.01399994e+00 2.01300001e+00
    2.01600003e+00 2.02099991e+00 2.02300000e+00 2.02399993e+00
    2.02399993e+00 2.02800012e+00 2.02800012e+00 2.03099990e+00
    2.03600001e+00 2.02699995e+00 1.14600003e+00 0. 0. 0. 0. 0. 0. 0. 0.
    0. 0. 0. 1.14600003e+00 1.14600003e+00 1.74600005e+00 2.01399994e+00
    1.98800004e+00 1.98699999e+00 1.99000001e+00 1.99100006e+00
    1.99399996e+00 1.99800003e+00 2.00099993e+00 2.00200009e+00
    2.00099993e+00 2.00600004e+00 2.00999999e+00 2.00999999e+00
    2.00999999e+00 2.01300001e+00 2.01200008e+00 2.02099991e+00
    2.01900005e+00 2.02099991e+00 2.01999998e+00 2.02200007e+00
    2.02699995e+00 2.03900003e+00 2.03800011e+00 2.02900004e+00
    2.94099998e+00 0. 0. 0. 0. 0. 0. 0. 0. 0. 0. 0. 1.39800000e+00
    1.14600003e+00 1.14600003e+00 2.03999996e+00 1.99300003e+00
    1.98699999e+00 1.98899996e+00 1.99000001e+00 1.99399996e+00 2.
    2.00099993e+00 2.00300002e+00 2.00500011e+00 2.00699997e+00
    2.00900006e+00 2.01200008e+00 2.01099992e+00 2.01200008e+00
    2.00999999e+00 2.01799989e+00 2.01500010e+00 2.01699996e+00
    2.01799989e+00 2.02099991e+00 2.02800012e+00 2.03600001e+00
    2.03200006e+00 2.02900004e+00 2.29399991e+00 0. 0. 0. 0. 0. 0. 0. 0.
    0. 0. 0. 0. 1.14600003e+00 1.14600003e+00 1.28199995e+00
    1.27900004e+00 1.98800004e+00 1.98699999e+00 1.99100006e+00
    1.99500000e+00 2. 2. 2.00200009e+00 2.00500011e+00 2.00699997e+00
    2.00799990e+00 2.00799990e+00 2.00999999e+00 2.00999999e+00
    2.00799990e+00 2.01999998e+00 2.01699996e+00 2.01699996e+00
    2.02300000e+00 2.02800012e+00 2.02600002e+00 2.02099991e+00
    2.02600002e+00 2.02099991e+00 1.39199996e+00 0. 0. 0. 0. 0. 0. 0. 0.
    0. 0. 0. 0. 1.14600003e+00 1.14600003e+00 1.14600003e+00
    1.55100000e+00 1.99000001e+00 1.98699999e+00 1.99100006e+00
    1.99500000e+00 1.99800003e+00 2.00200009e+00 2.00200009e+00
    2.00399995e+00 2.00600004e+00 2.00600004e+00 2.00600004e+00
    2.00600004e+00 2.00799990e+00 2.00900006e+00 2.01600003e+00
    2.01799989e+00 2.01900005e+00 2.02099991e+00 2.02099991e+00
    2.01999998e+00 2.01999998e+00 2.99900007e+00 0. 1.42799997e+00 0. 0.
    0. 0. 0. 0. 0. 0. 0. 0. 0. 0. 0. 1.14600003e+00 1.14600003e+00
    1.14600003e+00 1.99600005e+00 1.99100006e+00 1.99500000e+00
    1.99500000e+00 1.99699998e+00 2. 2. 2. 2.00200009e+00 2.00600004e+00
    2.00799990e+00 2.00699997e+00 2.01200008e+00 2.01600003e+00
    2.01399994e+00 2.01500010e+00 2.01500010e+00 2.01699996e+00
    2.14700007e+00 2.41400003e+00 0. 0. 2.99099994e+00 2.99399996e+00 0.
    0. 0. 0. 0. 0. 0. 0. 0. 0. 0. 0. 0. 1.14600003e+00 1.14600003e+00
    1.14600003e+00 1.14600003e+00 1.99100006e+00 1.99100006e+00
    1.99300003e+00 1.99699998e+00 1.99899995e+00 1.99600005e+00
    1.99699998e+00 2. 2.01200008e+00 2.00999999e+00 2.00999999e+00
    2.01200008e+00 2.00900006e+00 2.00999999e+00 2.01300001e+00
    2.01200008e+00 2.99900007e+00 2.99399996e+00 2.99200010e+00 0.
    2.98200011e+00 2.97900009e+00 2.97099996e+00 0. 0. 0. 0. 0. 0. 0. 0.
    0. 0. 0. 0. 0. 0. 1.14600003e+00 1.14600003e+00 2.01300001e+00
    1.99399996e+00 1.99100006e+00 1.99399996e+00 1.99300003e+00
    1.99300003e+00 1.99300003e+00 1.99800003e+00 2.00200009e+00
    2.00300002e+00 2.00399995e+00 2.05299997e+00 2.03800011e+00
    2.08200002e+00 2.02800012e+00 2.07500005e+00 2.08999991e+00
    2.61899996e+00 2.98000002e+00 2.97600007e+00 2.96199989e+00
    2.95199990e+00 2.95000005e+00 2.94799995e+00 0. 0. 0. 0. 0. 0. 0. 0.
    0. 0. 0. 0. 0. 0. 2.46700001e+00 1.14600003e+00 1.38900006e+00
    1.99100006e+00 1.99100006e+00 1.99600005e+00 1.99300003e+00
    1.99199998e+00 1.99699998e+00 2.00300002e+00 2.00200009e+00
    2.00099993e+00 2.07100010e+00 2.10899997e+00 2.10200000e+00
    2.09400010e+00 2.08500004e+00 2.04900002e+00 2.07399988e+00
    2.06399989e+00 2.11599994e+00 2.96799994e+00 2.95499992e+00
    2.94199991e+00 2.92499995e+00 2.90199995e+00 0. 0. 0.</data></Depth>
</opencv_storage>
