<?xml version="1.0"?>
<opencv_storage>
<Depth type_id="opencv-matrix">
  <rows>40</rows>
  <cols>40</cols>
  <dt>f</dt>
  <data>
    0. 0. 0. 0. 0. 0. 0. 0. 0. 2.73900008e+00 0. 2.68000007e+00
    2.03200006e+00 1.13600004e+00 1.13600004e+00 1.13600004e+00
    1.13600004e+00 1.13600004e+00 1.13600004e+00 1.18099999e+00
    1.69599998e+00 2.00600004e+00 2.00699997e+00 2.00900006e+00
    2.01099992e+00 2.01099992e+00 2.01200008e+00 2.02500010e+00 0. 0. 0.
    0. 0. 0. 0. 0. 0. 0. 0. 0. 0. 0. 0. 0. 0. 0. 0. 0. 0. 0. 0. 0.
    2.45700002e+00 2.02500010e+00 1.13699996e+00 1.14900005e+00
    1.27199996e+00 1.49500000e+00 2.00900006e+00 2.00900006e+00
    2.01099992e+00 2.00900006e+00 2.00900006e+00 2.00900006e+00
    2.01099992e+00 2.01099992e+00 2.01200008e+00 2.03099990e+00
    2.07599998e+00 2.09500003e+00 0. 0. 0. 0. 0. 0. 0. 0. 0. 0. 0. 0. 0.
    0. 0. 0. 0. 0. 0. 0. 0. 0. 2.01999998e+00 2.01900005e+00
    2.00699997e+00 2.00900006e+00 2.00999999e+00 2.00900006e+00
    2.00900006e+00 2.00999999e+00 2.00900006e+00 2.00900006e+00
    2.00900006e+00 2.00900006e+00 2.01099992e+00 2.01099992e+00
    2.01099992e+00 2.02300000e+00 2.06699991e+00 2.09599996e+00
    2.81900001e+00 0. 0. 0. 0. 0. 0. 0. 0. 0. 0. 0. 0. 0. 0. 0. 0. 0.
    2.75699997e+00 2.00900006e+00 2.01399994e+00 2.01099992e+00
    2.00900006e+00 2.01200008e+00 2.01099992e+00 2.00999999e+00
    2.00900006e+00 2.01099992e+00 2.00900006e+00 2.00900006e+00
    2.00900006e+00 2.00900006e+00 2.00900006e+00 2.00900006e+00
    2.01099992e+00 2.01099992e+00 2.00999999e+00 2.01600003e+00
    2.05399990e+00 2.08699989e+00 1.13600004e+00 0. 0. 0. 0. 0. 0. 0. 0.
    0. 0. 0. 0. 0. 0. 2.00699997e+00 2.00699997e+00 2.00799990e+00
    2.00999999e+00 2.01099992e+00 2.01399994e+00 2.01300001e+00
    2.01099992e+00 2.00900006e+00 2.01099992e+00 2.00900006e+00
    2.00900006e+00 2.00900006e+00 2.00900006e+00 2.00900006e+00
    2.00900006e+00 2.00900006e+00 2.00900006e+00 2.00900006e+00
    2.01099992e+00 2.00999999e+00 2.00900006e+00 2.01099992e+00
    2.03600001e+00 2.08400011e+00 1.29200006e+00 0. 0. 0. 0. 0. 0. 0. 0.
    0. 0. 0. 0. 0. 0. 2.00699997e+00 2.00600004e+00 2.00699997e+00
    2.00799990e+00 2.00900006e+00 2.01099992e+00 2.01099992e+00
    2.00999999e+00 2.00900006e+00 2.00900006e+00 2.00900006e+00
    2.00900006e+00 2.00900006e+00 2.00699997e+00 2.00900006e+00
    2.00799990e+00 2.00900006e+00 2.00699997e+00 2.00900006e+00
    2.00900006e+00 2.00900006e+00 2.01099992e+00 2.01099992e+00
    2.02999997e+00 2.07699990e+00 1.54799998e+00 1.13600004e+00 0. 0. 0.
    0. 0. 0. 0. 0. 0. 0. 0. 0. 0. 2.00900006e+00 2.00500011e+00
    2.00699997e+00 2.00900006e+00 2.00900006e+00 2.01099992e+00
    2.00900006e+00 2.00900006e+00 2.00900006e+00 2.00900006e+00
    2.00900006e+00 2.00900006e+00 2.00900006e+00 2.00799990e+00
    2.00699997e+00 2.00699997e+00 2.00699997e+00 2.00699997e+00
    2.00799990e+00 2.00900006e+00 2.00900006e+00 2.00799990e+00
    2.00900006e+00 2.03399992e+00 2.07800007e+00 1.35899997e+00
    1.13600004e+00 0. 0. 0. 0. 0. 0. 0. 0. 0. 0. 0. 0. 0. 2.01200008e+00
    2.00799990e+00 2.00799990e+00 2.00699997e+00 2.00799990e+00
    2.00900006e+00 2.00900006e+00 2.00799990e+00 2.00699997e+00
    2.00900006e+00 2.00900006e+00 2.00900006e+00 2.00900006e+00
    2.00699997e+00 2.00699997e+00 2.00900006e+00 2.00699997e+00
    2.00699997e+00 2.00699997e+00 2.00900006e+00 2.00900006e+00
    2.00900006e+00 2.00999999e+00 2.01500010e+00 2.04299998e+00
    1.46399999e+00 1.13600004e+00 0. 0. 0. 0. 0. 0. 0. 0. 0. 0. 0. 0. 0.
    2.00699997e+00 2.00699997e+00 2.00600004e+00 2.00699997e+00
    2.00799990e+00 2.00999999e+00 2.00900006e+00 2.00699997e+00
    2.00699997e+00 2.00900006e+00 2.00900006e+00 2.00900006e+00
    2.00799990e+00 2.00699997e+00 2.00699997e+00 2.00900006e+00
    2.00699997e+00 2.00699997e+00 2.00699997e+00 2.00900006e+00
    2.00900006e+00 2.00699997e+00 2.00900006e+00 2.01200008e+00
    2.04200006e+00 1.13600004e+00 1.13600004e+00 0. 0. 0. 0. 0. 0. 0. 0.
    0. 0. 0. 0. 0. 2.00500011e+00 2.00699997e+00 2.00600004e+00
    2.00600004e+00 2.00799990e+00 2.00799990e+00 2.00900006e+00
    2.00699997e+00 2.00699997e+00 2.00900006e+00 2.00900006e+00
    2.00699997e+00 2.00699997e+00 2.00699997e+00 2.00699997e+00
    2.00699997e+00 2.00699997e+00 2.00699997e+00 2.00699997e+00
    2.00900006e+00 2.00900006e+00 2.00699997e+00 2.00900006e+00
    2.00900006e+00 2.03600001e+00 2.07100010e+00 1.13600004e+00
    1.13600004e+00 0. 0. 0. 0. 0. 0. 0. 0. 0. 0. 0. 0. 2.00500011e+00
    2.00699997e+00 2.00699997e+00 2.00500011e+00 2.00799990e+00
    2.00699997e+00 2.00900006e+00 2.00699997e+00 2.00699997e+00
    2.00699997e+00 2.00699997e+00 2.00699997e+00 2.00699997e+00
    2.00699997e+00 2.00600004e+00 2.00699997e+00 2.00699997e+00
    2.00699997e+00 2.00699997e+00 2.00900006e+00 2.00699997e+00
    2.00900006e+00 2.00799990e+00 2.00900006e+00 2.02300000e+00
    2.07500005e+00 1.15699995e+00 1.13600004e+00 0. 0. 0. 0. 0. 0. 0. 0.
    0. 0. 0. 0. 2.00500011e+00 2.00699997e+00 2.00699997e+00
    2.00699997e+00 2.00799990e+00 2.00699997e+00 2.00900006e+00
    2.00900006e+00 2.00699997e+00 2.00699997e+00 2.00900006e+00
    2.00699997e+00 2.00699997e+00 2.00699997e+00 2.00699997e+00
    2.00500011e+00 2.00699997e+00 2.00699997e+00 2.00500011e+00
    2.00900006e+00 2.00699997e+00 2.00900006e+00 2.00699997e+00
    2.00900006e+00 2.01300001e+00 2.05100012e+00 1.50800002e+00
    1.13600004e+00 0. 0. 0. 0. 0. 0. 0. 0. 0. 0. 0. 0. 2.00500011e+00
    2.00500011e+00 2.00699997e+00 2.00500011e+00 2.00699997e+00
    2.00799990e+00 2.00699997e+00 2.00699997e+00 2.00799990e+00
    2.00799990e+00 2.00699997e+00 2.00600004e+00 2.00699997e+00
    2.00699997e+00 2.00699997e+00 2.00500011e+00 2.00699997e+00
    2.00699997e+00 2.00500011e+00 2.00900006e+00 2.00799990e+00
    2.00699997e+00 2.00699997e+00 2.00699997e+00 2.01200008e+00
    2.04500008e+00 2.07599998e+00 1.13600004e+00 0. 0. 0. 0. 0. 0. 0. 0.
    0. 0. 0. 0. 1.18099999e+00 2.00500011e+00 2.00600004e+00
    2.00500011e+00 2.00600004e+00 2.00699997e+00 2.00699997e+00
    2.00699997e+00 2.00699997e+00 2.00699997e+00 2.00699997e+00
    2.00600004e+00 2.00600004e+00 2.00699997e+00 2.00600004e+00
    2.00500011e+00 2.00600004e+00 2.00500011e+00 2.00500011e+00
    2.00699997e+00 2.00699997e+00 2.00699997e+00 2.00600004e+00
    2.00500011e+00 2.00799990e+00 2.03800011e+00 2.07299995e+00
    1.13600004e+00 0. 0. 0. 0. 0. 0. 0. 0. 0. 0. 0. 0. 1.15799999e+00
    2.00300002e+00 2.00500011e+00 2.00500011e+00 2.00600004e+00
    2.00699997e+00 2.00699997e+00 2.00500011e+00 2.00600004e+00
    2.00699997e+00 2.00699997e+00 2.00699997e+00 2.00500011e+00
    2.00500011e+00 2.00600004e+00 2.00500011e+00 2.00300002e+00
    2.00399995e+00 2.00500011e+00 2.00699997e+00 2.00699997e+00
    2.00900006e+00 2.00600004e+00 2.00500011e+00 2.00799990e+00
    2.01600003e+00 2.06999993e+00 1.13600004e+00 0. 0. 0. 0. 0. 0. 0. 0.
    0. 0. 0. 0. 1.13600004e+00 2.00300002e+00 2.00500011e+00
    2.00500011e+00 2.00500011e+00 2.00500011e+00 2.00600004e+00
    2.00699997e+00 2.00699997e+00 2.00600004e+00 2.00600004e+00
    2.00399995e+00 2.00300002e+00 2.00399995e+00 2.00500011e+00
    2.00200009e+00 2.00399995e+00 2.00300002e+00 2.00300002e+00
    2.00500011e+00 2.00600004e+00 2.00699997e+00 2.00500011e+00
    2.00500011e+00 2.00799990e+00 2.02200007e+00 2.06900001e+00
    1.76999998e+00 1.13600004e+00 0. 0. 0. 0. 0. 0. 0. 0. 0. 0. 0.
    1.13600004e+00 2.00500011e+00 2.00500011e+00 2.00300002e+00
    2.00399995e+00 2.00500011e+00 2.00500011e+00 2.00500011e+00
    2.00699997e+00 2.00500011e+00 2.00399995e+00 2.00300002e+00
    2.00300002e+00 2.00500011e+00 2.00500011e+00 2.00300002e+00
    2.00300002e+00 2.00200009e+00 2. 2.00500011e+00 2.00699997e+00
    2.00500011e+00 2.00500011e+00 2.00600004e+00 2.00699997e+00
    2.00999999e+00 2.06599998e+00 2.07500005e+00 1.13600004e+00 0. 0. 0.
    0. 0. 0. 0. 0. 0. 0. 0. 1.13600004e+00 1.27199996e+00 2.
    2.00099993e+00 2.00399995e+00 2.00500011e+00 2.00500011e+00
    2.00500011e+00 2.00300002e+00 2.00300002e+00 2.00300002e+00
    2.00099993e+00 2.00300002e+00 2.00300002e+00 2.00399995e+00
    2.00300002e+00 2.00200009e+00 2.00300002e+00 2.00300002e+00
    2.00500011e+00 2.00500011e+00 2.00500011e+00 2.00300002e+00
    2.00500011e+00 2.00699997e+00 2.00799990e+00 2.04200006e+00
    2.06999993e+00 1.13600004e+00 0. 0. 0. 0. 0. 0. 0. 0. 0. 0. 0.
    1.13600004e+00 1.14600003e+00 1.99699998e+00 1.99899995e+00
    2.00500011e+00 2.00500011e+00 2.00399995e+00 2.00500011e+00
    2.00300002e+00 2.00300002e+00 2. 2.00099993e+00 2.00300002e+00
    2.00300002e+00 2.00300002e+00 2.00300002e+00 2.00300002e+00
    2.00300002e+00 2.00300002e+00 2.00300002e+00 2.00500011e+00
    2.00500011e+00 2.00399995e+00 2.00500011e+00 2.00500011e+00
    2.00699997e+00 2.02999997e+00 2.06200004e+00 1.16400003e+00
    1.39699996e+00 0. 0. 0. 0. 0. 0. 0. 0. 0. 0. 1.13600004e+00
    1.13600004e+00 2. 2.00300002e+00 2.00399995e+00 2.00500011e+00
    2.00500011e+00 2.00500011e+00 2.00300002e+00 2.00300002e+00
    2.00300002e+00 2.00300002e+00 2.00500011e+00 2.00300002e+00
    2.00300002e+00 2. 2. 2.00300002e+00 2. 2.00300002e+00 2.00500011e+00
    2.00500011e+00 2.00300002e+00 2.00399995e+00 2.00500011e+00
    2.00600004e+00 2.02500010e+00 2.05599999e+00 1.16600001e+00
    1.13600004e+00 0. 0. 0. 0. 0. 0. 0. 0. 0. 0. 1.13600004e+00
    1.15499997e+00 2.00399995e+00 2.00099993e+00 2.00399995e+00
    2.00300002e+00 2.00300002e+00 2.00300002e+00 2.00300002e+00
    2.00300002e+00 2.00300002e+00 2.00300002e+00 2.00399995e+00
    2.00300002e+00 2.00300002e+00 2.00300002e+00 2. 2. 2.00300002e+00
    2.00500011e+00 2.00500011e+00 2.00500011e+00 2.00399995e+00
    2.00399995e+00 2.00600004e+00 2.00500011e+00 2.00699997e+00
    2.03200006e+00 1.16499996e+00 1.13600004e+00 0. 0. 0. 0. 0. 0. 0. 0.
    0. 0. 1.13600004e+00 1.24100006e+00 2.00600004e+00 2.00399995e+00
    2.00399995e+00 2.00300002e+00 2.00300002e+00 2.00300002e+00
    2.00300002e+00 2.00300002e+00 2.00300002e+00 2. 2.00300002e+00
    2.00300002e+00 2.00200009e+00 2. 2. 2. 2.00300002e+00 2.00300002e+00
    2.00300002e+00 2.00500011e+00 2.00300002e+00 2.00300002e+00
    2.00399995e+00 2.00399995e+00 2.00500011e+00 2.05999994e+00
    2.07599998e+00 1.13600004e+00 0. 0. 0. 0. 0. 0. 0. 0. 0. 0.
    1.13600004e+00 1.13600004e+00 1.28499997e+00 2.00099993e+00
    2.00300002e+00 2.00300002e+00 2.00399995e+00 2.00500011e+00
    2.00500011e+00 2.00300002e+00 2.00300002e+00 2.00300002e+00
    2.00300002e+00 2.00300002e+00 2.00200009e+00 2. 2. 2. 2.00300002e+00
    2.00300002e+00 2.00399995e+00 2.00399995e+00 2.00300002e+00
    2.00399995e+00 2.00300002e+00 2.00300002e+00 2.00500011e+00
    2.01200008e+00 2.07399988e+00 1.13600004e+00 0. 0. 0. 0. 0. 0. 0. 0.
    0. 0. 0. 1.13600004e+00 1.13600004e+00 2.00099993e+00 2.00399995e+00
    2.00399995e+00 2.00399995e+00 2.00300002e+00 2.00399995e+00
    2.00300002e+00 2.00300002e+00 2.00300002e+00 2. 2.00099993e+00
    2.00099993e+00 2. 2. 2. 2.00300002e+00 2.00300002e+00 2.00300002e+00
    2.00300002e+00 2.00300002e+00 2.00300002e+00 2.00300002e+00
    2.00300002e+00 2.00500011e+00 2.02099991e+00 2.06900001e+00
    1.13600004e+00 0. 0. 0. 0. 0. 0. 0. 0. 0. 0. 0. 1.13600004e+00
    1.13600004e+00 2.00200009e+00 2.00099993e+00 2.00500011e+00
    2.00399995e+00 2.00300002e+00 2.00300002e+00 2.00300002e+00
    2.00300002e+00 2.00399995e+00 2.00300002e+00 2.00300002e+00
    2.00300002e+00 2. 2. 2. 2.00099993e+00 2.00300002e+00 2.00399995e+00
    2.00300002e+00 2.00300002e+00 2.00300002e+00 2.00500011e+00
    2.00300002e+00 2.00300002e+00 2.00399995e+00 2.03699994e+00
    2.01500010e+00 0. 0. 0. 0. 0. 0. 0. 0. 0. 0. 0. 1.13600004e+00
    1.13600004e+00 1.80999994e+00 2.00300002e+00 2.00500011e+00
    2.00300002e+00 2.00300002e+00 2.00300002e+00 2.00200009e+00 2.
    2.00200009e+00 2.00099993e+00 2.00300002e+00 2.00099993e+00 2. 2. 2.
    2. 2.00300002e+00 2.00300002e+00 2.00500011e+00 2.00300002e+00
    2.00300002e+00 2.00300002e+00 2.00300002e+00 2.00300002e+00
    2.00399995e+00 2.03900003e+00 2.06200004e+00 0. 0. 0. 0. 0. 0. 0. 0.
    0. 0. 0. 1.13600004e+00 1.13600004e+00 1.45099998e+00 2.00099993e+00
    2.00099993e+00 2.00200009e+00 2.00300002e+00 2.00300002e+00
    2.00300002e+00 2.00300002e+00 2.00200009e+00 2. 2.00200009e+00 2. 2.
    2. 2. 2. 2.00300002e+00 2.00300002e+00 2.00300002e+00 2.00399995e+00
    2.00300002e+00 2.00300002e+00 2.00300002e+00 2.00300002e+00
    2.00300002e+00 2.03699994e+00 2.08200002e+00 0. 0. 0. 0. 0. 0. 0. 0.
    0. 0. 0. 0. 1.13600004e+00 1.13600004e+00 2.00300002e+00 2. 2. 2.
    2.00300002e+00 2. 2. 2. 2.00099993e+00 2.00099993e+00 2. 2. 2. 2. 2.
    2.00300002e+00 2.00300002e+00 2.00300002e+00 2.00300002e+00
    2.00300002e+00 2.00300002e+00 2.00099993e+00 2.00200009e+00 2.
    2.03399992e+00 2.06599998e+00 0. 0. 0. 0. 0. 0. 0. 0. 0. 0. 0. 0.
    1.13600004e+00 1.13600004e+00 1.99899995e+00 2.00300002e+00 2. 2. 2.
    2. 2. 2. 2. 2. 1.99899995e+00 2. 2. 2. 2. 2.00300002e+00
    2.00300002e+00 2. 2.00300002e+00 2.00300002e+00 2.00300002e+00
    2.00300002e+00 2.00300002e+00 2. 2.01600003e+00 2.04999995e+00 0. 0.
    0. 0. 0. 0. 0. 0. 0. 0. 0. 0. 1.13600004e+00 1.13600004e+00
    1.16600001e+00 2.00300002e+00 2. 2. 2. 1.99800003e+00 2. 2. 2. 2.
    1.99800003e+00 1.99899995e+00 1.99800003e+00 1.99800003e+00
    1.99800003e+00 2. 2.00300002e+00 2. 2.00200009e+00 2. 2.00300002e+00
    2.00300002e+00 2.00099993e+00 2.00300002e+00 2.00699997e+00
    2.05500007e+00 0. 0. 0. 0. 0. 0. 0. 0. 0. 0. 0. 0. 1.13600004e+00
    1.13600004e+00 1.54100001e+00 2. 2. 2. 2. 2. 2. 2. 1.99800003e+00 2.
    1.99800003e+00 1.99800003e+00 1.99800003e+00 1.99800003e+00 2.
    2.00099993e+00 2. 2. 2. 2. 2. 2. 2.00300002e+00 2.00300002e+00
    2.00300002e+00 1.87500000e+00 0. 0. 0. 0. 0. 0. 0. 0. 0. 0. 0. 0.
    1.66900003e+00 1.13600004e+00 1.13600004e+00 1.99800003e+00
    1.99699998e+00 1.99800003e+00 1.99899995e+00 1.99899995e+00 2.
    1.99800003e+00 1.99800003e+00 1.99800003e+00 1.99800003e+00
    1.99800003e+00 1.99800003e+00 1.99800003e+00 1.99800003e+00 2. 2. 2.
    2. 2. 2. 2. 2. 2.00300002e+00 2.00300002e+00 1.38199997e+00 0. 0. 0.
    0. 0. 0. 0. 0. 0. 0. 0. 0. 1.87100005e+00 1.13600004e+00
    1.13600004e+00 1.99899995e+00 1.99899995e+00 1.99899995e+00 2.
    1.99800003e+00 1.99899995e+00 1.99800003e+00 1.99899995e+00
    1.99800003e+00 1.99800003e+00 1.99800003e+00 1.99800003e+00
    1.99800003e+00 1.99800003e+00 2. 2.00200009e+00 2. 2. 2. 2. 2. 2. 2.
    2.00300002e+00 1.63699996e+00 0. 0. 0. 0. 0. 0. 0. 0. 0. 0. 0. 0. 0.
    1.13600004e+00 1.13600004e+00 1.63000000e+00 1.99800003e+00
    1.99800003e+00 1.99800003e+00 1.99800003e+00 1.99800003e+00
    1.99800003e+00 1.99800003e+00 1.99699998e+00 1.99800003e+00
    1.99800003e+00 1.99800003e+00 1.99800003e+00 1.99800003e+00 2. 2. 2.
    2. 2. 2. 2. 2. 2.00300002e+00 2.00500011e+00 1.94500005e+00 0. 0. 0.
    0. 0. 0. 0. 0. 0. 0. 0. 0. 0. 1.13600004e+00 1.13600004e+00
    1.33700001e+00 1.99600005e+00 1.99800003e+00 1.99800003e+00
    1.99800003e+00 1.99800003e+00 1.99800003e+00 1.99899995e+00
    1.99800003e+00 1.99600005e+00 1.99699998e+00 1.99800003e+00
    1.99800003e+00 1.99800003e+00 1.99800003e+00 2. 2. 2. 2.
    1.99899995e+00 2.00200009e+00 0. 2.00999999e+00 2.01399994e+00 0. 0.
    0. 0. 0. 0. 0. 0. 0. 0. 0. 0. 0. 0. 1.13600004e+00 1.13600004e+00
    1.13600004e+00 1.99699998e+00 1.99800003e+00 1.99800003e+00
    1.99800003e+00 1.99800003e+00 1.99800003e+00 1.99800003e+00
    1.99800003e+00 1.99699998e+00 1.99600005e+00 1.99600005e+00
    1.99800003e+00 1.99699998e+00 1.99000001e+00 2.21000004e+00 0. 0. 0.
    0. 0. 0. 0. 0. 0. 0. 0. 0. 0. 0. 0. 0. 0. 0. 0. 0. 0. 0.
    1.13600004e+00 1.13600004e+00 1.13600004e+00 2. 1.99800003e+00
    1.99800003e+00 1.99800003e+00 1.99600005e+00 1.99800003e+00
    1.99800003e+00 1.99800003e+00 1.99800003e+00 1.99800003e+00 0. 0. 0.
    0. 0. 0. 0. 0. 0. 0. 0. 0. 0. 0. 0. 0. 0. 0. 0. 0. 0. 0. 0. 0. 0. 0.
    0. 0. 1.13600004e+00 1.59000003e+00 2.00300002e+00 1.99800003e+00
    1.99800003e+00 1.99600005e+00 1.99600005e+00 1.99600005e+00
    1.99800003e+00 1.99800003e+00 0. 0. 0. 0. 0. 0. 0. 0. 0. 0. 0. 0. 0.
    0. 0. 0. 0. 0. 0. 0. 0. 0. 0. 0. 0. 0. 0. 0. 0. 0. 0. 0.
    2.58800006e+00 1.99600005e+00 1.99800003e+00 2. 0. 0. 0. 0. 0. 0. 0.
    0. 0. 0. 0. 0. 0. 0. 0. 0. 0. 0. 0. 0. 0. 0. 0. 0. 0. 0. 0. 0. 0. 0.
    0. 0. 0. 0. 0. 0. 0. 0. 0. 0. 0. 0. 0. 0. 0. 0. 0. 0. 0. 0. 0. 0. 0.
    0. 0. 0. 0. 0. 0. 0. 0. 0. 0. 0. 0.</data></Depth>
</opencv_storage>
