<?xml version="1.0"?>
<opencv_storage>
<Depth type_id="opencv-matrix">
  <rows>40</rows>
  <cols>40</cols>
  <dt>f</dt>
  <data>
    0. 0. 0. 0. 0. 0. 0. 0. 0. 0. 0. 0. 0. 0. 0. 0. 0. 0. 0. 0. 0. 0. 0.
    0. 0. 0. 0. 0. 0. 0. 0. 0. 0. 0. 0. 0. 0. 0. 0. 0. 0. 0. 0. 0. 0. 0.
    0. 0. 0. 0. 0. 0. 0. 1.12100005e+00 1.09700000e+00 1.10399997e+00
    2.00300002e+00 2. 1.97200000e+00 1.59800005e+00 1.09700000e+00
    1.09700000e+00 1.09700000e+00 2.25699997e+00 0. 0. 0. 0. 0. 0. 0. 0.
    0. 0. 0. 0. 0. 0. 0. 0. 0. 0. 0. 0. 0. 0. 0. 0. 0. 0. 0.
    1.26999998e+00 1.09700000e+00 1.09700000e+00 1.94299996e+00
    1.97899997e+00 1.97800004e+00 1.97500002e+00 1.97399998e+00
    1.97000003e+00 1.60899997e+00 1.09700000e+00 1.09700000e+00
    1.09700000e+00 0. 0. 0. 0. 0. 0. 0. 0. 0. 0. 0. 0. 0. 0. 0. 0. 0. 0.
    0. 0. 0. 0. 0. 0. 0. 0. 1.09700000e+00 1.09700000e+00 1.96599996e+00
    1.98599994e+00 1.98599994e+00 1.98000002e+00 1.97899997e+00
    1.97700000e+00 1.97399998e+00 1.97099996e+00 1.97000003e+00
    1.09700000e+00 1.09700000e+00 1.09700000e+00 1.17400002e+00 0. 0. 0.
    0. 0. 0. 0. 0. 0. 0. 0. 0. 0. 0. 0. 0. 0. 0. 0. 0. 0. 0. 0.
    1.50100005e+00 1.09700000e+00 1.65199995e+00 1.99600005e+00
    1.98899996e+00 1.98699999e+00 1.98599994e+00 1.98399997e+00
    1.98000002e+00 1.97899997e+00 1.97700000e+00 1.97599995e+00
    1.97399998e+00 1.97200000e+00 1.09700000e+00 1.87699997e+00
    1.09700000e+00 0. 0. 0. 0. 0. 0. 0. 0. 0. 0. 0. 0. 0. 0. 0. 0. 0. 0.
    0. 0. 0. 0. 1.21300006e+00 1.09700000e+00 1.87899995e+00
    1.99800003e+00 1.99500000e+00 1.98899996e+00 1.98800004e+00
    1.98699999e+00 1.98500001e+00 1.98199999e+00 1.97899997e+00
    1.97800004e+00 1.97700000e+00 1.97500002e+00 1.97200000e+00
    1.97200000e+00 1.97000003e+00 1.09700000e+00 1.09700000e+00 0. 0. 0.
    0. 0. 0. 0. 0. 0. 0. 0. 0. 0. 0. 0. 0. 0. 0. 0. 0. 0. 1.09700000e+00
    1.96300006e+00 1.99800003e+00 1.99800003e+00 1.99500000e+00
    1.99300003e+00 1.98899996e+00 1.98699999e+00 1.98599994e+00
    1.98500001e+00 1.98399997e+00 1.97899997e+00 1.97800004e+00
    1.97700000e+00 1.97599995e+00 1.97200000e+00 1.96899998e+00
    1.92799997e+00 1.09700000e+00 1.22599995e+00 0. 0. 0. 0. 0. 0. 0. 0.
    0. 0. 0. 0. 0. 0. 0. 0. 0. 0. 1.86399996e+00 1.97300005e+00
    2.00600004e+00 2.00300002e+00 2. 2. 1.99800003e+00 1.99399996e+00
    1.99199998e+00 1.98800004e+00 1.98800004e+00 1.98599994e+00
    1.98599994e+00 1.98199999e+00 1.97899997e+00 1.97800004e+00
    1.97700000e+00 1.97200000e+00 1.97000003e+00 1.96800005e+00
    1.75999999e+00 1.09700000e+00 1.77499998e+00 0. 0. 0. 0. 0. 0. 0. 0.
    0. 0. 0. 0. 0. 0. 0. 2.87599993e+00 1.83800006e+00 2.01200008e+00
    2.00600004e+00 2.00699997e+00 2.00500011e+00 2.00500011e+00
    2.00099993e+00 1.99800003e+00 1.99500000e+00 1.99300003e+00
    1.99199998e+00 1.98899996e+00 1.98599994e+00 1.98599994e+00
    1.98399997e+00 1.97899997e+00 1.97899997e+00 1.97800004e+00
    1.97200000e+00 1.97200000e+00 1.97000003e+00 1.96599996e+00
    1.63399994e+00 1.09700000e+00 0. 0. 0. 0. 0. 0. 0. 0. 0. 0. 0. 0. 0.
    0. 2.06500006e+00 2.01699996e+00 2.01500010e+00 2.01200008e+00
    2.00799990e+00 2.00900006e+00 2.00799990e+00 2.00500011e+00
    2.00300002e+00 1.99899995e+00 1.99800003e+00 1.99500000e+00
    1.99199998e+00 1.99199998e+00 1.98899996e+00 1.98699999e+00
    1.98399997e+00 1.98199999e+00 1.98000002e+00 1.97899997e+00
    1.97700000e+00 1.97200000e+00 1.97000003e+00 1.96899998e+00
    1.91600001e+00 1.09700000e+00 1.66100001e+00 0. 0. 0. 0. 0. 0. 0. 0.
    0. 0. 0. 2.04299998e+00 2.02800012e+00 2.02300000e+00 2.01900005e+00
    2.01500010e+00 2.01500010e+00 2.00999999e+00 2.01200008e+00
    2.00699997e+00 2.00600004e+00 2.00500011e+00 2.00099993e+00
    1.99800003e+00 1.99600005e+00 1.99399996e+00 1.99300003e+00
    1.99100006e+00 1.98699999e+00 1.98599994e+00 1.98599994e+00
    1.98399997e+00 1.98199999e+00 1.97899997e+00 1.97399998e+00
    1.97099996e+00 1.97099996e+00 1.96700001e+00 1.09700000e+00
    1.25500000e+00 0. 0. 0. 0. 0. 0. 0. 0. 0. 0. 0. 2.03399992e+00
    2.02500010e+00 2.02200007e+00 2.01999998e+00 2.01699996e+00
    2.01500010e+00 2.01300001e+00 2.01200008e+00 2.00799990e+00
    2.00699997e+00 2.00500011e+00 2.00200009e+00 2. 1.99800003e+00
    1.99800003e+00 1.99500000e+00 1.99300003e+00 1.98800004e+00
    1.98599994e+00 1.98599994e+00 1.98599994e+00 1.98199999e+00
    1.98199999e+00 1.97800004e+00 1.97599995e+00 1.97200000e+00
    1.97000003e+00 1.96800005e+00 1.09700000e+00 2.58699989e+00 0. 0. 0.
    0. 0. 0. 0. 0. 0. 0. 2.02999997e+00 2.02500010e+00 2.02399993e+00
    2.02200007e+00 2.01999998e+00 2.01500010e+00 2.01300001e+00
    2.01399994e+00 2.01099992e+00 2.00699997e+00 2.00600004e+00
    2.00300002e+00 2.00300002e+00 2. 1.99800003e+00 1.99399996e+00
    1.99300003e+00 1.99300003e+00 1.98800004e+00 1.98599994e+00
    1.98699999e+00 1.98300004e+00 1.98199999e+00 1.97800004e+00
    1.97599995e+00 1.97200000e+00 1.97200000e+00 1.97000003e+00
    1.58500004e+00 1.09700000e+00 0. 0. 0. 0. 0. 0. 0. 0. 0. 0.
    1.09700000e+00 2.02699995e+00 2.02699995e+00 2.02500010e+00
    2.02200007e+00 2.01900005e+00 2.01500010e+00 2.01600003e+00
    2.01500010e+00 2.00999999e+00 2.00699997e+00 2.00600004e+00
    2.00500011e+00 2.00300002e+00 1.99800003e+00 1.99699998e+00
    1.99500000e+00 1.99399996e+00 1.99000001e+00 1.98800004e+00
    1.98699999e+00 1.98599994e+00 1.98199999e+00 1.97899997e+00
    1.97899997e+00 1.97599995e+00 1.97200000e+00 1.97000003e+00
    1.97000003e+00 1.09700000e+00 1.09700000e+00 0. 0. 0. 0. 0. 0. 0. 0.
    0. 1.09700000e+00 2.00600004e+00 2.02999997e+00 2.02500010e+00
    2.02399993e+00 2.02200007e+00 2.01900005e+00 2.01699996e+00
    2.01500010e+00 2.01500010e+00 2.01099992e+00 2.00699997e+00
    2.00600004e+00 2.00500011e+00 1.99899995e+00 1.99800003e+00
    1.99699998e+00 1.99500000e+00 1.99199998e+00 1.98899996e+00
    1.98800004e+00 1.98699999e+00 1.98300004e+00 1.98199999e+00
    1.97899997e+00 1.97899997e+00 1.97300005e+00 1.97200000e+00
    1.97000003e+00 1.97000003e+00 1.09700000e+00 1.18599999e+00 0. 0. 0.
    0. 0. 0. 0. 0. 2.39199996e+00 1.09700000e+00 2.02999997e+00
    2.02900004e+00 2.02500010e+00 2.02200007e+00 2.02099991e+00
    2.01900005e+00 2.01699996e+00 2.01600003e+00 2.01300001e+00
    2.00999999e+00 2.00699997e+00 2.00500011e+00 2.00200009e+00 2. 2.
    1.99699998e+00 1.99399996e+00 1.99199998e+00 1.98800004e+00
    1.98800004e+00 1.98599994e+00 1.98399997e+00 1.97899997e+00
    1.97899997e+00 1.97599995e+00 1.97300005e+00 1.97099996e+00
    1.97000003e+00 1.54600000e+00 1.09700000e+00 0. 0. 0. 0. 0. 0. 0. 0.
    0. 1.09700000e+00 2.02500010e+00 2.02999997e+00 2.02600002e+00
    2.02399993e+00 2.02200007e+00 2.02300000e+00 2.01799989e+00
    2.01600003e+00 2.01500010e+00 2.01200008e+00 2.00799990e+00
    2.00600004e+00 2.00500011e+00 2.00500011e+00 2.00099993e+00
    1.99800003e+00 1.99500000e+00 1.99500000e+00 1.99399996e+00
    1.99100006e+00 1.98800004e+00 1.98599994e+00 1.98300004e+00
    1.98099995e+00 1.97700000e+00 1.97399998e+00 1.97099996e+00
    1.97000003e+00 1.96700001e+00 1.09700000e+00 1.09700000e+00
    2.82699990e+00 0. 0. 0. 0. 0. 0. 0. 1.09700000e+00 1.09700000e+00
    2.03200006e+00 2.02999997e+00 2.02500010e+00 2.02200007e+00
    2.02500010e+00 2.02099991e+00 2.01900005e+00 2.01500010e+00
    2.01500010e+00 2.01099992e+00 2.00799990e+00 2.00600004e+00
    2.00500011e+00 2.00099993e+00 2. 1.99899995e+00 1.99500000e+00
    1.99600005e+00 1.99399996e+00 1.99000001e+00 1.98800004e+00
    1.98599994e+00 1.98199999e+00 1.97899997e+00 1.97800004e+00
    1.97200000e+00 1.97200000e+00 1.97000003e+00 1.96800005e+00
    1.09700000e+00 1.09700000e+00 0. 0. 0. 0. 0. 0. 0. 2.47000003e+00
    1.09700000e+00 1.09700000e+00 2.02900004e+00 2.02999997e+00
    2.02500010e+00 2.02500010e+00 2.02200007e+00 2.01999998e+00
    2.01600003e+00 2.01500010e+00 2.01399994e+00 2.01099992e+00
    2.00699997e+00 2.00699997e+00 2.00500011e+00 2.00300002e+00
    2.00099993e+00 1.99699998e+00 1.99600005e+00 1.99699998e+00
    1.99100006e+00 1.98800004e+00 1.98599994e+00 1.98300004e+00
    1.98300004e+00 1.98000002e+00 1.97500002e+00 1.97500002e+00
    1.97200000e+00 1.97000003e+00 1.95500004e+00 1.09700000e+00 0. 0. 0.
    0. 0. 0. 0. 0. 2.42700005e+00 1.09700000e+00 1.54499996e+00
    2.03200006e+00 2.02999997e+00 2.02699995e+00 2.02500010e+00
    2.02300000e+00 2.01900005e+00 2.01699996e+00 2.01500010e+00
    2.01300001e+00 2.00900006e+00 2.00699997e+00 2.00600004e+00
    2.00500011e+00 2.00099993e+00 1.99899995e+00 1.99699998e+00
    1.99500000e+00 1.99600005e+00 1.99100006e+00 1.98800004e+00
    1.98599994e+00 1.98399997e+00 1.98199999e+00 1.97899997e+00
    1.97500002e+00 1.97200000e+00 1.97000003e+00 1.97000003e+00
    1.96599996e+00 1.09700000e+00 0. 0. 0. 0. 0. 0. 0. 0. 1.21700001e+00
    1.09700000e+00 1.96899998e+00 2.02999997e+00 2.02800012e+00
    2.02699995e+00 2.02500010e+00 2.02200007e+00 2.01799989e+00
    2.01699996e+00 2.01600003e+00 2.01300001e+00 2.00900006e+00
    2.00699997e+00 2.00500011e+00 2.00399995e+00 2. 1.99899995e+00
    1.99600005e+00 1.99800003e+00 1.99199998e+00 1.98899996e+00
    1.98800004e+00 1.98399997e+00 1.98199999e+00 1.97899997e+00
    1.97700000e+00 1.97500002e+00 1.97200000e+00 1.97200000e+00
    1.96800005e+00 1.09700000e+00 1.09700000e+00 0. 0. 0. 0. 0. 0. 0. 0.
    1.46300006e+00 1.57500005e+00 2.02999997e+00 2.02999997e+00
    2.02999997e+00 2.02699995e+00 2.02500010e+00 2.02099991e+00
    2.01999998e+00 2.01699996e+00 2.01500010e+00 2.01300001e+00
    2.01099992e+00 2.00900006e+00 2.00500011e+00 2.00399995e+00
    2.00300002e+00 1.99899995e+00 1.99800003e+00 1.99399996e+00
    1.99100006e+00 1.98899996e+00 1.98699999e+00 1.98399997e+00
    1.97899997e+00 1.97899997e+00 1.97700000e+00 1.97200000e+00
    1.97200000e+00 1.97000003e+00 1.97000003e+00 1.09700000e+00 0. 0. 0.
    0. 0. 0. 0. 0. 1.46599996e+00 1.09700000e+00 1.85000002e+00
    2.03200006e+00 2.02999997e+00 2.02699995e+00 2.02600002e+00
    2.02300000e+00 2.01999998e+00 2.01799989e+00 2.01699996e+00
    2.01500010e+00 2.01500010e+00 2.00999999e+00 2.00699997e+00
    2.00500011e+00 2.00500011e+00 2. 1.99800003e+00 1.99500000e+00
    1.99300003e+00 1.99100006e+00 1.98800004e+00 1.98599994e+00
    1.98199999e+00 1.98199999e+00 1.97800004e+00 1.97500002e+00
    1.97200000e+00 1.97200000e+00 1.97200000e+00 1.15100002e+00
    1.09700000e+00 0. 0. 0. 0. 0. 0. 0. 0. 1.09700000e+00 1.09700000e+00
    2.03500009e+00 2.03099990e+00 2.03099990e+00 2.02800012e+00
    2.02500010e+00 2.02399993e+00 2.02099991e+00 2.01900005e+00
    2.01600003e+00 2.01500010e+00 2.01099992e+00 2.00799990e+00
    2.00699997e+00 2.00500011e+00 2.00399995e+00 1.99800003e+00
    1.99699998e+00 1.99600005e+00 1.99300003e+00 1.99100006e+00
    1.98800004e+00 1.98399997e+00 1.98199999e+00 1.97899997e+00
    1.97700000e+00 1.97500002e+00 1.97399998e+00 1.97200000e+00
    1.97200000e+00 1.09700000e+00 2.73300004e+00 0. 0. 0. 0. 0. 0. 0. 0.
    1.09700000e+00 1.60800004e+00 2.03500009e+00 2.03299999e+00
    2.03099990e+00 2.02699995e+00 2.02500010e+00 2.02200007e+00
    2.01999998e+00 2.01699996e+00 2.01600003e+00 2.01399994e+00
    2.00999999e+00 2.00699997e+00 2.00699997e+00 2.00500011e+00
    2.00099993e+00 1.99800003e+00 1.99500000e+00 1.99300003e+00
    1.99100006e+00 1.98800004e+00 1.98599994e+00 1.98300004e+00
    1.98199999e+00 1.97899997e+00 1.97800004e+00 1.97300005e+00
    1.97300005e+00 1.97200000e+00 1.96599996e+00 1.09700000e+00 0. 0. 0.
    0. 0. 0. 0. 0. 1.62600005e+00 1.09700000e+00 1.79700005e+00
    2.03500009e+00 2.03200006e+00 2.02699995e+00 2.02600002e+00
    2.02399993e+00 2.02200007e+00 2.01799989e+00 2.01699996e+00
    2.01500010e+00 2.01099992e+00 2.00900006e+00 2.00699997e+00
    2.00600004e+00 2.00099993e+00 2. 1.99800003e+00 1.99500000e+00
    1.99100006e+00 1.98800004e+00 1.98800004e+00 1.98500001e+00
    1.98199999e+00 1.98000002e+00 1.97899997e+00 1.97500002e+00
    1.97500002e+00 1.97200000e+00 1.97200000e+00 1.20299995e+00
    1.09700000e+00 0. 0. 0. 0. 0. 0. 0. 0. 1.24800003e+00 1.09700000e+00
    1.97200000e+00 2.03500009e+00 2.03500009e+00 2.02800012e+00
    2.02699995e+00 2.02500010e+00 2.02200007e+00 2.01699996e+00
    2.01500010e+00 2.01500010e+00 2.00999999e+00 2.00900006e+00
    2.00799990e+00 2.00399995e+00 2.00200009e+00 2. 1.99800003e+00
    1.99500000e+00 1.99100006e+00 1.98800004e+00 1.98599994e+00
    1.98399997e+00 1.98199999e+00 1.97899997e+00 1.97700000e+00
    1.97700000e+00 1.97500002e+00 1.97200000e+00 1.97200000e+00
    1.12899995e+00 0. 0. 0. 0. 0. 0. 0. 0. 0. 1.09700000e+00
    1.09700000e+00 2.03600001e+00 2.03299999e+00 2.02999997e+00
    2.02800012e+00 2.02500010e+00 2.02500010e+00 2.02099991e+00
    2.01699996e+00 2.01500010e+00 2.01200008e+00 2.01099992e+00
    2.00999999e+00 2.00600004e+00 2.00399995e+00 2. 1.99699998e+00
    1.99500000e+00 1.99300003e+00 1.99100006e+00 1.98800004e+00
    1.98399997e+00 1.98199999e+00 1.97899997e+00 1.97899997e+00
    1.97700000e+00 1.97500002e+00 1.97500002e+00 1.97200000e+00
    1.97200000e+00 0. 0. 0. 0. 0. 0. 0. 0. 0. 2.17600012e+00
    1.09700000e+00 1.62699997e+00 2.03600001e+00 2.03500009e+00
    2.03099990e+00 2.02600002e+00 2.02500010e+00 2.02200007e+00
    2.01799989e+00 2.01699996e+00 2.01500010e+00 2.01399994e+00
    2.00999999e+00 2.00900006e+00 2.00699997e+00 2.00200009e+00 2.
    1.99600005e+00 1.99300003e+00 1.99100006e+00 1.98800004e+00
    1.98599994e+00 1.98399997e+00 1.98199999e+00 1.97899997e+00
    1.98000002e+00 1.98000002e+00 1.97500002e+00 1.97500002e+00
    1.97000003e+00 0. 0. 0. 0. 0. 0. 0. 0. 0. 0. 1.09700000e+00
    1.09700000e+00 2.03600001e+00 2.03500009e+00 2.03200006e+00
    2.02699995e+00 2.02600002e+00 2.02399993e+00 2.02200007e+00
    2.01999998e+00 2.01600003e+00 2.01500010e+00 2.01200008e+00
    2.00999999e+00 2.00699997e+00 2.00300002e+00 2. 1.99800003e+00
    1.99500000e+00 1.99300003e+00 1.99100006e+00 1.98800004e+00
    1.98599994e+00 1.98399997e+00 1.98199999e+00 1.98199999e+00
    1.97899997e+00 1.97700000e+00 1.97500002e+00 1.97000003e+00 0. 0. 0.
    0. 0. 0. 0. 0. 0. 0. 0. 1.09700000e+00 1.99899995e+00 2.03500009e+00
    2.03500009e+00 2.03099990e+00 2.02600002e+00 2.02500010e+00
    2.02200007e+00 2.01999998e+00 2.01699996e+00 2.01699996e+00
    2.01500010e+00 2.01099992e+00 2.00699997e+00 2.00699997e+00
    2.00500011e+00 2. 1.99800003e+00 1.99500000e+00 1.99100006e+00
    1.98800004e+00 1.98800004e+00 1.98599994e+00 1.98399997e+00
    1.98199999e+00 1.97899997e+00 1.97899997e+00 1.87300003e+00
    1.09700000e+00 0. 0. 0. 0. 0. 0. 0. 0. 0. 0. 0. 1.99500000e+00
    1.09700000e+00 1.95400000e+00 2.03500009e+00 2.03200006e+00
    2.02900004e+00 2.02699995e+00 2.02500010e+00 2.02099991e+00
    2.01900005e+00 2.01699996e+00 2.01600003e+00 2.01399994e+00
    2.00999999e+00 2.00699997e+00 2.00500011e+00 2. 1.99800003e+00
    1.99800003e+00 1.99500000e+00 1.99300003e+00 1.98800004e+00
    1.98599994e+00 1.98300004e+00 1.98399997e+00 1.97500002e+00
    1.89800000e+00 1.09700000e+00 1.09700000e+00 0. 0. 0. 0. 0. 0. 0. 0.
    0. 0. 0. 0. 1.09700000e+00 1.09700000e+00 2.01500010e+00
    2.03500009e+00 2.03099990e+00 2.02900004e+00 2.02600002e+00
    2.02399993e+00 2.01999998e+00 2.01799989e+00 2.01699996e+00
    2.01399994e+00 2.01200008e+00 2.00900006e+00 2.00500011e+00 2. 2.
    1.99800003e+00 1.99800003e+00 1.99300003e+00 1.98800004e+00
    1.98500001e+00 1.93900001e+00 1.09700000e+00 1.09700000e+00
    1.09700000e+00 1.09700000e+00 1.09700000e+00 0. 0. 0. 0. 0. 0. 0. 0.
    0. 0. 0. 0. 1.09700000e+00 1.09700000e+00 1.64199996e+00
    2.03699994e+00 2.03600001e+00 2.03200006e+00 2.02900004e+00
    2.02600002e+00 2.02200007e+00 2.02099991e+00 2.01900005e+00
    2.01500010e+00 2.01200008e+00 2.00999999e+00 2.00699997e+00
    2.00500011e+00 2. 2. 1.99800003e+00 1.99100006e+00 1.09700000e+00
    1.12300003e+00 1.09700000e+00 1.09700000e+00 1.12500000e+00
    1.12500000e+00 1.09700000e+00 1.09700000e+00 0. 0. 0. 0. 0. 0. 0. 0.
    0. 0. 0. 0. 2.07200003e+00 1.09700000e+00 1.09700000e+00
    1.09800005e+00 2.03699994e+00 2.03299999e+00 2.02900004e+00
    2.02600002e+00 2.02500010e+00 2.02099991e+00 2.01999998e+00
    2.01699996e+00 2.01699996e+00 2.01500010e+00 2.00999999e+00
    2.00699997e+00 2.00200009e+00 1.99800003e+00 1.99399996e+00
    1.09700000e+00 1.14999998e+00 2.00699997e+00 1.09899998e+00
    1.09700000e+00 2.06699991e+00 2.06699991e+00 1.21700001e+00
    1.09700000e+00 0. 0. 0. 0. 0. 0. 0. 0. 0. 0. 0. 0. 0. 1.09700000e+00
    1.09700000e+00 1.09700000e+00 2.03699994e+00 2.03500009e+00
    2.02999997e+00 2.02699995e+00 2.02699995e+00 2.02600002e+00
    2.02099991e+00 2.01999998e+00 2.01699996e+00 2.01600003e+00
    2.01099992e+00 2.00699997e+00 1.85000002e+00 1.12500000e+00
    1.12199998e+00 2.07800007e+00 2.06599998e+00 2.00999999e+00
    2.00699997e+00 2.04999995e+00 2.04800010e+00 2.03999996e+00
    2.46000004e+00 2.50799990e+00 0. 0. 0. 0. 0. 0. 0. 0. 0. 0. 0. 0. 0.
    2.10800004e+00 1.09700000e+00 1.09700000e+00 1.12800002e+00
    2.03699994e+00 2.03299999e+00 2.02900004e+00 2.02600002e+00
    2.02500010e+00 2.02500010e+00 2.02200007e+00 2.01900005e+00
    2.01200008e+00 1.80700004e+00 1.09700000e+00 1.09700000e+00
    1.23699999e+00 2.10400009e+00 2.08899999e+00 2.07299995e+00
    2.07200003e+00 2.00699997e+00 2.01200008e+00 2.02200007e+00
    2.01300001e+00 2.03099990e+00 2.50699997e+00 0. 0. 0. 0. 0. 0. 0. 0.
    0. 0. 0. 0. 0. 0. 0. 1.09700000e+00 1.09700000e+00 2.03500009e+00
    2.03500009e+00 2.03200006e+00 2.02900004e+00 2.02699995e+00
    2.02399993e+00 2.01999998e+00 2.01699996e+00 1.15900004e+00
    1.09700000e+00 1.09700000e+00 1.09700000e+00 2.09800005e+00
    2.08800006e+00 2.06999993e+00 2.05900002e+00 2.04500008e+00
    2.01999998e+00 2.00300002e+00 2.00099993e+00 1.99399996e+00
    1.98699999e+00 2.02399993e+00 0. 0. 0. 0. 0. 0. 0. 0. 0. 0. 0. 0. 0.
    0. 0. 0. 0. 0. 2.03500009e+00 2.03500009e+00 2.03099990e+00
    2.02999997e+00 2.01799989e+00 2.00699997e+00 1.09700000e+00
    1.09700000e+00 1.30999994e+00 2.10599995e+00 2.10700011e+00
    2.09100008e+00 2.06999993e+00 2.05200005e+00 2.03999996e+00
    2.02699995e+00 2.01300001e+00 1.99600005e+00 1.99100006e+00
    1.98399997e+00 1.98399997e+00 1.97899997e+00 0. 0. 0. 0. 0. 0. 0. 0.
    0. 0. 0. 0. 0. 0. 0. 0. 0. 0. 0. 0. 0. 0. 0. 0. 0. 0. 0. 0. 0. 0. 0.
    0. 0. 0. 0. 0. 0. 0. 0. 0. 0.</data></Depth>
</opencv_storage>
