<?xml version="1.0"?>
<opencv_storage>
<Depth type_id="opencv-matrix">
  <rows>40</rows>
  <cols>40</cols>
  <dt>f</dt>
  <data>
    0. 0. 0. 0. 0. 0. 0. 0. 0. 0. 0. 0. 0. 0. 0. 0. 0. 0. 0. 0. 0. 0. 0.
    0. 0. 0. 0. 0. 0. 0. 0. 0. 0. 0. 0. 0. 0. 0. 0. 0. 2.03699994e+00
    2.04099989e+00 2.05100012e+00 2.03699994e+00 2.03699994e+00 0. 0. 0.
    0. 0. 0. 2.09699988e+00 2.05699992e+00 2.05699992e+00 2.05699992e+00
    2.05599999e+00 2.05599999e+00 0. 0. 0. 0. 0. 0. 0. 0. 0. 0. 0. 0. 0.
    0. 0. 0. 0. 0. 0. 0. 0. 0. 0. 2.03699994e+00 2.03999996e+00
    2.04999995e+00 2.03900003e+00 2.17400002e+00 0. 0. 0. 0. 0.
    2.30200005e+00 2.07500005e+00 2.07500005e+00 2.07500005e+00
    2.07100010e+00 2.05800009e+00 2.05599999e+00 2.05599999e+00 0. 0. 0.
    0. 0. 0. 0. 0. 0. 0. 0. 0. 0. 0. 0. 0. 0. 0. 0. 0. 0. 0.
    2.03399992e+00 2.03699994e+00 2.04500008e+00 2.06699991e+00
    2.97300005e+00 0. 0. 0. 0. 0. 2.25399995e+00 2.07100010e+00
    2.07100010e+00 2.07100010e+00 2.07200003e+00 2.06900001e+00
    2.05599999e+00 2.05599999e+00 2.05599999e+00 2.05599999e+00 0. 0. 0.
    0. 0. 0. 0. 0. 0. 0. 0. 0. 0. 0. 0. 0. 0. 0. 0. 0. 2.02099991e+00
    2.04299998e+00 2.06599998e+00 2.11299992e+00 2.42899990e+00 0. 0. 0.
    0. 2.38599992e+00 2.05800009e+00 2.05599999e+00 2.05599999e+00
    2.05599999e+00 2.05900002e+00 2.06500006e+00 2.05599999e+00
    2.05599999e+00 2.05599999e+00 2.05599999e+00 2.05599999e+00 0. 0. 0.
    0. 0. 0. 0. 0. 0. 0. 0. 0. 0. 0. 0. 0. 0. 0. 0. 2.02300000e+00
    2.06100011e+00 2.08999991e+00 2.44499993e+00 0. 0. 0. 0.
    2.48900008e+00 2.06800008e+00 2.05699992e+00 2.05599999e+00
    2.05599999e+00 2.05599999e+00 2.05599999e+00 2.05599999e+00
    2.05599999e+00 2.05599999e+00 2.05599999e+00 2.05599999e+00
    2.05599999e+00 2.05599999e+00 0. 0. 0. 0. 0. 0. 0. 0. 0. 0. 0. 0. 0.
    0. 0. 0. 0. 0. 2.02300000e+00 2.29099989e+00 0. 0. 0. 0. 0.
    2.54999995e+00 2.05599999e+00 2.04900002e+00 2.04800010e+00
    2.04800010e+00 2.04800010e+00 2.05599999e+00 2.05599999e+00
    2.05599999e+00 2.05599999e+00 2.05599999e+00 2.05599999e+00
    2.05599999e+00 2.05599999e+00 2.05599999e+00 2.05599999e+00
    2.06599998e+00 2.09500003e+00 0. 0. 0. 0. 0. 0. 0. 0. 0. 0. 0. 0. 0.
    0. 0. 2.01999998e+00 2.56900001e+00 0. 0. 0. 0. 2.58599997e+00
    2.05200005e+00 2.04600000e+00 2.03900003e+00 2.03699994e+00
    2.03699994e+00 2.03800011e+00 2.05599999e+00 2.05599999e+00
    2.05599999e+00 2.05599999e+00 2.05599999e+00 2.05599999e+00
    2.05599999e+00 2.05599999e+00 2.05599999e+00 2.05599999e+00
    2.05599999e+00 2.05599999e+00 2.18000007e+00 0. 0. 0. 0. 0. 0. 0. 0.
    0. 0. 0. 0. 0. 0. 2.21499991e+00 0. 0. 0. 0. 0. 2.04500008e+00
    2.03999996e+00 2.03699994e+00 2.03699994e+00 2.03699994e+00
    2.03699994e+00 2.03800011e+00 2.04600000e+00 2.05599999e+00
    2.05599999e+00 2.05599999e+00 2.05599999e+00 2.05599999e+00
    2.05599999e+00 2.05599999e+00 2.05599999e+00 2.05599999e+00
    2.05599999e+00 2.05599999e+00 2.05599999e+00 2.22900009e+00 0. 0. 0.
    0. 0. 0. 0. 0. 0. 0. 0. 0. 0. 2.37199998e+00 0. 0. 0. 0.
    2.46199989e+00 2.02900004e+00 2.02399993e+00 2.03399992e+00
    2.03699994e+00 2.03699994e+00 2.03699994e+00 2.03699994e+00
    2.03999996e+00 2.05599999e+00 2.05599999e+00 2.05599999e+00
    2.04999995e+00 2.04299998e+00 2.04299998e+00 2.04299998e+00
    2.04299998e+00 2.05399990e+00 2.05599999e+00 2.05599999e+00
    2.05599999e+00 2.05599999e+00 2.06100011e+00 2.32699990e+00
    2.81900001e+00 0. 0. 0. 0. 0. 0. 0. 0. 0. 0. 2.21099997e+00
    2.79699993e+00 2.74399996e+00 2.71399999e+00 2.39700007e+00
    2.02300000e+00 2.01999998e+00 2.01799989e+00 2.03200006e+00
    2.03699994e+00 2.03699994e+00 2.03699994e+00 2.02300000e+00
    2.02600002e+00 2.04200006e+00 2.04200006e+00 2.04200006e+00
    2.03999996e+00 2.03699994e+00 2.03699994e+00 2.03699994e+00
    2.03699994e+00 2.04099989e+00 2.05500007e+00 2.05599999e+00
    2.05699992e+00 2.06999993e+00 2.07200003e+00 2.06999993e+00
    2.06100011e+00 0. 0. 0. 0. 0. 0. 0. 0. 0. 0. 2.15400004e+00
    2.15100002e+00 2.11800003e+00 2.03900003e+00 2.00300002e+00
    2.00300002e+00 2.01200008e+00 2.01799989e+00 2.01999998e+00
    2.00900006e+00 2.00600004e+00 2.02099991e+00 2.01799989e+00
    2.02099991e+00 2.03699994e+00 2.03699994e+00 2.03699994e+00
    2.02999997e+00 2.02099991e+00 2.02099991e+00 2.03200006e+00
    2.03699994e+00 2.03699994e+00 2.05500007e+00 2.05599999e+00
    2.05599999e+00 2.05900002e+00 2.06299996e+00 2.06900001e+00
    2.05599999e+00 2.24799991e+00 2.44199991e+00 0. 0. 0. 0. 0. 0. 0. 0.
    0. 2.12100005e+00 2.05699992e+00 2.02500010e+00 2. 2. 2.00099993e+00
    2.00200009e+00 2.00200009e+00 2. 2. 2.00200009e+00 2.00200009e+00
    2.00699997e+00 2.03699994e+00 2.03699994e+00 2.03699994e+00
    2.02800012e+00 2.01799989e+00 2.01799989e+00 2.01900005e+00
    2.03299999e+00 2.03699994e+00 2.05500007e+00 2.05599999e+00
    2.05599999e+00 2.05599999e+00 2.05599999e+00 2.05699992e+00
    2.05599999e+00 2.05599999e+00 2.05599999e+00 2.18899989e+00
    2.25900006e+00 0. 0. 0. 0. 0. 0. 0. 2.06399989e+00 2.01799989e+00
    2.01200008e+00 2. 2. 2. 2. 2. 2. 2. 2. 2. 2.00300002e+00
    2.01799989e+00 2.02399993e+00 2.02999997e+00 2.01799989e+00
    2.01799989e+00 2.01799989e+00 2.01799989e+00 2.03299999e+00
    2.03699994e+00 2.03699994e+00 2.05599999e+00 2.05599999e+00
    2.05599999e+00 2.05599999e+00 2.05599999e+00 2.05599999e+00
    2.05599999e+00 2.06699991e+00 2.06200004e+00 2.05599999e+00
    2.07299995e+00 0. 0. 0. 0. 0. 0. 2.03099990e+00 2.01200008e+00 2.
    1.99899995e+00 1.99899995e+00 1.99899995e+00 2. 2. 2. 1.98399997e+00
    1.98199999e+00 2. 2.00300002e+00 2.01799989e+00 2.01799989e+00
    2.01799989e+00 2.01799989e+00 2.02800012e+00 2.03600001e+00
    2.03699994e+00 2.03699994e+00 2.03699994e+00 2.03699994e+00
    2.03699994e+00 2.05500007e+00 2.05500007e+00 2.05500007e+00
    2.05500007e+00 2.05599999e+00 2.05599999e+00 2.05599999e+00
    2.05599999e+00 2.05599999e+00 2.05599999e+00 2.05599999e+00 0. 0. 0.
    0. 0. 2. 2. 2. 1.99199998e+00 1.98199999e+00 1.98199999e+00
    1.99199998e+00 1.99699998e+00 1.99699998e+00 1.98300004e+00
    1.98199999e+00 1.99699998e+00 2.00200009e+00 2.01500010e+00
    2.01500010e+00 2.01500010e+00 2.01500010e+00 2.01500010e+00
    2.01699996e+00 2.02900004e+00 2.03399992e+00 2.03399992e+00
    2.03399992e+00 2.03399992e+00 2.03399992e+00 2.03500009e+00
    2.03699994e+00 2.04200006e+00 2.05399990e+00 2.05599999e+00
    2.05599999e+00 2.05599999e+00 2.05599999e+00 2.05599999e+00
    2.05599999e+00 2.05599999e+00 2.15799999e+00 0. 0. 0. 2. 2. 2.
    1.99399996e+00 1.98399997e+00 1.98199999e+00 1.98199999e+00
    1.98199999e+00 1.98199999e+00 1.98199999e+00 1.98199999e+00
    1.98300004e+00 2. 2. 2. 2. 2. 2. 2.00900006e+00 2.01399994e+00
    2.01399994e+00 2.01399994e+00 2.01399994e+00 2.01799989e+00
    2.01799989e+00 2.02099991e+00 2.03299999e+00 2.03399992e+00
    2.04299998e+00 2.05399990e+00 2.05299997e+00 2.05200005e+00
    2.05200005e+00 2.05500007e+00 2.05599999e+00 2.05599999e+00
    2.05599999e+00 2.28900003e+00 0. 2.03299999e+00 2.00399995e+00 2. 2.
    2. 1.99100006e+00 1.98199999e+00 1.98199999e+00 1.98199999e+00
    1.98199999e+00 1.98199999e+00 1.98199999e+00 1.98300004e+00
    1.99899995e+00 1.99399996e+00 1.99399996e+00 1.99399996e+00
    1.99699998e+00 2. 2. 2. 2. 2. 2. 2.01799989e+00 2.01799989e+00
    2.01799989e+00 2.01799989e+00 2.02399993e+00 2.03699994e+00
    2.04399991e+00 2.04299998e+00 2.03699994e+00 2.03699994e+00
    2.04800010e+00 2.05500007e+00 2.05599999e+00 2.04999995e+00
    2.04999995e+00 2.38599992e+00 2.04200006e+00 2.02300000e+00
    2.00999999e+00 2. 2. 1.99399996e+00 1.98899996e+00 1.98899996e+00
    1.98399997e+00 1.98199999e+00 1.98199999e+00 1.98899996e+00
    1.99000001e+00 1.99699998e+00 1.98199999e+00 1.98199999e+00
    1.98199999e+00 1.99000001e+00 2. 2. 2. 2. 2.00600004e+00
    2.00699997e+00 2.01799989e+00 2.01799989e+00 2.01699996e+00
    2.01099992e+00 2.01500010e+00 2.02600002e+00 2.03299999e+00
    2.03699994e+00 2.03699994e+00 2.03699994e+00 2.03699994e+00
    2.04699993e+00 2.04900002e+00 2.03699994e+00 2.03699994e+00
    2.03699994e+00 2.05500007e+00 2.04600000e+00 2.03500009e+00
    2.00799990e+00 2.00799990e+00 2.00399995e+00 2. 2. 1.98599994e+00
    1.98199999e+00 1.98199999e+00 1.99199998e+00 2. 1.99699998e+00
    1.98199999e+00 1.98199999e+00 1.98199999e+00 1.99000001e+00 2. 2. 2.
    2. 2.00799990e+00 2.00999999e+00 2.00999999e+00 2.00999999e+00
    2.00799990e+00 2. 2. 2.00799990e+00 2.02699995e+00 2.03200006e+00
    2.02800012e+00 2.03500009e+00 2.03699994e+00 2.03699994e+00
    2.03699994e+00 2.03699994e+00 2.02800012e+00 2.02999997e+00
    2.04800010e+00 2.06599998e+00 2.05900002e+00 2.03500009e+00
    2.02800012e+00 2.01900005e+00 2.00399995e+00 2. 1.98599994e+00
    1.98199999e+00 1.98199999e+00 1.98199999e+00 2. 1.99699998e+00
    1.98199999e+00 1.98199999e+00 1.98199999e+00 1.98599994e+00
    1.99000001e+00 1.99000001e+00 1.99000001e+00 1.99000001e+00
    1.99899995e+00 2. 2. 2. 2. 2. 2. 2.00799990e+00 2.02200007e+00
    2.02200007e+00 2.01799989e+00 2.03200006e+00 2.03699994e+00
    2.03699994e+00 2.03699994e+00 2.03600001e+00 2.01799989e+00
    2.02200007e+00 2.04200006e+00 2.07500005e+00 2.06999993e+00
    2.04900002e+00 2.03699994e+00 2.02699995e+00 2.00699997e+00 2.
    1.98599994e+00 1.98199999e+00 1.98199999e+00 1.98199999e+00
    1.98899996e+00 1.98800004e+00 1.98199999e+00 1.98199999e+00
    1.98199999e+00 1.98199999e+00 1.98199999e+00 1.98199999e+00
    1.98199999e+00 1.98199999e+00 1.99800003e+00 2. 2. 2. 2. 2. 2.
    2.00300002e+00 2.01200008e+00 2.01799989e+00 2.01799989e+00
    2.03200006e+00 2.03699994e+00 2.03699994e+00 2.03699994e+00
    2.03699994e+00 2.03099990e+00 2.04299998e+00 0. 2.07500005e+00
    2.06999993e+00 2.04900002e+00 2.03699994e+00 2.03399992e+00
    2.01999998e+00 2.00399995e+00 1.99600005e+00 1.98399997e+00
    1.98199999e+00 1.98199999e+00 1.98199999e+00 1.98199999e+00
    1.98199999e+00 1.98199999e+00 1.98199999e+00 1.98199999e+00
    1.98199999e+00 1.98199999e+00 1.98199999e+00 1.98199999e+00
    1.98699999e+00 1.98699999e+00 2. 2. 2. 2. 2. 2. 2.00300002e+00
    2.00500011e+00 2.00500011e+00 2.01900005e+00 2.02399993e+00
    2.02399993e+00 2.03699994e+00 2.03699994e+00 2.03900003e+00
    2.05599999e+00 0. 0. 0. 2.05500007e+00 2.05200005e+00 2.05200005e+00
    2.04099989e+00 2.01999998e+00 2.00300002e+00 1.99699998e+00
    1.99600005e+00 1.99600005e+00 1.98199999e+00 1.98199999e+00
    1.98199999e+00 1.98199999e+00 1.98199999e+00 1.98199999e+00
    1.98199999e+00 1.98199999e+00 1.98199999e+00 1.98199999e+00
    1.98199999e+00 1.98199999e+00 2. 1.98599994e+00 1.98599994e+00
    1.99000001e+00 2. 2. 2. 2. 2. 2.01300001e+00 2.01799989e+00
    2.01799989e+00 2.02200007e+00 2.02300000e+00 2.03900003e+00
    2.05599999e+00 0. 0. 0. 0. 2.05599999e+00 2.05599999e+00
    2.05399990e+00 2.04099989e+00 2.01999998e+00 2.01600003e+00
    2.00099993e+00 2. 1.99800003e+00 1.99500000e+00 1.98199999e+00
    1.98199999e+00 1.98199999e+00 1.98199999e+00 1.98199999e+00
    1.98199999e+00 1.98199999e+00 1.98199999e+00 1.98199999e+00
    1.98199999e+00 2. 1.98199999e+00 1.98199999e+00 1.98699999e+00 2. 2.
    2. 2. 2. 2.00200009e+00 2.00200009e+00 2.00200009e+00 2.00200009e+00
    2.00399995e+00 2.30800009e+00 0. 0. 0. 0. 0. 0. 2.07399988e+00
    2.07399988e+00 2.07299995e+00 2.05800009e+00 2.03900003e+00
    2.00300002e+00 2. 2. 1.99699998e+00 1.98199999e+00 1.98199999e+00
    1.98199999e+00 1.98199999e+00 1.98199999e+00 1.98199999e+00
    1.98199999e+00 1.98199999e+00 1.98199999e+00 1.98199999e+00
    1.98300004e+00 1.98399997e+00 1.99899995e+00 1.99899995e+00 2. 2. 2.
    2. 2. 2. 2. 2. 2. 2.11899996e+00 0. 0. 0. 0. 0. 0. 0. 0. 0.
    2.15599990e+00 2.09500003e+00 2.05900002e+00 2.02200007e+00
    2.01799989e+00 2. 1.99699998e+00 1.98199999e+00 1.98199999e+00
    1.98199999e+00 1.98199999e+00 1.98199999e+00 1.98199999e+00
    1.98199999e+00 1.98199999e+00 1.98199999e+00 1.98199999e+00
    1.98199999e+00 1.98399997e+00 2. 2. 2. 2. 2. 2. 1.98800004e+00
    1.98199999e+00 1.99600005e+00 2. 2. 2.14700007e+00 0. 0. 0. 0. 0. 0.
    0. 0. 0. 0. 0. 2.10800004e+00 2.03900003e+00 2.01999998e+00
    2.01699996e+00 2.00200009e+00 2. 1.99399996e+00 1.98199999e+00
    1.98199999e+00 1.98199999e+00 1.98199999e+00 1.98199999e+00
    1.96899998e+00 1.96500003e+00 1.96500003e+00 1.98199999e+00
    1.98399997e+00 1.99800003e+00 1.99800003e+00 1.99300003e+00
    1.98199999e+00 1.98199999e+00 1.98199999e+00 1.98199999e+00
    1.98199999e+00 1.98199999e+00 1.98199999e+00 1.99800003e+00
    2.39199996e+00 0. 0. 0. 0. 0. 0. 0. 0. 0. 0. 0. 2.98300004e+00
    2.08800006e+00 2.03699994e+00 2.02099991e+00 2.01900005e+00
    2.00300002e+00 1.99800003e+00 1.98399997e+00 1.98199999e+00
    1.98199999e+00 1.98199999e+00 1.98199999e+00 1.96899998e+00
    1.96500003e+00 1.96500003e+00 1.97899997e+00 1.97899997e+00
    1.98199999e+00 1.98199999e+00 1.98199999e+00 1.98199999e+00
    1.98199999e+00 1.98199999e+00 1.98199999e+00 1.98199999e+00
    1.98199999e+00 1.98199999e+00 1.98199999e+00 0. 0. 0. 0. 0. 0. 0. 0.
    0. 0. 0. 0. 0. 0. 2.04399991e+00 2.03699994e+00 2.03500009e+00
    2.02200007e+00 2.01200008e+00 1.99500000e+00 1.98699999e+00
    1.98399997e+00 1.98199999e+00 1.98199999e+00 1.97200000e+00
    1.96599996e+00 1.96500003e+00 1.96500003e+00 1.96599996e+00
    1.97800004e+00 1.98199999e+00 1.98199999e+00 1.98199999e+00
    1.98199999e+00 1.98199999e+00 1.98199999e+00 1.98199999e+00
    1.98199999e+00 1.98199999e+00 1.98199999e+00 0. 0. 0. 0. 0. 0. 0. 0.
    0. 0. 0. 0. 0. 0. 0. 2.04299998e+00 2.03699994e+00 2.03399992e+00
    2.01900005e+00 2.00600004e+00 2.00300002e+00 1.99399996e+00
    1.98800004e+00 1.98399997e+00 1.98199999e+00 1.97200000e+00
    1.97099996e+00 1.97099996e+00 1.96500003e+00 1.96800005e+00
    1.98199999e+00 1.98199999e+00 1.98199999e+00 1.97899997e+00
    1.97599995e+00 1.98000002e+00 1.98199999e+00 1.98199999e+00
    1.98199999e+00 2.85999990e+00 0. 0. 0. 0. 0. 0. 0. 0. 0. 0. 0. 0. 0.
    0. 0. 2.05500007e+00 2.03699994e+00 2.03699994e+00 2.03399992e+00
    2.02600002e+00 2.01699996e+00 2.00799990e+00 2.00300002e+00
    1.99300003e+00 1.98399997e+00 1.98199999e+00 1.98199999e+00
    1.98199999e+00 1.96500003e+00 1.96700001e+00 1.97700000e+00
    1.98199999e+00 1.98199999e+00 1.97399998e+00 1.96500003e+00
    1.97599995e+00 1.98199999e+00 1.98199999e+00 2.97700000e+00 0. 0. 0.
    0. 0. 0. 0. 0. 0. 0. 0. 0. 0. 0. 0. 0. 0. 0. 0. 0. 2.90599990e+00
    2.02800012e+00 2.01799989e+00 2.01200008e+00 2.00300002e+00
    1.99300003e+00 1.98300004e+00 1.98199999e+00 1.98199999e+00
    1.96500003e+00 1.96500003e+00 1.96899998e+00 1.98199999e+00
    1.98199999e+00 1.97399998e+00 1.96500003e+00 1.97099996e+00
    1.98000002e+00 0. 0. 0. 0. 0. 0. 0. 0. 0. 0. 0. 0. 0. 0. 0. 0. 0. 0.
    0. 0. 0. 0. 0. 0. 2.79200006e+00 2.01200008e+00 2.00200009e+00 2.
    1.99300003e+00 1.99199998e+00 1.98199999e+00 1.97399998e+00
    1.96500003e+00 1.96700001e+00 1.97200000e+00 1.97200000e+00
    1.96899998e+00 1.95899999e+00 1.95500004e+00 1.97500002e+00 0. 0. 0.
    0. 0. 0. 0. 0. 0. 0. 0. 0. 0. 0. 0. 0. 0. 0. 0. 0. 0. 0. 0. 0. 0.
    2.73399997e+00 2. 2. 2. 2. 1.99399996e+00 1.98000002e+00
    1.96500003e+00 1.96500003e+00 1.96500003e+00 1.96500003e+00
    1.96500003e+00 1.95500004e+00 1.94700003e+00 0. 0. 0. 0. 0. 0. 0. 0.
    0. 0. 0. 0. 0. 0. 0. 0. 0. 0. 0. 0. 0. 0. 0. 0. 0. 0. 0. 0. 0.
    2.31999993e+00 2.01300001e+00 2. 1.99300003e+00 1.97700000e+00
    1.97700000e+00 1.97300005e+00 1.96500003e+00 1.96500003e+00
    1.96200001e+00 1.96000004e+00 0. 0. 0. 0. 0. 0. 0. 0. 0. 0. 0. 0. 0.
    0. 0. 0. 0. 0. 0. 0. 0. 0. 0. 0. 0. 0. 0. 0. 0. 2.42499995e+00
    2.01799989e+00 2.01399994e+00 2. 1.99399996e+00 1.98199999e+00
    1.97599995e+00 1.96500003e+00 1.96500003e+00 1.97300005e+00
    1.97899997e+00 0. 0. 0. 0. 0. 0. 0. 0. 0. 0. 0. 0. 0. 0. 0. 0. 0. 0.
    0. 0. 0. 0. 0. 0. 0. 0. 0. 0. 0. 0. 0. 2.03500009e+00 2.01399994e+00
    2. 1.99399996e+00 1.98099995e+00 1.97399998e+00 1.96500003e+00
    1.97500002e+00 1.98199999e+00 0. 0. 0. 0. 0. 0. 0. 0. 0. 0. 0. 0. 0.
    0. 0. 0. 0. 0. 0. 0. 0. 0. 0. 0. 0. 0. 0. 0. 0. 0. 0. 0. 0. 0. 0. 0.
    0. 0. 0. 0. 0. 0. 0. 0. 0. 0. 0. 0. 0. 0. 0. 0. 0. 0. 0. 0. 0. 0. 0.
    0. 0. 0. 0. 0. 0. 0. 0. 0. 0. 0. 0. 0. 0. 0. 0. 0. 0. 0. 0. 0. 0. 0.
    0. 0. 0. 0. 0.</data></Depth>
</opencv_storage>
