<?xml version="1.0"?>
<opencv_storage>
<Depth type_id="opencv-matrix">
  <rows>40</rows>
  <cols>40</cols>
  <dt>f</dt>
  <data>
    0. 0. 0. 0. 0. 0. 0. 0. 0. 0. 0. 0. 0. 0. 0. 0. 0. 0. 0. 0. 0. 0. 0.
    0. 0. 0. 0. 0. 0. 0. 0. 0. 0. 0. 0. 0. 0. 0. 0. 0. 0. 0. 0. 0. 0. 0.
    0. 0. 0. 0. 0. 0. 0. 0. 0. 0. 0. 0. 0. 0. 0. 0. 0. 0. 0. 0. 0. 0. 0.
    0. 0. 0. 0. 0. 0. 0. 0. 0. 0. 0. 1.98699999e+00 1.98899996e+00
    1.99000001e+00 1.83800006e+00 1.26199996e+00 2.79399991e+00 0. 0. 0.
    1.31400001e+00 0. 0. 2.01699996e+00 2.01699996e+00 1.45500004e+00
    1.26199996e+00 0. 0. 0. 0. 0. 0. 0. 0. 0. 0. 0. 0. 0. 0. 0. 0. 0. 0.
    0. 0. 0. 0. 0. 0. 1.98500001e+00 1.98699999e+00 1.99300003e+00
    1.26199996e+00 1.26199996e+00 0. 0. 0. 1.26199996e+00 1.26199996e+00
    1.26199996e+00 2.01600003e+00 2.01600003e+00 2.01699996e+00
    2.01999998e+00 1.98599994e+00 2.61299992e+00 0. 0. 0. 0. 0. 0. 0. 0.
    0. 0. 0. 0. 0. 0. 0. 0. 0. 0. 0. 0. 0. 0. 0. 1.98300004e+00
    1.99300003e+00 2.01900005e+00 1.26199996e+00 1.26199996e+00
    1.88699996e+00 0. 2.49900007e+00 1.26199996e+00 1.26199996e+00
    2.01099992e+00 2.01300001e+00 2.01399994e+00 2.01600003e+00
    2.01600003e+00 2.01699996e+00 2.02099991e+00 1.30599999e+00 0. 0. 0.
    0. 0. 0. 0. 0. 0. 0. 0. 0. 0. 0. 0. 0. 0. 0. 0. 0. 0. 0.
    1.98199999e+00 2.00300002e+00 1.60699999e+00 2.01699996e+00
    2.01699996e+00 1.26199996e+00 1.26199996e+00 1.26199996e+00
    1.26199996e+00 2.00399995e+00 2.00900006e+00 2.00900006e+00
    2.01200008e+00 2.01399994e+00 2.01600003e+00 2.01699996e+00
    2.01900005e+00 2.02300000e+00 1.58800006e+00 1.36800003e+00 0. 0. 0.
    0. 0. 0. 0. 0. 0. 0. 0. 0. 0. 0. 0. 0. 0. 0. 0. 0. 1.78699994e+00
    1.26199996e+00 1.26199996e+00 1.28600001e+00 2.01600003e+00
    2.01200008e+00 1.99600005e+00 1.26199996e+00 1.51100004e+00
    2.00600004e+00 2.00799990e+00 2.00900006e+00 2.00900006e+00
    2.01099992e+00 2.01399994e+00 2.01399994e+00 2.01600003e+00
    2.01799989e+00 2.02200007e+00 2.02300000e+00 2.02099991e+00 0. 0. 0.
    0. 0. 0. 0. 0. 0. 0. 0. 0. 0. 0. 0. 0. 0. 0. 0. 1.26199996e+00
    1.26199996e+00 1.26199996e+00 1.26199996e+00 1.26199996e+00
    1.82700002e+00 2.01099992e+00 2.00600004e+00 2.00099993e+00
    2.00300002e+00 2.00600004e+00 2.00799990e+00 2.00999999e+00
    2.01099992e+00 2.01200008e+00 2.01399994e+00 2.01600003e+00
    2.01699996e+00 2.01699996e+00 2.01999998e+00 2.02200007e+00
    2.02399993e+00 1.77900004e+00 0. 0. 0. 0. 0. 0. 0. 0. 0. 0. 0. 0. 0.
    0. 0. 0. 0. 1.26199996e+00 1.26199996e+00 1.26199996e+00
    1.26199996e+00 1.26199996e+00 1.26199996e+00 1.27300000e+00
    1.99800003e+00 2. 2.00099993e+00 2.00399995e+00 2.00799990e+00
    2.00799990e+00 2.00900006e+00 2.01099992e+00 2.01099992e+00
    2.01399994e+00 2.01399994e+00 2.01699996e+00 2.01699996e+00
    2.01699996e+00 2.02300000e+00 2.02300000e+00 1.95799994e+00 0. 0. 0.
    0. 0. 0. 0. 0. 0. 0. 0. 0. 0. 0. 0. 0. 1.82000005e+00 1.26199996e+00
    1.26199996e+00 1.26199996e+00 1.26199996e+00 1.26199996e+00
    1.99699998e+00 1.99500000e+00 1.99600005e+00 2. 2.00399995e+00
    2.00399995e+00 2.00399995e+00 2.00699997e+00 2.00799990e+00
    2.01099992e+00 2.01099992e+00 2.01200008e+00 2.01600003e+00
    2.01699996e+00 2.01699996e+00 2.01900005e+00 2.02300000e+00
    2.02399993e+00 2.02399993e+00 2.27200007e+00 0. 0. 0. 0. 0. 0. 0. 0.
    0. 0. 0. 0. 0. 0. 2.00200009e+00 2.00300002e+00 1.26199996e+00
    1.26199996e+00 1.26199996e+00 1.99399996e+00 1.99399996e+00
    1.99500000e+00 1.99600005e+00 1.99699998e+00 2. 2.00300002e+00
    2.00399995e+00 2.00399995e+00 2.00799990e+00 2.00900006e+00
    2.01099992e+00 2.01200008e+00 2.01399994e+00 2.01600003e+00
    2.01600003e+00 2.01699996e+00 2.01900005e+00 2.02399993e+00
    2.02399993e+00 2.02399993e+00 1.63600004e+00 0. 0. 0. 0. 0. 0. 0. 0.
    0. 0. 0. 0. 0. 1.26199996e+00 1.98599994e+00 2.00399995e+00
    1.27600002e+00 1.27999997e+00 1.99000001e+00 1.99199998e+00
    1.99300003e+00 1.99500000e+00 1.99600005e+00 1.99800003e+00
    2.00099993e+00 2.00300002e+00 2.00300002e+00 2.00399995e+00
    2.00799990e+00 2.00900006e+00 2.00900006e+00 2.01099992e+00
    2.01500010e+00 2.01399994e+00 2.01600003e+00 2.01699996e+00
    2.01900005e+00 2.01900005e+00 2.02300000e+00 2.02099991e+00
    1.27199996e+00 1.26199996e+00 0. 0. 0. 0. 0. 0. 0. 0. 0. 0. 0.
    1.80799997e+00 1.26199996e+00 1.80400002e+00 2.00600004e+00
    1.98599994e+00 1.98899996e+00 1.99000001e+00 1.99199998e+00
    1.99300003e+00 1.99399996e+00 1.99800003e+00 2. 2.00099993e+00
    2.00300002e+00 2.00300002e+00 2.00699997e+00 2.00699997e+00
    2.00900006e+00 2.00900006e+00 2.01099992e+00 2.01099992e+00
    2.01399994e+00 2.01600003e+00 2.01699996e+00 2.01900005e+00
    2.01900005e+00 2.02300000e+00 2.02399993e+00 1.72800004e+00
    2.66400003e+00 0. 0. 0. 0. 0. 0. 0. 0. 0. 0. 2.06299996e+00
    2.06399989e+00 1.82900000e+00 1.98500001e+00 1.98800004e+00
    1.98599994e+00 1.98899996e+00 1.99000001e+00 1.99100006e+00
    1.99199998e+00 1.99600005e+00 1.99600005e+00 2. 2.00099993e+00
    2.00300002e+00 2.00399995e+00 2.00500011e+00 2.00900006e+00
    2.00900006e+00 2.00999999e+00 2.01099992e+00 2.01200008e+00
    2.01500010e+00 2.01600003e+00 2.01699996e+00 2.01699996e+00
    2.02099991e+00 2.02099991e+00 2.02300000e+00 2.02399993e+00
    2.02500010e+00 0. 0. 0. 0. 0. 0. 0. 0. 0. 1.26199996e+00
    1.31799996e+00 2.01999998e+00 1.98300004e+00 1.98399997e+00
    1.98500001e+00 1.98699999e+00 1.98899996e+00 1.98899996e+00
    1.99199998e+00 1.99600005e+00 1.99600005e+00 1.99800003e+00 2. 2.
    2.00099993e+00 2.00399995e+00 2.00399995e+00 2.00799990e+00
    2.00799990e+00 2.00900006e+00 2.01099992e+00 2.01200008e+00
    2.01600003e+00 2.01399994e+00 2.01699996e+00 2.01900005e+00
    2.02099991e+00 2.02099991e+00 2.02300000e+00 2.02399993e+00
    2.02900004e+00 0. 0. 0. 0. 0. 0. 0. 0. 1.26199996e+00 1.26199996e+00
    1.97899997e+00 1.98199999e+00 1.98399997e+00 1.98399997e+00
    1.98399997e+00 1.98699999e+00 1.98899996e+00 1.99000001e+00
    1.99399996e+00 1.99399996e+00 1.99600005e+00 1.99800003e+00
    1.99800003e+00 2.00099993e+00 2.00300002e+00 2.00300002e+00
    2.00399995e+00 2.00799990e+00 2.00900006e+00 2.00900006e+00
    2.01099992e+00 2.01200008e+00 2.01399994e+00 2.01600003e+00
    2.01799989e+00 2.01799989e+00 2.01900005e+00 2.02099991e+00
    2.02300000e+00 2.02800012e+00 2.02699995e+00 1.94599998e+00 0. 0. 0.
    0. 0. 0. 1.26199996e+00 1.97599995e+00 1.97700000e+00 1.98099995e+00
    1.98099995e+00 1.98300004e+00 1.98399997e+00 1.98500001e+00
    1.98899996e+00 1.98899996e+00 1.99000001e+00 1.99199998e+00
    1.99600005e+00 1.99699998e+00 1.99800003e+00 1.99800003e+00 2.
    2.00300002e+00 2.00300002e+00 2.00399995e+00 2.00399995e+00
    2.00900006e+00 2.00900006e+00 2.01099992e+00 2.01099992e+00
    2.01600003e+00 2.01399994e+00 2.01600003e+00 2.01699996e+00
    2.01900005e+00 2.02300000e+00 2.02300000e+00 2.02399993e+00
    2.02800012e+00 2.02900004e+00 2.95400000e+00 0. 0. 0. 0.
    1.44900000e+00 1.97500002e+00 1.97599995e+00 1.97800004e+00
    1.98099995e+00 1.98199999e+00 1.98399997e+00 1.98399997e+00
    1.98699999e+00 1.98699999e+00 1.99000001e+00 1.99199998e+00
    1.99199998e+00 1.99399996e+00 1.99600005e+00 1.99800003e+00
    1.99899995e+00 2. 2.00200009e+00 2.00300002e+00 2.00399995e+00
    2.00500011e+00 2.00799990e+00 2.01099992e+00 2.00999999e+00
    2.01200008e+00 2.01200008e+00 2.01500010e+00 2.01699996e+00
    2.01900005e+00 2.02099991e+00 2.02300000e+00 2.02399993e+00
    2.02600002e+00 2.02900004e+00 2.02900004e+00 1.26199996e+00
    1.77600002e+00 0. 0. 1.97200000e+00 1.97200000e+00 1.97500002e+00
    1.97599995e+00 1.97899997e+00 1.98000002e+00 1.98199999e+00
    1.98300004e+00 1.98399997e+00 1.98699999e+00 1.99000001e+00
    1.99000001e+00 1.99199998e+00 1.99199998e+00 1.99600005e+00
    1.99600005e+00 1.99600005e+00 1.99800003e+00 1.99800003e+00
    2.00300002e+00 2.00399995e+00 2.00399995e+00 2.00600004e+00
    2.00699997e+00 2.00900006e+00 2.00999999e+00 2.01200008e+00
    2.01399994e+00 2.01399994e+00 2.01699996e+00 2.01999998e+00
    2.02300000e+00 2.02300000e+00 2.02399993e+00 2.02500010e+00
    2.02900004e+00 2.02900004e+00 1.93900001e+00 2.83599997e+00 0.
    1.97300005e+00 1.97200000e+00 1.97500002e+00 1.97599995e+00
    1.97800004e+00 1.97899997e+00 1.97899997e+00 1.98099995e+00
    1.98300004e+00 1.98399997e+00 1.98800004e+00 1.98899996e+00
    1.99000001e+00 1.99199998e+00 1.99300003e+00 1.99300003e+00
    1.99600005e+00 1.99800003e+00 1.99899995e+00 2.00099993e+00
    2.00300002e+00 2.00300002e+00 2.00399995e+00 2.00600004e+00
    2.00799990e+00 2.00900006e+00 2.00999999e+00 2.01099992e+00
    2.01200008e+00 2.01600003e+00 2.01699996e+00 2.02099991e+00
    2.02099991e+00 2.02300000e+00 2.02399993e+00 2.02600002e+00
    2.02800012e+00 2.02900004e+00 2.03099990e+00 1.33700001e+00
    1.82500005e+00 1.97700000e+00 1.97300005e+00 1.97500002e+00
    1.97700000e+00 1.97800004e+00 1.97899997e+00 1.98099995e+00
    1.98199999e+00 1.98399997e+00 1.98500001e+00 1.98599994e+00
    1.98899996e+00 1.99000001e+00 1.99199998e+00 1.99199998e+00
    1.99399996e+00 1.99500000e+00 1.99800003e+00 1.99899995e+00 2.
    2.00099993e+00 2.00300002e+00 2.00399995e+00 2.00699997e+00
    2.00699997e+00 2.00799990e+00 2.00999999e+00 2.01200008e+00
    2.01500010e+00 2.01600003e+00 2.01699996e+00 2.01900005e+00
    2.01999998e+00 2.02300000e+00 2.02399993e+00 2.02699995e+00
    2.02500010e+00 2.02900004e+00 2.02800012e+00 1.26199996e+00
    1.26199996e+00 1.98500001e+00 1.97599995e+00 1.97599995e+00
    1.97599995e+00 1.97700000e+00 1.97899997e+00 1.98099995e+00
    1.98199999e+00 1.98399997e+00 1.98500001e+00 1.98699999e+00
    1.98800004e+00 1.99000001e+00 1.99000001e+00 1.99199998e+00
    1.99300003e+00 1.99500000e+00 1.99600005e+00 1.99899995e+00 2.
    2.00200009e+00 2.00399995e+00 2.00399995e+00 2.00500011e+00
    2.00799990e+00 2.00799990e+00 2.01099992e+00 2.01399994e+00
    2.01600003e+00 2.01699996e+00 2.01699996e+00 2.01900005e+00
    2.02300000e+00 2.02300000e+00 2.02500010e+00 2.02399993e+00
    2.02900004e+00 2.02800012e+00 1.26199996e+00 2.00399995e+00
    2.03500009e+00 1.99899995e+00 1.97899997e+00 1.97599995e+00
    1.97599995e+00 1.97800004e+00 1.97899997e+00 1.98099995e+00
    1.98300004e+00 1.98500001e+00 1.98500001e+00 1.98699999e+00
    1.98699999e+00 1.99000001e+00 1.99199998e+00 1.99199998e+00
    1.99399996e+00 1.99500000e+00 1.99600005e+00 1.99800003e+00
    2.00099993e+00 2.00099993e+00 2.00300002e+00 2.00399995e+00
    2.00399995e+00 2.00600004e+00 2.00900006e+00 2.01200008e+00
    2.01300001e+00 2.01600003e+00 2.01600003e+00 2.01699996e+00
    2.01900005e+00 2.02099991e+00 2.02300000e+00 2.02300000e+00
    2.02699995e+00 2.04200006e+00 1.26199996e+00 1.26199996e+00
    2.04900002e+00 2.03800011e+00 2.00999999e+00 1.99000001e+00
    1.97700000e+00 1.97599995e+00 1.97800004e+00 1.97800004e+00
    1.98199999e+00 1.98300004e+00 1.98399997e+00 1.98500001e+00
    1.98500001e+00 1.98899996e+00 1.99000001e+00 1.99100006e+00
    1.99199998e+00 1.99300003e+00 1.99500000e+00 1.99600005e+00
    1.99800003e+00 2.00099993e+00 2.00200009e+00 2.00300002e+00
    2.00399995e+00 2.00799990e+00 2.00799990e+00 2.00900006e+00
    2.00999999e+00 2.01300001e+00 2.01399994e+00 2.01699996e+00
    2.01799989e+00 2.01900005e+00 2.01999998e+00 2.02300000e+00
    1.70799994e+00 1.26199996e+00 0. 2.29399991e+00 1.26199996e+00
    1.38900006e+00 2.04900002e+00 2.02900004e+00 2.01399994e+00
    1.98099995e+00 1.97800004e+00 1.97800004e+00 1.98000002e+00
    1.98099995e+00 1.98300004e+00 1.98399997e+00 1.98500001e+00
    1.98500001e+00 1.98800004e+00 1.99000001e+00 1.99100006e+00
    1.99199998e+00 1.99300003e+00 1.99500000e+00 1.99600005e+00
    1.99800003e+00 2.00099993e+00 2.00300002e+00 2.00300002e+00
    2.00399995e+00 2.00600004e+00 2.00900006e+00 2.00900006e+00
    2.01099992e+00 2.01099992e+00 2.01600003e+00 2.01600003e+00
    2.01699996e+00 2.01900005e+00 2.01900005e+00 1.26199996e+00
    2.07699990e+00 0. 0. 0. 1.26199996e+00 1.32900000e+00 2.06100011e+00
    2.04900002e+00 2.01600003e+00 1.98500001e+00 1.97800004e+00
    1.97800004e+00 1.97899997e+00 1.98099995e+00 1.98199999e+00
    1.98399997e+00 1.98500001e+00 1.98599994e+00 1.98899996e+00
    1.99000001e+00 1.99000001e+00 1.99199998e+00 1.99399996e+00
    1.99500000e+00 1.99500000e+00 1.99699998e+00 2. 2.00099993e+00
    2.00300002e+00 2.00399995e+00 2.00699997e+00 2.00900006e+00
    2.00900006e+00 2.01099992e+00 2.01099992e+00 2.01399994e+00
    2.01600003e+00 2.01699996e+00 1.26199996e+00 1.26199996e+00 0. 0. 0.
    0. 0. 1.52600002e+00 1.26199996e+00 2.06299996e+00 2.04500008e+00
    2.03200006e+00 2.00200009e+00 1.98399997e+00 1.97899997e+00
    1.97899997e+00 1.98099995e+00 1.98199999e+00 1.98300004e+00
    1.98399997e+00 1.98500001e+00 1.98699999e+00 1.98899996e+00
    1.99000001e+00 1.99199998e+00 1.99300003e+00 1.99500000e+00
    1.99600005e+00 1.99800003e+00 1.99899995e+00 2.00300002e+00
    2.00300002e+00 2.00399995e+00 2.00900006e+00 2.00900006e+00
    2.00999999e+00 2.00999999e+00 2.01099992e+00 2.01300001e+00
    1.95700002e+00 1.26199996e+00 0. 0. 0. 0. 0. 0. 0. 0. 1.26199996e+00
    1.76100004e+00 2.05599999e+00 2.04299998e+00 2.02600002e+00
    1.99199998e+00 1.97899997e+00 1.97899997e+00 1.97899997e+00
    1.98199999e+00 1.98399997e+00 1.98399997e+00 1.98500001e+00
    1.98500001e+00 1.98899996e+00 1.99000001e+00 1.99199998e+00
    1.99300003e+00 1.99500000e+00 1.99600005e+00 1.99600005e+00
    1.99800003e+00 2.00300002e+00 2.00399995e+00 2.00600004e+00
    2.00799990e+00 2.00799990e+00 2.00900006e+00 2.00900006e+00
    2.01099992e+00 1.26199996e+00 1.26199996e+00 0. 0. 0. 0. 0. 0. 0. 0.
    0. 0. 2.06399989e+00 2.05800009e+00 2.04200006e+00 2.03699994e+00
    1.99300003e+00 1.98300004e+00 1.97899997e+00 1.97899997e+00
    1.98099995e+00 1.98399997e+00 1.98500001e+00 1.98399997e+00
    1.98699999e+00 1.98699999e+00 1.99100006e+00 1.99199998e+00
    1.99199998e+00 1.99500000e+00 1.99600005e+00 1.99800003e+00
    1.99800003e+00 2.00200009e+00 2.00300002e+00 2.00399995e+00
    2.00600004e+00 2.00900006e+00 2.00900006e+00 2.00999999e+00
    1.26199996e+00 0. 0. 0. 0. 0. 0. 0. 0. 0. 0. 0. 0. 0. 2.05599999e+00
    2.05200005e+00 2.03399992e+00 2.00999999e+00 1.99199998e+00
    1.98000002e+00 1.98000002e+00 1.98199999e+00 1.98399997e+00
    1.98399997e+00 1.98500001e+00 1.98699999e+00 1.99000001e+00
    1.99000001e+00 1.99100006e+00 1.99300003e+00 1.99500000e+00
    1.99699998e+00 1.99800003e+00 2.00099993e+00 2.00099993e+00
    2.00399995e+00 2.00500011e+00 2.00699997e+00 2.00699997e+00
    1.26199996e+00 0. 0. 0. 0. 0. 0. 0. 0. 0. 0. 0. 0. 0. 0. 0.
    1.26199996e+00 1.26199996e+00 2.05500007e+00 2.03999996e+00
    2.01200008e+00 1.98000002e+00 1.97899997e+00 1.98099995e+00
    1.98199999e+00 1.98399997e+00 1.98500001e+00 1.98500001e+00
    1.98899996e+00 1.99000001e+00 1.99199998e+00 1.99300003e+00
    1.99600005e+00 1.99800003e+00 1.99800003e+00 2.00200009e+00
    2.00300002e+00 2.00399995e+00 2.00300002e+00 1.34599996e+00
    1.26199996e+00 0. 0. 0. 0. 0. 0. 0. 0. 0. 0. 0. 0. 0. 0. 0. 0.
    1.44000006e+00 1.71599996e+00 2.06299996e+00 2.03299999e+00
    2.02500010e+00 2.00999999e+00 1.98199999e+00 1.98199999e+00
    1.98199999e+00 1.98399997e+00 1.98500001e+00 1.98699999e+00
    1.98899996e+00 1.99000001e+00 1.99199998e+00 1.99399996e+00
    1.99600005e+00 1.99600005e+00 1.99899995e+00 2.00099993e+00
    2.00300002e+00 2.00099993e+00 1.26199996e+00 1.26199996e+00 0. 0. 0.
    0. 0. 0. 0. 0. 0. 0. 0. 0. 0. 0. 0. 0. 0. 2.41100001e+00
    1.26199996e+00 2.01500010e+00 2.05399990e+00 2.03299999e+00
    2.00900006e+00 1.99000001e+00 1.98199999e+00 1.98399997e+00
    1.98500001e+00 1.98500001e+00 1.98699999e+00 1.98899996e+00
    1.99000001e+00 1.99199998e+00 1.99300003e+00 1.99500000e+00
    1.99800003e+00 1.99899995e+00 2.00300002e+00 1.26199996e+00
    1.26199996e+00 0. 0. 0. 0. 0. 0. 0. 0. 0. 0. 0. 0. 0. 0. 0. 0. 0. 0.
    0. 0. 1.26199996e+00 2.06500006e+00 2.05800009e+00 2.03999996e+00
    2.01799989e+00 2.00099993e+00 1.98399997e+00 1.98399997e+00
    1.98500001e+00 1.98599994e+00 1.98899996e+00 1.99000001e+00
    1.99199998e+00 1.99199998e+00 1.99500000e+00 1.99600005e+00
    1.99800003e+00 1.55999994e+00 1.26199996e+00 0. 0. 0. 0. 0. 0. 0. 0.
    0. 0. 0. 0. 0. 0. 0. 0. 0. 0. 0. 0. 0. 0. 0. 2.05999994e+00
    2.06299996e+00 2.04399991e+00 2.03800011e+00 2.01200008e+00
    1.98599994e+00 1.98500001e+00 1.98500001e+00 1.98599994e+00
    1.99000001e+00 1.99000001e+00 1.99199998e+00 1.99300003e+00
    1.99600005e+00 1.99800003e+00 1.26199996e+00 2.05200005e+00 0. 0. 0.
    0. 0. 0. 0. 0. 0. 0. 0. 0. 0. 0. 0. 0. 0. 0. 0. 0. 0. 0. 0. 0.
    2.76500010e+00 1.86800003e+00 2.05699992e+00 2.03500009e+00
    2.01600003e+00 1.99399996e+00 1.98500001e+00 1.98500001e+00
    1.98699999e+00 1.98899996e+00 1.99000001e+00 1.99300003e+00
    1.99300003e+00 1.27600002e+00 1.26199996e+00 0. 0. 0. 0. 0. 0. 0. 0.
    0. 0. 0. 0. 0. 0. 0. 0. 0. 0. 0. 0. 0. 0. 0. 0. 0. 0. 0.
    1.26199996e+00 1.32400000e+00 2.05800009e+00 2.03299999e+00
    2.00999999e+00 1.98899996e+00 1.98699999e+00 1.98899996e+00
    1.98899996e+00 1.99199998e+00 1.99300003e+00 1.26199996e+00
    1.26199996e+00 0. 0. 0. 0. 0. 0. 0. 0. 0. 0. 0. 0. 0. 0. 0. 0. 0. 0.
    0. 0. 0. 0. 0. 0. 0. 0. 0. 0. 1.88000000e+00 1.26199996e+00
    2.06100011e+00 2.04500008e+00 2.02099991e+00 1.99699998e+00
    1.99000001e+00 1.99000001e+00 1.99000001e+00 1.49600005e+00
    1.26199996e+00 0. 0. 0. 0. 0. 0. 0. 0. 0. 0. 0. 0. 0. 0. 0. 0. 0. 0.
    0. 0. 0. 0. 0. 0. 0. 0. 0. 0. 0. 0. 0. 0. 0. 0. 0. 0. 0. 0. 0. 0. 0.
    0. 0. 0. 0. 0. 0. 0. 0. 0. 0. 0. 0. 0. 0. 0. 0. 0. 0. 0. 0. 0. 0. 0.
    0. 0. 0. 0. 0. 0. 0. 0. 0. 0. 0. 0. 0. 0. 0. 0. 0. 0. 0. 0. 0. 0. 0.
    0.</data></Depth>
</opencv_storage>
