<?xml version="1.0"?>
<opencv_storage>
<Depth type_id="opencv-matrix">
  <rows>40</rows>
  <cols>40</cols>
  <dt>f</dt>
  <data>
    0. 0. 0. 0. 0. 0. 0. 0. 0. 0. 0. 0. 0. 0. 0. 0. 0. 0. 0. 0. 0. 0. 0.
    0. 0. 0. 0. 0. 0. 0. 0. 0. 0. 0. 0. 0. 0. 0. 0. 0. 0. 0. 0. 0. 0. 0.
    0. 0. 0. 0. 0. 0. 0. 0. 0. 0. 0. 0. 0. 0. 0. 0. 0. 0. 0. 0. 0. 0. 0.
    0. 0. 0. 0. 0. 0. 0. 0. 0. 0. 0. 0. 0. 0. 0. 0. 0. 0. 0. 0. 0. 0. 0.
    0. 0. 0. 0. 0. 0. 0. 0. 0. 0. 0. 0. 0. 0. 0. 0. 0. 0. 0. 0. 0. 0. 0.
    0. 0. 0. 0. 0. 0. 0. 0. 0. 0. 0. 0. 0. 0. 0. 0. 0. 0. 0. 0. 0. 0. 0.
    0. 0. 0. 0. 0. 0. 0. 0. 0. 0. 0. 0. 0. 0. 0. 0. 0. 0. 0. 0. 0. 0. 0.
    0. 0. 0. 0. 0. 0. 0. 0. 0. 0. 0. 0. 0. 0. 0. 0. 0. 0. 0. 0. 0. 0. 0.
    0. 0. 0. 0. 0. 0. 0. 0. 0. 0. 0. 0. 0. 0. 0. 0. 0. 0. 0. 0. 0. 0. 0.
    0. 0. 0. 0. 0. 0. 0. 0. 0. 0. 0. 0. 0. 0. 0. 0. 0. 0. 0. 0. 0. 0. 0.
    0. 0. 0. 0. 0. 0. 0. 0. 0. 0. 0. 0. 0. 0. 0. 0. 0. 0. 0. 0. 0. 0. 0.
    0. 0. 0. 0. 0. 0. 0. 0. 0. 0. 0. 0. 0. 0. 0. 0. 0. 0. 0. 0. 0. 0. 0.
    0. 0. 0. 0. 2.94000006e+00 2.95199990e+00 2.94499993e+00
    2.88899994e+00 2.82500005e+00 2.80500007e+00 2.79600000e+00
    2.82299995e+00 2.83800006e+00 2.89199996e+00 2.89199996e+00
    2.89199996e+00 2.91700006e+00 2.89199996e+00 2.88299990e+00
    2.85100007e+00 2.83400011e+00 2.83200002e+00 2.83200002e+00
    2.83200002e+00 2.82399988e+00 2.79299998e+00 2.77800012e+00
    2.77800012e+00 2.80299997e+00 2.79999995e+00 2.77699995e+00
    2.77600002e+00 2.75900006e+00 2.75099993e+00 2.74799991e+00
    2.66100001e+00 2.45799994e+00 2.44799995e+00 2.43899989e+00
    2.43700004e+00 2.43799996e+00 2.45799994e+00 2.45700002e+00
    2.44300008e+00 2.63700008e+00 2.73799992e+00 2.71600008e+00
    2.51699996e+00 2.11999989e+00 2.09999990e+00 2.09500003e+00
    2.09599996e+00 2.23099995e+00 2.76600003e+00 2.88400006e+00
    2.89000010e+00 2.89199996e+00 2.89000010e+00 2.86299992e+00
    2.85100007e+00 2.82999992e+00 2.81100011e+00 2.80599999e+00
    2.80599999e+00 2.80599999e+00 2.79699993e+00 2.78099990e+00
    2.77800012e+00 2.77800012e+00 2.77099991e+00 2.76500010e+00
    2.75099993e+00 2.74600005e+00 2.73799992e+00 2.70099998e+00
    2.52800012e+00 2.46399999e+00 2.46099997e+00 2.45799994e+00
    2.44400001e+00 2.44300008e+00 2.45700002e+00 2.43700004e+00
    2.41499996e+00 2.14000010e+00 2.12899995e+00 2.12199998e+00
    2.12400007e+00 2.11700010e+00 2.09800005e+00 2.09500003e+00
    2.09500003e+00 2.10700011e+00 2.27200007e+00 2.52699995e+00
    2.53500009e+00 2.85599995e+00 2.87800002e+00 2.77699995e+00
    2.50300002e+00 2.67799997e+00 2.80599999e+00 2.79500008e+00
    2.79500008e+00 2.80599999e+00 2.80599999e+00 2.79600000e+00
    2.78999996e+00 2.77800012e+00 2.75099993e+00 2.75099993e+00
    2.75099993e+00 2.73300004e+00 2.69300008e+00 2.62400007e+00
    2.51699996e+00 2.48099995e+00 2.47399998e+00 2.46099997e+00
    2.45799994e+00 2.45799994e+00 2.45300007e+00 2.43199992e+00
    2.42499995e+00 2.13199997e+00 2.12899995e+00 2.10999990e+00
    2.10400009e+00 2.10200000e+00 2.09500003e+00 2.09500003e+00
    2.09500003e+00 2.09500003e+00 2.09500003e+00 2.08599997e+00
    2.07900000e+00 2.35800004e+00 2.37700009e+00 2.28999996e+00
    2.04699993e+00 2.21799994e+00 2.33599997e+00 2.32599998e+00
    2.37599993e+00 2.78900003e+00 2.79699993e+00 2.80599999e+00
    2.79200006e+00 2.31800008e+00 2.29399991e+00 2.28699994e+00
    2.29099989e+00 2.57200003e+00 2.66499996e+00 2.58200002e+00
    2.51699996e+00 2.48099995e+00 2.47399998e+00 2.46099997e+00
    2.45799994e+00 2.45799994e+00 2.45300007e+00 2.43700004e+00
    2.43700004e+00 2.13199997e+00 2.12899995e+00 2.10899997e+00
    2.09500003e+00 2.09500003e+00 2.09500003e+00 2.09500003e+00
    2.09500003e+00 2.09200001e+00 2.08299994e+00 2.08100009e+00
    2.07900000e+00 2.05299997e+00 2.04999995e+00 2.04699993e+00
    2.04200006e+00 2.03200006e+00 2.03099990e+00 2.03099990e+00
    2.04800010e+00 2.18300009e+00 2.17499995e+00 2.16599989e+00
    2.16100001e+00 1.99199998e+00 1.98800004e+00 1.98500001e+00
    1.98699999e+00 2.09100008e+00 2.12299991e+00 2.10899997e+00
    2.50300002e+00 2.47499990e+00 2.46000004e+00 2.45799994e+00
    2.45799994e+00 2.45700002e+00 2.44099998e+00 2.43700004e+00
    2.43700004e+00 2.13199997e+00 2.12899995e+00 2.11199999e+00
    2.10599995e+00 2.09500003e+00 2.09500003e+00 2.09500003e+00
    2.09500003e+00 2.07999992e+00 2.07900000e+00 2.07900000e+00
    2.07900000e+00 2.04999995e+00 2.04699993e+00 2.04699993e+00
    2.03999996e+00 2.03099990e+00 2.01900005e+00 2.01600003e+00
    2.01600003e+00 2.01500010e+00 2.00099993e+00 1.98500001e+00
    1.98500001e+00 1.98500001e+00 1.98500001e+00 1.98500001e+00
    1.97800004e+00 1.97099996e+00 1.95799994e+00 1.95599997e+00
    2.08299994e+00 2.45900011e+00 2.45799994e+00 2.45799994e+00
    2.44000006e+00 2.43799996e+00 2.43700004e+00 2.43700004e+00
    2.43700004e+00 2.13199997e+00 2.11199999e+00 2.11199999e+00
    2.11100006e+00 2.10999990e+00 2.09999990e+00 2.09500003e+00
    2.09400010e+00 2.07900000e+00 2.07900000e+00 2.07900000e+00
    2.07900000e+00 2.04999995e+00 2.04699993e+00 2.04699993e+00
    2.04099989e+00 2.03200006e+00 2.01999998e+00 2.01500010e+00
    2.01500010e+00 2.01500010e+00 2.01300001e+00 1.99500000e+00
    1.98500001e+00 1.98500001e+00 1.98500001e+00 1.98500001e+00
    1.97800004e+00 1.97000003e+00 1.95700002e+00 1.95500004e+00
    1.96800005e+00 2.12299991e+00 2.38499999e+00 2.37500000e+00
    2.37299991e+00 2.37199998e+00 2.35299993e+00 2.35299993e+00
    2.35299993e+00 2.13100004e+00 2.11199999e+00 2.11100006e+00
    2.10299993e+00 2.09500003e+00 2.09500003e+00 2.09500003e+00
    2.09400010e+00 2.07800007e+00 2.07399988e+00 2.07399988e+00
    2.07399988e+00 2.04999995e+00 2.04699993e+00 2.04699993e+00
    2.04699993e+00 2.03800011e+00 2.03099990e+00 2.01600003e+00
    2.01500010e+00 2.01200008e+00 1.99600005e+00 1.98500001e+00
    1.98500001e+00 1.98500001e+00 1.98500001e+00 1.98500001e+00
    1.97800004e+00 1.97000003e+00 1.95700002e+00 1.95500004e+00
    1.95500004e+00 1.95500004e+00 1.95500004e+00 1.94400001e+00
    1.92799997e+00 1.92600000e+00 1.92600000e+00 1.92600000e+00
    1.92600000e+00 2.12899995e+00 2.11199999e+00 2.10899997e+00
    2.09500003e+00 2.09500003e+00 2.09500003e+00 2.08899999e+00
    2.08699989e+00 2.06999993e+00 2.06299996e+00 2.06299996e+00
    2.06299996e+00 2.04900002e+00 2.04699993e+00 2.04699993e+00
    2.04699993e+00 2.03800011e+00 2.03099990e+00 2.02300000e+00
    2.01500010e+00 2.00600004e+00 1.98500001e+00 1.98500001e+00
    1.98500001e+00 1.98500001e+00 1.98500001e+00 1.98500001e+00
    1.97800004e+00 1.97000003e+00 1.95700002e+00 1.95500004e+00
    1.95500004e+00 1.95500004e+00 1.95500004e+00 1.94400001e+00
    1.92799997e+00 1.92600000e+00 1.91900003e+00 1.92200005e+00
    1.92600000e+00 2.12899995e+00 2.11199999e+00 2.10899997e+00
    2.09500003e+00 2.09500003e+00 2.09500003e+00 2.08100009e+00
    2.07800007e+00 2.06299996e+00 2.06299996e+00 2.06299996e+00
    2.06299996e+00 2.04900002e+00 2.04699993e+00 2.04699993e+00
    2.04699993e+00 2.03800011e+00 2.03099990e+00 2.02099991e+00
    2.01399994e+00 2. 1.98500001e+00 1.98500001e+00 1.98500001e+00
    1.98500001e+00 1.98500001e+00 1.98500001e+00 1.97800004e+00
    1.97000003e+00 1.95700002e+00 1.95500004e+00 1.95299995e+00
    1.94500005e+00 1.94500005e+00 1.94200003e+00 1.92799997e+00
    1.92499995e+00 1.91199994e+00 1.91799998e+00 1.92600000e+00
    2.12899995e+00 2.12599993e+00 2.10899997e+00 2.09500003e+00
    2.09500003e+00 2.09500003e+00 2.08100009e+00 2.07800007e+00
    2.06299996e+00 2.06299996e+00 2.05599999e+00 2.04999995e+00
    2.04699993e+00 2.03399992e+00 2.03399992e+00 2.03399992e+00
    2.02399993e+00 2.01799989e+00 2.01500010e+00 2.00200009e+00
    1.99899995e+00 1.99199998e+00 1.98500001e+00 1.98500001e+00
    1.98500001e+00 1.98500001e+00 1.98500001e+00 1.97800004e+00
    1.97000003e+00 1.96800005e+00 1.96700001e+00 1.95200002e+00
    1.94000006e+00 1.94000006e+00 1.94000006e+00 1.93799996e+00
    1.92600000e+00 1.92299998e+00 1.92400002e+00 1.91900003e+00
    2.12899995e+00 2.11199999e+00 2.10899997e+00 2.09500003e+00
    2.08699989e+00 2.07900000e+00 2.07900000e+00 2.07800007e+00
    2.06299996e+00 2.06299996e+00 2.05399990e+00 2.04699993e+00
    2.04699993e+00 2.03099990e+00 2.03099990e+00 2.03099990e+00
    2.02200007e+00 2.00399995e+00 2. 2. 2. 1.99300003e+00 1.98500001e+00
    1.97300005e+00 1.97000003e+00 1.98300004e+00 1.97000003e+00
    1.97000003e+00 1.97000003e+00 1.97000003e+00 1.95500004e+00
    1.95200002e+00 1.94000006e+00 1.94000006e+00 1.94000006e+00
    1.94000006e+00 1.92600000e+00 1.92600000e+00 1.92600000e+00
    1.91799998e+00 2.11800003e+00 2.10899997e+00 2.10700011e+00
    2.09400010e+00 2.08599997e+00 2.07900000e+00 2.07900000e+00
    2.07900000e+00 2.07599998e+00 2.06299996e+00 2.05399990e+00
    2.04699993e+00 2.04699993e+00 2.03299999e+00 2.03099990e+00
    2.03099990e+00 2.02200007e+00 2.00399995e+00 2. 2. 2. 1.99300003e+00
    1.98500001e+00 1.97300005e+00 1.97000003e+00 1.97000003e+00
    1.97000003e+00 1.97000003e+00 1.97000003e+00 1.95700002e+00
    1.94000006e+00 1.94000006e+00 1.94000006e+00 1.93900001e+00
    1.92900002e+00 1.92600000e+00 1.92600000e+00 1.92299998e+00
    1.91199994e+00 1.91199994e+00 2.11700010e+00 2.09500003e+00
    2.09500003e+00 2.08999991e+00 2.07900000e+00 2.07900000e+00
    2.07900000e+00 2.07900000e+00 2.07599998e+00 2.06299996e+00
    2.05399990e+00 2.04699993e+00 2.04699993e+00 2.04600000e+00
    2.03500009e+00 2.03099990e+00 2.02200007e+00 2.00399995e+00 2. 2. 2.
    1.99300003e+00 1.98500001e+00 1.97300005e+00 1.97000003e+00
    1.97000003e+00 1.97000003e+00 1.96700001e+00 1.96500003e+00
    1.95700002e+00 1.94000006e+00 1.94000006e+00 1.93799996e+00
    1.92999995e+00 1.92600000e+00 1.92600000e+00 1.92600000e+00
    1.92299998e+00 1.91199994e+00 1.91199994e+00 2.10599995e+00
    2.09500003e+00 2.09500003e+00 2.08999991e+00 2.07900000e+00
    2.07900000e+00 2.07900000e+00 2.07900000e+00 2.07599998e+00
    2.06299996e+00 2.05399990e+00 2.04699993e+00 2.04699993e+00
    2.04699993e+00 2.04299998e+00 2.03099990e+00 2.02200007e+00
    2.00900006e+00 2. 2. 1.99800003e+00 1.98899996e+00 1.98500001e+00
    1.97300005e+00 1.97000003e+00 1.97000003e+00 1.97000003e+00
    1.96300006e+00 1.95500004e+00 1.95500004e+00 1.94000006e+00
    1.94000006e+00 1.93499994e+00 1.92600000e+00 1.92600000e+00
    1.92600000e+00 1.92600000e+00 1.92299998e+00 1.91199994e+00
    1.91199994e+00 2.09599996e+00 2.09500003e+00 2.09299994e+00
    2.08200002e+00 2.07900000e+00 2.07100010e+00 2.06800008e+00
    2.06800008e+00 2.06699991e+00 2.06299996e+00 2.05399990e+00
    2.04699993e+00 2.04699993e+00 2.04600000e+00 2.03500009e+00
    2.03099990e+00 2.02200007e+00 2.01500010e+00 2.01099992e+00
    1.99000001e+00 1.98800004e+00 1.98500001e+00 1.98500001e+00
    1.97300005e+00 1.97000003e+00 1.97000003e+00 1.97000003e+00
    1.96300006e+00 1.95500004e+00 1.94599998e+00 1.94000006e+00
    1.94000006e+00 1.93799996e+00 1.92999995e+00 1.92600000e+00
    1.92600000e+00 1.92600000e+00 1.92299998e+00 1.91199994e+00
    1.91199994e+00 2.09500003e+00 2.09500003e+00 2.07900000e+00
    2.06500006e+00 2.06500006e+00 2.06399989e+00 2.06299996e+00
    2.04900002e+00 2.05200005e+00 2.06299996e+00 2.06200004e+00
    2.05100012e+00 2.04699993e+00 2.04600000e+00 2.03099990e+00
    2.03099990e+00 2.02999997e+00 2.01799989e+00 2.01500010e+00
    1.98500001e+00 1.98500001e+00 1.98500001e+00 1.98500001e+00
    1.98300004e+00 1.97000003e+00 1.97000003e+00 1.97000003e+00
    1.96300006e+00 1.95500004e+00 1.94200003e+00 1.94000006e+00
    1.94000006e+00 1.94000006e+00 1.93900001e+00 1.92999995e+00
    1.92600000e+00 1.92600000e+00 1.92600000e+00 1.92400002e+00
    1.91700006e+00 2.01999998e+00 2.01999998e+00 2.01399994e+00
    2.06299996e+00 2.06299996e+00 2.05200005e+00 2.04699993e+00
    2.04699993e+00 2.04699993e+00 2.04699993e+00 2.04699993e+00
    2.04699993e+00 2.04699993e+00 2.04600000e+00 2.03099990e+00
    2.03099990e+00 2.02200007e+00 2.01500010e+00 2.01399994e+00
    1.98500001e+00 1.98500001e+00 1.98500001e+00 1.98500001e+00
    1.98500001e+00 1.97000003e+00 1.97000003e+00 1.97000003e+00
    1.96300006e+00 1.95500004e+00 1.94200003e+00 1.94000006e+00
    1.94000006e+00 1.94000006e+00 1.94000006e+00 1.92999995e+00
    1.92600000e+00 1.92600000e+00 1.92600000e+00 1.92600000e+00
    1.91799998e+00 0. 0. 0. 1.58200002e+00 1.58200002e+00 1.57299995e+00
    1.56900001e+00 2.04699993e+00 2.04699993e+00 2.04699993e+00
    2.04699993e+00 2.04699993e+00 2.04399991e+00 2.04299998e+00
    2.03099990e+00 2.03099990e+00 2.02200007e+00 2.01300001e+00
    1.98699999e+00 1.98500001e+00 1.98500001e+00 1.98500001e+00
    1.98500001e+00 1.98300004e+00 1.97000003e+00 1.97000003e+00
    1.97000003e+00 1.97000003e+00 1.97000003e+00 1.94700003e+00
    1.94299996e+00 1.94000006e+00 1.93900001e+00 1.93099999e+00
    1.92600000e+00 1.92600000e+00 1.92600000e+00 1.92499995e+00
    1.91900003e+00 1.90999997e+00 0. 0. 0. 0. 0. 0. 0. 1.16499996e+00
    1.16499996e+00 1.16499996e+00 1.65100002e+00 2.04699993e+00
    2.03299999e+00 2.03099990e+00 2.02999997e+00 2.02300000e+00
    2.01300001e+00 1.99800003e+00 1.98599994e+00 1.98599994e+00
    1.98899996e+00 1.98500001e+00 1.98500001e+00 1.97300005e+00
    1.97000003e+00 1.97000003e+00 1.97000003e+00 1.97000003e+00
    1.97000003e+00 1.95700002e+00 1.95500004e+00 1.94000006e+00
    1.93499994e+00 1.92600000e+00 1.92600000e+00 1.92600000e+00
    1.92600000e+00 1.92299998e+00 1.91199994e+00 1.90400004e+00 0. 0. 0.
    0. 0. 0. 0. 0. 0. 0. 0. 0. 0. 0. 2.02699995e+00 2.00900006e+00 2.
    1.98899996e+00 1.98500001e+00 1.98699999e+00 1.99800003e+00
    1.99300003e+00 1.99300003e+00 1.98099995e+00 1.97000003e+00
    1.96899998e+00 1.96200001e+00 1.96200001e+00 1.96200001e+00
    1.94900000e+00 1.94700003e+00 1.93200004e+00 1.93299997e+00
    1.92999995e+00 1.92600000e+00 1.92600000e+00 1.92600000e+00
    1.92299998e+00 1.91199994e+00 1.90400004e+00 0. 0. 0. 0. 0. 0. 0. 0.
    0. 0. 0. 0. 0. 0. 0. 0. 1.32200003e+00 1.99699998e+00 1.98599994e+00
    1.80400002e+00 0. 2.01099992e+00 2.01099992e+00 1.99000001e+00
    1.97000003e+00 1.92700005e+00 1.92999995e+00 1.94400001e+00
    1.94400001e+00 1.93200004e+00 1.92999995e+00 1.92600000e+00
    1.93099999e+00 1.93799996e+00 1.92900002e+00 1.92600000e+00
    1.92600000e+00 1.92299998e+00 1.91199994e+00 1.90999997e+00 0. 0. 0.
    0. 0. 0. 0. 0. 0. 0. 0. 0. 0. 0. 0. 0. 0. 0. 0. 0. 0. 0. 0. 0. 0.
    1.91199994e+00 1.91700006e+00 1.92700005e+00 1.92700005e+00
    1.90499997e+00 1.90100002e+00 1.93099999e+00 1.94799995e+00
    1.94000006e+00 1.92999995e+00 1.92600000e+00 1.92600000e+00
    1.92299998e+00 1.91199994e+00 1.91199994e+00 0. 0. 0. 0. 0. 0. 0. 0.
    0. 0. 0. 0. 0. 0. 0. 0. 0. 0. 0. 0. 0. 0. 0. 0. 0. 0. 0.
    1.76900005e+00 1.76900005e+00 1.74699998e+00 1.74399996e+00
    1.77400005e+00 1.79600000e+00 1.86600006e+00 1.92600000e+00
    1.92600000e+00 1.91199994e+00 1.91199994e+00 1.91199994e+00
    1.91199994e+00 0. 0. 0. 0. 0. 0. 0. 0. 0. 0. 0. 0. 0. 0. 0. 0. 0. 0.
    0. 0. 0. 0. 0. 0. 0. 0. 0. 0. 0. 0. 0. 0. 0. 0. 1.38600004e+00
    1.38600004e+00 1.37500000e+00 1.37500000e+00 1.37500000e+00
    1.37500000e+00 0. 0. 0. 0. 0. 0. 0. 0. 0. 0. 0. 0. 0. 0. 0. 0. 0. 0.
    0. 0. 0. 0. 0. 0. 0. 0. 0. 0. 0. 0. 0. 0. 0. 0. 0. 0. 0. 0. 0. 0. 0.
    0. 0. 0. 0. 0. 0. 0. 0. 0. 0. 0. 0. 0. 0. 0. 0. 0. 0. 0. 0. 0. 0. 0.
    0. 0. 0. 0. 0. 0. 0. 0. 0. 0. 0. 0. 0. 0. 0. 0. 0. 0. 0. 0. 0. 0. 0.
    0. 0. 0. 0. 0. 0. 0. 0. 0. 0. 0. 0. 0. 0. 0. 0. 0. 0. 0. 0. 0. 0. 0.
    0. 0. 0. 0. 0. 0. 0. 0. 0. 0. 0. 0. 0. 0. 0. 0. 0. 0. 0. 0. 0. 0. 0.
    0. 0. 0. 0. 0. 0. 0. 0. 0. 0. 0. 0. 0. 0. 0. 0. 0. 0. 0. 0. 0. 0. 0.
    0. 0. 0. 0. 0. 0. 0. 0. 0. 0. 0. 0. 0. 0. 0. 0. 0. 0. 0. 0. 0. 0. 0.
    0. 0. 0. 0. 0. 0. 0. 0. 0. 0. 0. 0. 0. 0. 0. 0. 0. 0. 0. 0. 0. 0. 0.
    0. 0. 0. 0. 0. 0. 0. 0. 0. 0. 0. 0. 0. 0. 0. 0. 0. 0. 0. 0. 0. 0. 0.
    0. 0. 0. 0. 0. 0. 0. 0. 0. 0. 0. 0. 0. 0. 0. 0. 0. 0. 0. 0. 0. 0. 0.
    0. 0. 0. 0. 0. 0. 0. 0. 0. 0. 0. 0. 0. 0. 0. 0. 0. 0. 0. 0. 0. 0. 0.
    0. 0. 0. 0. 0. 0. 0. 0. 0. 0. 0. 0. 0. 0. 0. 0. 0. 0. 0. 0. 0. 0. 0.
    0. 0. 0. 0. 0. 0. 0. 0. 0. 0. 0. 0. 0. 0. 0. 0. 0. 0. 0. 0. 0. 0. 0.
    0. 0. 0.</data></Depth>
</opencv_storage>
