<?xml version="1.0"?>
<opencv_storage>
<Depth type_id="opencv-matrix">
  <rows>40</rows>
  <cols>40</cols>
  <dt>f</dt>
  <data>
    0. 0. 0. 0. 0. 0. 0. 0. 0. 0. 0. 0. 0. 0. 0. 0. 0. 0. 0. 0. 0. 0. 0.
    0. 0. 0. 0. 0. 0. 0. 0. 0. 0. 0. 0. 0. 0. 0. 0. 0. 0. 0. 0. 0. 0. 0.
    0. 0. 0. 0. 0. 0. 0. 0. 0. 0. 0. 0. 0. 0. 0. 0. 0. 0. 0. 0. 0. 0. 0.
    0. 0. 0. 0. 0. 0. 0. 0. 0. 0. 0. 0. 0. 0. 0. 0. 0. 0. 0. 0.
    2.19899988e+00 2.07100010e+00 2.05800009e+00 2.00699997e+00
    2.00500011e+00 2.44199991e+00 0. 0. 0. 0. 0. 0. 0. 0. 0. 0. 0. 0. 0.
    0. 0. 2.96799994e+00 0. 0. 0. 0. 0. 0. 0. 0. 0. 0. 0. 0. 0. 0. 0. 0.
    0. 0. 2.19899988e+00 2.02399993e+00 1.99699998e+00 1.99500000e+00
    1.99699998e+00 1.99800003e+00 2.00500011e+00 2.01999998e+00
    2.02300000e+00 2.02900004e+00 2.03800011e+00 2.76900005e+00
    2.77900004e+00 2.78500009e+00 2.78200006e+00 2.78399992e+00
    2.08200002e+00 2.79399991e+00 2.79099989e+00 2.78699994e+00
    2.78699994e+00 2.07900000e+00 2.15899992e+00 0. 0. 0. 0. 0. 0. 0. 0.
    0. 0. 0. 0. 0. 0. 0. 0. 0. 2.09299994e+00 1.99500000e+00
    1.99100006e+00 1.99000001e+00 1.99000001e+00 1.99000001e+00
    1.99100006e+00 1.99100006e+00 1.99500000e+00 1.99600005e+00
    2.00300002e+00 1.99899995e+00 2.00999999e+00 2.01900005e+00
    2.01999998e+00 2.02500010e+00 2.03200006e+00 2.03399992e+00
    2.06299996e+00 2.07599998e+00 2.07699990e+00 2.07699990e+00
    2.08200002e+00 2.48799992e+00 0. 0. 0. 0. 0. 0. 0. 0. 0. 0. 0. 0. 0.
    0. 0. 0. 2.05599999e+00 1.99500000e+00 1.99000001e+00 1.99000001e+00
    1.99000001e+00 1.99000001e+00 1.99000001e+00 1.99000001e+00
    1.99000001e+00 1.99000001e+00 1.99000001e+00 1.99100006e+00 2.
    2.00099993e+00 2.00099993e+00 2.00099993e+00 2.00600004e+00
    2.00099993e+00 2.00399995e+00 2.00999999e+00 2.01900005e+00
    2.02399993e+00 2.01799989e+00 2.08500004e+00 2.84899998e+00 0. 0. 0.
    0. 0. 0. 0. 0. 0. 0. 0. 0. 0. 0. 0. 2.05500007e+00 2.00900006e+00
    1.99399996e+00 1.99000001e+00 1.99000001e+00 1.99000001e+00
    1.99000001e+00 1.99000001e+00 1.99000001e+00 1.99100006e+00
    1.99000001e+00 1.99500000e+00 2. 1.99500000e+00 2. 2. 2.00300002e+00
    2. 2. 2. 2.00500011e+00 2.00500011e+00 2.00500011e+00 2.00500011e+00
    2.00500011e+00 2.11899996e+00 0. 0. 0. 0. 0. 0. 0. 0. 0. 0. 0. 0. 0.
    2.39100003e+00 2.05500007e+00 2.00500011e+00 1.99399996e+00
    1.99000001e+00 1.99000001e+00 1.99000001e+00 1.99000001e+00
    1.99000001e+00 1.99000001e+00 1.99500000e+00 1.99500000e+00
    1.99500000e+00 2. 1.99899995e+00 1.99699998e+00 2. 2. 2.
    2.00399995e+00 2.00500011e+00 2.00500011e+00 2.00500011e+00
    2.00999999e+00 2.00500011e+00 2.00500011e+00 2.00500011e+00 0. 0. 0.
    0. 0. 0. 0. 0. 0. 0. 0. 0. 0. 2.40199995e+00 2.05399990e+00
    2.00399995e+00 1.99000001e+00 1.99000001e+00 1.99000001e+00
    1.99000001e+00 1.99000001e+00 1.99000001e+00 1.99000001e+00
    1.99500000e+00 1.99500000e+00 1.99500000e+00 2. 2. 2. 2. 2.
    2.00500011e+00 2.00900006e+00 2.00999999e+00 2.00500011e+00
    2.00099993e+00 2.00900006e+00 2.00500011e+00 2.00500011e+00
    2.00500011e+00 0. 0. 0. 0. 0. 0. 0. 0. 0. 0. 0. 0. 0. 2.06800008e+00
    2.04800010e+00 2. 1.99000001e+00 1.99000001e+00 1.99000001e+00
    1.99000001e+00 1.99000001e+00 1.99000001e+00 1.99000001e+00
    1.99000001e+00 1.99500000e+00 1.99500000e+00 2. 2. 2. 2. 2.
    2.00300002e+00 2.00500011e+00 2.00500011e+00 2.00500011e+00
    2.00600004e+00 2.00500011e+00 2. 2. 2. 0. 0. 0. 0. 0. 0. 0. 0. 0. 0.
    0. 0. 0. 2.06999993e+00 2.03999996e+00 1.99500000e+00 1.99000001e+00
    1.99000001e+00 1.99000001e+00 1.99000001e+00 1.99000001e+00
    1.99000001e+00 1.99500000e+00 1.99500000e+00 1.99500000e+00
    1.99500000e+00 2. 2. 2. 2. 2.00099993e+00 2.00399995e+00
    2.00099993e+00 2. 2.00500011e+00 2.00799990e+00 2.00500011e+00
    2.00500011e+00 2.00500011e+00 0. 0. 0. 0. 0. 0. 0. 0. 0. 0. 0. 0. 0.
    0. 2.06299996e+00 2.03999996e+00 1.99500000e+00 1.99000001e+00
    1.99000001e+00 1.99000001e+00 1.99000001e+00 1.99000001e+00
    1.99199998e+00 1.99500000e+00 1.99500000e+00 1.99500000e+00
    1.99500000e+00 2. 2. 2. 2. 2.00399995e+00 2.00500011e+00 2.
    2.00200009e+00 2.00500011e+00 2.00500011e+00 2.00500011e+00
    2.00699997e+00 2.00500011e+00 1.28199995e+00 0. 0. 0. 0. 0. 0. 0. 0.
    0. 0. 0. 0. 0. 2.05800009e+00 2.01799989e+00 1.99500000e+00
    1.99000001e+00 1.99000001e+00 1.99000001e+00 1.99000001e+00
    1.99300003e+00 1.99500000e+00 1.99500000e+00 1.99500000e+00
    1.99500000e+00 1.99500000e+00 2. 2. 2. 2. 2.00799990e+00
    2.00600004e+00 2.00300002e+00 2. 2.00500011e+00 2.00500011e+00
    2.00500011e+00 2.00900006e+00 2.00500011e+00 2.00500011e+00 0. 0. 0.
    0. 0. 0. 0. 0. 0. 0. 0. 0. 2.61199999e+00 2.04999995e+00
    2.01600003e+00 1.99500000e+00 1.99000001e+00 1.99000001e+00
    1.99000001e+00 1.99000001e+00 1.99399996e+00 1.99500000e+00
    1.99500000e+00 1.99500000e+00 1.99500000e+00 1.99500000e+00 2. 2. 2.
    2.00099993e+00 2.00500011e+00 2.00500011e+00 2.00399995e+00
    2.00500011e+00 2.00500011e+00 2.00799990e+00 2.00500011e+00
    2.00500011e+00 2.00500011e+00 2.00500011e+00 0. 0. 0. 0. 0. 0. 0. 0.
    0. 0. 0. 0. 2.61599994e+00 2.05399990e+00 2.01300001e+00
    1.99500000e+00 1.99000001e+00 1.99000001e+00 1.99000001e+00
    1.99000001e+00 1.99500000e+00 1.99500000e+00 1.99500000e+00
    1.99500000e+00 1.99500000e+00 1.99500000e+00 2. 2.00399995e+00
    2.00399995e+00 2.00500011e+00 2.00799990e+00 2.00900006e+00
    2.00500011e+00 2.00500011e+00 2.00799990e+00 2.00999999e+00
    2.00500011e+00 2.00500011e+00 2.00999999e+00 0. 0. 0. 0. 0. 0. 0. 0.
    0. 0. 0. 0. 0. 2.62700009e+00 2.05599999e+00 2.00699997e+00
    1.99500000e+00 1.99399996e+00 1.99000001e+00 1.99000001e+00
    1.99000001e+00 1.99300003e+00 1.99500000e+00 1.99500000e+00
    1.99500000e+00 1.99500000e+00 1.99500000e+00 2.00500011e+00
    2.00500011e+00 2.00099993e+00 2.00500011e+00 2.00999999e+00
    2.00999999e+00 2.00600004e+00 2.00500011e+00 2.00999999e+00
    2.00999999e+00 2.00900006e+00 2. 2.52200007e+00 0. 0. 0. 0. 0. 0. 0.
    0. 0. 0. 0. 0. 0. 2.07100010e+00 2.05200005e+00 2.00099993e+00
    1.99500000e+00 1.99500000e+00 1.99399996e+00 1.99000001e+00
    1.99000001e+00 1.99500000e+00 1.99500000e+00 1.99500000e+00
    1.99500000e+00 1.99500000e+00 2. 2.00500011e+00 2.00500011e+00 2.
    2.00200009e+00 2.00999999e+00 2.00999999e+00 2.00999999e+00
    2.00500011e+00 2.00999999e+00 2.00999999e+00 2.00500011e+00
    2.00999999e+00 2.63299990e+00 0. 0. 0. 0. 0. 0. 0. 0. 0. 0. 0. 0. 0.
    2.07100010e+00 2.04600000e+00 2.00099993e+00 1.99500000e+00
    1.99500000e+00 1.99399996e+00 1.99199998e+00 1.99500000e+00
    1.99500000e+00 1.99500000e+00 1.99600005e+00 1.99500000e+00
    1.99500000e+00 2. 2.00999999e+00 2.00500011e+00 2.00500011e+00
    2.00699997e+00 2.00999999e+00 2.00999999e+00 2.00999999e+00
    2.00999999e+00 2.00999999e+00 2.00999999e+00 2.00500011e+00
    2.00699997e+00 1.64199996e+00 0. 0. 0. 0. 0. 0. 0. 0. 0. 0. 0. 0. 0.
    2.05999994e+00 2.03699994e+00 2.00099993e+00 1.99500000e+00
    1.99399996e+00 1.99300003e+00 1.99199998e+00 1.99500000e+00
    1.99500000e+00 1.99500000e+00 1.99899995e+00 2. 2. 2. 2.00500011e+00
    2.00500011e+00 2.00500011e+00 2.00699997e+00 2.01399994e+00
    2.00999999e+00 2.00699997e+00 2.00900006e+00 2.00999999e+00
    2.00500011e+00 2.00600004e+00 2.01099992e+00 2.62599993e+00 0. 0. 0.
    0. 0. 0. 0. 0. 0. 0. 0. 0. 0. 2.06500006e+00 2.03299999e+00
    2.00099993e+00 1.99500000e+00 1.99000001e+00 1.99000001e+00
    1.99500000e+00 1.99500000e+00 1.99500000e+00 1.99500000e+00
    1.99500000e+00 1.99500000e+00 2. 2. 2.00500011e+00 2.00500011e+00
    2.00500011e+00 2.00799990e+00 2.00999999e+00 2.00999999e+00
    2.00999999e+00 2.00999999e+00 2.00999999e+00 2.00600004e+00
    2.00999999e+00 2.00999999e+00 2.62400007e+00 0. 0. 0. 0. 0. 0. 0. 0.
    0. 0. 0. 0. 0. 2.06800008e+00 2.02399993e+00 2.00099993e+00
    1.99500000e+00 1.99199998e+00 1.99500000e+00 1.99500000e+00
    1.99500000e+00 1.99500000e+00 1.99699998e+00 1.99500000e+00
    1.99600005e+00 2. 1.99500000e+00 2.00500011e+00 2.00699997e+00
    2.00999999e+00 2.01099992e+00 2.01099992e+00 2.01399994e+00
    2.01300001e+00 2.00999999e+00 2.00999999e+00 2.00999999e+00
    2.00999999e+00 2.01099992e+00 0. 0. 0. 0. 0. 0. 0. 0. 0. 0. 0. 0. 0.
    2.87400007e+00 2.07299995e+00 2.01699996e+00 1.99800003e+00
    1.99500000e+00 1.99500000e+00 1.99500000e+00 1.99500000e+00
    1.99500000e+00 1.99500000e+00 1.99800003e+00 2. 2. 2. 1.99699998e+00
    2.00999999e+00 2.00500011e+00 2.00999999e+00 2.01200008e+00
    2.01399994e+00 2.01399994e+00 2.01200008e+00 2.00999999e+00
    2.01200008e+00 2.01399994e+00 2.01399994e+00 2.01900005e+00 0. 0. 0.
    0. 0. 0. 0. 0. 0. 0. 0. 0. 0. 2.07599998e+00 2.06999993e+00
    2.00699997e+00 1.99500000e+00 1.99500000e+00 1.99500000e+00
    1.99500000e+00 1.99500000e+00 1.99500000e+00 1.99500000e+00
    1.99800003e+00 2. 2.00200009e+00 2.00500011e+00 2. 2.00999999e+00
    2.00799990e+00 2.01099992e+00 2.00999999e+00 2.01099992e+00
    2.01300001e+00 2.01399994e+00 2.01399994e+00 2.01399994e+00
    2.01399994e+00 2.01399994e+00 2.01900005e+00 0. 0. 0. 0. 0. 0. 0. 0.
    0. 0. 0. 0. 0. 2.54500008e+00 2.05900002e+00 2.00300002e+00
    1.99500000e+00 1.99500000e+00 1.99500000e+00 1.99500000e+00
    1.99500000e+00 1.99500000e+00 1.99500000e+00 1.99899995e+00 2.
    2.00200009e+00 2. 2. 2.00999999e+00 2.00999999e+00 2.01200008e+00
    2.00999999e+00 2.00999999e+00 2.00999999e+00 2.01300001e+00
    2.01399994e+00 2.01399994e+00 2.00999999e+00 2.00999999e+00
    2.26900005e+00 0. 0. 0. 0. 0. 0. 0. 0. 0. 0. 0. 0. 0. 2.07699990e+00
    2.05399990e+00 2.00600004e+00 1.99500000e+00 1.99500000e+00
    1.99500000e+00 1.99500000e+00 1.99500000e+00 2. 1.99500000e+00 2.
    2.00399995e+00 2.00099993e+00 2. 1.99500000e+00 2.00999999e+00
    2.01099992e+00 2.01099992e+00 2.00999999e+00 2.00999999e+00
    2.00999999e+00 2.01300001e+00 2.01399994e+00 2.01399994e+00
    2.01399994e+00 2.01399994e+00 2.42499995e+00 0. 0. 0. 0. 0. 0. 0. 0.
    0. 0. 0. 0. 0. 2.07299995e+00 2.04600000e+00 2.00699997e+00
    1.99500000e+00 1.99500000e+00 1.99500000e+00 1.99500000e+00
    1.99500000e+00 1.99699998e+00 2. 2. 2.00099993e+00 2.00399995e+00
    2.00399995e+00 2.00399995e+00 2.01300001e+00 2.00999999e+00
    2.01099992e+00 2.01399994e+00 2.00999999e+00 2.01300001e+00
    2.01399994e+00 2.01399994e+00 2.01399994e+00 2.01399994e+00
    2.01399994e+00 2.23900008e+00 0. 0. 0. 0. 0. 0. 0. 0. 0. 0. 0. 0. 0.
    2.07299995e+00 2.03399992e+00 2.00600004e+00 1.99500000e+00
    1.99500000e+00 1.99500000e+00 1.99500000e+00 1.99500000e+00
    1.99500000e+00 2. 1.99699998e+00 1.99899995e+00 2. 2.00500011e+00
    2.00500011e+00 2.00999999e+00 2.00999999e+00 2.01099992e+00
    2.00999999e+00 2.00999999e+00 2.01399994e+00 2.01399994e+00
    2.01399994e+00 2.01399994e+00 2.01399994e+00 2.01399994e+00
    2.42499995e+00 0. 0. 0. 0. 0. 0. 0. 0. 0. 0. 0. 0. 0. 2.07100010e+00
    2.01799989e+00 1.99699998e+00 1.99500000e+00 1.99500000e+00
    1.99500000e+00 1.99600005e+00 2. 2. 2. 2. 2. 2. 2. 2.00500011e+00
    2.00999999e+00 2.00999999e+00 2.01399994e+00 2.01399994e+00
    2.01399994e+00 2.01399994e+00 2.01399994e+00 2.01399994e+00
    2.01399994e+00 2.01399994e+00 2.01399994e+00 2.42499995e+00 0. 0. 0.
    0. 0. 0. 0. 0. 0. 0. 0. 0. 2.07599998e+00 2.06599998e+00
    2.01799989e+00 1.99600005e+00 1.99500000e+00 1.99500000e+00
    1.99500000e+00 1.99500000e+00 1.99699998e+00 2.00399995e+00
    2.00200009e+00 2. 2.00399995e+00 2.00500011e+00 2.00500011e+00
    2.00500011e+00 2.00999999e+00 2.01099992e+00 2.01300001e+00
    2.00999999e+00 2.01399994e+00 2.01399994e+00 2.01399994e+00
    2.01399994e+00 2.01399994e+00 2.01399994e+00 2.01500010e+00
    2.43300009e+00 0. 0. 0. 0. 0. 0. 0. 0. 0. 0. 0. 0. 2.08599997e+00
    2.05100012e+00 2.01399994e+00 1.99600005e+00 1.99500000e+00
    1.99500000e+00 1.99500000e+00 1.99500000e+00 1.99699998e+00 2. 2. 2.
    2. 2.00500011e+00 2.00500011e+00 2.00500011e+00 2.00999999e+00
    2.01300001e+00 2.01200008e+00 2.00999999e+00 2.01200008e+00
    2.01399994e+00 2.01399994e+00 2.01399994e+00 2.01399994e+00
    2.01399994e+00 2.22700000e+00 0. 0. 0. 0. 0. 0. 0. 0. 0. 0. 0. 0. 0.
    2.09100008e+00 2.04999995e+00 2.01099992e+00 1.99500000e+00
    1.99500000e+00 1.99500000e+00 1.99500000e+00 1.99500000e+00
    1.99699998e+00 2. 2. 2. 2. 2.00500011e+00 2.00500011e+00
    2.00999999e+00 2.00999999e+00 2.01099992e+00 2.01099992e+00
    2.01099992e+00 2.01399994e+00 2.01399994e+00 2.01399994e+00
    2.01399994e+00 2.01399994e+00 2.01399994e+00 1.87000000e+00 0. 0. 0.
    0. 0. 0. 0. 0. 0. 0. 0. 0. 0. 2.08800006e+00 2.04900002e+00
    2.01300001e+00 2. 1.99500000e+00 1.99500000e+00 1.99500000e+00 2. 2.
    2.00200009e+00 2.00099993e+00 2. 2.00500011e+00 2.00500011e+00
    2.00300002e+00 2.00500011e+00 2.00999999e+00 2.01200008e+00
    2.01399994e+00 2.01399994e+00 2.01399994e+00 2.01399994e+00
    2.01399994e+00 2.01399994e+00 2.01399994e+00 2.01399994e+00
    1.07700002e+00 0. 0. 0. 0. 0. 0. 0. 0. 0. 0. 0. 0. 0. 2.08500004e+00
    2.03600001e+00 2.00699997e+00 1.99500000e+00 1.99500000e+00
    1.99800003e+00 2. 2. 2.00099993e+00 2.00200009e+00 2.00099993e+00
    1.99699998e+00 2.00399995e+00 2.00500011e+00 2. 2.00500011e+00
    2.00999999e+00 2.01099992e+00 2.01399994e+00 2.01399994e+00
    2.01399994e+00 2.01399994e+00 2.01399994e+00 2.01399994e+00
    2.01399994e+00 2.01399994e+00 2.05399990e+00 0. 0. 0. 0. 0. 0. 0. 0.
    0. 0. 0. 0. 0. 2.07399988e+00 2.02399993e+00 2.00300002e+00
    1.99500000e+00 1.99500000e+00 1.99500000e+00 1.99699998e+00
    1.99899995e+00 1.99800003e+00 1.99699998e+00 2. 1.99800003e+00
    2.00399995e+00 2.00500011e+00 2.00300002e+00 2.00500011e+00
    2.00999999e+00 2.01200008e+00 2.01399994e+00 2.01399994e+00
    2.01399994e+00 2.01399994e+00 2.01399994e+00 2.01399994e+00
    2.01399994e+00 2.01399994e+00 2.23799992e+00 0. 0. 0. 0. 0. 0. 0. 0.
    0. 0. 0. 0. 0. 2.07599998e+00 2.01300001e+00 2.00200009e+00
    1.99500000e+00 1.99500000e+00 1.99500000e+00 1.99500000e+00
    1.99500000e+00 1.99500000e+00 1.99500000e+00 2. 2.00399995e+00
    2.00500011e+00 2.00500011e+00 2.00500011e+00 2.00500011e+00
    2.00999999e+00 2.01300001e+00 2.01399994e+00 2.01399994e+00
    2.01399994e+00 2.01399994e+00 2.01399994e+00 2.01399994e+00
    2.01399994e+00 2.01399994e+00 2.24900007e+00 0. 0. 0. 0. 0. 0. 0. 0.
    0. 0. 0. 0. 0. 2.78699994e+00 2.00799990e+00 2. 1.99899995e+00
    1.99500000e+00 1.99500000e+00 1.99500000e+00 1.99600005e+00
    1.99500000e+00 1.99899995e+00 2.00500011e+00 2.00699997e+00
    2.00200009e+00 2.00099993e+00 2. 2.00500011e+00 2.01099992e+00
    2.01399994e+00 2.01399994e+00 2.01399994e+00 2.01399994e+00
    2.01399994e+00 2.01399994e+00 2.01399994e+00 2.01399994e+00
    2.01900005e+00 2.25300002e+00 0. 0. 0. 0. 0. 0. 0. 0. 0. 0. 0. 0. 0.
    0. 2. 1.99600005e+00 1.99500000e+00 1.99500000e+00 1.99500000e+00
    1.99500000e+00 2.00099993e+00 2. 2. 2.00500011e+00 2.00500011e+00 2.
    2. 2.00399995e+00 2.00500011e+00 2.01099992e+00 2.01399994e+00
    2.01399994e+00 2.01399994e+00 2.01399994e+00 2.01399994e+00
    2.01399994e+00 2.01399994e+00 2.01399994e+00 2.01500010e+00
    1.21200001e+00 0. 0. 0. 0. 0. 0. 0. 0. 0. 0. 0. 0. 0. 0. 0. 0. 0. 0.
    0. 0. 0. 0. 0. 0. 0. 0. 0. 0. 0. 0. 0. 0. 0. 0. 0. 0. 0. 0. 0. 0. 0.
    0. 0. 0. 0. 0. 0. 0. 0. 0. 0. 0. 0. 0. 0. 0. 0. 0. 0. 0. 0. 0. 0. 0.
    0. 0. 0. 0. 0. 0. 0. 0. 0. 0. 0. 0. 0. 0. 0. 0. 0. 0. 0. 0. 0. 0. 0.
    0. 0. 0. 0. 0. 0. 0. 0. 0. 0. 0. 0. 0. 0. 0. 0. 0. 0. 0. 0. 0. 0. 0.
    0. 0. 0. 0. 0. 0. 0. 0. 0. 0. 0. 0. 0. 0. 0. 0. 0. 0.</data></Depth>
</opencv_storage>
