<?xml version="1.0"?>
<opencv_storage>
<Depth type_id="opencv-matrix">
  <rows>40</rows>
  <cols>40</cols>
  <dt>f</dt>
  <data>
    0. 0. 0. 0. 0. 0. 0. 0. 0. 0. 0. 0. 0. 0. 0. 0. 0. 2.05399990e+00
    2.03699994e+00 2. 2. 2. 1.97700000e+00 1.97399998e+00 1.95700002e+00
    1.94799995e+00 0. 0. 0. 0. 0. 0. 0. 0. 0. 0. 0. 0. 0. 0. 0. 0. 0. 0.
    0. 0. 0. 0. 2.38599992e+00 2.39100003e+00 2.39599991e+00
    2.37899995e+00 2.37899995e+00 2.38499999e+00 2.40300012e+00
    2.44199991e+00 2.24499989e+00 2.05399990e+00 2.04399991e+00
    2.02300000e+00 2.01999998e+00 2. 1.99600005e+00 1.97899997e+00
    1.95700002e+00 1.94799995e+00 2.13400006e+00 0. 0. 0. 0. 0. 0. 0. 0.
    0. 0. 0. 0. 0. 0. 0. 0. 0. 2.88100004e+00 2.61899996e+00
    2.63299990e+00 2.31399989e+00 2. 2. 1.99500000e+00 1.97399998e+00
    1.97399998e+00 1.99600005e+00 2.01999998e+00 2.03200006e+00
    2.03399992e+00 2.03399992e+00 2.03200006e+00 2.02300000e+00
    2.00699997e+00 2. 2. 1.99500000e+00 1.96300006e+00 1.94799995e+00
    1.94799995e+00 2.18700004e+00 0. 0. 0. 0. 0. 0. 0. 0. 0. 0. 0. 0. 0.
    0. 0. 2.87199998e+00 2.16499996e+00 2.02699995e+00 2.02699995e+00
    2.01300001e+00 2. 2. 1.99800003e+00 1.99000001e+00 1.99000001e+00
    1.99899995e+00 2.01999998e+00 2.02699995e+00 2.02699995e+00
    2.02699995e+00 2.02699995e+00 2.02200007e+00 2. 2. 2. 2.
    1.98699999e+00 1.97099996e+00 1.96399999e+00 1.96700001e+00
    2.54099989e+00 0. 0. 0. 0. 0. 0. 0. 0. 0. 0. 0. 0. 0. 0.
    2.05399990e+00 2.03099990e+00 2.02699995e+00 2.01799989e+00
    2.00600004e+00 2. 2. 2. 2. 2. 2. 2.01999998e+00 2.02699995e+00
    2.02699995e+00 2.02099991e+00 2.01300001e+00 2.01300001e+00
    2.01200008e+00 2. 2. 2. 1.99100006e+00 1.98000002e+00 1.97399998e+00
    1.97399998e+00 2.54099989e+00 0. 0. 0. 0. 0. 0. 0. 0. 0. 0. 0. 0. 0.
    0. 2.04299998e+00 2.02999997e+00 2.02699995e+00 2.00999999e+00 2. 2.
    2. 2. 2. 2. 2. 2.01999998e+00 2.02699995e+00 2.02699995e+00
    2.01600003e+00 2. 2.00500011e+00 2.02399993e+00 2. 2. 2.
    1.98300004e+00 1.97399998e+00 1.97399998e+00 1.97099996e+00
    2.30399990e+00 0. 0. 0. 0. 0. 0. 0. 0. 0. 0. 0. 0. 0. 0.
    2.02699995e+00 2.02699995e+00 2.02699995e+00 2.00999999e+00 2. 2. 2.
    2. 2. 2. 2. 2.01999998e+00 2.02699995e+00 2.02699995e+00
    2.01900005e+00 2.00799990e+00 2.01200008e+00 2.02399993e+00 2. 2. 2.
    1.98300004e+00 1.97399998e+00 1.97399998e+00 1.96500003e+00
    1.94799995e+00 2.15400004e+00 0. 0. 0. 0. 0. 0. 0. 0. 0. 0. 0. 0. 0.
    2.02699995e+00 2.02699995e+00 2.02699995e+00 2.01300001e+00
    2.00200009e+00 2. 2. 2.00099993e+00 2.00500011e+00 2. 2.
    2.01999998e+00 2.02699995e+00 2.02699995e+00 2.02699995e+00
    2.02699995e+00 2.02699995e+00 2.02399993e+00 2. 2. 2. 1.98300004e+00
    1.97399998e+00 1.97399998e+00 1.96700001e+00 1.95200002e+00
    1.94799995e+00 1.95700002e+00 0. 0. 0. 0. 0. 0. 0. 0. 0. 0. 0. 0.
    2.02699995e+00 2.02699995e+00 2.02699995e+00 2.02699995e+00
    2.01300001e+00 2. 2. 2.00500011e+00 2.02300000e+00 2.00099993e+00 2.
    2.01999998e+00 2.02699995e+00 2.02699995e+00 2.02699995e+00
    2.02600002e+00 2.02500010e+00 2.02300000e+00 1.99899995e+00
    1.99800003e+00 2. 1.98300004e+00 1.97399998e+00 1.97399998e+00
    1.97399998e+00 1.96800005e+00 1.94799995e+00 1.95700002e+00 0. 0. 0.
    0. 0. 0. 0. 0. 0. 0. 0. 0. 2.02699995e+00 2.02699995e+00
    2.02699995e+00 2.02699995e+00 2.01300001e+00 2. 2. 2. 2.00099993e+00
    2. 2. 2.01999998e+00 2.02699995e+00 2.02699995e+00 2.02699995e+00
    2.01900005e+00 2.00099993e+00 1.99899995e+00 1.97500002e+00
    1.97500002e+00 1.99399996e+00 1.98300004e+00 1.97399998e+00
    1.97399998e+00 1.97399998e+00 1.96800005e+00 1.94799995e+00
    1.95700002e+00 0. 0. 0. 0. 0. 0. 0. 0. 0. 0. 0. 0. 2.02699995e+00
    2.02699995e+00 2.02699995e+00 2.02699995e+00 2.02500010e+00
    2.01399994e+00 2. 2. 2. 2. 2. 2.01999998e+00 2.02699995e+00
    2.02699995e+00 2.02699995e+00 2.01900005e+00 2. 1.99800003e+00
    1.97399998e+00 1.97399998e+00 1.99399996e+00 1.98300004e+00
    1.97399998e+00 1.97399998e+00 1.97399998e+00 1.97300005e+00
    1.97000003e+00 1.97899997e+00 0. 0. 0. 0. 0. 0. 0. 0. 0. 0. 0. 0.
    2.02699995e+00 2.02699995e+00 2.02699995e+00 2.02699995e+00
    2.01699996e+00 2.00399995e+00 2. 2. 2. 2. 2. 2.01999998e+00
    2.02699995e+00 2.02699995e+00 2.02699995e+00 2.01900005e+00 2.
    1.99899995e+00 1.99399996e+00 1.99300003e+00 1.98399997e+00
    1.97599995e+00 1.97399998e+00 1.97399998e+00 1.97399998e+00
    1.97399998e+00 1.97399998e+00 1.97599995e+00 2.57200003e+00 0. 0. 0.
    0. 0. 0. 0. 0. 0. 0. 0. 2.02699995e+00 2.02699995e+00 2.02699995e+00
    2.02699995e+00 2.01300001e+00 2. 2. 2. 2. 2. 2. 2.01999998e+00
    2.02699995e+00 2.02699995e+00 2.02699995e+00 2.01900005e+00 2. 2. 2.
    2. 1.98000002e+00 1.97399998e+00 1.97399998e+00 1.97399998e+00
    1.97399998e+00 1.97399998e+00 1.97399998e+00 1.97399998e+00
    1.99699998e+00 0. 0. 0. 0. 0. 0. 0. 0. 0. 0. 0. 2.02699995e+00
    2.02699995e+00 2.02699995e+00 2.02699995e+00 2.02099991e+00
    2.00900006e+00 2. 2. 2. 2. 2. 2.01999998e+00 2.02699995e+00
    2.02699995e+00 2.02699995e+00 2.01900005e+00 2. 2. 2. 2.
    1.99100006e+00 1.97899997e+00 1.97399998e+00 1.97399998e+00
    1.97399998e+00 1.97399998e+00 1.97399998e+00 1.97399998e+00
    1.99699998e+00 0. 0. 0. 0. 0. 0. 0. 0. 0. 0. 0. 2.94000006e+00
    2.17600012e+00 2.02699995e+00 2.02699995e+00 2.02699995e+00
    2.02099991e+00 2.01099992e+00 2.01099992e+00 2.01099992e+00 2. 2.
    2.01999998e+00 2.02699995e+00 2.02699995e+00 2.02699995e+00
    2.01900005e+00 2. 2. 2. 1.99000001e+00 1.98899996e+00 1.97899997e+00
    1.97399998e+00 1.97399998e+00 1.97399998e+00 1.97200000e+00
    1.96300006e+00 1.96300006e+00 1.98599994e+00 0. 0. 0. 0. 0. 0. 0. 0.
    0. 0. 0. 0. 2.38199997e+00 2.02699995e+00 2.02699995e+00
    2.02699995e+00 2.02699995e+00 2.02699995e+00 2.02699995e+00
    2.02600002e+00 2.00900006e+00 2.00799990e+00 2.02200007e+00
    2.02699995e+00 2.02699995e+00 2.02699995e+00 2.01900005e+00 2. 2. 2.
    1.97700000e+00 1.97399998e+00 1.97399998e+00 1.97399998e+00
    1.97399998e+00 1.97399998e+00 1.96800005e+00 1.94799995e+00
    1.94799995e+00 1.96399999e+00 0. 0. 0. 0. 0. 0. 0. 0. 0. 0. 0. 0.
    2.38499999e+00 2.02699995e+00 2.02699995e+00 2.02699995e+00
    2.02699995e+00 2.02699995e+00 2.02600002e+00 2.02200007e+00
    2.02200007e+00 2.02200007e+00 2.02600002e+00 2.02699995e+00
    2.02399993e+00 2.02200007e+00 2.01500010e+00 1.99899995e+00
    1.99500000e+00 1.99500000e+00 1.97700000e+00 1.97399998e+00
    1.97399998e+00 1.97399998e+00 1.97399998e+00 1.97399998e+00
    1.96800005e+00 1.94799995e+00 1.94799995e+00 1.94799995e+00 0. 0. 0.
    0. 0. 0. 0. 0. 0. 0. 0. 0. 2.39400005e+00 2.02699995e+00
    2.02699995e+00 2.02699995e+00 2.02600002e+00 2.02399993e+00
    2.01999998e+00 2. 2. 2. 2.01999998e+00 2.02699995e+00 2.01300001e+00
    2. 1.99899995e+00 1.99300003e+00 1.97399998e+00 1.97399998e+00
    1.97399998e+00 1.97399998e+00 1.97399998e+00 1.97399998e+00
    1.97300005e+00 1.97200000e+00 1.96599996e+00 1.94799995e+00
    1.94799995e+00 1.94599998e+00 1.94599998e+00 0. 0. 0. 0. 0. 0. 0. 0.
    0. 0. 0. 2.38199997e+00 2.02699995e+00 2.02699995e+00 2.02699995e+00
    2.01600003e+00 2. 2. 2. 2. 2. 2.01999998e+00 2.02699995e+00
    2.01300001e+00 2. 1.99199998e+00 1.97399998e+00 1.97399998e+00
    1.97399998e+00 1.97399998e+00 1.97399998e+00 1.97399998e+00
    1.97399998e+00 1.96300006e+00 1.94799995e+00 1.94799995e+00
    1.94799995e+00 1.94799995e+00 1.92600000e+00 1.92299998e+00 0. 0. 0.
    0. 0. 0. 0. 0. 0. 0. 0. 2.38199997e+00 2.02699995e+00 2.02699995e+00
    2.01500010e+00 2.00200009e+00 2. 2. 2. 2. 2. 2.01999998e+00
    2.02699995e+00 2.01300001e+00 2. 1.99199998e+00 1.97399998e+00
    1.97399998e+00 1.97399998e+00 1.97399998e+00 1.97399998e+00
    1.97399998e+00 1.97399998e+00 1.96300006e+00 1.94799995e+00
    1.94799995e+00 1.94799995e+00 1.94799995e+00 1.92600000e+00
    1.92299998e+00 2.15100002e+00 0. 0. 0. 0. 0. 0. 0. 0. 0. 0. 0.
    2.46499991e+00 2.00600004e+00 2.00300002e+00 2. 2. 2. 2. 2. 2.
    2.01999998e+00 2.02699995e+00 2.01300001e+00 2. 1.99800003e+00
    1.99000001e+00 1.97399998e+00 1.97399998e+00 1.99100006e+00
    1.97899997e+00 1.97399998e+00 1.97399998e+00 1.96300006e+00
    1.94799995e+00 1.94799995e+00 1.94799995e+00 1.94799995e+00
    1.94299996e+00 1.94200003e+00 1.94599998e+00 2.27999997e+00
    2.53299999e+00 0. 0. 0. 0. 0. 0. 0. 0. 0. 2.59899998e+00 2. 2. 2. 2.
    2. 2. 2. 2. 2.01999998e+00 2.02699995e+00 2.01300001e+00 2. 2.
    1.99500000e+00 1.97399998e+00 1.97399998e+00 1.98199999e+00
    1.97599995e+00 1.97399998e+00 1.97399998e+00 1.96300006e+00
    1.94799995e+00 1.94799995e+00 1.94799995e+00 1.94799995e+00
    1.94799995e+00 1.94799995e+00 1.94799995e+00 1.95799994e+00
    1.96500003e+00 0. 0. 0. 0. 0. 0. 0. 0. 0. 2.59899998e+00 2. 2. 2. 2.
    2. 2. 2. 2. 2.01999998e+00 2.02699995e+00 2.02099991e+00
    2.00900006e+00 2. 1.99500000e+00 1.97399998e+00 1.97399998e+00
    1.97399998e+00 1.97399998e+00 1.97399998e+00 1.97399998e+00
    1.96300006e+00 1.94799995e+00 1.94799995e+00 1.94799995e+00
    1.94799995e+00 1.94799995e+00 1.94799995e+00 1.95799994e+00
    1.96899998e+00 1.97399998e+00 0. 0. 0. 0. 0. 0. 0. 0. 0.
    2.59899998e+00 1.99300003e+00 1.98899996e+00 1.99300003e+00 2. 2. 2.
    2. 2. 2.01999998e+00 2.02699995e+00 2.02699995e+00 2.01600003e+00 2.
    1.99500000e+00 1.97399998e+00 1.97399998e+00 1.97399998e+00
    1.97399998e+00 1.97399998e+00 1.97399998e+00 1.96800005e+00
    1.95599997e+00 1.94799995e+00 1.94799995e+00 1.94799995e+00
    1.94799995e+00 1.94799995e+00 1.96599996e+00 1.97399998e+00
    1.97399998e+00 0. 0. 0. 0. 0. 0. 0. 0. 0. 0. 2.25099993e+00
    1.97399998e+00 1.98399997e+00 2. 2. 2. 2. 2. 2.01399994e+00
    2.01799989e+00 2.01799989e+00 2.00699997e+00 1.99100006e+00
    1.98800004e+00 1.97399998e+00 1.97399998e+00 1.97399998e+00
    1.97399998e+00 1.97399998e+00 1.97399998e+00 1.97399998e+00
    1.96500003e+00 1.94799995e+00 1.94799995e+00 1.94799995e+00
    1.94799995e+00 1.94799995e+00 1.96000004e+00 1.97000003e+00
    1.97399998e+00 0. 0. 0. 0. 0. 0. 0. 0. 0. 0. 2.80299997e+00
    1.98000002e+00 1.98800004e+00 2. 2. 2. 2. 2. 2. 2. 2. 1.98899996e+00
    1.97399998e+00 1.97399998e+00 1.97399998e+00 1.97399998e+00
    1.96899998e+00 1.96800005e+00 1.96800005e+00 1.96800005e+00
    1.96800005e+00 1.96200001e+00 1.94799995e+00 1.94799995e+00
    1.94799995e+00 1.94799995e+00 1.94799995e+00 1.94400001e+00
    1.95400000e+00 1.96300006e+00 0. 0. 0. 0. 0. 0. 0. 0. 0. 0.
    2.83899999e+00 2. 2. 2. 2. 2. 2. 2. 2. 2. 1.99800003e+00
    1.98699999e+00 1.97399998e+00 1.97399998e+00 1.97399998e+00
    1.97399998e+00 1.95099998e+00 1.94799995e+00 1.94799995e+00
    1.94799995e+00 1.94799995e+00 1.94799995e+00 1.94799995e+00
    1.94799995e+00 1.94799995e+00 1.94799995e+00 1.94599998e+00
    1.92999995e+00 1.92299998e+00 1.92299998e+00 0. 0. 0. 0. 0. 0. 0. 0.
    0. 0. 2.84400010e+00 2.00699997e+00 2.00399995e+00 2. 2. 2. 2. 2. 2.
    2. 1.98599994e+00 1.97399998e+00 1.97399998e+00 1.97399998e+00
    1.97399998e+00 1.97399998e+00 1.95099998e+00 1.94799995e+00
    1.94799995e+00 1.94799995e+00 1.94799995e+00 1.94799995e+00
    1.94799995e+00 1.94799995e+00 1.94799995e+00 1.94799995e+00
    1.92799997e+00 1.92299998e+00 1.92299998e+00 1.92299998e+00 0. 0. 0.
    0. 0. 0. 0. 0. 0. 0. 0. 0. 0. 2. 2. 2. 2. 2. 2. 2. 1.98599994e+00
    1.97399998e+00 1.97399998e+00 1.97399998e+00 1.97399998e+00
    1.97399998e+00 1.97200000e+00 1.97099996e+00 1.95599997e+00
    1.94799995e+00 1.94799995e+00 1.94799995e+00 1.94799995e+00
    1.94799995e+00 1.94799995e+00 1.94799995e+00 1.92799997e+00
    1.92299998e+00 1.92299998e+00 1.92299998e+00 0. 0. 0. 0. 0. 0. 0. 0.
    0. 0. 0. 0. 0. 2.02099991e+00 2.01699996e+00 2. 2. 2. 2. 2.
    1.98599994e+00 1.97399998e+00 1.97399998e+00 1.97399998e+00
    1.97399998e+00 1.97399998e+00 1.97399998e+00 1.97399998e+00
    1.95700002e+00 1.94799995e+00 1.94799995e+00 1.94799995e+00
    1.94799995e+00 1.94799995e+00 1.94799995e+00 1.94799995e+00
    1.94400001e+00 1.92900002e+00 1.92299998e+00 1.92299998e+00 0. 0. 0.
    0. 0. 0. 0. 0. 0. 0. 0. 0. 0. 2.03999996e+00 2.02200007e+00 2. 2. 2.
    2. 2. 1.98599994e+00 1.97399998e+00 1.97399998e+00 1.97399998e+00
    1.97399998e+00 1.97399998e+00 1.97399998e+00 1.97399998e+00
    1.95700002e+00 1.94799995e+00 1.94799995e+00 1.94799995e+00
    1.94799995e+00 1.94799995e+00 1.94799995e+00 1.94799995e+00
    1.94799995e+00 1.94299996e+00 1.92999995e+00 1.92299998e+00 0. 0. 0.
    0. 0. 0. 0. 0. 0. 0. 0. 0. 0. 2.81699991e+00 2.02200007e+00 2. 2. 2.
    2. 2. 1.98599994e+00 1.97399998e+00 1.97399998e+00 1.97399998e+00
    1.97399998e+00 1.97399998e+00 1.97399998e+00 1.97399998e+00
    1.95700002e+00 1.94799995e+00 1.94799995e+00 1.94799995e+00
    1.94799995e+00 1.94799995e+00 1.94799995e+00 1.94799995e+00
    1.94799995e+00 1.93799996e+00 1.92799997e+00 1.92299998e+00 0. 0. 0.
    0. 0. 0. 0. 0. 0. 0. 0. 0. 0. 0. 2.02200007e+00 2. 2. 2. 2. 2.
    1.99300003e+00 1.98099995e+00 1.97399998e+00 1.97399998e+00
    1.97399998e+00 1.97399998e+00 1.97399998e+00 1.96500003e+00
    1.95299995e+00 1.94799995e+00 1.94799995e+00 1.94799995e+00
    1.94799995e+00 1.94799995e+00 1.94799995e+00 1.94799995e+00
    1.93900001e+00 1.92700005e+00 1.92299998e+00 1.92299998e+00 0. 0. 0.
    0. 0. 0. 0. 0. 0. 0. 0. 0. 0. 0. 2.02200007e+00 2. 2. 2. 2. 2. 2.
    1.99300003e+00 1.98300004e+00 1.98300004e+00 1.98199999e+00
    1.97399998e+00 1.97399998e+00 1.95400000e+00 1.94799995e+00
    1.94799995e+00 1.94799995e+00 1.94799995e+00 1.94799995e+00
    1.94799995e+00 1.94799995e+00 1.94799995e+00 1.92799997e+00
    1.92299998e+00 1.92299998e+00 1.92299998e+00 0. 0. 0. 0. 0. 0. 0. 0.
    0. 0. 0. 0. 0. 0. 2.43400002e+00 2. 1.99399996e+00 1.99399996e+00
    1.99399996e+00 1.99399996e+00 1.99399996e+00 1.99600005e+00 2. 2.
    1.99800003e+00 1.97399998e+00 1.97399998e+00 1.95400000e+00
    1.94799995e+00 1.94799995e+00 1.94799995e+00 1.94799995e+00
    1.94799995e+00 1.94799995e+00 1.95000005e+00 2.46799994e+00
    2.49900007e+00 2.49000001e+00 2.49000001e+00 2.49000001e+00 0. 0. 0.
    0. 0. 0. 0. 0. 0. 0. 0. 0. 0. 0. 0. 1.99500000e+00 1.97500002e+00
    1.97399998e+00 1.97399998e+00 1.97399998e+00 1.97399998e+00
    1.98300004e+00 1.99699998e+00 1.99699998e+00 1.99399996e+00
    1.97399998e+00 1.97399998e+00 1.95700002e+00 1.95099998e+00
    1.95099998e+00 1.95099998e+00 1.95000005e+00 1.94799995e+00
    1.98399997e+00 2.27300000e+00 0. 0. 0. 0. 0. 0. 0. 0. 0. 0. 0. 0. 0.
    0. 0. 0. 0. 0. 0. 0. 1.97300005e+00 1.97300005e+00 1.97399998e+00
    1.97399998e+00 1.97399998e+00 1.97399998e+00 1.97399998e+00
    1.97399998e+00 1.97399998e+00 1.97399998e+00 1.97399998e+00
    1.97399998e+00 1.97399998e+00 1.97399998e+00 1.97399998e+00
    1.97399998e+00 1.96599996e+00 1.94900000e+00 2.22000003e+00 0. 0. 0.
    0. 0. 0. 0. 0. 0. 0. 0. 0. 0. 0. 0. 0. 0. 0. 0. 0. 0. 1.95000005e+00
    1.95000005e+00 1.97099996e+00 1.97399998e+00 1.97399998e+00
    1.97399998e+00 1.97399998e+00 1.97399998e+00 1.97399998e+00
    1.97399998e+00 1.97399998e+00 1.97399998e+00 1.97399998e+00
    1.97399998e+00 1.97399998e+00 1.97399998e+00 1.97300005e+00
    1.97200000e+00 2.24000001e+00 0. 0. 0. 0. 0. 0. 0. 0. 0. 0. 0. 0. 0.
    0. 0. 0. 0. 0. 0. 0. 0. 1.94799995e+00 1.94799995e+00 1.97000003e+00
    1.97399998e+00 1.96099997e+00 1.94200003e+00 1.93299997e+00
    1.93900001e+00 1.95700002e+00 1.97399998e+00 1.97399998e+00
    1.97399998e+00 1.97399998e+00 0. 0. 0. 1.99500000e+00 2.41599989e+00
    0. 0. 0. 0. 0. 0. 0. 0. 0. 0. 0. 0. 0. 0. 0. 0. 0. 0. 0. 0. 0. 0.
    1.94799995e+00 1.94799995e+00 1.98599994e+00 1.99199998e+00
    1.96399999e+00 1.93499994e+00 1.92299998e+00 1.93099999e+00
    1.95299995e+00 1.97399998e+00 1.97399998e+00 1.97399998e+00 0. 0. 0.
    0. 0. 2.17799997e+00 2.74000001e+00 2.76200008e+00 0. 0. 0. 0. 0. 0.
    0. 0. 0.</data></Depth>
</opencv_storage>
