<?xml version="1.0"?>
<opencv_storage>
<Depth type_id="opencv-matrix">
  <rows>40</rows>
  <cols>40</cols>
  <dt>f</dt>
  <data>
    0. 0. 0. 0. 0. 0. 0. 0. 0. 0. 0. 0. 0. 0. 0. 0. 0. 0. 0. 0. 0. 0.
    1.96700001e+00 1.95599997e+00 1.95599997e+00 1.96399999e+00
    1.97700000e+00 1.97700000e+00 1.97700000e+00 2.60700011e+00 0. 0. 0.
    0. 0. 0. 0. 0. 0. 0. 0. 0. 0. 0. 0. 0. 0. 0. 0. 0. 0. 0. 0. 0. 0.
    2.90700006e+00 2.14000010e+00 2.14100003e+00 2.14100003e+00
    2.12700009e+00 2.11199999e+00 2.04399991e+00 1.96700001e+00
    1.95599997e+00 1.95599997e+00 1.96399999e+00 1.97700000e+00
    1.97700000e+00 1.97099996e+00 1.98599994e+00 2.60500002e+00 0. 0. 0.
    0. 0. 0. 0. 0. 0. 0. 0. 0. 0. 0. 0. 0. 2.37899995e+00 2.19400001e+00
    2.21700001e+00 0. 0. 0. 2.82200003e+00 2.19400001e+00 2.06399989e+00
    2.00200009e+00 2.01399994e+00 2.02200007e+00 2.00999999e+00 2.
    1.98899996e+00 1.97599995e+00 1.97500002e+00 1.97500002e+00
    1.97599995e+00 1.97700000e+00 1.97700000e+00 1.97099996e+00
    1.95599997e+00 1.99899995e+00 2.59400010e+00 0. 0. 0. 0. 0. 0. 0. 0.
    0. 0. 0. 0. 0. 2.27999997e+00 2.26099992e+00 2.00099993e+00
    1.97899997e+00 1.98199999e+00 2.22000003e+00 2.26900005e+00
    2.26200008e+00 2.06800008e+00 2. 2. 2. 2.00099993e+00 2.00200009e+00
    2.00099993e+00 2. 1.98899996e+00 1.97700000e+00 1.96899998e+00
    1.95799994e+00 1.95799994e+00 1.95799994e+00 1.96399999e+00
    1.97599995e+00 1.97500002e+00 1.97500002e+00 2.44899988e+00 0. 0. 0.
    0. 0. 0. 0. 0. 0. 0. 0. 0. 0. 2. 1.97800004e+00 1.97700000e+00
    1.97700000e+00 1.97700000e+00 1.97700000e+00 1.97700000e+00
    1.97700000e+00 1.99399996e+00 2. 2. 2. 2. 1.98800004e+00
    1.98000002e+00 1.99100006e+00 1.99800003e+00 1.98800004e+00
    1.96800005e+00 1.95599997e+00 1.95599997e+00 1.95599997e+00
    1.96200001e+00 1.97700000e+00 1.97700000e+00 1.97700000e+00
    2.46399999e+00 0. 0. 0. 0. 0. 0. 0. 0. 0. 0. 0. 0. 0. 2.
    1.97800004e+00 1.97700000e+00 1.97700000e+00 1.97700000e+00
    1.99300003e+00 1.99600005e+00 1.99600005e+00 1.99899995e+00 2. 2. 2.
    1.98800004e+00 1.97899997e+00 1.97700000e+00 1.97899997e+00
    1.99000001e+00 1.99800003e+00 1.98599994e+00 1.96599996e+00
    1.95599997e+00 1.95599997e+00 1.96200001e+00 1.97700000e+00
    1.97700000e+00 1.97700000e+00 2.46600008e+00 0. 0. 0. 0. 0. 0. 0. 0.
    0. 0. 0. 0. 0. 2. 1.97800004e+00 1.97700000e+00 1.97700000e+00
    1.97700000e+00 1.99600005e+00 2. 2. 2. 2. 2. 2. 1.98599994e+00
    1.97700000e+00 1.97700000e+00 1.97700000e+00 1.98800004e+00
    1.99100006e+00 1.98000002e+00 1.96899998e+00 1.95599997e+00
    1.95599997e+00 1.96200001e+00 1.97700000e+00 1.97700000e+00
    1.97700000e+00 2.45400000e+00 0. 0. 0. 0. 0. 0. 0. 0. 0. 0. 0. 0. 0.
    2. 1.97800004e+00 1.97700000e+00 1.97700000e+00 1.97700000e+00
    1.99600005e+00 2. 1.98599994e+00 1.98199999e+00 1.98199999e+00
    1.99399996e+00 1.98899996e+00 1.97899997e+00 1.96800005e+00
    1.96099997e+00 1.96099997e+00 1.97099996e+00 1.98000002e+00
    1.97700000e+00 1.97500002e+00 1.97200000e+00 1.97200000e+00
    1.97399998e+00 1.97700000e+00 1.97700000e+00 1.98099995e+00
    2.46499991e+00 0. 0. 0. 0. 0. 0. 0. 0. 0. 0. 0. 0. 0. 2.
    1.99399996e+00 1.97800004e+00 1.97700000e+00 1.99199998e+00
    1.98500001e+00 1.98300004e+00 1.97800004e+00 1.97700000e+00
    1.97700000e+00 1.98099995e+00 1.97899997e+00 1.97700000e+00
    1.96500003e+00 1.95599997e+00 1.95599997e+00 1.95899999e+00
    1.96899998e+00 1.97700000e+00 1.97700000e+00 1.97700000e+00
    1.98300004e+00 1.98899996e+00 1.97700000e+00 1.97700000e+00
    1.97800004e+00 2.45499992e+00 0. 0. 0. 0. 0. 0. 0. 0. 0. 0. 0. 0. 0.
    1.98399997e+00 1.98399997e+00 1.99300003e+00 1.99300003e+00
    1.99899995e+00 1.98099995e+00 1.97700000e+00 1.97700000e+00
    1.97700000e+00 1.97700000e+00 1.97700000e+00 1.97700000e+00
    1.97700000e+00 1.96500003e+00 1.95599997e+00 1.95599997e+00
    1.95599997e+00 1.96599996e+00 1.98399997e+00 1.98699999e+00
    1.97700000e+00 1.98500001e+00 1.99800003e+00 1.99300003e+00
    1.98899996e+00 1.97700000e+00 2.45099998e+00 0. 0. 0. 0. 0. 0. 0. 0.
    0. 0. 0. 0. 0. 1.97700000e+00 1.97700000e+00 1.99800003e+00 2. 2.
    1.99399996e+00 1.98000002e+00 1.97700000e+00 1.97700000e+00
    1.97700000e+00 1.97700000e+00 1.97700000e+00 1.97700000e+00
    1.97300005e+00 1.97000003e+00 1.97000003e+00 1.97000003e+00
    1.97300005e+00 1.98699999e+00 1.99100006e+00 1.97700000e+00
    1.98500001e+00 2. 2. 1.99399996e+00 1.97700000e+00 2.45099998e+00 0.
    0. 0. 0. 0. 0. 0. 0. 0. 0. 0. 0. 0. 1.96300006e+00 1.96300006e+00
    1.98300004e+00 1.99800003e+00 2.01200008e+00 2.01399994e+00
    1.99600005e+00 1.99199998e+00 1.99199998e+00 1.98099995e+00
    1.97700000e+00 1.97700000e+00 1.97700000e+00 1.97700000e+00
    1.97700000e+00 1.97700000e+00 1.98399997e+00 1.99199998e+00
    1.99500000e+00 1.99100006e+00 1.97700000e+00 1.98500001e+00 2. 2.
    1.99399996e+00 1.97399998e+00 2.13100004e+00 0. 0. 0. 0. 0. 0. 0. 0.
    0. 0. 0. 0. 0. 1.95599997e+00 1.95599997e+00 1.97500002e+00
    1.99800003e+00 2.00699997e+00 2.00799990e+00 2.00200009e+00 2. 2.
    1.99399996e+00 1.99100006e+00 1.99100006e+00 1.99100006e+00
    1.99100006e+00 1.99100006e+00 1.99100006e+00 1.98899996e+00
    1.98599994e+00 1.98599994e+00 1.98199999e+00 1.97700000e+00
    1.98500001e+00 2. 1.99600005e+00 1.98399997e+00 1.97200000e+00
    1.95599997e+00 2.36299992e+00 0. 0. 0. 0. 0. 0. 0. 0. 0. 0. 0. 0.
    1.95599997e+00 1.96800005e+00 1.97599995e+00 1.99800003e+00 2. 2. 2.
    2. 2. 2. 2.00900006e+00 2.00500011e+00 2. 2. 2. 1.99300003e+00
    1.98199999e+00 1.97700000e+00 1.97700000e+00 1.97700000e+00
    1.98199999e+00 1.99399996e+00 1.99600005e+00 1.98399997e+00
    1.97700000e+00 1.97500002e+00 2.25500011e+00 0. 0. 0. 0. 0. 0. 0. 0.
    0. 0. 0. 0. 0. 1.96800005e+00 1.97700000e+00 1.97700000e+00
    1.99800003e+00 2. 1.98899996e+00 1.98699999e+00 1.98699999e+00
    1.99699998e+00 2. 2.01500010e+00 2.00799990e+00 2. 2. 2.
    1.98800004e+00 1.97700000e+00 1.97700000e+00 1.97700000e+00
    1.97700000e+00 1.98599994e+00 2. 1.99300003e+00 1.97700000e+00
    1.97700000e+00 1.97700000e+00 2.46600008e+00 0. 0. 0. 0. 0. 0. 0. 0.
    0. 0. 0. 0. 0. 0. 2.05200005e+00 1.98899996e+00 1.99899995e+00 2.
    1.98099995e+00 1.97700000e+00 1.97700000e+00 1.99399996e+00 2.
    2.01500010e+00 2.00799990e+00 2. 2. 2. 1.98800004e+00 1.97700000e+00
    1.97700000e+00 1.97700000e+00 1.97700000e+00 1.98599994e+00 2.
    1.99699998e+00 1.98899996e+00 1.98599994e+00 1.97700000e+00
    2.21199989e+00 0. 0. 0. 0. 0. 0. 0. 0. 0. 0. 0. 0. 0. 0.
    2.06100011e+00 2. 2. 2. 1.99000001e+00 1.98800004e+00 1.98800004e+00
    1.99699998e+00 2. 2.00799990e+00 2.00399995e+00 2. 2. 2.
    1.99399996e+00 1.98300004e+00 1.97700000e+00 1.97700000e+00
    1.97700000e+00 1.98599994e+00 2.00399995e+00 2.00699997e+00 2.
    1.99699998e+00 1.98800004e+00 1.99100006e+00 2.41100001e+00 0. 0. 0.
    0. 0. 0. 0. 0. 0. 0. 0. 0. 2.02200007e+00 2.01099992e+00
    2.00099993e+00 2. 2. 2. 2. 2. 2. 2. 2. 2. 2. 2. 2. 2. 1.99399996e+00
    1.98800004e+00 1.98300004e+00 1.97700000e+00 1.98199999e+00
    1.99699998e+00 2.01099992e+00 2.00999999e+00 2.00799990e+00 2. 2.
    2.41199994e+00 0. 0. 0. 0. 0. 0. 0. 0. 0. 0. 0. 0. 2.02200007e+00
    2.02200007e+00 2.00200009e+00 2. 2.00799990e+00 2.00900006e+00
    2.00200009e+00 2. 2. 2. 2. 2. 2.00600004e+00 2.00900006e+00
    2.00399995e+00 2. 2. 2. 1.99000001e+00 1.97700000e+00 1.97700000e+00
    1.98500001e+00 2.00399995e+00 2.01300001e+00 2.00900006e+00 2. 2.
    2.40499997e+00 0. 0. 0. 0. 0. 0. 0. 0. 0. 0. 0. 0. 2.02200007e+00
    2.02200007e+00 2.00200009e+00 2. 2.01900005e+00 2.02200007e+00
    2.01099992e+00 2.00200009e+00 2. 2. 2. 2. 2.00799990e+00
    2.01300001e+00 2.00600004e+00 2. 2. 1.99600005e+00 1.98500001e+00
    1.97700000e+00 1.97700000e+00 1.98199999e+00 1.99100006e+00
    1.99300003e+00 1.99800003e+00 1.99100006e+00 1.99100006e+00
    2.39700007e+00 0. 0. 0. 0. 0. 0. 0. 0. 0. 0. 0. 0. 2.03099990e+00
    2.02200007e+00 2.00900006e+00 2.00799990e+00 2.01999998e+00
    2.01500010e+00 2.01399994e+00 2.00300002e+00 2. 2. 2. 2. 2. 2. 2. 2.
    2. 1.98899996e+00 1.97700000e+00 1.97700000e+00 1.97700000e+00
    1.97700000e+00 1.97700000e+00 1.98300004e+00 1.99399996e+00
    1.97700000e+00 1.97599995e+00 2.22600007e+00 0. 0. 0. 0. 0. 0. 0. 0.
    0. 0. 0. 0. 2.94400001e+00 2.06399989e+00 2.02200007e+00
    2.02200007e+00 2.01600003e+00 2.00200009e+00 2. 2. 2. 2. 2. 2. 2. 2.
    2. 2. 2. 1.98899996e+00 1.97700000e+00 1.97700000e+00 1.97700000e+00
    1.97700000e+00 1.97700000e+00 1.98300004e+00 1.99399996e+00
    1.97700000e+00 1.97300005e+00 1.95599997e+00 1.95599997e+00 0. 0. 0.
    0. 0. 0. 0. 0. 0. 0. 0. 0. 2.14499998e+00 2.02200007e+00
    2.02200007e+00 2.00300002e+00 2. 2. 2. 2. 2. 2. 2. 2. 2.00399995e+00
    2.00300002e+00 2. 2. 1.98899996e+00 1.97700000e+00 1.97700000e+00
    1.97700000e+00 1.97700000e+00 1.97700000e+00 1.98300004e+00
    1.99399996e+00 1.97700000e+00 1.97300005e+00 1.95599997e+00
    1.95599997e+00 0. 0. 0. 0. 0. 0. 0. 0. 0. 0. 0. 0. 2.14400005e+00
    2.02200007e+00 2.02200007e+00 2.00799990e+00 2.00099993e+00 2. 2. 2.
    2. 2. 2. 2. 2.01300001e+00 2.00999999e+00 2. 2. 1.99199998e+00
    1.98300004e+00 1.98300004e+00 1.98300004e+00 1.98500001e+00
    1.98800004e+00 1.98800004e+00 1.99399996e+00 1.97700000e+00
    1.97399998e+00 1.96200001e+00 1.96200001e+00 0. 0. 0. 0. 0. 0. 0. 0.
    0. 0. 0. 0. 2.14100003e+00 2.02200007e+00 2.02200007e+00
    2.02200007e+00 2.00799990e+00 2.00099993e+00 2. 2. 2. 2. 2. 2.
    2.01300001e+00 2.00999999e+00 2. 2. 2. 2. 2. 2. 2.00699997e+00
    2.01699996e+00 2.00399995e+00 1.99600005e+00 1.98300004e+00
    1.98300004e+00 1.98300004e+00 1.98300004e+00 0. 0. 0. 0. 0. 0. 0. 0.
    0. 0. 0. 0. 2.14100003e+00 2.02200007e+00 2.02200007e+00
    2.02200007e+00 2.02200007e+00 2.00799990e+00 2.00500011e+00
    2.00500011e+00 2.00099993e+00 2. 2.00300002e+00 2.00500011e+00
    2.01500010e+00 2.01200008e+00 2.00200009e+00 2. 2. 2. 2.00200009e+00
    2.00500011e+00 2.01099992e+00 2.02200007e+00 2.01600003e+00 2. 2.
    2.00099993e+00 2.00500011e+00 2.00500011e+00 0. 0. 0. 0. 0. 0. 0. 0.
    0. 0. 0. 0. 2.14100003e+00 2.02200007e+00 2.02200007e+00
    2.02200007e+00 2.02200007e+00 2.02200007e+00 2.02200007e+00
    2.02200007e+00 2.00900006e+00 2.00099993e+00 2.01200008e+00
    2.01799989e+00 2.01999998e+00 2.02200007e+00 2.00999999e+00 2. 2. 2.
    2.00699997e+00 2.01799989e+00 2.01900005e+00 2.02200007e+00
    2.01699996e+00 2.00399995e+00 2.00399995e+00 2.00699997e+00
    2.02200007e+00 2.02200007e+00 0. 0. 0. 0. 0. 0. 0. 0. 0. 0. 0. 0.
    2.14499998e+00 2.02200007e+00 2.02200007e+00 2.02200007e+00
    2.01900005e+00 2.01900005e+00 2.02099991e+00 2.02200007e+00
    2.02200007e+00 2.00699997e+00 2. 2. 2.01300001e+00 2.02200007e+00
    2.00999999e+00 2. 2. 2. 2. 2. 2.00699997e+00 2.02200007e+00
    2.02200007e+00 2.02200007e+00 2.02200007e+00 2.02200007e+00
    2.02300000e+00 2.02600002e+00 0. 0. 0. 0. 0. 0. 0. 0. 0. 0. 0. 0.
    2.16100001e+00 2.02399993e+00 2.02200007e+00 2.02200007e+00
    2.00399995e+00 2. 2.01699996e+00 2.02200007e+00 2.02200007e+00
    2.00900006e+00 2.00300002e+00 2.00300002e+00 2.01399994e+00
    2.02200007e+00 2.01200008e+00 2.00300002e+00 2.00300002e+00
    2.00300002e+00 2.00300002e+00 2.00300002e+00 2.00900006e+00
    2.02200007e+00 2.02200007e+00 2.02200007e+00 2.02200007e+00
    2.02200007e+00 2.02600002e+00 2.04500008e+00 0. 0. 0. 0. 0. 0. 0. 0.
    0. 0. 0. 0. 2.14499998e+00 2.02200007e+00 2.02200007e+00
    2.02200007e+00 2.00500011e+00 2.00200009e+00 2.01699996e+00
    2.02200007e+00 2.02200007e+00 2.02200007e+00 2.02200007e+00
    2.02200007e+00 2.02200007e+00 2.02200007e+00 2.02200007e+00
    2.02200007e+00 2.02200007e+00 2.02099991e+00 2.01999998e+00
    2.01999998e+00 2.02099991e+00 2.02200007e+00 2.02200007e+00
    2.02200007e+00 2.02200007e+00 2.02200007e+00 2.02500010e+00
    2.04299998e+00 0. 0. 0. 0. 0. 0. 0. 0. 0. 0. 0. 0. 2.30599999e+00
    2.03600001e+00 2.02200007e+00 2.02200007e+00 2.02200007e+00
    2.02200007e+00 2.02200007e+00 2.02200007e+00 2.02200007e+00
    2.02200007e+00 2.02200007e+00 2.02200007e+00 2.02200007e+00
    2.02200007e+00 2.02200007e+00 2.02200007e+00 2.02200007e+00
    2.01300001e+00 2. 2. 2.00699997e+00 2.02200007e+00 2.02200007e+00
    2.02200007e+00 2.02200007e+00 2.02200007e+00 2.02099991e+00
    2.02099991e+00 0. 0. 0. 0. 0. 0. 0. 0. 0. 0. 0. 0. 0. 2.24200010e+00
    2.02500010e+00 2.02300000e+00 2.02300000e+00 2.02300000e+00
    2.02300000e+00 2.02200007e+00 2.02200007e+00 2.02200007e+00
    2.02200007e+00 2.02200007e+00 2.02200007e+00 2.02200007e+00
    2.02200007e+00 2.02200007e+00 2.02200007e+00 2.01300001e+00 2. 2.
    2.00699997e+00 2.02200007e+00 2.02200007e+00 2.02200007e+00
    2.02200007e+00 2.01799989e+00 2. 2. 0. 0. 0. 0. 0. 0. 0. 0. 0. 0. 0.
    0. 2.21199989e+00 2.04900002e+00 2.04500008e+00 2.04500008e+00
    2.04500008e+00 2.04500008e+00 2.04500008e+00 2.02800012e+00
    2.02200007e+00 2.02200007e+00 2.02200007e+00 2.02200007e+00
    2.02200007e+00 2.02200007e+00 2.02200007e+00 2.02200007e+00
    2.02200007e+00 2.01300001e+00 2. 2. 2.00699997e+00 2.02200007e+00
    2.02200007e+00 2.02200007e+00 2.02200007e+00 2.01799989e+00 2. 2. 0.
    0. 0. 0. 0. 0. 0. 0. 0. 0. 0. 0. 2.21199989e+00 2.04900002e+00
    2.04500008e+00 2.04500008e+00 2.04500008e+00 2.04500008e+00
    2.04500008e+00 2.04500008e+00 2.02900004e+00 2.02200007e+00
    2.02200007e+00 2.02200007e+00 2.02200007e+00 2.02200007e+00
    2.02200007e+00 2.02200007e+00 2.02200007e+00 2.01300001e+00 2. 2.
    2.00699997e+00 2.02900004e+00 2.03800011e+00 2.02200007e+00
    2.02200007e+00 2.02200007e+00 2.02099991e+00 2.02099991e+00 0. 0. 0.
    0. 0. 0. 0. 0. 0. 0. 0. 0. 0. 2.23600006e+00 2.04500008e+00
    2.04500008e+00 2.04500008e+00 2.04500008e+00 2.04500008e+00
    2.04500008e+00 2.02900004e+00 2.02200007e+00 2.02200007e+00
    2.02200007e+00 2.02200007e+00 2.02200007e+00 2.02200007e+00
    2.02200007e+00 2.02200007e+00 2.02099991e+00 2.02099991e+00
    2.02099991e+00 2.02800012e+00 2.04399991e+00 2.04500008e+00
    2.03800011e+00 2.02200007e+00 2.02200007e+00 2.02200007e+00
    2.02200007e+00 0. 0. 0. 0. 0. 0. 0. 0. 0. 0. 0. 0. 0. 2.24799991e+00
    2.04500008e+00 2.04500008e+00 2.02800012e+00 2.02399993e+00
    2.02399993e+00 2.02399993e+00 2.02300000e+00 2.02200007e+00
    2.02200007e+00 2.02200007e+00 2.02200007e+00 2.02200007e+00
    2.02200007e+00 2.02200007e+00 2.02200007e+00 2.02200007e+00
    2.02200007e+00 2.02200007e+00 2.02300000e+00 2.03099990e+00
    2.04500008e+00 2.03900003e+00 2.02200007e+00 2.02200007e+00
    2.02200007e+00 2.02200007e+00 0. 0. 0. 0. 0. 0. 0. 0. 0. 0. 0. 0. 0.
    2.24799991e+00 2.04500008e+00 2.04500008e+00 2.02600002e+00
    2.02200007e+00 2.02200007e+00 2.02200007e+00 2.02200007e+00
    2.02200007e+00 2.02200007e+00 2.03399992e+00 2.02999997e+00
    2.02200007e+00 2.02200007e+00 2.02200007e+00 2.02200007e+00
    2.02200007e+00 2.01399994e+00 2.00300002e+00 2.00900006e+00
    2.02900004e+00 2.04500008e+00 2.04399991e+00 2.03800011e+00
    2.02200007e+00 2.02500010e+00 2.04200006e+00 0. 0. 0. 0. 0. 0. 0. 0.
    0. 0. 0. 0. 0. 0. 2.28600001e+00 2.04500008e+00 2.04200006e+00
    2.02600002e+00 2.02200007e+00 2.02200007e+00 2.02200007e+00
    2.03500009e+00 2.04200006e+00 2.04399991e+00 2.04299998e+00
    2.04200006e+00 2.03099990e+00 2.02200007e+00 2.01300001e+00
    2.00300002e+00 2.00200009e+00 2. 2.00699997e+00 2.74600005e+00 0. 0.
    0. 0. 0. 0. 0. 0. 0. 0. 0. 0. 0. 0. 0. 0. 0. 0. 0. 0. 2.32999992e+00
    2.04500008e+00 2.02900004e+00 2.02300000e+00 2.02200007e+00
    2.02200007e+00 2.02200007e+00 2.03800011e+00 2.04500008e+00
    2.04500008e+00 2.04500008e+00 2.04500008e+00 2.03299999e+00
    2.02200007e+00 2.01200008e+00 2. 2. 2. 2.79900002e+00 0. 0. 0. 0. 0.
    0. 0. 0. 0. 0. 0. 0. 0. 0. 0. 0. 0. 0. 0. 0. 0. 0. 0. 0. 0. 0. 0. 0.
    0. 0. 0. 0. 0. 0. 0. 0. 0. 0. 0. 0. 0. 0. 0. 0. 0. 0. 0. 0. 0. 0. 0.
    0. 0.</data></Depth>
</opencv_storage>
