<?xml version="1.0"?>
<opencv_storage>
<Depth type_id="opencv-matrix">
  <rows>40</rows>
  <cols>40</cols>
  <dt>f</dt>
  <data>
    0. 0. 0. 0. 0. 0. 0. 0. 0. 0. 0. 0. 0. 0. 0. 0. 0. 0. 0. 0. 0. 0. 0.
    0. 0. 0. 0. 0. 0. 0. 0. 0. 0. 0. 0. 0. 0. 0. 0. 0. 0. 0. 0. 0. 0. 0.
    0. 0. 0. 0. 0. 0. 0. 0. 0. 0. 0. 0. 0. 0. 0. 0. 0. 0. 0. 0. 0. 0. 0.
    0. 0. 0. 0. 0. 0. 0. 0. 0. 0. 0. 0. 0. 0. 0. 0. 0. 0. 0. 0. 0. 0. 0.
    0. 0. 0. 0. 0. 0. 0. 0. 0. 0. 0. 0. 0. 0. 0. 0. 0. 0. 0. 0. 0. 0. 0.
    0. 0. 0. 0. 0. 0. 0. 0. 0. 0. 0. 0. 0. 0. 2.03900003e+00
    2.04399991e+00 2.77600002e+00 0. 0. 0. 0. 0. 0. 0. 0. 0. 0. 0. 0. 0.
    0. 0. 0. 0. 0. 1.75399995e+00 2.71499991e+00 0. 0. 0. 0. 0. 0. 0. 0.
    0. 0. 0. 0. 0. 0. 0. 2.03800011e+00 2.03299999e+00 2.02900004e+00
    2.02900004e+00 2.02099991e+00 2.02099991e+00 2.01600003e+00
    2.01600003e+00 2.01600003e+00 2.00399995e+00 2.00399995e+00
    2.00399995e+00 2.00399995e+00 2.00099993e+00 2.00099993e+00
    1.99300003e+00 1.98800004e+00 1.98800004e+00 1.98599994e+00
    1.98699999e+00 1.98800004e+00 1.98800004e+00 1.98000002e+00
    1.97300005e+00 1.71899998e+00 1.21099997e+00 0. 0. 0. 0. 0. 0. 0. 0.
    0. 0. 0. 0. 0. 0. 2.03500009e+00 2.03299999e+00 2.02900004e+00
    2.02300000e+00 2.02099991e+00 2.01699996e+00 2.01600003e+00
    2.01600003e+00 2.00900006e+00 2.00399995e+00 2.00399995e+00
    2.00399995e+00 2. 2. 1.99600005e+00 1.99199998e+00 1.98800004e+00
    1.98800004e+00 1.98800004e+00 1.98800004e+00 1.98800004e+00
    1.98599994e+00 1.98000002e+00 1.97300005e+00 1.97200000e+00 0. 0. 0.
    0. 0. 0. 0. 0. 0. 0. 0. 0. 0. 0. 0. 2.03600001e+00 2.03299999e+00
    2.02900004e+00 2.02399993e+00 2.02099991e+00 2.01600003e+00
    2.01600003e+00 2.01600003e+00 2.01099992e+00 2.00600004e+00
    2.00500011e+00 2.00399995e+00 2. 2. 1.99699998e+00 1.99399996e+00
    1.99000001e+00 1.98800004e+00 1.98800004e+00 1.98800004e+00
    1.98599994e+00 1.98000002e+00 1.98000002e+00 1.97599995e+00
    1.97200000e+00 0. 0. 0. 0. 0. 0. 0. 0. 0. 0. 0. 0. 0. 0. 0.
    2.02999997e+00 2.03299999e+00 2.02900004e+00 2.02300000e+00
    2.02099991e+00 2.01600003e+00 2.01600003e+00 2.01600003e+00
    2.01300001e+00 2.01200008e+00 2.00500011e+00 2.00399995e+00 2. 2. 2.
    1.99199998e+00 1.98800004e+00 1.98800004e+00 1.98800004e+00
    1.99000001e+00 1.98699999e+00 1.98000002e+00 1.98000002e+00
    1.97599995e+00 1.86099994e+00 0. 0. 0. 0. 0. 0. 0. 0. 0. 0. 0. 0. 0.
    0. 0. 1.59500003e+00 2.03299999e+00 2.02800012e+00 2.02300000e+00
    2.02099991e+00 2.01600003e+00 2.01500010e+00 2.01200008e+00
    2.00900006e+00 2.00799990e+00 2.00399995e+00 2.00200009e+00 2. 2. 2.
    1.99600005e+00 1.99199998e+00 1.98800004e+00 1.98800004e+00
    1.98800004e+00 1.98800004e+00 1.98300004e+00 1.98000002e+00
    1.97700000e+00 1.97399998e+00 0. 0. 0. 0. 0. 0. 0. 0. 0. 0. 0. 0. 0.
    0. 0. 1.59000003e+00 2.03200006e+00 2.02699995e+00 2.02300000e+00
    2.02099991e+00 2.01600003e+00 2.01600003e+00 2.01200008e+00
    2.00900006e+00 2.00799990e+00 2.00399995e+00 2.00399995e+00 2.
    1.99699998e+00 1.99600005e+00 1.99500000e+00 1.99199998e+00
    1.98800004e+00 1.98599994e+00 1.98699999e+00 1.98399997e+00
    1.98199999e+00 1.97800004e+00 1.97300005e+00 1.97200000e+00
    1.67100000e+00 0. 0. 0. 0. 0. 0. 0. 0. 0. 0. 0. 0. 0. 0.
    1.59000003e+00 2.02900004e+00 2.02500010e+00 2.02300000e+00
    2.01900005e+00 2.01600003e+00 2.01600003e+00 2.01099992e+00
    2.00799990e+00 2.00799990e+00 2.00399995e+00 2.00399995e+00 2. 2.
    1.99699998e+00 1.99500000e+00 1.99199998e+00 1.98800004e+00
    1.98699999e+00 1.98800004e+00 1.98800004e+00 1.98000002e+00
    1.97800004e+00 1.97300005e+00 1.97200000e+00 0. 0. 0. 0. 0. 0. 0. 0.
    0. 0. 0. 0. 0. 0. 0. 1.58800006e+00 2.02500010e+00 2.02500010e+00
    2.02300000e+00 2.01699996e+00 2.01600003e+00 2.01600003e+00
    2.01099992e+00 2.00799990e+00 2.00799990e+00 2.00399995e+00
    2.00399995e+00 2. 2. 2. 1.99600005e+00 1.98800004e+00 1.98800004e+00
    1.98599994e+00 1.98699999e+00 1.98500001e+00 1.97899997e+00
    1.97599995e+00 1.97599995e+00 1.97200000e+00 0. 0. 0. 0. 0. 0. 0. 0.
    0. 0. 0. 0. 0. 0. 0. 1.58599997e+00 2.02500010e+00 2.02500010e+00
    2.02300000e+00 2.01699996e+00 2.01600003e+00 2.01600003e+00
    2.01399994e+00 2.00500011e+00 2.00399995e+00 2.00399995e+00
    2.00200009e+00 2. 1.99600005e+00 1.99600005e+00 1.99199998e+00
    1.98800004e+00 1.98800004e+00 1.98599994e+00 1.98699999e+00
    1.98399997e+00 1.97599995e+00 1.97800004e+00 1.97599995e+00
    1.97200000e+00 1.97200000e+00 0. 0. 0. 0. 0. 0. 0. 0. 0. 0. 0. 0. 0.
    0. 2.03299999e+00 2.02999997e+00 2.02800012e+00 2.02300000e+00
    2.01600003e+00 2.01600003e+00 2.01600003e+00 2.01399994e+00
    2.00600004e+00 2.00600004e+00 2.00399995e+00 2.00200009e+00 2.
    1.99899995e+00 1.99600005e+00 1.99600005e+00 1.99199998e+00
    1.98399997e+00 1.98399997e+00 1.98699999e+00 1.98599994e+00
    1.98000002e+00 1.97599995e+00 1.97899997e+00 1.97200000e+00
    1.97200000e+00 0. 0. 0. 0. 0. 0. 0. 0. 0. 0. 0. 0. 0. 0.
    2.03299999e+00 2.02900004e+00 2.02600002e+00 2.02200007e+00
    2.01600003e+00 2.01600003e+00 2.01500010e+00 2.01200008e+00
    2.00900006e+00 2.00600004e+00 2.00399995e+00 2.00099993e+00 2.
    1.99699998e+00 1.99600005e+00 1.99399996e+00 1.99000001e+00
    1.98399997e+00 1.98399997e+00 1.98699999e+00 1.98399997e+00
    1.98000002e+00 1.97599995e+00 1.97599995e+00 1.97599995e+00
    1.97599995e+00 0. 0. 0. 0. 0. 0. 0. 0. 0. 0. 0. 0. 0. 0.
    1.58800006e+00 2.02600002e+00 2.02500010e+00 2.02099991e+00
    2.01699996e+00 2.01600003e+00 2.01200008e+00 2.00999999e+00
    2.00799990e+00 2.00399995e+00 2.00399995e+00 2. 2. 1.99899995e+00
    1.99600005e+00 1.99199998e+00 1.98800004e+00 1.98800004e+00
    1.98800004e+00 1.98800004e+00 1.98399997e+00 1.98199999e+00
    1.97700000e+00 1.97599995e+00 1.97599995e+00 0. 0. 0. 0. 0. 0. 0. 0.
    0. 0. 0. 0. 0. 0. 0. 1.59000003e+00 2.02800012e+00 2.02500010e+00
    2.02099991e+00 2.01799989e+00 2.01600003e+00 2.01500010e+00
    2.00999999e+00 2.00799990e+00 2.00399995e+00 2.00399995e+00
    2.00200009e+00 2. 1.99899995e+00 1.99600005e+00 1.99199998e+00
    1.99199998e+00 1.98800004e+00 1.98599994e+00 1.98699999e+00
    1.98000002e+00 1.98000002e+00 1.98000002e+00 1.97599995e+00
    1.97599995e+00 0. 0. 0. 0. 0. 0. 0. 0. 0. 0. 0. 0. 0. 0. 0. 0.
    2.02099991e+00 2.02500010e+00 2.02099991e+00 2.02099991e+00
    2.01600003e+00 2.01600003e+00 2.01200008e+00 2.00500011e+00
    2.00399995e+00 2.00300002e+00 2. 2. 2. 1.99699998e+00 1.99399996e+00
    1.99199998e+00 1.98800004e+00 1.98699999e+00 1.98599994e+00
    1.98199999e+00 1.98000002e+00 1.98000002e+00 1.97599995e+00
    1.97200000e+00 0. 0. 0. 0. 0. 0. 0. 0. 0. 0. 0. 0. 0. 0. 0.
    2.02999997e+00 2.02500010e+00 2.02399993e+00 2.02099991e+00
    2.02099991e+00 2.01600003e+00 2.01600003e+00 2.01200008e+00
    2.00500011e+00 2.00399995e+00 2.00300002e+00 2. 2.00300002e+00 2.
    1.99699998e+00 1.99600005e+00 1.99199998e+00 1.98800004e+00
    1.98699999e+00 1.98699999e+00 1.98399997e+00 1.98000002e+00
    1.97700000e+00 1.97599995e+00 1.97200000e+00 0. 0. 0. 0. 0. 0. 0. 0.
    0. 0. 0. 0. 0. 0. 0. 2.02900004e+00 2.02500010e+00 2.02399993e+00
    2.02099991e+00 2.02099991e+00 2.01600003e+00 2.01600003e+00
    2.01600003e+00 2.00600004e+00 2.00399995e+00 2.00300002e+00 2. 2.
    1.99899995e+00 1.99199998e+00 1.99199998e+00 1.98800004e+00
    1.98800004e+00 1.98399997e+00 1.98399997e+00 1.98000002e+00
    1.97899997e+00 1.97599995e+00 1.97599995e+00 1.97200000e+00 0. 0. 0.
    0. 0. 0. 0. 0. 0. 0. 0. 0. 0. 0. 0. 2.03299999e+00 2.02900004e+00
    2.02099991e+00 2.02099991e+00 2.02099991e+00 2.01600003e+00
    2.01600003e+00 2.01600003e+00 2.00900006e+00 2.00399995e+00
    2.00399995e+00 2.00399995e+00 2. 1.99600005e+00 1.99300003e+00
    1.99300003e+00 1.98800004e+00 1.98399997e+00 1.98399997e+00
    1.98699999e+00 1.98399997e+00 1.98300004e+00 1.98000002e+00
    1.97599995e+00 1.95500004e+00 0. 0. 0. 0. 0. 0. 0. 0. 0. 0. 0. 0. 0.
    0. 0. 1.80299997e+00 2.02699995e+00 2.02099991e+00 2.02099991e+00
    2.02099991e+00 2.01600003e+00 2.01600003e+00 2.01600003e+00
    2.00799990e+00 2.00799990e+00 2.00399995e+00 2.00200009e+00 2.
    1.99600005e+00 1.99600005e+00 1.99600005e+00 1.98800004e+00
    1.98599994e+00 1.98699999e+00 1.98800004e+00 1.98399997e+00
    1.98300004e+00 1.97599995e+00 1.97599995e+00 1.97599995e+00 0. 0. 0.
    0. 0. 0. 0. 0. 0. 0. 0. 0. 0. 0. 0. 0. 2.02099991e+00 2.02399993e+00
    2.02099991e+00 2.02099991e+00 2.01600003e+00 2.01600003e+00
    2.01099992e+00 2.00500011e+00 2.00399995e+00 2.00399995e+00 2.
    1.99699998e+00 1.99899995e+00 1.99500000e+00 1.99300003e+00
    1.98800004e+00 1.98800004e+00 1.98399997e+00 1.98699999e+00
    1.98699999e+00 1.98399997e+00 1.97700000e+00 1.97599995e+00
    1.81299996e+00 0. 0. 0. 0. 0. 0. 0. 0. 0. 0. 0. 0. 0. 0. 0. 0.
    2.02999997e+00 2.02500010e+00 2.02099991e+00 2.02099991e+00
    2.01600003e+00 2.01600003e+00 2.00999999e+00 2.00799990e+00
    2.00399995e+00 2.00399995e+00 2. 2. 2. 1.99600005e+00 1.99199998e+00
    1.98800004e+00 1.98800004e+00 1.98599994e+00 1.98699999e+00
    1.98800004e+00 1.98000002e+00 1.97599995e+00 1.97599995e+00
    1.97200000e+00 0. 0. 0. 0. 0. 0. 0. 0. 0. 0. 0. 0. 0. 0. 0. 0.
    1.91799998e+00 2.02300000e+00 2.02099991e+00 2.01999998e+00
    2.01600003e+00 2.01600003e+00 2.01200008e+00 2.00799990e+00
    2.00399995e+00 2.00399995e+00 2.00099993e+00 2. 1.99500000e+00
    1.99199998e+00 1.99600005e+00 1.98800004e+00 1.98399997e+00
    1.98399997e+00 1.98699999e+00 1.98399997e+00 1.98099995e+00
    1.97599995e+00 1.97599995e+00 1.97599995e+00 0. 0. 0. 0. 0. 0. 0. 0.
    0. 0. 0. 0. 0. 0. 0. 0. 1.91199994e+00 2.02099991e+00 2.02099991e+00
    2.01999998e+00 2.01600003e+00 2.01500010e+00 2.01200008e+00
    2.00799990e+00 2.00600004e+00 2.00399995e+00 2. 1.99800003e+00
    1.99500000e+00 1.99000001e+00 1.99000001e+00 1.98800004e+00
    1.98399997e+00 1.98399997e+00 1.98699999e+00 1.98399997e+00
    1.98300004e+00 1.97599995e+00 1.97599995e+00 1.97599995e+00 0. 0. 0.
    0. 0. 0. 0. 0. 0. 0. 0. 0. 0. 0. 0. 0. 2.02500010e+00 2.01699996e+00
    2.01699996e+00 2.01699996e+00 2.01999998e+00 2.01500010e+00
    2.01200008e+00 2.00799990e+00 2.00500011e+00 2.00399995e+00 2.
    1.99600005e+00 1.99500000e+00 1.99100006e+00 1.98800004e+00
    1.98800004e+00 1.98399997e+00 1.98399997e+00 1.98399997e+00
    1.98399997e+00 1.98300004e+00 1.97599995e+00 1.97599995e+00
    1.97599995e+00 0. 0. 0. 0. 0. 0. 0. 0. 0. 0. 0. 0. 0. 0. 0. 0.
    2.02099991e+00 2.02099991e+00 2.01600003e+00 2.01600003e+00
    2.01500010e+00 2.01099992e+00 2.00799990e+00 2.00500011e+00
    2.00300002e+00 2.00200009e+00 2. 2. 1.99600005e+00 1.99100006e+00
    1.99100006e+00 1.98800004e+00 1.98399997e+00 1.98399997e+00
    1.98699999e+00 1.98300004e+00 1.98000002e+00 1.97700000e+00
    1.97599995e+00 1.97500002e+00 1.98000002e+00 0. 0. 0. 0. 0. 0. 0. 0.
    0. 0. 0. 0. 0. 0. 0. 2.02099991e+00 2.02099991e+00 2.01600003e+00
    2.01600003e+00 2.01200008e+00 2.01099992e+00 2.00699997e+00
    2.00399995e+00 2.00200009e+00 2.00200009e+00 2. 2. 1.99800003e+00
    1.99100006e+00 1.98800004e+00 1.98800004e+00 1.98599994e+00
    1.98399997e+00 1.98399997e+00 1.98000002e+00 1.97899997e+00
    1.97599995e+00 1.97500002e+00 1.97099996e+00 1.96800005e+00 0. 0. 0.
    0. 0. 0. 0. 0. 0. 0. 0. 0. 0. 0. 0. 2.02099991e+00 2.02099991e+00
    2.01799989e+00 2.01200008e+00 2.01200008e+00 2.00999999e+00
    2.00500011e+00 2.00399995e+00 2.00399995e+00 2. 2. 2. 1.99500000e+00
    1.98800004e+00 1.98800004e+00 1.98800004e+00 1.98399997e+00
    1.98399997e+00 1.98399997e+00 1.98199999e+00 1.97700000e+00
    1.97599995e+00 1.97200000e+00 1.97200000e+00 1.97200000e+00 0. 0. 0.
    0. 0. 0. 0. 0. 0. 0. 0. 0. 0. 0. 1.58800006e+00 2.02200007e+00
    2.02099991e+00 2.01900005e+00 2.01300001e+00 2.01600003e+00
    2.00699997e+00 2.00399995e+00 2.00399995e+00 2.00399995e+00 2. 2. 2.
    1.99600005e+00 1.99000001e+00 1.99100006e+00 1.98800004e+00
    1.98399997e+00 1.98199999e+00 1.98300004e+00 1.98399997e+00
    1.97599995e+00 1.97200000e+00 1.97200000e+00 1.97200000e+00
    1.97200000e+00 0. 0. 0. 0. 0. 0. 0. 0. 0. 0. 0. 0. 0. 0.
    1.58700001e+00 2.02099991e+00 2.02099991e+00 2.01900005e+00
    2.01300001e+00 2.00900006e+00 2.01200008e+00 2.00699997e+00
    2.00399995e+00 2.00300002e+00 2.00399995e+00 2. 2. 1.99800003e+00
    1.98800004e+00 1.98800004e+00 1.98399997e+00 1.98399997e+00
    1.98199999e+00 1.98300004e+00 1.98300004e+00 1.97899997e+00
    1.97200000e+00 1.96899998e+00 1.96800005e+00 0. 0. 0. 0. 0. 0. 0. 0.
    0. 0. 0. 0. 0. 0. 0. 1.20599997e+00 2.02099991e+00 2.02099991e+00
    2.01999998e+00 2.01600003e+00 2.01399994e+00 2.00799990e+00
    2.00699997e+00 2.00200009e+00 2. 2. 2. 1.99600005e+00 1.98800004e+00
    1.98800004e+00 1.98800004e+00 1.98800004e+00 1.98399997e+00
    1.98000002e+00 1.98399997e+00 1.97599995e+00 1.97599995e+00
    1.97399998e+00 1.97200000e+00 1.97000003e+00 0. 0. 0. 0. 0. 0. 0. 0.
    0. 0. 0. 0. 0. 0. 0. 0. 2.02099991e+00 2.02099991e+00 2.02099991e+00
    2.01600003e+00 2.01600003e+00 2.00799990e+00 2.00600004e+00
    2.00300002e+00 2. 2. 1.99800003e+00 1.99199998e+00 1.99100006e+00
    1.98800004e+00 1.98800004e+00 1.98500001e+00 1.98399997e+00
    1.98000002e+00 1.98300004e+00 1.97599995e+00 1.97599995e+00
    1.97399998e+00 1.97200000e+00 1.96800005e+00 0. 0. 0. 0. 0. 0. 0. 0.
    0. 0. 0. 0. 0. 0. 0. 0. 2.02099991e+00 2.01999998e+00 2.01600003e+00
    2.01600003e+00 2.01600003e+00 2.01399994e+00 2.00600004e+00
    2.00399995e+00 2.00399995e+00 2. 1.99600005e+00 1.99600005e+00
    1.99500000e+00 1.98800004e+00 1.98399997e+00 1.98399997e+00
    1.98000002e+00 1.98000002e+00 1.98300004e+00 1.98000002e+00
    1.97599995e+00 1.97200000e+00 1.96899998e+00 1.96800005e+00
    1.96800005e+00 0. 0. 0. 0. 0. 0. 0. 0. 0. 0. 0. 0. 0. 0. 0.
    2.02200007e+00 2.02099991e+00 2.01900005e+00 2.01600003e+00
    2.01600003e+00 2.00799990e+00 2.00399995e+00 2.00399995e+00
    2.00399995e+00 2. 1.99800003e+00 1.99600005e+00 1.99000001e+00
    1.98800004e+00 1.98800004e+00 1.98399997e+00 1.98399997e+00
    1.98099995e+00 1.98000002e+00 1.98000002e+00 1.97599995e+00
    1.97399998e+00 1.97200000e+00 1.97099996e+00 1.97099996e+00 0. 0. 0.
    0. 0. 0. 0. 0. 0. 0. 0. 0. 0. 0. 0. 0. 0. 0. 0. 0. 0. 0. 0. 0. 0. 0.
    0. 0. 0. 0. 0. 0. 0. 0. 0. 0. 0. 0. 0. 0. 0. 0. 0. 0. 0. 0. 0. 0. 0.
    0. 0. 0. 0. 0. 0. 0. 0. 0. 0. 0. 0. 0. 0. 0. 0. 0. 0. 0. 0. 0. 0. 0.
    0. 0. 0. 0. 0. 0. 0. 0. 0. 0. 0. 0. 0. 0. 0. 0. 0. 0. 0. 0. 0. 0. 0.
    0. 0. 0. 0. 0. 0. 0. 0. 0. 0. 0. 0. 0. 0. 0. 0. 0. 0. 0. 0. 0. 0. 0.
    0. 0. 0. 0. 0. 0. 0. 0. 0. 0. 0. 0. 0. 0. 0. 0. 0. 0. 0. 0. 0. 0. 0.
    0. 0. 0. 0. 0. 0. 0. 0. 0. 0. 0. 0. 0. 0. 0. 0. 0. 0. 0. 0. 0. 0. 0.
    0. 0. 0.</data></Depth>
</opencv_storage>
