<?xml version="1.0"?>
<opencv_storage>
<Depth type_id="opencv-matrix">
  <rows>40</rows>
  <cols>40</cols>
  <dt>f</dt>
  <data>
    0. 0. 0. 0. 0. 0. 0. 0. 0. 0. 0. 0. 0. 0. 0. 0. 0. 0. 0. 0. 0.
    1.98099995e+00 1.97899997e+00 1.98099995e+00 1.98500001e+00
    1.99000001e+00 0. 0. 0. 0. 0. 0. 0. 0. 0. 0. 0. 0. 0. 0. 0. 0. 0. 0.
    0. 0. 0. 0. 0. 0. 0. 0. 0. 0. 0. 0. 0. 2. 1.99800003e+00
    1.99500000e+00 1.98800004e+00 1.98800004e+00 1.98800004e+00
    1.98699999e+00 1.98699999e+00 1.98800004e+00 0. 0. 0. 0. 0. 0. 0. 0.
    0. 0. 0. 0. 0. 0. 0. 0. 0. 0. 0. 0. 0. 0. 0. 0. 0. 0. 0. 0. 0.
    1.99500000e+00 1.99600005e+00 1.99300003e+00 1.99500000e+00
    1.99500000e+00 1.99100006e+00 1.99000001e+00 1.98699999e+00
    1.98599994e+00 1.98699999e+00 1.98300004e+00 0. 0. 0. 0. 0. 0. 0. 0.
    0. 0. 0. 0. 0. 0. 0. 0. 0. 0. 0. 0. 0. 0. 0. 0. 0. 0. 0.
    1.99399996e+00 1.99500000e+00 1.99500000e+00 1.99000001e+00
    1.99000001e+00 1.99500000e+00 1.99199998e+00 1.99000001e+00
    1.99199998e+00 1.99000001e+00 1.98800004e+00 1.98599994e+00
    1.98099995e+00 1.62100005e+00 2.06299996e+00 0. 0. 0. 0. 0. 0. 0. 0.
    0. 0. 0. 0. 0. 0. 0. 0. 0. 0. 0. 0. 0. 0. 1.99600005e+00 2.
    2.00399995e+00 1.99800003e+00 1.99500000e+00 1.99500000e+00
    1.99500000e+00 1.99500000e+00 1.99500000e+00 1.99199998e+00
    1.99100006e+00 1.99100006e+00 1.99000001e+00 1.98599994e+00
    1.98599994e+00 1.98099995e+00 0. 0. 0. 0. 0. 0. 0. 0. 0. 0. 0. 0. 0.
    0. 0. 0. 2.78099990e+00 0. 0. 0. 2.70700002e+00 2.01099992e+00
    2.00999999e+00 2.00500011e+00 2.00300002e+00 2.00500011e+00
    2.00399995e+00 1.99899995e+00 1.99500000e+00 1.99500000e+00
    1.99800003e+00 1.99500000e+00 1.99500000e+00 1.99500000e+00
    1.99000001e+00 1.99000001e+00 1.99000001e+00 1.98699999e+00
    1.98599994e+00 1.98099995e+00 1.76900005e+00 0. 1.08000004e+00 0. 0.
    0. 0. 0. 0. 0. 0. 0. 0. 0. 0. 0. 2.03099990e+00 2.31100011e+00
    2.50399995e+00 2.01099992e+00 2.00999999e+00 2.01099992e+00
    2.00999999e+00 2.00999999e+00 2.00900006e+00 2.00500011e+00
    2.00500011e+00 2.00399995e+00 2. 1.99800003e+00 1.99500000e+00
    1.99500000e+00 1.99500000e+00 1.99500000e+00 1.99199998e+00
    1.99300003e+00 1.99399996e+00 1.98699999e+00 1.98599994e+00
    1.98099995e+00 1.98099995e+00 1.80799997e+00 0. 0. 0. 0. 0. 0. 0. 0.
    0. 0. 0. 0. 0. 0. 2.02300000e+00 2.01500010e+00 2.01200008e+00
    2.00999999e+00 2.00999999e+00 2.01099992e+00 2.00999999e+00
    2.00999999e+00 2.00999999e+00 2.00500011e+00 2.00399995e+00 2. 2.
    1.99800003e+00 1.99500000e+00 1.99500000e+00 1.99500000e+00
    1.99500000e+00 1.99500000e+00 1.99000001e+00 1.99000001e+00
    1.98699999e+00 1.98599994e+00 1.98599994e+00 1.97599995e+00
    1.94099998e+00 0. 0. 0. 0. 0. 0. 0. 0. 0. 0. 0. 0. 0. 0.
    2.01699996e+00 2.01500010e+00 2.01500010e+00 2.01500010e+00
    2.01500010e+00 2.01099992e+00 2.00999999e+00 2.00999999e+00
    2.00999999e+00 2.00999999e+00 2.00399995e+00 1.99899995e+00
    1.99500000e+00 1.99800003e+00 1.99500000e+00 1.99500000e+00
    1.99699998e+00 1.99500000e+00 1.99500000e+00 1.99199998e+00
    1.99000001e+00 1.99000001e+00 1.98599994e+00 1.98099995e+00
    1.97599995e+00 1.98099995e+00 2.27300000e+00 0. 0. 0. 0. 0. 0. 0. 0.
    0. 0. 0. 0. 0. 2.01699996e+00 2.01500010e+00 2.01500010e+00
    2.01500010e+00 2.01099992e+00 2.00999999e+00 2.00999999e+00
    2.00999999e+00 2.00999999e+00 2.00600004e+00 2.00500011e+00
    1.99899995e+00 1.99500000e+00 1.99699998e+00 1.99500000e+00
    1.99500000e+00 1.99500000e+00 1.99500000e+00 1.99500000e+00
    1.99500000e+00 1.98699999e+00 1.98599994e+00 1.98599994e+00
    1.98099995e+00 1.98599994e+00 1.99000001e+00 1.99500000e+00 0. 0. 0.
    0. 0. 0. 0. 0. 0. 0. 0. 0. 0. 1.93700004e+00 2.01799989e+00
    2.01500010e+00 2.01500010e+00 2.01500010e+00 2.01500010e+00
    2.00999999e+00 2.00999999e+00 2.00999999e+00 2.00999999e+00
    2.00900006e+00 1.99899995e+00 1.99500000e+00 1.99500000e+00
    1.99500000e+00 1.99500000e+00 1.99500000e+00 1.99500000e+00
    1.99500000e+00 1.99500000e+00 1.99199998e+00 1.99000001e+00
    1.98699999e+00 1.98199999e+00 1.98599994e+00 1.98599994e+00
    1.98899996e+00 0. 0. 0. 0. 0. 0. 0. 0. 0. 0. 0. 0. 0. 1.39600003e+00
    2.01500010e+00 2.01500010e+00 2.01500010e+00 2.01500010e+00
    2.01500010e+00 2.01099992e+00 2.00999999e+00 2.00500011e+00
    2.00500011e+00 2.00900006e+00 2.00399995e+00 2. 1.99500000e+00
    1.99500000e+00 1.99500000e+00 2. 2. 1.99500000e+00 1.99500000e+00
    1.99500000e+00 1.99000001e+00 1.99500000e+00 1.98599994e+00
    1.98500001e+00 1.98500001e+00 1.98500001e+00 2.43300009e+00 0. 0. 0.
    0. 0. 0. 0. 0. 0. 0. 0. 0. 0. 2.01799989e+00 2.01500010e+00
    2.01500010e+00 2.01500010e+00 2.01500010e+00 2.01099992e+00
    2.00999999e+00 2.00500011e+00 2.00600004e+00 2.00399995e+00
    2.00099993e+00 2. 1.99600005e+00 1.99600005e+00 1.99500000e+00
    1.99500000e+00 1.99699998e+00 1.99500000e+00 1.99500000e+00
    1.99500000e+00 1.99000001e+00 1.98899996e+00 1.98599994e+00
    1.98099995e+00 1.98099995e+00 1.98099995e+00 1.93400002e+00 0. 0. 0.
    0. 0. 0. 0. 0. 0. 0. 0. 0. 0. 2.02999997e+00 2.01699996e+00
    2.01500010e+00 2.01500010e+00 2.01500010e+00 2.01099992e+00
    2.00999999e+00 2.00699997e+00 2.00999999e+00 2.00399995e+00
    2.00099993e+00 2. 2. 1.99800003e+00 1.99500000e+00 1.99500000e+00
    1.99500000e+00 1.99500000e+00 1.99500000e+00 1.99500000e+00
    1.99000001e+00 1.98800004e+00 1.98599994e+00 1.98099995e+00
    1.98099995e+00 1.98099995e+00 1.97599995e+00 2.31500006e+00 0. 0. 0.
    0. 0. 0. 0. 0. 0. 0. 0. 0. 1.48199999e+00 2.01999998e+00
    2.01500010e+00 2.01500010e+00 2.01500010e+00 2.01099992e+00
    2.00999999e+00 2.00999999e+00 2.00999999e+00 2.00500011e+00
    2.00500011e+00 2.00500011e+00 2. 2. 1.99500000e+00 2. 2.
    1.99699998e+00 1.99500000e+00 1.99500000e+00 1.99199998e+00
    1.99000001e+00 1.99000001e+00 1.98599994e+00 1.98099995e+00
    1.98099995e+00 1.98099995e+00 2.00300002e+00 0. 0. 0. 0. 0. 0. 0. 0.
    0. 0. 0. 0. 1.48399997e+00 2.01900005e+00 2.01500010e+00
    2.01500010e+00 2.01500010e+00 2.01500010e+00 2.01200008e+00
    2.00999999e+00 2.00999999e+00 2.00999999e+00 2.00999999e+00
    2.00399995e+00 2. 2. 1.99500000e+00 2. 2. 1.99800003e+00
    1.99699998e+00 1.99500000e+00 1.99500000e+00 1.99100006e+00
    1.99000001e+00 1.99000001e+00 1.98300004e+00 1.98099995e+00
    1.98099995e+00 1.98099995e+00 0. 0. 0. 0. 0. 0. 0. 0. 0. 0. 0. 0. 0.
    1.79100001e+00 2.01500010e+00 2.01500010e+00 2.01500010e+00
    2.01500010e+00 2.01300001e+00 2.00999999e+00 2.00999999e+00
    2.00999999e+00 2.00999999e+00 2.00399995e+00 2. 2.00200009e+00 2. 2.
    2. 1.99500000e+00 1.99800003e+00 1.99600005e+00 1.99500000e+00
    1.99300003e+00 1.99500000e+00 1.98800004e+00 1.98300004e+00
    1.98099995e+00 1.98099995e+00 1.97599995e+00 2.40400004e+00 0. 0. 0.
    0. 0. 0. 0. 0. 0. 0. 0. 0. 1.08399999e+00 1.80499995e+00
    2.01500010e+00 2.01500010e+00 2.01500010e+00 2.00999999e+00
    2.00999999e+00 2.00999999e+00 2.00999999e+00 2.00999999e+00
    2.00500011e+00 2.00200009e+00 2.00099993e+00 1.99699998e+00 2. 2. 2.
    2. 1.99600005e+00 1.99500000e+00 1.99500000e+00 1.99300003e+00
    1.98800004e+00 1.98399997e+00 1.98099995e+00 1.98000002e+00
    1.97599995e+00 1.63399994e+00 0. 0. 0. 0. 0. 0. 0. 0. 0. 0.
    2.45499992e+00 0. 0. 1.63300002e+00 2.01500010e+00 2.01500010e+00
    2.01500010e+00 2.01500010e+00 2.01300001e+00 2.00999999e+00
    2.00999999e+00 2.00999999e+00 2.00699997e+00 2. 2. 1.99500000e+00 2.
    2. 1.99699998e+00 2. 1.99600005e+00 1.99500000e+00 1.99100006e+00
    1.99000001e+00 1.99000001e+00 1.98599994e+00 1.98099995e+00
    1.98099995e+00 1.97899997e+00 1.98099995e+00 0. 0. 0. 0. 0. 0. 0. 0.
    0. 0. 0. 0. 0. 0. 2.01500010e+00 2.01500010e+00 2.01500010e+00
    2.01500010e+00 2.01500010e+00 2.00999999e+00 2.00999999e+00
    2.00999999e+00 2.00900006e+00 2.00500011e+00 2.00399995e+00 2.
    2.00200009e+00 2. 1.99500000e+00 1.99500000e+00 2. 1.99600005e+00
    1.99100006e+00 1.99000001e+00 1.99000001e+00 1.98099995e+00
    1.98099995e+00 1.98300004e+00 1.98099995e+00 1.97800004e+00
    1.45000005e+00 0. 0. 0. 0. 0. 0. 0. 0. 0. 0. 0. 0. 0. 2.02099991e+00
    2.01500010e+00 2.01500010e+00 2.01500010e+00 2.01500010e+00
    2.01300001e+00 2.00999999e+00 2.00999999e+00 2.00999999e+00
    2.00500011e+00 2.00500011e+00 2. 2.00300002e+00 2. 1.99899995e+00
    1.99899995e+00 2. 1.99600005e+00 1.99100006e+00 1.99000001e+00
    1.98699999e+00 1.98599994e+00 1.98599994e+00 1.98099995e+00
    1.98099995e+00 1.97599995e+00 1.55799997e+00 0. 0. 0. 0. 0. 0. 0. 0.
    0. 0. 0. 0. 0. 1.71200001e+00 2.01500010e+00 2.01500010e+00
    2.01500010e+00 2.01500010e+00 2.01500010e+00 2.00999999e+00
    2.00999999e+00 2.00999999e+00 2.00799990e+00 2. 2. 2.00399995e+00 2.
    2. 2. 2. 1.99500000e+00 1.99500000e+00 1.99500000e+00 1.98899996e+00
    1.98599994e+00 1.98599994e+00 1.98099995e+00 1.98099995e+00
    1.98000002e+00 0. 2.36500001e+00 0. 0. 0. 0. 0. 0. 0. 0. 0. 0. 0. 0.
    1.71200001e+00 2.01500010e+00 2.01500010e+00 2.01500010e+00
    2.01500010e+00 2.00999999e+00 2.00999999e+00 2.00999999e+00
    2.00999999e+00 2.00799990e+00 2. 1.99500000e+00 2.00500011e+00
    2.00200009e+00 2. 2. 2. 1.99600005e+00 1.99500000e+00 1.99500000e+00
    1.99000001e+00 1.98599994e+00 1.98099995e+00 1.98099995e+00
    1.98099995e+00 1.98099995e+00 0. 0. 0. 0. 0. 0. 0. 0. 0. 0. 0. 0. 0.
    0. 0. 2.01500010e+00 2.01500010e+00 2.01900005e+00 2.01500010e+00
    2.01500010e+00 2.01500010e+00 2.00999999e+00 2.00999999e+00
    2.00799990e+00 2. 2. 2.00500011e+00 2.00200009e+00 2. 2.
    1.99699998e+00 1.99500000e+00 1.99500000e+00 1.99500000e+00
    1.99000001e+00 1.99000001e+00 1.98099995e+00 1.98099995e+00
    1.98500001e+00 1.98000002e+00 1.59700000e+00 0. 2.83699989e+00 0. 0.
    0. 0. 0. 0. 0. 0. 0. 2.81299996e+00 0. 0. 1.79799998e+00
    2.01500010e+00 2.01999998e+00 2.01999998e+00 2.01500010e+00
    2.01500010e+00 2.01399994e+00 2.00999999e+00 2.00799990e+00
    2.00500011e+00 2.00500011e+00 2.00699997e+00 2. 2.00200009e+00 2.
    1.99500000e+00 1.99500000e+00 1.99500000e+00 1.99500000e+00
    1.99500000e+00 1.99000001e+00 1.98599994e+00 1.98599994e+00
    1.98500001e+00 1.98000002e+00 1.97800004e+00 1.98099995e+00 0. 0. 0.
    0. 0. 0. 0. 0. 0. 0. 0. 0. 0. 1.76900005e+00 2.01999998e+00
    2.01999998e+00 2.01999998e+00 2.01999998e+00 2.01500010e+00
    2.01500010e+00 2.00999999e+00 2.00999999e+00 2.00999999e+00
    2.00500011e+00 2.00500011e+00 2.00500011e+00 2.00200009e+00 2. 2.
    1.99500000e+00 2. 1.99500000e+00 1.99500000e+00 1.99000001e+00
    1.99000001e+00 1.99000001e+00 1.98500001e+00 1.98099995e+00
    1.98099995e+00 1.98099995e+00 1.98099995e+00 0. 0. 0. 0. 0. 0. 0. 0.
    0. 0. 0. 0. 0. 2.03099990e+00 2.02099991e+00 2.01999998e+00
    2.01999998e+00 2.01500010e+00 2.01500010e+00 2.00999999e+00
    2.00999999e+00 2.00500011e+00 2.00500011e+00 2.00500011e+00
    2.00500011e+00 2.00500011e+00 2.00200009e+00 2. 2. 2. 1.99500000e+00
    1.99500000e+00 1.99000001e+00 1.99500000e+00 1.99000001e+00
    1.98500001e+00 1.98099995e+00 1.98099995e+00 1.98099995e+00
    1.98099995e+00 0. 0. 0. 0. 0. 0. 0. 0. 0. 0. 2.48200011e+00 0. 0.
    1.87899995e+00 2.02099991e+00 2.02099991e+00 2.01500010e+00
    2.01500010e+00 2.01500010e+00 2.00999999e+00 2.00600004e+00
    2.00600004e+00 2.00500011e+00 2.00799990e+00 2.00799990e+00
    2.00999999e+00 2.00500011e+00 2.00099993e+00 2. 2. 2. 1.99500000e+00
    1.99500000e+00 1.99399996e+00 1.99000001e+00 1.98699999e+00
    1.98500001e+00 1.98099995e+00 1.98099995e+00 1.98000002e+00
    1.88499999e+00 0. 0. 0. 0. 0. 0. 0. 0. 0. 0. 0. 0. 1.63399994e+00
    2.01200008e+00 2.01999998e+00 2.01500010e+00 2.01500010e+00
    2.01500010e+00 2.01399994e+00 2.00999999e+00 2.00999999e+00
    2.00600004e+00 2.00999999e+00 2.00500011e+00 2.00500011e+00
    2.00500011e+00 2.00500011e+00 2.00099993e+00 2. 2. 1.99500000e+00
    1.99500000e+00 1.99000001e+00 1.99100006e+00 1.99000001e+00
    1.98800004e+00 1.98099995e+00 1.98099995e+00 1.97599995e+00
    1.46300006e+00 0. 0. 0. 0. 0. 0. 0. 0. 0. 0. 1.07700002e+00 0. 0. 0.
    2.01999998e+00 2.01500010e+00 2.01500010e+00 2.01500010e+00
    2.01500010e+00 2.01399994e+00 2.00999999e+00 2.00999999e+00
    2.00999999e+00 2.00500011e+00 2.00600004e+00 2.00500011e+00
    2.00399995e+00 2.00099993e+00 2. 2. 1.99500000e+00 1.99500000e+00
    1.99500000e+00 1.99300003e+00 1.99000001e+00 1.98500001e+00
    1.98399997e+00 1.98199999e+00 1.97700000e+00 1.98099995e+00 0. 0. 0.
    0. 0. 0. 0. 0. 0. 0. 2.11400008e+00 0. 0. 0. 2.02200007e+00
    2.01699996e+00 2.01900005e+00 2.01500010e+00 2.01500010e+00
    2.01500010e+00 2.01500010e+00 2.00999999e+00 2.00999999e+00
    2.00699997e+00 2.00999999e+00 2.00699997e+00 2.00099993e+00 2. 2.
    1.99500000e+00 1.99500000e+00 1.99500000e+00 1.99500000e+00
    1.99199998e+00 1.99399996e+00 1.98599994e+00 1.98399997e+00
    1.98300004e+00 1.98199999e+00 1.98099995e+00 0. 0. 0. 0. 0. 0. 0. 0.
    0. 0. 1.56599998e+00 0. 0. 0. 2.03099990e+00 2.01999998e+00
    2.01900005e+00 2.01500010e+00 2.01500010e+00 2.01500010e+00
    2.00999999e+00 2.00999999e+00 2.00999999e+00 2.01099992e+00
    2.01200008e+00 2.00600004e+00 2.00099993e+00 2. 1.99600005e+00
    1.99500000e+00 1.99500000e+00 1.99500000e+00 1.99500000e+00
    1.99000001e+00 1.99300003e+00 1.98699999e+00 1.98599994e+00
    1.98599994e+00 1.98099995e+00 1.97599995e+00 1.98099995e+00 0. 0. 0.
    0. 0. 0. 0. 0. 0. 1.33099997e+00 0. 0. 0. 1.44099998e+00
    2.02300000e+00 2.01900005e+00 2.01500010e+00 2.01399994e+00
    2.01300001e+00 2.00999999e+00 2.00999999e+00 2.01200008e+00
    2.01099992e+00 2.00999999e+00 2.00500011e+00 2.00099993e+00 2. 2. 2.
    1.99699998e+00 1.99500000e+00 1.99399996e+00 1.98599994e+00
    1.98699999e+00 1.99000001e+00 1.98899996e+00 1.98599994e+00
    1.98099995e+00 1.97599995e+00 2.51600003e+00 0. 0. 0. 0. 0. 0. 0. 0.
    0. 0. 1.22899997e+00 0. 0. 0. 2.02600002e+00 2.01999998e+00
    2.01500010e+00 2.01399994e+00 2.00999999e+00 2.00999999e+00
    2.00999999e+00 2.01500010e+00 2.01200008e+00 2.00999999e+00
    2.00999999e+00 2. 2. 2. 2. 2. 2. 1.99399996e+00 1.98800004e+00
    1.98699999e+00 1.99000001e+00 1.99000001e+00 2.44400001e+00 0. 0. 0.
    0. 0. 0. 0. 0. 0. 0. 0. 0. 0. 1.75699997e+00 0. 0. 0. 2.01999998e+00
    2.01699996e+00 2.01500010e+00 2.01500010e+00 2.01500010e+00
    2.01200008e+00 2.00999999e+00 2.01500010e+00 2.01399994e+00
    2.00699997e+00 2.00699997e+00 2. 2. 2. 2. 1.99500000e+00 2.
    1.99699998e+00 1.99199998e+00 1.99100006e+00 1.99000001e+00 0. 0. 0.
    0. 0. 0. 0. 0. 0. 0. 0. 0. 0. 0. 0. 1.74600005e+00 0. 0. 0.
    2.01999998e+00 2.01799989e+00 2.01500010e+00 2.01500010e+00
    2.01500010e+00 2.00999999e+00 2.00999999e+00 2.01500010e+00
    2.01200008e+00 2.00500011e+00 2.00600004e+00 2.00300002e+00
    2.00500011e+00 2. 2. 2. 2.00900006e+00 1.93599999e+00 0. 0. 0. 0. 0.
    0. 0. 0. 0. 0. 0. 0. 0. 0. 0. 0. 0. 0. 1.02600002e+00 0. 0. 0.
    2.03099990e+00 2.02300000e+00 2.01500010e+00 2.01500010e+00
    2.01500010e+00 2.01500010e+00 2.01500010e+00 2.01600003e+00
    2.01200008e+00 2.00999999e+00 2.00999999e+00 2.00600004e+00
    2.00500011e+00 2.01099992e+00 1.19099998e+00 0. 0. 0. 0.
    1.86500001e+00 0. 0. 0. 0. 0. 0. 0. 0. 0. 0. 0. 0. 0. 0. 0. 0. 0. 0.
    0. 0. 0. 2.01999998e+00 2.01900005e+00 2.01500010e+00 2.01500010e+00
    2.01500010e+00 2.01500010e+00 2.01500010e+00 2.01200008e+00
    2.00999999e+00 2.01200008e+00 2.01099992e+00 2.01300001e+00
    2.02699995e+00 0. 0. 0. 0. 0. 0. 1.70400000e+00 0. 1.04900002e+00
    1.59599996e+00 0. 1.07900000e+00 0. 0. 0. 0. 0. 0. 0. 0. 0. 0. 0. 0.
    0. 0. 0. 0. 2.01600003e+00 2.01500010e+00 2.01500010e+00
    2.01500010e+00 2.01500010e+00 2.01500010e+00 2.01699996e+00
    1.37000000e+00 1.67499995e+00 2.03399992e+00 2.03800011e+00 0. 0. 0.
    0. 0. 1.60300004e+00 0. 0. 0. 0. 0. 0. 0. 0. 0. 0. 0. 0. 0. 0. 0. 0.
    0. 0. 0. 0. 0. 0. 0. 2.01500010e+00 2.01500010e+00 2.01799989e+00
    2.01500010e+00 2.00999999e+00 0. 0. 0. 0. 1.72500002e+00
    1.89999998e+00 0. 0. 0. 0. 2.01500010e+00 2.01500010e+00
    1.86199999e+00 0. 0. 0. 0. 0. 0. 0. 0. 0.</data></Depth>
</opencv_storage>
