<?xml version="1.0"?>
<opencv_storage>
<Depth type_id="opencv-matrix">
  <rows>40</rows>
  <cols>40</cols>
  <dt>f</dt>
  <data>
    0. 0. 0. 0. 0. 0. 0. 0. 0. 0. 0. 0. 0. 0. 2.02999997e+00
    2.02900004e+00 2.02600002e+00 2.01799989e+00 2.00699997e+00 2.
    2.03299999e+00 0. 0. 0. 0. 0. 0. 0. 0. 0. 0. 0. 0. 0. 0. 0. 0. 0. 0.
    0. 0. 0. 0. 0. 0. 0. 0. 0. 0. 0. 0. 0. 0. 1.65600002e+00
    2.02999997e+00 2.02099991e+00 2.01699996e+00 2.00999999e+00 2. 2.
    2.00699997e+00 2.53299999e+00 0. 0. 0. 0. 0. 0. 0. 0. 0. 0. 0. 0. 0.
    0. 0. 0. 0. 0. 0. 0. 0. 0. 0. 0. 0. 0. 0. 0. 0. 0. 0. 2.26200008e+00
    2.03699994e+00 2.02200007e+00 2.01999998e+00 2.01900005e+00
    2.00900006e+00 2. 2. 1.99899995e+00 1.99100006e+00 0. 0. 0. 0. 0. 0.
    0. 0. 0. 0. 0. 0. 0. 0. 0. 0. 0. 0. 0. 0. 0. 0. 0. 0. 0. 0. 0. 0. 0.
    0. 2.14299989e+00 2.03200006e+00 2.02099991e+00 2.01999998e+00
    2.01300001e+00 2.00900006e+00 2. 2. 1.99000001e+00 1.98500001e+00
    2.49699998e+00 0. 0. 0. 0. 0. 0. 0. 0. 0. 0. 0. 0. 0. 0. 0. 0. 0. 0.
    0. 0. 0. 0. 0. 0. 0. 0. 0. 2.11599994e+00 2.07900000e+00
    2.04099989e+00 2.02699995e+00 2.01999998e+00 2.00999999e+00
    2.00999999e+00 2. 2. 2. 1.98599994e+00 1.98000002e+00 1.97000003e+00
    0. 0. 0. 0. 0. 0. 0. 0. 0. 0. 0. 0. 0. 0. 0. 0. 0. 0. 0. 0. 0. 0. 0.
    0. 0. 0. 2.03099990e+00 2.04099989e+00 2.04099989e+00 2.04099989e+00
    2.02300000e+00 2.00999999e+00 2.00999999e+00 2.00999999e+00 2. 2. 2.
    1.98699999e+00 1.98000002e+00 1.97399998e+00 1.97700000e+00 0. 0. 0.
    0. 0. 0. 0. 0. 0. 0. 0. 0. 0. 0. 0. 0. 0. 0. 0. 0. 0. 0. 0. 0.
    2.03900003e+00 2.03099990e+00 2.04099989e+00 2.04099989e+00
    2.04099989e+00 2.02600002e+00 2.01200008e+00 2.00999999e+00
    2.00999999e+00 2. 2. 1.99100006e+00 1.99000001e+00 1.98099995e+00
    1.98000002e+00 1.98800004e+00 2.08800006e+00 0. 0. 0. 0. 0. 0. 0. 0.
    0. 0. 0. 0. 0. 0. 0. 0. 0. 0. 0. 0. 0. 2.07299995e+00 2.06599998e+00
    2.04399991e+00 2.04099989e+00 2.04099989e+00 2.03999996e+00
    2.03099990e+00 2.02500010e+00 2.01200008e+00 2.00999999e+00
    2.00999999e+00 2. 1.99800003e+00 1.99000001e+00 1.99000001e+00
    1.99000001e+00 1.99000001e+00 1.98199999e+00 1.97399998e+00 0. 0. 0.
    0. 0. 0. 0. 0. 0. 0. 0. 0. 0. 0. 0. 0. 0. 0. 0. 2.63100004e+00
    2.07299995e+00 2.07299995e+00 2.05399990e+00 2.04299998e+00
    2.04099989e+00 2.04099989e+00 2.03600001e+00 2.03099990e+00
    2.01999998e+00 2.01200008e+00 2.00999999e+00 2.00500011e+00 2.
    1.99399996e+00 1.99000001e+00 1.99000001e+00 1.99000001e+00
    1.98800004e+00 1.98099995e+00 1.96000004e+00 1.96000004e+00 0. 0. 0.
    0. 0. 0. 0. 0. 0. 0. 0. 0. 0. 0. 0. 0. 0. 2.15000010e+00
    2.07299995e+00 2.07299995e+00 2.06800008e+00 2.04600000e+00
    2.04099989e+00 2.04299998e+00 2.04099989e+00 2.03699994e+00
    2.03099990e+00 2.01600003e+00 2.00999999e+00 2.00999999e+00
    2.00300002e+00 1.99899995e+00 1.99000001e+00 1.99000001e+00
    1.99000001e+00 1.99000001e+00 1.98699999e+00 1.97899997e+00
    1.95799994e+00 1.95000005e+00 1.95000005e+00 0. 0. 0. 0. 0. 0. 0. 0.
    0. 0. 0. 0. 0. 0. 0. 2.72499990e+00 2.07699990e+00 2.07299995e+00
    2.06800008e+00 2.05999994e+00 2.04900002e+00 2.04900002e+00
    2.05200005e+00 2.04099989e+00 2.03800011e+00 2.03099990e+00
    2.01900005e+00 2.01099992e+00 2.00999999e+00 2.00300002e+00
    1.99899995e+00 1.99300003e+00 1.99000001e+00 1.99000001e+00
    1.99000001e+00 1.98699999e+00 1.97200000e+00 1.95799994e+00
    1.95000005e+00 1.95000005e+00 1.95500004e+00 1.96000004e+00 0. 0. 0.
    0. 0. 0. 0. 0. 0. 0. 0. 0. 2.08400011e+00 2.07800007e+00
    2.07299995e+00 2.07299995e+00 2.06500006e+00 2.05999994e+00
    2.05200005e+00 2.05200005e+00 2.05200005e+00 2.03999996e+00
    2.03099990e+00 2.03099990e+00 2.01999998e+00 2.01999998e+00
    2.00999999e+00 2.00300002e+00 2. 2. 2. 1.99100006e+00 1.99000001e+00
    1.98599994e+00 1.97200000e+00 1.96099997e+00 1.96000004e+00
    1.96000004e+00 1.96000004e+00 1.96000004e+00 1.96000004e+00 0. 0. 0.
    0. 0. 0. 0. 0. 0. 0. 2.72499990e+00 2.08400011e+00 2.07800007e+00
    2.07299995e+00 2.07299995e+00 2.07299995e+00 2.05999994e+00
    2.05200005e+00 2.05100012e+00 2.04299998e+00 2.03999996e+00
    2.03099990e+00 2.03099990e+00 2.01999998e+00 2.01999998e+00
    2.01500010e+00 2.01200008e+00 2. 2. 2. 2. 1.99100006e+00
    1.98000002e+00 1.97200000e+00 1.97000003e+00 1.96700001e+00
    1.96000004e+00 1.96000004e+00 1.96000004e+00 1.95799994e+00 0. 0. 0.
    0. 0. 0. 0. 0. 0. 2.07500005e+00 2.07399988e+00 2.08400011e+00
    2.07800007e+00 2.07299995e+00 2.07299995e+00 2.06500006e+00
    2.06299996e+00 2.05500007e+00 2.04999995e+00 2.04099989e+00
    2.03999996e+00 2.03099990e+00 2.03099990e+00 2.01999998e+00
    2.01999998e+00 2.01799989e+00 2.00999999e+00 2.00799990e+00 2. 2.
    1.99600005e+00 1.99000001e+00 1.98000002e+00 1.97200000e+00
    1.97000003e+00 1.97000003e+00 1.96000004e+00 1.96000004e+00
    1.96000004e+00 1.95599997e+00 1.95000005e+00 2.00200009e+00 0. 0. 0.
    0. 0. 0. 0. 2.08200002e+00 2.07699990e+00 2.08400011e+00
    2.08400011e+00 2.07299995e+00 2.07299995e+00 2.06800008e+00
    2.06699991e+00 2.05900002e+00 2.05500007e+00 2.04500008e+00
    2.03099990e+00 2.03099990e+00 2.03099990e+00 2.02699995e+00
    2.01999998e+00 2.00999999e+00 2.00699997e+00 2.00500011e+00 2. 2.
    1.99300003e+00 1.99000001e+00 1.98000002e+00 1.97200000e+00
    1.97000003e+00 1.97000003e+00 1.96000004e+00 1.96000004e+00
    1.95000005e+00 1.95000005e+00 1.95000005e+00 1.94299996e+00
    1.94099998e+00 0. 0. 0. 0. 0. 0. 2.08400011e+00 2.08400011e+00
    2.08400011e+00 2.08400011e+00 2.07299995e+00 2.07299995e+00
    2.07299995e+00 2.07299995e+00 2.06599998e+00 2.06100011e+00
    2.04500008e+00 2.03099990e+00 2.03099990e+00 2.03099990e+00
    2.02699995e+00 2.01999998e+00 2.00999999e+00 2.00300002e+00 2. 2. 2.
    1.99000001e+00 1.99000001e+00 1.98000002e+00 1.97899997e+00
    1.97800004e+00 1.97300005e+00 1.96700001e+00 1.96000004e+00
    1.95000005e+00 1.95000005e+00 1.95000005e+00 1.94700003e+00
    1.94099998e+00 2.48300004e+00 0. 0. 0. 0. 0. 2.82399988e+00
    2.08699989e+00 2.08100009e+00 2.08100009e+00 2.07299995e+00
    2.07299995e+00 2.07299995e+00 2.06999993e+00 2.06299996e+00
    2.05200005e+00 2.04399991e+00 2.03999996e+00 2.02600002e+00
    2.01999998e+00 2.01999998e+00 2.01999998e+00 2.01600003e+00
    2.00999999e+00 2. 2. 2. 1.99399996e+00 1.99000001e+00 1.98199999e+00
    1.98000002e+00 1.97899997e+00 1.97300005e+00 1.96899998e+00
    1.96000004e+00 1.95000005e+00 1.95000005e+00 1.95000005e+00
    1.94700003e+00 1.93400002e+00 1.93099999e+00 0. 0. 0. 0. 0. 0. 0.
    2.07299995e+00 2.07299995e+00 2.07299995e+00 2.07299995e+00
    2.07299995e+00 2.06299996e+00 2.05500007e+00 2.04399991e+00
    2.04099989e+00 2.03999996e+00 2.02900004e+00 2.01999998e+00
    2.01999998e+00 2.01999998e+00 2.00999999e+00 2.00999999e+00 2. 2. 2.
    1.99000001e+00 1.99000001e+00 1.98699999e+00 1.98000002e+00
    1.97800004e+00 1.97000003e+00 1.96300006e+00 1.96000004e+00
    1.95000005e+00 1.95000005e+00 1.95000005e+00 1.94700003e+00
    1.93400002e+00 1.92499995e+00 1.92900002e+00 2.93899989e+00 0. 0. 0.
    0. 0. 0. 2.29900002e+00 2.07299995e+00 2.07299995e+00 2.07200003e+00
    2.05200005e+00 2.05200005e+00 2.04099989e+00 2.04099989e+00
    2.04099989e+00 2.03600001e+00 2.03099990e+00 2.02699995e+00
    2.01999998e+00 2.01699996e+00 2.00999999e+00 2. 2. 2. 1.99100006e+00
    1.98099995e+00 1.98000002e+00 1.98000002e+00 1.97800004e+00
    1.97000003e+00 1.96000004e+00 1.96000004e+00 1.95000005e+00
    1.95000005e+00 1.95000005e+00 1.94700003e+00 1.93499994e+00
    1.92299998e+00 1.92799997e+00 1.94000006e+00 1.94900000e+00 0. 0. 0.
    0. 0. 0. 2.07299995e+00 2.06699991e+00 2.06399989e+00 2.05200005e+00
    2.04699993e+00 2.04099989e+00 2.04099989e+00 2.04099989e+00
    2.03600001e+00 2.03099990e+00 2.03099990e+00 2.02200007e+00
    2.01699996e+00 2.00999999e+00 2.00500011e+00 2. 2. 2. 1.98699999e+00
    1.98000002e+00 1.98000002e+00 1.97300005e+00 1.97000003e+00
    1.96000004e+00 1.96000004e+00 1.95599997e+00 1.95599997e+00
    1.95599997e+00 1.94900000e+00 1.94200003e+00 1.93099999e+00
    1.93099999e+00 1.93099999e+00 1.94099998e+00 0. 0. 0. 0. 0. 0.
    2.19499993e+00 2.06299996e+00 2.06299996e+00 2.05200005e+00
    2.04399991e+00 2.04099989e+00 2.04099989e+00 2.04099989e+00
    2.03600001e+00 2.03099990e+00 2.03099990e+00 2.02200007e+00
    2.01999998e+00 2.01300001e+00 2.00900006e+00 2. 2. 1.99500000e+00
    1.99000001e+00 1.98000002e+00 1.98000002e+00 1.97000003e+00
    1.96399999e+00 1.96000004e+00 1.96000004e+00 1.96000004e+00
    1.96000004e+00 1.95200002e+00 1.95000005e+00 1.94299996e+00
    1.93099999e+00 1.93099999e+00 1.93200004e+00 1.95000005e+00
    1.93200004e+00 0. 0. 0. 0. 0. 0. 0. 2.04800010e+00 2.04999995e+00
    2.05699992e+00 2.05200005e+00 2.04500008e+00 2.03999996e+00
    2.03099990e+00 2.03099990e+00 2.03099990e+00 2.02200007e+00
    2.01699996e+00 2.00699997e+00 2.00500011e+00 2. 2. 1.99000001e+00
    1.99000001e+00 1.98399997e+00 1.97200000e+00 1.97000003e+00
    1.96399999e+00 1.96000004e+00 1.96000004e+00 1.96000004e+00
    1.95000005e+00 1.95000005e+00 1.94099998e+00 1.93400002e+00
    1.93099999e+00 1.93099999e+00 1.93099999e+00 1.93099999e+00
    1.93099999e+00 0. 0. 0. 0. 0. 0. 0. 2.48200011e+00 2.04399991e+00
    2.05299997e+00 2.05200005e+00 2.04500008e+00 2.03999996e+00
    2.03099990e+00 2.03099990e+00 2.02099991e+00 2.01999998e+00
    2.01699996e+00 2.00300002e+00 2. 2. 2. 1.99000001e+00 1.99000001e+00
    1.98000002e+00 1.97200000e+00 1.97000003e+00 1.96899998e+00
    1.96800005e+00 1.96000004e+00 1.96000004e+00 1.95000005e+00
    1.95000005e+00 1.94700003e+00 1.94000006e+00 1.93099999e+00
    1.93099999e+00 1.93099999e+00 1.93099999e+00 1.93099999e+00 0. 0. 0.
    0. 0. 0. 0. 0. 2.83599997e+00 2.04299998e+00 2.04099989e+00
    2.04099989e+00 2.03999996e+00 2.03099990e+00 2.03099990e+00
    2.01999998e+00 2.01999998e+00 2.01500010e+00 2.00300002e+00 2. 2. 2.
    1.98500001e+00 1.98000002e+00 1.98399997e+00 1.98000002e+00
    1.97000003e+00 1.96399999e+00 1.96000004e+00 1.96000004e+00
    1.96000004e+00 1.95200002e+00 1.95000005e+00 1.94799995e+00
    1.94400001e+00 1.94099998e+00 1.93499994e+00 1.93099999e+00
    1.93400002e+00 1.93099999e+00 0. 0. 0. 0. 0. 0. 0. 0. 0. 0.
    2.04099989e+00 2.04099989e+00 2.03999996e+00 2.03099990e+00
    2.03099990e+00 2.01999998e+00 2.01999998e+00 2.00999999e+00
    2.00300002e+00 2. 2. 2. 1.98899996e+00 1.98099995e+00 1.98000002e+00
    1.98000002e+00 1.97000003e+00 1.96899998e+00 1.96700001e+00
    1.96000004e+00 1.96000004e+00 1.95099998e+00 1.95000005e+00
    1.95000005e+00 1.95000005e+00 1.94000006e+00 1.93200004e+00
    1.93099999e+00 1.93099999e+00 1.93099999e+00 0. 0. 0. 0. 0. 0. 0. 0.
    0. 0. 2.64199996e+00 2.04099989e+00 2.04099989e+00 2.03600001e+00
    2.03099990e+00 2.02800012e+00 2.01999998e+00 2.00999999e+00
    2.00999999e+00 2.00200009e+00 2. 2. 1.99000001e+00 1.99000001e+00
    1.99000001e+00 1.98199999e+00 1.97000003e+00 1.97000003e+00
    1.96899998e+00 1.96000004e+00 1.96000004e+00 1.95200002e+00
    1.95000005e+00 1.95000005e+00 1.94900000e+00 1.93900001e+00
    1.93099999e+00 1.93099999e+00 1.93099999e+00 1.93099999e+00 0. 0. 0.
    0. 0. 0. 0. 0. 0. 0. 0. 2.04099989e+00 2.03500009e+00 2.03299999e+00
    2.03099990e+00 2.03099990e+00 2.02200007e+00 2.00999999e+00
    2.00999999e+00 2.00900006e+00 2. 2. 1.99000001e+00 1.99000001e+00
    1.99000001e+00 1.98199999e+00 1.97000003e+00 1.97000003e+00
    1.96899998e+00 1.96000004e+00 1.96000004e+00 1.96000004e+00
    1.95200002e+00 1.95000005e+00 1.94299996e+00 1.93900001e+00
    1.93099999e+00 1.93099999e+00 1.93099999e+00 1.93099999e+00 0. 0. 0.
    0. 0. 0. 0. 0. 0. 0. 0. 0. 2.03200006e+00 2.03099990e+00
    2.03099990e+00 2.03099990e+00 2.02200007e+00 2.01699996e+00
    2.00999999e+00 2.00900006e+00 2. 2. 1.99000001e+00 1.99000001e+00
    1.99000001e+00 1.98199999e+00 1.97000003e+00 1.97000003e+00
    1.96899998e+00 1.96000004e+00 1.96000004e+00 1.96000004e+00
    1.95899999e+00 1.95000005e+00 1.94299996e+00 1.93900001e+00
    1.92499995e+00 1.92200005e+00 1.93099999e+00 1.93099999e+00 0. 0. 0.
    0. 0. 0. 0. 0. 0. 0. 0. 0. 0. 2.03900003e+00 2.03099990e+00
    2.02699995e+00 2.01999998e+00 2.01900005e+00 2.01200008e+00
    2.00900006e+00 2. 2. 1.99000001e+00 1.99000001e+00 1.99000001e+00
    1.98199999e+00 1.97399998e+00 1.97000003e+00 1.96899998e+00
    1.96000004e+00 1.96000004e+00 1.95799994e+00 1.95099998e+00
    1.94500005e+00 1.94200003e+00 1.93799996e+00 1.92200005e+00
    1.92200005e+00 1.93099999e+00 1.93099999e+00 0. 0. 0. 0. 0. 0. 0. 0.
    0. 0. 0. 0. 0. 0. 2.01999998e+00 2.01999998e+00 2.01999998e+00
    2.01799989e+00 2.00999999e+00 2.00900006e+00 2. 2. 1.99000001e+00
    1.99000001e+00 1.99000001e+00 1.98199999e+00 1.97800004e+00
    1.97000003e+00 1.96899998e+00 1.96000004e+00 1.96000004e+00
    1.95599997e+00 1.95000005e+00 1.94099998e+00 1.94099998e+00
    1.93799996e+00 1.92200005e+00 1.92200005e+00 1.93099999e+00
    1.93099999e+00 0. 0. 0. 0. 0. 0. 0. 0. 0. 0. 0. 0. 0. 0. 0.
    2.01999998e+00 2.01999998e+00 2.01699996e+00 2.00999999e+00
    2.00900006e+00 2. 2. 1.99000001e+00 1.99000001e+00 1.99000001e+00
    1.98199999e+00 1.98000002e+00 1.97399998e+00 1.96899998e+00
    1.96000004e+00 1.96000004e+00 1.96000004e+00 1.95200002e+00
    1.95000005e+00 1.95000005e+00 1.94000006e+00 1.92900002e+00
    1.92600000e+00 1.93099999e+00 1.93099999e+00 0. 0. 0. 0. 0. 0. 0. 0.
    0. 0. 0. 0. 0. 0. 0. 0. 2.01999998e+00 2.01699996e+00 2.00999999e+00
    2.00900006e+00 2. 2. 1.99000001e+00 1.99000001e+00 1.99000001e+00
    1.98199999e+00 1.98000002e+00 1.97899997e+00 1.96899998e+00
    1.96000004e+00 1.96000004e+00 1.96000004e+00 1.95200002e+00
    1.95000005e+00 1.95000005e+00 1.94099998e+00 1.94000006e+00
    1.94000006e+00 1.94299996e+00 1.93200004e+00 0. 0. 0. 0. 0. 0. 0. 0.
    0. 0. 0. 0. 0. 0. 0. 0. 0. 2.00399995e+00 2.00600004e+00
    2.00600004e+00 2. 2. 1.99500000e+00 1.99000001e+00 1.99000001e+00
    1.99000001e+00 1.98000002e+00 1.97800004e+00 1.97599995e+00
    1.96500003e+00 1.96000004e+00 1.96000004e+00 1.95400000e+00
    1.95000005e+00 1.95000005e+00 1.94099998e+00 1.93099999e+00
    1.92600000e+00 1.94299996e+00 1.95000005e+00 0. 0. 0. 0. 0. 0. 0. 0.
    0. 0. 0. 0. 0. 0. 0. 0. 0. 1.99000001e+00 1.99699998e+00 2. 2. 2.
    1.99100006e+00 1.99000001e+00 1.99000001e+00 1.99000001e+00
    1.98000002e+00 1.97399998e+00 1.96899998e+00 1.96099997e+00
    1.96000004e+00 1.96000004e+00 1.96000004e+00 1.95000005e+00
    1.95000005e+00 1.93900001e+00 1.90799999e+00 1.89300001e+00
    1.94599998e+00 1.98000002e+00 0. 0. 0. 0. 0. 0. 0. 0. 0. 0. 0. 0. 0.
    0. 0. 0. 0. 2. 2. 1.99899995e+00 1.99000001e+00 1.99000001e+00
    1.99000001e+00 1.99000001e+00 1.99000001e+00 1.98899996e+00
    1.98000002e+00 1.97399998e+00 1.96899998e+00 1.96000004e+00
    1.96000004e+00 1.95899999e+00 1.95000005e+00 1.94900000e+00
    1.95000005e+00 1.94299996e+00 1.90799999e+00 1.88499999e+00
    1.93599999e+00 2.00799990e+00 0. 0. 0. 0. 0. 0. 0. 0. 0. 0. 0. 0. 0.
    0. 0. 0. 0. 0. 0. 0. 1.99000001e+00 1.99000001e+00 1.99000001e+00
    1.99000001e+00 1.99000001e+00 1.98199999e+00 1.98000002e+00
    1.97700000e+00 1.97000003e+00 1.96300006e+00 1.96000004e+00
    1.95599997e+00 1.94200003e+00 1.94200003e+00 1.14900005e+00
    1.98000002e+00 1.27999997e+00 0. 1.40900004e+00 0. 0. 0. 0. 0. 0. 0.
    0. 0. 0. 0. 0. 0. 0. 0. 0. 0. 0. 0. 0. 0. 0. 1.99100006e+00 2.
    1.99100006e+00 1.98699999e+00 1.98000002e+00 1.98000002e+00
    1.98000002e+00 1.97899997e+00 1.96500003e+00 1.96000004e+00
    1.95599997e+00 1.94299996e+00 1.38800001e+00 1.51499999e+00 2. 2. 0.
    0. 0. 0. 0. 0. 0. 0. 0. 0. 0. 0. 0. 0. 0. 0. 0. 0. 0. 0. 0. 0. 0. 0.
    2.01999998e+00 2. 1.99100006e+00 1.98800004e+00 1.98099995e+00
    1.98199999e+00 1.98399997e+00 1.98000002e+00 1.97000003e+00
    1.96000004e+00 1.95799994e+00 1.20400000e+00 0. 2. 2. 2.00300002e+00
    2.00999999e+00 1.54200006e+00 1.03299999e+00 0. 0. 0. 0. 0. 0. 0. 0.
    0. 0. 0. 0. 0. 0. 0. 0. 0. 0. 0. 0. 0. 0. 0. 1.99899995e+00
    1.99000001e+00 1.98199999e+00 1.98199999e+00 1.98399997e+00
    1.97899997e+00 1.96500003e+00 1.96000004e+00 1.27199996e+00 0. 0.
    1.99100006e+00 1.98800004e+00 1.97300005e+00 0. 1.97300005e+00
    1.97099996e+00 0. 0. 0. 0. 0. 0. 0. 0. 0. 0. 0. 0. 0. 0. 0. 0. 0. 0.
    0. 0. 0. 0. 0. 0. 1.99800003e+00 1.99399996e+00 1.99399996e+00
    1.99399996e+00 1.92600000e+00 1.29799998e+00 1.29499996e+00 0. 0. 0.
    1.99000001e+00 1.98699999e+00 1.96800005e+00 1.96700001e+00
    1.97000003e+00 1.96300006e+00 0.</data></Depth>
</opencv_storage>
