<?xml version="1.0"?>
<opencv_storage>
<Depth type_id="opencv-matrix">
  <rows>40</rows>
  <cols>40</cols>
  <dt>f</dt>
  <data>
    0. 0. 0. 0. 0. 0. 0. 0. 0. 0. 0. 0. 0. 0. 0. 0. 0. 0. 0. 0. 0. 0. 0.
    0. 0. 0. 0. 0. 0. 0. 0. 0. 0. 0. 0. 0. 0. 0. 0. 0. 0. 0. 0. 0. 0. 0.
    0. 0. 0. 0. 0. 0. 0. 0. 0. 0. 0. 0. 0. 0. 0. 0. 0. 0. 0. 0. 0. 0. 0.
    0. 0. 0. 0. 0. 0. 0. 0. 0. 0. 0. 0. 0. 0. 0. 0. 0. 0. 0. 0. 0. 0. 0.
    0. 0. 0. 0. 0. 0. 0. 0. 0. 0. 0. 0. 0. 0. 0. 0. 0. 0. 0. 0. 0. 0. 0.
    0. 0. 0. 0. 0. 0. 0. 0. 0. 2.90799999e+00 2.89800000e+00
    2.88100004e+00 2.85800004e+00 2.79999995e+00 2.77699995e+00
    2.76099992e+00 2.73099995e+00 2.70099998e+00 2.67199993e+00
    2.64299989e+00 2.61700010e+00 2.04500008e+00 2.04200006e+00
    2.04099989e+00 2.03099990e+00 2.01399994e+00 1.99199998e+00
    1.95299995e+00 1.22000003e+00 0. 0. 0. 0. 0. 0. 0. 0. 0. 0. 0. 0. 0.
    0. 0. 0. 0. 0. 0. 0. 2.90799999e+00 2.89800000e+00 2.87500000e+00
    2.85700011e+00 2.80800009e+00 2.77699995e+00 2.74799991e+00
    2.72700000e+00 2.70099998e+00 2.67400002e+00 2.64700007e+00
    2.63299990e+00 2.06900001e+00 2.03999996e+00 2.03200006e+00
    2.02399993e+00 2.00799990e+00 1.98300004e+00 1.95299995e+00
    1.93400002e+00 1.94700003e+00 1.78900003e+00 1.26499999e+00
    1.26400006e+00 1.26300001e+00 1.26300001e+00 1.07599998e+00 0. 0. 0.
    0. 0. 0. 0. 0. 0. 0. 0. 0. 0. 2.90799999e+00 2.89800000e+00
    2.86500001e+00 2.83999991e+00 2.80900002e+00 2.77200007e+00
    2.74099994e+00 2.71499991e+00 2.70099998e+00 2.67899990e+00
    2.65300012e+00 2.36400008e+00 2.06900001e+00 2.03800011e+00
    2.02800012e+00 2.01699996e+00 1.99899995e+00 1.97500002e+00
    1.94900000e+00 1.93400002e+00 1.94700003e+00 1.96200001e+00
    1.97000003e+00 1.96300006e+00 1.96000004e+00 1.95700002e+00
    1.74699998e+00 1.51699996e+00 1.50999999e+00 1.50100005e+00
    1.21700001e+00 0. 0. 0. 0. 0. 0. 0. 0. 0. 2.90799999e+00
    2.89800000e+00 2.86500001e+00 2.83200002e+00 2.79999995e+00
    2.76799989e+00 2.73699999e+00 2.70700002e+00 2.68199992e+00
    2.67300010e+00 2.38199997e+00 2.10100007e+00 2.06900001e+00
    2.03800011e+00 2.02800012e+00 2.00799990e+00 1.98800004e+00
    1.96899998e+00 1.95200002e+00 1.94500005e+00 1.95799994e+00
    1.96899998e+00 1.96200001e+00 1.96099997e+00 1.96000004e+00
    1.95700002e+00 1.94099998e+00 1.93400002e+00 1.92299998e+00
    1.89600003e+00 1.81500006e+00 1.72500002e+00 0. 0. 0. 0. 0. 0. 0. 0.
    2.90799999e+00 2.89800000e+00 2.86500001e+00 2.82999992e+00
    2.79699993e+00 2.76600003e+00 2.73600006e+00 2.70700002e+00
    2.67700005e+00 2.63899994e+00 2.31100011e+00 2.08500004e+00
    2.06699991e+00 2.03699994e+00 2.02600002e+00 1.99500000e+00
    1.97099996e+00 1.95899999e+00 1.95899999e+00 1.96000004e+00
    1.97300005e+00 1.97000003e+00 1.96099997e+00 1.96099997e+00
    1.96099997e+00 1.96000004e+00 1.94799995e+00 1.93400002e+00
    1.92100000e+00 1.89499998e+00 1.88000000e+00 1.87399995e+00 0. 0. 0.
    0. 0. 0. 0. 0. 2.90799999e+00 2.89800000e+00 2.86500001e+00
    2.80999994e+00 2.77500010e+00 2.74300003e+00 2.72199988e+00
    2.70600009e+00 2.66300011e+00 2.34999990e+00 2.09200001e+00
    2.08100009e+00 2.05500007e+00 2.02399993e+00 2.00600004e+00
    1.98599994e+00 1.96000004e+00 1.94700003e+00 1.94700003e+00
    1.96000004e+00 1.97300005e+00 1.97300005e+00 1.97300005e+00
    1.97300005e+00 1.97300005e+00 1.96200001e+00 1.95000005e+00
    1.93400002e+00 1.90999997e+00 1.89699996e+00 1.89699996e+00
    1.89699996e+00 0. 0. 0. 0. 0. 0. 0. 0. 2.90599990e+00 2.88199997e+00
    2.85800004e+00 2.80999994e+00 2.77500010e+00 2.74300003e+00
    2.71300006e+00 2.69099998e+00 2.63599992e+00 2.09100008e+00
    2.08800006e+00 2.06599998e+00 2.04699993e+00 2.02399993e+00
    2.00600004e+00 1.97899997e+00 1.96000004e+00 1.95500004e+00
    1.95500004e+00 1.96899998e+00 1.97300005e+00 1.97300005e+00
    1.97300005e+00 1.97300005e+00 1.97300005e+00 1.96700001e+00
    1.93799996e+00 1.92299998e+00 1.90999997e+00 1.89699996e+00
    1.89400005e+00 1.88900006e+00 0. 0. 0. 0. 0. 0. 0. 0. 2.90499997e+00
    2.87100005e+00 2.84100008e+00 2.80599999e+00 2.77500010e+00
    2.74300003e+00 2.71300006e+00 2.68300009e+00 2.61800003e+00
    2.08500004e+00 2.07800007e+00 2.04999995e+00 2.02999997e+00
    2.02399993e+00 2.00600004e+00 1.97899997e+00 1.96000004e+00
    1.96000004e+00 1.96599996e+00 1.97200000e+00 1.97300005e+00
    1.97599995e+00 1.98500001e+00 1.98500001e+00 1.97300005e+00
    1.96500003e+00 1.92999995e+00 1.92200005e+00 1.90999997e+00
    1.90499997e+00 1.89100003e+00 1.88399994e+00 0. 0. 0. 0. 0. 0. 0. 0.
    2.87800002e+00 2.85299993e+00 2.83699989e+00 2.78399992e+00
    2.77500010e+00 2.74300003e+00 2.71099997e+00 2.68300009e+00
    2.57399988e+00 2.06999993e+00 2.06200004e+00 2.04500008e+00
    2.02800012e+00 2.01900005e+00 1.99300003e+00 1.97700000e+00
    1.97300005e+00 1.97300005e+00 1.97399998e+00 1.97399998e+00
    1.98699999e+00 1.98699999e+00 1.98699999e+00 1.97700000e+00
    1.96000004e+00 1.95400000e+00 1.92799997e+00 1.92200005e+00
    1.91100001e+00 1.90799999e+00 1.90799999e+00 1.86600006e+00 0. 0. 0.
    0. 0. 0. 0. 0. 2.87800002e+00 2.84100008e+00 2.81999993e+00
    2.78299999e+00 2.76699996e+00 2.73499990e+00 2.68899989e+00
    2.67899990e+00 2.08400011e+00 2.07500005e+00 2.06399989e+00
    2.04500008e+00 2.02699995e+00 2.00900006e+00 1.99100006e+00
    1.98699999e+00 1.97300005e+00 1.97300005e+00 1.98000002e+00
    1.98699999e+00 1.98699999e+00 1.98699999e+00 1.98699999e+00
    1.97700000e+00 1.96000004e+00 1.95400000e+00 1.92799997e+00
    1.92200005e+00 1.92200005e+00 1.89699996e+00 1.89699996e+00
    1.32799995e+00 0. 0. 0. 0. 0. 0. 0. 0. 2.87800002e+00 2.83500004e+00
    2.80200005e+00 2.76900005e+00 2.74900007e+00 2.71300006e+00
    2.68300009e+00 2.41599989e+00 2.08500004e+00 2.08200002e+00
    2.06500006e+00 2.04500008e+00 2.01900005e+00 1.99300003e+00
    1.97899997e+00 1.98500001e+00 1.98099995e+00 1.98099995e+00
    1.98399997e+00 1.98699999e+00 1.98699999e+00 1.98699999e+00
    1.98699999e+00 1.97700000e+00 1.95299995e+00 1.94099998e+00
    1.92499995e+00 1.90699995e+00 1.90100002e+00 1.88999999e+00
    1.88999999e+00 1.32500005e+00 0. 0. 0. 0. 0. 0. 0. 0. 2.87500000e+00
    2.82200003e+00 2.80200005e+00 2.75900006e+00 2.72900009e+00
    2.69499993e+00 2.67899990e+00 2.20099998e+00 2.08500004e+00
    2.07999992e+00 2.05599999e+00 2.04299998e+00 2.01300001e+00
    1.98300004e+00 1.97300005e+00 1.98399997e+00 1.98699999e+00
    1.98699999e+00 1.98699999e+00 1.98699999e+00 1.98699999e+00
    1.98699999e+00 1.98699999e+00 1.97700000e+00 1.94799995e+00
    1.93099999e+00 1.91299999e+00 1.88900006e+00 1.88399994e+00
    1.88399994e+00 1.88399994e+00 1.31900001e+00 0. 0. 0. 0. 0. 0. 0. 0.
    2.87299991e+00 2.81800008e+00 2.78699994e+00 2.75500011e+00
    2.72399998e+00 2.68499994e+00 2.31900001e+00 2.08500004e+00
    2.08500004e+00 2.07900000e+00 2.05399990e+00 2.03099990e+00
    1.99899995e+00 1.98300004e+00 1.97300005e+00 1.98300004e+00
    1.98699999e+00 1.98699999e+00 1.98699999e+00 1.98699999e+00
    1.98699999e+00 1.98699999e+00 1.98699999e+00 1.97700000e+00
    1.94799995e+00 1.92200005e+00 1.90400004e+00 1.88399994e+00
    1.88399994e+00 1.88399994e+00 1.88399994e+00 1.31799996e+00 0. 0. 0.
    0. 0. 0. 0. 0. 2.84999990e+00 2.81399989e+00 2.78699994e+00
    2.73399997e+00 2.70300007e+00 2.49200010e+00 2.08500004e+00
    2.08500004e+00 2.08400011e+00 2.05800009e+00 2.03999996e+00
    2.02999997e+00 1.99899995e+00 1.98300004e+00 1.97300005e+00
    1.97300005e+00 1.98699999e+00 1.98699999e+00 1.98699999e+00
    1.98699999e+00 1.98699999e+00 1.98300004e+00 1.98300004e+00
    1.97300005e+00 1.94400001e+00 1.91799998e+00 1.89499998e+00
    1.88399994e+00 1.88399994e+00 1.88399994e+00 1.88399994e+00
    1.31500006e+00 0. 0. 0. 0. 0. 0. 0. 0. 2.83500004e+00 2.79699993e+00
    2.78200006e+00 2.73399997e+00 2.70199990e+00 2.48600006e+00
    2.09299994e+00 2.08599997e+00 2.08299994e+00 2.05200005e+00
    2.03399992e+00 2.02800012e+00 1.99899995e+00 1.98300004e+00
    1.97300005e+00 1.97899997e+00 1.98699999e+00 1.98699999e+00
    1.98699999e+00 1.98699999e+00 1.98699999e+00 1.97300005e+00
    1.97300005e+00 1.96300006e+00 1.93499994e+00 1.90900004e+00
    1.88699996e+00 1.87899995e+00 1.87800002e+00 1.88399994e+00
    1.68599999e+00 1.17299998e+00 0. 0. 0. 0. 0. 0. 0. 0. 2.82200003e+00
    2.77999997e+00 2.76500010e+00 2.73099995e+00 2.69700003e+00
    2.45700002e+00 2.09999990e+00 2.08800006e+00 2.08299994e+00
    2.05200005e+00 2.03399992e+00 2.02800012e+00 1.99000001e+00
    1.98599994e+00 1.98399997e+00 1.99399996e+00 1.99699998e+00
    1.99699998e+00 1.99699998e+00 1.98899996e+00 1.98699999e+00
    1.97300005e+00 1.97300005e+00 1.94200003e+00 1.92499995e+00
    1.90300000e+00 1.88399994e+00 1.87500000e+00 1.87199998e+00
    1.88399994e+00 1.51499999e+00 1.04700005e+00 0. 0. 0. 0. 0. 0. 0. 0.
    2.79900002e+00 2.77699995e+00 2.76200008e+00 2.73000002e+00
    2.67400002e+00 2.45499992e+00 2.10599995e+00 2.08800006e+00
    2.06900001e+00 2.05200005e+00 2.03399992e+00 2.01600003e+00
    1.98699999e+00 1.99100006e+00 2. 2. 2. 2. 2. 1.99000001e+00
    1.98699999e+00 1.97300005e+00 1.96599996e+00 1.93200004e+00
    1.90900004e+00 1.89400005e+00 1.88399994e+00 1.88399994e+00
    1.88399994e+00 1.88399994e+00 1.51199996e+00 1.04100001e+00 0. 0. 0.
    0. 0. 0. 0. 0. 2.80200005e+00 2.79299998e+00 2.76200008e+00
    2.71000004e+00 2.65899992e+00 2.34800005e+00 2.09800005e+00
    2.08699989e+00 2.06500006e+00 2.04800010e+00 2.03200006e+00
    1.99500000e+00 1.98699999e+00 1.99500000e+00 2.01399994e+00
    2.01699996e+00 2.01399994e+00 2.00300002e+00 2. 2. 1.98699999e+00
    1.97599995e+00 1.96000004e+00 1.92900002e+00 1.91299999e+00
    1.89400005e+00 1.88399994e+00 1.88399994e+00 1.88399994e+00
    1.85099995e+00 1.38600004e+00 1.03600001e+00 0. 0. 0. 0. 0. 0. 0. 0.
    2.80200005e+00 2.79299998e+00 2.76200008e+00 2.72099996e+00
    2.39100003e+00 2.10999990e+00 2.09100008e+00 2.07900000e+00
    2.05500007e+00 2.03800011e+00 2.02800012e+00 1.99500000e+00
    1.98699999e+00 1.99500000e+00 2.01399994e+00 2.01900005e+00
    2.01399994e+00 2.00999999e+00 2. 2. 1.98699999e+00 1.98399997e+00
    1.96000004e+00 1.92900002e+00 1.92200005e+00 1.89900005e+00
    1.88399994e+00 1.88399994e+00 1.88399994e+00 1.72000003e+00
    1.02499998e+00 1.02900004e+00 0. 0. 0. 0. 0. 0. 0. 0. 2.79999995e+00
    2.77399993e+00 2.74300003e+00 2.72799993e+00 2.17000008e+00
    2.10200000e+00 2.09100008e+00 2.07299995e+00 2.05500007e+00
    2.03800011e+00 2.02200007e+00 1.99300003e+00 1.98699999e+00
    1.99800003e+00 2.02500010e+00 2.01600003e+00 2.01399994e+00
    2.00999999e+00 2. 2. 1.98699999e+00 1.97599995e+00 1.96000004e+00
    1.93499994e+00 1.92200005e+00 1.90300000e+00 1.88399994e+00
    1.88399994e+00 1.88399994e+00 1.18299997e+00 1.01800001e+00
    1.02600002e+00 0. 0. 0. 0. 0. 0. 0. 0. 2.79900002e+00 2.76799989e+00
    2.73699999e+00 2.72700000e+00 2.14100003e+00 2.09999990e+00
    2.09100008e+00 2.06100011e+00 2.04200006e+00 2.03800011e+00
    2.01999998e+00 2.01399994e+00 2.01399994e+00 2.01799989e+00
    2.02800012e+00 2.02800012e+00 2.01399994e+00 2.01399994e+00
    2.01399994e+00 2.00300002e+00 1.98699999e+00 1.97000003e+00
    1.94700003e+00 1.93400002e+00 1.92200005e+00 1.89400005e+00
    1.88399994e+00 1.88399994e+00 1.88399994e+00 1.00899994e+00
    1.01100004e+00 1.01800001e+00 0. 0. 0. 0. 0. 0. 0. 0. 2.79900002e+00
    2.75699997e+00 2.72099996e+00 2.72600007e+00 2.12700009e+00
    2.09500003e+00 2.07399988e+00 2.05500007e+00 2.03800011e+00
    2.02800012e+00 2.01999998e+00 2.01399994e+00 2.02800012e+00
    2.02800012e+00 2.02800012e+00 2.02800012e+00 2.02800012e+00
    2.01699996e+00 2.01600003e+00 1.99399996e+00 1.96000004e+00
    1.95400000e+00 1.94099998e+00 1.92499995e+00 1.92200005e+00
    1.89499998e+00 1.88699996e+00 1.88699996e+00 1.88699996e+00
    1.00899994e+00 1.01100004e+00 1.01600003e+00 0. 0. 0. 0. 0. 0. 0. 0.
    2.79900002e+00 2.75000000e+00 2.70300007e+00 2.71300006e+00
    2.11999989e+00 2.09500003e+00 2.06800008e+00 2.04399991e+00
    2.02800012e+00 2.02800012e+00 2.02399993e+00 2.02099991e+00
    2.02800012e+00 2.02800012e+00 2.02800012e+00 2.02800012e+00
    2.02800012e+00 2.02800012e+00 2.02099991e+00 1.99399996e+00
    1.96000004e+00 1.94500005e+00 1.93499994e+00 1.92400002e+00
    1.92200005e+00 1.90300000e+00 1.90600002e+00 1.90900004e+00
    1.48500001e+00 1.01100004e+00 1.00999999e+00 1.01400006e+00 0. 0. 0.
    0. 0. 0. 0. 0. 2.79900002e+00 2.75000000e+00 2.70300007e+00
    2.35400009e+00 2.10400009e+00 2.09100008e+00 2.06299996e+00
    2.04399991e+00 2.02800012e+00 2.02800012e+00 2.02800012e+00
    2.02800012e+00 2.02800012e+00 2.02800012e+00 2.02800012e+00
    2.02800012e+00 2.02800012e+00 2.02800012e+00 2.02099991e+00
    1.98599994e+00 1.95000005e+00 1.93700004e+00 1.92799997e+00
    1.91499996e+00 1.91199994e+00 1.90900004e+00 1.91499996e+00
    1.92200005e+00 1.05599999e+00 1.01199996e+00 1.00899994e+00
    1.00999999e+00 0. 0. 0. 0. 0. 0. 0. 0. 2.77500010e+00 2.74300003e+00
    2.37100005e+00 2.13199997e+00 2.09999990e+00 2.08999991e+00
    2.06200004e+00 2.04399991e+00 2.02800012e+00 2.02800012e+00
    2.02800012e+00 2.02800012e+00 2.02800012e+00 2.02800012e+00
    2.02800012e+00 2.02800012e+00 2.02800012e+00 2.01399994e+00
    2.01399994e+00 1.98300004e+00 1.94700003e+00 1.93099999e+00
    1.92200005e+00 1.91199994e+00 1.89800000e+00 1.88499999e+00
    1.88499999e+00 1.88499999e+00 1.04999995e+00 1.00800002e+00
    1.00500000e+00 1.00500000e+00 0. 0. 0. 0. 0. 0. 0. 0. 2.76799989e+00
    2.69199991e+00 2.31500006e+00 2.11800003e+00 2.09599996e+00
    2.07999992e+00 2.06200004e+00 2.04399991e+00 2.02800012e+00
    2.02800012e+00 2.02800012e+00 2.02800012e+00 2.02800012e+00
    2.02800012e+00 2.02800012e+00 2.02800012e+00 2.02699995e+00 2.
    1.99899995e+00 1.96899998e+00 1.93400002e+00 1.92900002e+00
    1.92100000e+00 1.90300000e+00 1.89699996e+00 1.88399994e+00
    1.88399994e+00 0. 0. 0. 0. 1.00100005e+00 0. 0. 0. 0. 0. 0. 0. 0.
    2.73699999e+00 2.50699997e+00 2.14499998e+00 2.11899996e+00
    2.08400011e+00 2.07500005e+00 2.05800009e+00 2.04299998e+00
    2.02800012e+00 2.02800012e+00 2.02800012e+00 2.02800012e+00
    2.02800012e+00 2.02800012e+00 2.02800012e+00 2.02800012e+00
    2.02699995e+00 2.00300002e+00 1.98399997e+00 1.96399999e+00
    1.93400002e+00 1.92200005e+00 1.91600001e+00 1.89999998e+00
    1.89699996e+00 1.88999999e+00 1.69400001e+00 1.13399994e+00 0. 0. 0.
    0. 0. 0. 0. 0. 0. 0. 0. 0. 2.67600012e+00 2.24799991e+00
    2.13899994e+00 2.11800003e+00 2.08400011e+00 2.06999993e+00
    2.05399990e+00 2.03399992e+00 2.02800012e+00 2.02800012e+00
    2.03399992e+00 2.03800011e+00 2.02800012e+00 2.03099990e+00
    2.03800011e+00 2.02999997e+00 2.02800012e+00 2.00699997e+00
    1.97300005e+00 1.96000004e+00 1.94299996e+00 1.92799997e+00
    1.91600001e+00 1.89999998e+00 1.89699996e+00 1.89699996e+00
    1.09700000e+00 0. 0. 0. 0. 0. 0. 0. 0. 0. 0. 0. 0. 0. 2.18199992e+00
    2.14499998e+00 2.13599992e+00 2.10500002e+00 2.08400011e+00
    2.06500006e+00 2.04800010e+00 2.02999997e+00 2.02900004e+00
    2.04099989e+00 2.04200006e+00 2.04200006e+00 2.04099989e+00
    2.04200006e+00 2.04200006e+00 2.03099990e+00 2.02800012e+00
    2.00999999e+00 1.98599994e+00 1.96300006e+00 1.95899999e+00
    1.93099999e+00 1.92200005e+00 1.91199994e+00 1.88499999e+00
    1.88499999e+00 0. 0. 0. 0. 0. 0. 0. 0. 0. 0. 0. 0. 0. 0.
    2.15899992e+00 2.14499998e+00 2.13400006e+00 2.10100007e+00
    2.08200002e+00 2.05599999e+00 2.04800010e+00 2.02999997e+00
    2.02800012e+00 2.02500010e+00 2.02699995e+00 2.02800012e+00
    2.03900003e+00 2.04200006e+00 2.04200006e+00 2.03999996e+00
    2.02800012e+00 2.01900005e+00 1.98699999e+00 1.97099996e+00
    1.95700002e+00 1.93099999e+00 1.92200005e+00 1.91199994e+00
    1.88900006e+00 1.79900002e+00 1.25699997e+00 0. 0. 0. 0. 0. 0. 0. 0.
    0. 0. 0. 0. 0. 2.15300012e+00 2.14299989e+00 2.12400007e+00
    2.08899999e+00 2.08299994e+00 2.05999994e+00 2.04399991e+00
    2.02399993e+00 2.01500010e+00 2.00799990e+00 2.01600003e+00
    2.02200007e+00 2.02800012e+00 2.03600001e+00 2.03600001e+00
    2.02999997e+00 2.02800012e+00 2.01099992e+00 1.98699999e+00
    1.96300006e+00 1.94099998e+00 1.92700005e+00 1.92200005e+00
    1.91700006e+00 1.91499996e+00 1.45700002e+00 0. 0. 0. 0. 0. 0. 0. 0.
    0. 0. 0. 0. 0. 0. 2.14499998e+00 2.14000010e+00 2.11500001e+00
    2.08800006e+00 2.08400011e+00 2.06500006e+00 2.03999996e+00
    2.01600003e+00 2. 2. 2.00200009e+00 2.00399995e+00 2.01799989e+00
    2.02099991e+00 2.02800012e+00 2.02800012e+00 2.02800012e+00
    2.00699997e+00 1.98000002e+00 1.95599997e+00 1.93400002e+00
    1.92200005e+00 1.92200005e+00 1.92200005e+00 1.92200005e+00 0. 0. 0.
    0. 0. 0. 0. 0. 0. 0. 0. 0. 0. 0. 0. 2.68600011e+00 2.47700000e+00
    2.10599995e+00 2.08699989e+00 2.06999993e+00 2.05200005e+00
    2.03399992e+00 2.00600004e+00 1.98800004e+00 1.98800004e+00
    1.98800004e+00 1.99800003e+00 2.00099993e+00 2.00099993e+00
    2.00900006e+00 2.01500010e+00 2.02800012e+00 2.00900006e+00
    1.96099997e+00 1.95000005e+00 1.92299998e+00 1.91600001e+00
    1.89900005e+00 1.89900005e+00 0. 0. 0. 0. 0. 0. 0. 0. 0. 0. 0. 0. 0.
    0. 0. 0. 0. 0. 0. 0. 0. 0. 0. 0. 0. 0. 0. 0. 0. 0. 0. 0. 0. 0. 0. 0.
    0. 0. 0. 0. 0. 0. 0. 0. 0. 0. 0. 0. 0. 0. 0. 0. 0. 0. 0. 0. 0. 0. 0.
    0. 0. 0. 0. 0. 0. 0. 0. 0. 0. 0. 0. 0. 0. 0. 0. 0. 0. 0. 0. 0. 0. 0.
    0. 0. 0. 0. 0. 0. 0. 0. 0. 0. 0. 0. 0. 0. 0. 0. 0. 0. 0. 0. 0. 0. 0.
    0. 0. 0. 0. 0. 0. 0. 0. 0. 0. 0. 0. 0. 0. 0. 0. 0. 0. 0. 0. 0. 0. 0.
    0. 0. 0. 0. 0. 0. 0. 0. 0. 0. 0. 0. 0. 0. 0. 0. 0. 0. 0. 0. 0. 0. 0.
    0. 0. 0. 0. 0. 0. 0. 0. 0. 0. 0. 0. 0. 0. 0. 0. 0. 0. 0. 0. 0.</data></Depth>
</opencv_storage>
