<?xml version="1.0"?>
<opencv_storage>
<Depth type_id="opencv-matrix">
  <rows>40</rows>
  <cols>40</cols>
  <dt>f</dt>
  <data>
    0. 0. 0. 0. 0. 0. 0. 0. 0. 2.03800011e+00 2.03200006e+00
    2.02699995e+00 2.02600002e+00 2.02600002e+00 0. 0. 0. 0. 0. 0. 0. 0.
    0. 0. 0. 0. 0. 0. 0. 0. 0. 0. 0. 0. 0. 0. 0. 0. 0. 0. 0. 0. 0. 0. 0.
    0. 0. 0. 1.54400003e+00 2.03699994e+00 2.02900004e+00 2.02200007e+00
    2.02099991e+00 2.02099991e+00 2.01799989e+00 2.01799989e+00
    2.01200008e+00 2.00500011e+00 2.00799990e+00 2.00900006e+00 2.
    2.00099993e+00 2.00200009e+00 1.99399996e+00 1.98599994e+00
    2.60299993e+00 0. 2.00699997e+00 2.00300002e+00 2.84800005e+00 0. 0.
    0. 0. 0. 0. 0. 0. 0. 0. 0. 0. 0. 0. 0. 0. 0. 2.43199992e+00
    1.00699997e+00 2.02999997e+00 2.02600002e+00 2.02099991e+00
    2.02099991e+00 2.01799989e+00 2.01500010e+00 2.01200008e+00
    2.00999999e+00 2.00500011e+00 2.00500011e+00 2.00399995e+00 2. 2.
    1.99699998e+00 1.99399996e+00 1.98800004e+00 1.98800004e+00
    1.98699999e+00 1.98699999e+00 1.98500001e+00 1.98500001e+00
    1.98500001e+00 1.97800004e+00 1.97099996e+00 0. 0. 0. 0. 0. 0. 0. 0.
    0. 0. 0. 0. 0. 2.66300011e+00 2.06900001e+00 2.04900002e+00
    2.02600002e+00 2.02600002e+00 2.02200007e+00 2.02099991e+00
    2.01900005e+00 2.01500010e+00 2.01300001e+00 2.00999999e+00
    2.00999999e+00 2.00500011e+00 2.00099993e+00 2. 1.99800003e+00
    1.99500000e+00 1.99000001e+00 1.99100006e+00 1.98699999e+00
    1.98500001e+00 1.98500001e+00 1.98300004e+00 1.98199999e+00
    1.98099995e+00 1.98199999e+00 1.98099995e+00 0. 0. 0. 0. 0. 0. 0. 0.
    0. 0. 0. 0. 0. 2.65499997e+00 2.75699997e+00 2.03099990e+00
    2.02600002e+00 2.02600002e+00 2.02200007e+00 2.02099991e+00
    2.02099991e+00 2.01500010e+00 2.01099992e+00 2.00999999e+00
    2.00500011e+00 2.00500011e+00 2. 2. 1.99800003e+00 1.99500000e+00
    1.99199998e+00 1.99000001e+00 1.99000001e+00 1.98500001e+00
    1.98500001e+00 1.98399997e+00 1.98099995e+00 1.98099995e+00
    1.98199999e+00 1.98099995e+00 0. 0. 0. 0. 0. 0. 0. 0. 0. 0. 0. 0. 0.
    0. 1.47200000e+00 2.03099990e+00 2.02600002e+00 2.02600002e+00
    2.02099991e+00 2.02099991e+00 2.02099991e+00 2.01500010e+00
    2.00500011e+00 2.00500011e+00 2.00500011e+00 2.00500011e+00 2. 2. 2.
    1.99500000e+00 1.99100006e+00 1.98800004e+00 1.98500001e+00
    1.98500001e+00 1.98300004e+00 1.98099995e+00 1.98099995e+00
    1.98099995e+00 1.98500001e+00 1.97700000e+00 0. 0. 0. 0. 0. 0. 0. 0.
    0. 0. 0. 0. 0. 0. 2.80100012e+00 0. 2.02600002e+00 2.02600002e+00
    2.02099991e+00 2.01699996e+00 2.01500010e+00 2.01099992e+00
    2.00999999e+00 2.00500011e+00 2.00500011e+00 2.00399995e+00 2. 2.
    1.99800003e+00 1.99100006e+00 1.99000001e+00 1.99000001e+00
    1.98500001e+00 1.98199999e+00 1.98300004e+00 1.98099995e+00
    1.97700000e+00 1.97599995e+00 1.97800004e+00 1.97200000e+00 0. 0. 0.
    0. 0. 0. 0. 0. 0. 0. 0. 0. 0. 0. 2.24799991e+00 1.88399994e+00
    2.02600002e+00 2.02600002e+00 2.02099991e+00 2.01600003e+00
    2.01500010e+00 2.00999999e+00 2.00999999e+00 2.00500011e+00
    2.00500011e+00 2.00500011e+00 2. 1.99899995e+00 1.99500000e+00
    1.99000001e+00 1.99000001e+00 1.98800004e+00 1.98099995e+00
    1.98099995e+00 1.98099995e+00 1.98199999e+00 1.97700000e+00
    1.97599995e+00 1.97200000e+00 1.96599996e+00 0. 0. 0. 0. 0. 0. 0. 0.
    0. 0. 0. 0. 0. 2.67799997e+00 0. 1.53600001e+00 2.02600002e+00
    2.02600002e+00 2.02099991e+00 2.02099991e+00 2.01099992e+00
    2.00999999e+00 2.00999999e+00 2.00500011e+00 2.00500011e+00
    2.00399995e+00 2. 1.99899995e+00 1.99500000e+00 1.99500000e+00
    1.99500000e+00 1.98800004e+00 1.98500001e+00 1.98099995e+00
    1.98099995e+00 1.98399997e+00 1.98199999e+00 1.98099995e+00
    1.97099996e+00 1.96599996e+00 0. 0. 0. 0. 0. 0. 0. 0. 0. 0. 0. 0. 0.
    2.67899990e+00 0. 0. 2.02600002e+00 2.02099991e+00 2.02099991e+00
    2.02099991e+00 2.01600003e+00 2.00999999e+00 2.00500011e+00
    2.00500011e+00 2.00500011e+00 2. 2. 2. 1.99500000e+00 1.99500000e+00
    1.99300003e+00 1.98800004e+00 1.98500001e+00 1.98500001e+00
    1.98099995e+00 1.98199999e+00 1.98099995e+00 1.98099995e+00
    1.98099995e+00 1.98099995e+00 0. 0. 0. 0. 0. 0. 0. 0. 0. 0. 0. 0. 0.
    2.58699989e+00 0. 1.53299999e+00 2.02099991e+00 2.02200007e+00
    2.02099991e+00 2.02099991e+00 2.01600003e+00 2.00999999e+00
    2.00500011e+00 2.00500011e+00 2.00500011e+00 2. 2. 2. 1.99899995e+00
    1.99500000e+00 1.99000001e+00 1.98800004e+00 1.98500001e+00
    1.98500001e+00 1.98099995e+00 1.98099995e+00 1.98099995e+00
    1.98099995e+00 1.98099995e+00 1.97599995e+00 0. 0. 0. 0. 0. 0. 0. 0.
    0. 0. 0. 0. 0. 0. 0. 1.53299999e+00 2.02600002e+00 2.02200007e+00
    2.02099991e+00 2.01999998e+00 2.01600003e+00 2.00999999e+00
    2.00500011e+00 2.00500011e+00 2.00500011e+00 2. 2. 2. 1.99500000e+00
    1.99500000e+00 1.99300003e+00 1.98699999e+00 1.98500001e+00
    1.98300004e+00 1.98099995e+00 1.98099995e+00 1.97700000e+00
    1.97899997e+00 1.98099995e+00 1.97599995e+00 0. 0. 0. 0. 0. 0. 0. 0.
    0. 0. 0. 0. 0. 0. 0. 1.53299999e+00 2.02300000e+00 2.02099991e+00
    2.02099991e+00 2.01500010e+00 2.00999999e+00 2.00500011e+00
    2.00500011e+00 2.00500011e+00 2.00500011e+00 2. 2. 1.99899995e+00
    1.99500000e+00 1.99300003e+00 1.99000001e+00 1.98500001e+00
    1.98500001e+00 1.98300004e+00 1.98099995e+00 1.98199999e+00
    1.97700000e+00 1.97599995e+00 1.98099995e+00 1.98099995e+00 0. 0. 0.
    0. 0. 0. 0. 0. 0. 0. 0. 0. 0. 0. 0. 2.02600002e+00 2.02099991e+00
    2.02099991e+00 2.02099991e+00 2.01500010e+00 2.00999999e+00
    2.00600004e+00 2.00500011e+00 2.00500011e+00 2.00500011e+00 2. 2.
    1.99899995e+00 1.99500000e+00 1.99100006e+00 1.99000001e+00
    1.98500001e+00 1.98500001e+00 1.98500001e+00 1.98099995e+00
    1.98099995e+00 1.97700000e+00 1.97599995e+00 1.97599995e+00
    1.97599995e+00 0. 0. 0. 0. 0. 0. 0. 0. 0. 0. 0. 0. 0. 0. 0.
    2.02500010e+00 2.02300000e+00 2.02099991e+00 2.01999998e+00
    2.01399994e+00 2.00999999e+00 2.00900006e+00 2.00500011e+00
    2.00500011e+00 2.00300002e+00 2. 1.99899995e+00 1.99500000e+00
    1.99000001e+00 1.99399996e+00 1.98899996e+00 1.98500001e+00
    1.98500001e+00 1.98099995e+00 1.98099995e+00 1.98000002e+00
    1.98000002e+00 1.97599995e+00 1.97700000e+00 1.97800004e+00 0. 0. 0.
    0. 0. 0. 0. 0. 0. 0. 0. 0. 0. 0. 1.46099997e+00 2.02200007e+00
    2.02600002e+00 2.02099991e+00 2.01600003e+00 2.01099992e+00
    2.00999999e+00 2.00500011e+00 2.00500011e+00 2.00500011e+00 2. 2.
    1.99899995e+00 1.99399996e+00 1.98500001e+00 1.98599994e+00
    1.99100006e+00 1.98500001e+00 1.98500001e+00 1.98099995e+00
    1.98099995e+00 1.97599995e+00 1.97599995e+00 1.97599995e+00
    1.97800004e+00 1.98399997e+00 0. 0. 0. 0. 0. 0. 0. 0. 0. 0. 0. 0. 0.
    0. 1.18499994e+00 2.02399993e+00 2.02099991e+00 2.02099991e+00
    2.01600003e+00 2.00999999e+00 2.00999999e+00 2.00699997e+00
    2.00500011e+00 2.00500011e+00 2.00200009e+00 2.00200009e+00 2.
    1.99399996e+00 1.98699999e+00 1.98699999e+00 1.98800004e+00
    1.98500001e+00 1.98500001e+00 1.98099995e+00 1.98099995e+00
    1.97800004e+00 1.97599995e+00 1.97599995e+00 1.97300005e+00 0. 0. 0.
    0. 0. 0. 0. 0. 0. 0. 0. 0. 0. 0. 0. 0. 2.02300000e+00 2.02099991e+00
    2.02099991e+00 2.02099991e+00 2.01099992e+00 2.00600004e+00
    2.00999999e+00 2.00500011e+00 2.00500011e+00 2. 2. 2. 1.99399996e+00
    1.99100006e+00 1.99000001e+00 1.98699999e+00 1.98500001e+00
    1.98500001e+00 1.98099995e+00 1.98099995e+00 1.98099995e+00
    1.98099995e+00 1.97899997e+00 1.98199999e+00 0. 0. 0. 0. 0. 0. 0. 0.
    0. 0. 0. 0. 0. 0. 0. 1.46399999e+00 2.02300000e+00 2.02099991e+00
    2.02099991e+00 2.02099991e+00 2.01500010e+00 2.00600004e+00
    2.00500011e+00 2.00500011e+00 2.00500011e+00 2. 2. 2. 1.99500000e+00
    1.99500000e+00 1.99000001e+00 1.98500001e+00 1.98500001e+00
    1.98500001e+00 1.98300004e+00 1.98099995e+00 1.98099995e+00
    1.97599995e+00 1.97599995e+00 1.98199999e+00 0. 0. 0. 0. 0. 0. 0. 0.
    0. 0. 0. 0. 0. 0. 0. 1.46099997e+00 2.02399993e+00 2.02099991e+00
    2.02099991e+00 2.02099991e+00 2.01300001e+00 2.00799990e+00
    2.00500011e+00 2.00500011e+00 2.00500011e+00 2.00500011e+00 2. 2.
    1.99500000e+00 1.99500000e+00 1.99300003e+00 1.98899996e+00
    1.98599994e+00 1.98500001e+00 1.98500001e+00 1.98099995e+00
    1.98099995e+00 1.98099995e+00 1.97599995e+00 1.97599995e+00 0. 0. 0.
    0. 0. 0. 0. 0. 0. 0. 0. 0. 0. 0. 0. 1.45700002e+00 2.01900005e+00
    2.02099991e+00 2.02099991e+00 2.02099991e+00 2.01099992e+00
    2.00799990e+00 2.00500011e+00 2.00500011e+00 2.00500011e+00 2. 2. 2.
    1.99500000e+00 1.99500000e+00 1.99399996e+00 1.98899996e+00
    1.98500001e+00 1.98599994e+00 1.98500001e+00 1.98500001e+00
    1.98099995e+00 1.98099995e+00 1.97599995e+00 1.97599995e+00 0. 0. 0.
    0. 0. 0. 0. 0. 0. 0. 0. 0. 0. 0. 0. 1.46099997e+00 2.02099991e+00
    2.01699996e+00 2.01699996e+00 2.01799989e+00 2.01500010e+00
    2.00999999e+00 2.00500011e+00 2.00500011e+00 2.00500011e+00 2. 2. 2.
    1.99500000e+00 1.99000001e+00 1.99000001e+00 1.98599994e+00
    1.98500001e+00 1.98500001e+00 1.98300004e+00 1.98199999e+00
    1.97899997e+00 1.97399998e+00 1.97300005e+00 1.97599995e+00 0. 0. 0.
    0. 0. 0. 0. 0. 0. 0. 0. 0. 0. 0. 1.39199996e+00 2.02099991e+00
    2.02099991e+00 2.01900005e+00 2.01900005e+00 2.01900005e+00
    2.01500010e+00 2.01099992e+00 2.00500011e+00 2.00500011e+00
    2.00500011e+00 2.00500011e+00 2. 1.99699998e+00 1.99500000e+00
    1.99000001e+00 1.99100006e+00 1.98699999e+00 1.98500001e+00
    1.98199999e+00 1.98099995e+00 1.98099995e+00 1.97800004e+00
    1.97099996e+00 1.97099996e+00 1.97599995e+00 0. 0. 0. 0. 0. 0. 0. 0.
    0. 0. 0. 0. 0. 0. 1.39199996e+00 2.02099991e+00 2.02099991e+00
    2.02099991e+00 2.01699996e+00 2.01500010e+00 2.01500010e+00
    2.01200008e+00 2.00500011e+00 2.00500011e+00 2.00500011e+00
    2.00099993e+00 2. 1.99500000e+00 1.99100006e+00 1.99000001e+00
    1.98899996e+00 1.98599994e+00 1.98500001e+00 1.98199999e+00
    1.98099995e+00 1.97899997e+00 1.97599995e+00 1.97500002e+00
    1.97599995e+00 1.97599995e+00 0. 0. 0. 0. 0. 0. 0. 0. 0. 0. 0. 0. 0.
    0. 0. 2.02099991e+00 2.02399993e+00 2.02099991e+00 2.01500010e+00
    2.01099992e+00 2.01500010e+00 2.01099992e+00 2.00500011e+00
    2.00500011e+00 2.00500011e+00 2. 2. 1.99800003e+00 1.98500001e+00
    1.98500001e+00 1.98500001e+00 1.98500001e+00 1.98500001e+00
    1.98099995e+00 1.98099995e+00 1.98000002e+00 1.97599995e+00
    1.97200000e+00 1.97500002e+00 1.97599995e+00 0. 0. 0. 0. 0. 0. 0. 0.
    0. 0. 0. 0. 0. 0. 0. 2.02099991e+00 2.02300000e+00 2.02099991e+00
    2.01500010e+00 2.01399994e+00 2.01500010e+00 2.01099992e+00
    2.00500011e+00 2.00500011e+00 2.00500011e+00 2. 2. 2. 1.98500001e+00
    1.98899996e+00 1.98500001e+00 1.98500001e+00 1.98500001e+00
    1.98399997e+00 1.98099995e+00 1.98099995e+00 1.97599995e+00
    1.97200000e+00 1.97500002e+00 1.10099995e+00 0. 0. 0. 0. 0. 0. 0. 0.
    0. 0. 0. 0. 0. 0. 0. 2.01500010e+00 2.02099991e+00 2.01500010e+00
    2.01500010e+00 2.01500010e+00 2.00999999e+00 2.00600004e+00
    2.00500011e+00 2.00500011e+00 2.00500011e+00 2. 2. 1.99800003e+00
    1.99000001e+00 1.99000001e+00 1.98500001e+00 1.98500001e+00
    1.98500001e+00 1.98500001e+00 1.98099995e+00 1.97700000e+00
    1.97599995e+00 1.97200000e+00 1.97099996e+00 1.97599995e+00 0. 0. 0.
    0. 0. 0. 0. 0. 0. 0. 0. 0. 0. 0. 1.34599996e+00 2.02099991e+00
    2.02099991e+00 2.01500010e+00 2.01200008e+00 2.00999999e+00
    2.00500011e+00 2.00500011e+00 2.00500011e+00 2.00500011e+00
    2.00500011e+00 2. 1.99500000e+00 1.99399996e+00 1.99000001e+00
    1.99000001e+00 1.98800004e+00 1.98500001e+00 1.98500001e+00
    1.98300004e+00 1.97800004e+00 1.97599995e+00 1.97099996e+00
    1.97399998e+00 1.97599995e+00 1.98099995e+00 0. 0. 0. 0. 0. 0. 0. 0.
    0. 0. 0. 0. 0. 0. 2.00999999e+00 2.02099991e+00 2.02099991e+00
    2.01699996e+00 2.01099992e+00 2.00999999e+00 2.00999999e+00
    2.00600004e+00 2.00500011e+00 2. 2. 2. 1.99899995e+00 1.99399996e+00
    1.98500001e+00 1.98500001e+00 1.98500001e+00 1.98500001e+00
    1.98500001e+00 1.98099995e+00 1.98099995e+00 1.98099995e+00
    1.97599995e+00 1.97599995e+00 1.97599995e+00 1.98500001e+00 0. 0. 0.
    0. 0. 0. 0. 0. 0. 0. 0. 0. 0. 0. 2.01500010e+00 2.01799989e+00
    2.02099991e+00 2.01699996e+00 2.01099992e+00 2.00600004e+00
    2.00500011e+00 2.00500011e+00 2.00500011e+00 2. 2. 2. 1.99500000e+00
    1.99500000e+00 1.99000001e+00 1.98500001e+00 1.98500001e+00
    1.98500001e+00 1.98099995e+00 1.98099995e+00 1.98099995e+00
    1.98099995e+00 1.97599995e+00 1.96700001e+00 1.96599996e+00
    1.92900002e+00 0. 0. 0. 0. 0. 0. 0. 0. 0. 0. 0. 0. 0. 0.
    2.01500010e+00 2.01799989e+00 2.01799989e+00 2.01500010e+00
    2.01099992e+00 2.00500011e+00 2.00500011e+00 2.00500011e+00 2. 2. 2.
    2. 1.99500000e+00 1.99500000e+00 1.99399996e+00 1.99300003e+00
    1.98500001e+00 1.98500001e+00 1.98099995e+00 1.98099995e+00
    1.98099995e+00 1.97800004e+00 1.97099996e+00 1.96800005e+00
    1.96599996e+00 0. 0. 0. 0. 0. 0. 0. 0. 0. 0. 0. 0. 0. 0. 0.
    2.01500010e+00 2.01500010e+00 2.02099991e+00 2.01200008e+00
    2.00600004e+00 2.00500011e+00 2.00500011e+00 2.00500011e+00 2. 2. 2.
    2. 1.99899995e+00 1.99300003e+00 1.98899996e+00 1.98599994e+00
    1.98500001e+00 1.98500001e+00 1.98099995e+00 1.98099995e+00
    1.98099995e+00 1.97800004e+00 1.97099996e+00 1.97099996e+00
    1.97099996e+00 0. 0. 0. 0. 0. 0. 0. 0. 0. 0. 0. 0. 0. 0. 0.
    2.01799989e+00 2.01500010e+00 2.01999998e+00 2.01500010e+00
    2.00600004e+00 2.00500011e+00 2.00500011e+00 2.00500011e+00 2. 2. 2.
    1.99899995e+00 1.99500000e+00 1.99000001e+00 1.99000001e+00
    1.98500001e+00 1.98500001e+00 1.98300004e+00 1.98099995e+00
    1.98099995e+00 1.98099995e+00 1.97700000e+00 1.97200000e+00
    1.97099996e+00 1.97500002e+00 0. 0. 0. 0. 0. 0. 0. 0. 0. 0. 0. 0. 0.
    0. 0. 2.01500010e+00 2.01399994e+00 2.00999999e+00 2.01099992e+00
    2.00600004e+00 2.00500011e+00 2.00900006e+00 2.00500011e+00 2. 2. 2.
    1.99500000e+00 1.99000001e+00 1.99000001e+00 1.99000001e+00
    1.98500001e+00 1.98500001e+00 1.98300004e+00 1.98099995e+00
    1.98099995e+00 1.98099995e+00 1.97399998e+00 1.97099996e+00
    1.96700001e+00 1.96599996e+00 0. 0. 0. 0. 0. 0. 0. 0. 0. 0. 0. 0. 0.
    0. 0. 2.01500010e+00 2.00900006e+00 2.00999999e+00 2.00999999e+00
    2.00500011e+00 2.00500011e+00 2.01099992e+00 2.00099993e+00 2. 2. 2.
    1.99000001e+00 1.98899996e+00 1.98500001e+00 1.99000001e+00
    1.98500001e+00 1.98500001e+00 1.98500001e+00 1.98099995e+00
    1.98099995e+00 1.98000002e+00 1.97300005e+00 1.97099996e+00
    1.96700001e+00 1.96700001e+00 2.57699990e+00 0. 0. 0. 0. 0. 0. 0. 0.
    0. 0. 0. 0. 0. 0. 1.14699996e+00 1.54999995e+00 0. 1.55400002e+00
    2.00600004e+00 2.00500011e+00 2.00500011e+00 2.00099993e+00 2.
    1.99699998e+00 1.99300003e+00 1.99500000e+00 1.99199998e+00
    1.99199998e+00 1.98899996e+00 1.98500001e+00 1.98500001e+00
    1.98399997e+00 1.98099995e+00 1.98099995e+00 1.97800004e+00
    1.97099996e+00 1.97000003e+00 1.96599996e+00 1.62600005e+00 0. 0. 0.
    0. 0. 0. 0. 0. 0. 0. 0. 0. 0. 0. 0. 0. 0. 0. 0. 0. 0. 0.
    1.48199999e+00 1.47899997e+00 1.47300005e+00 1.99000001e+00
    1.99500000e+00 1.99500000e+00 1.99800003e+00 1.98899996e+00
    1.98099995e+00 1.98300004e+00 1.98300004e+00 1.97899997e+00
    1.97899997e+00 1.97800004e+00 1.97099996e+00 1.96599996e+00
    1.96200001e+00 0. 0. 2.37100005e+00 0. 0. 0. 0. 0. 0. 0. 0. 0. 0. 0.
    0. 0. 0. 0. 0. 0. 0. 0. 0. 0. 0. 0. 0. 1.40999997e+00 1.29999995e+00
    0. 1.99399996e+00 1.98000002e+00 1.98000002e+00 1.98199999e+00
    1.98099995e+00 1.97800004e+00 1.97599995e+00 1.97300005e+00
    1.96599996e+00 1.96599996e+00 0. 0. 0. 0. 0. 0. 0. 0. 0. 0. 0. 0. 0.
    0. 0. 0. 0. 0. 0. 0. 0. 0. 0. 0. 0. 0. 0. 0. 0. 0. 2.00300002e+00
    1.99000001e+00 1.33099997e+00 1.33299994e+00 1.33299994e+00
    1.97899997e+00 1.97099996e+00 1.96800005e+00 1.96800005e+00
    1.50399995e+00 0. 0. 0. 0. 0. 0. 0. 0. 0. 0. 0. 0. 0. 0. 0. 0. 0. 0.
    0. 0. 0. 0. 0. 0. 0. 0. 0. 0. 0. 0. 2.00799990e+00 2.00300002e+00 0.
    0. 0. 0. 0. 0. 0. 0. 0. 0. 0. 0. 0. 0. 0. 0. 0. 0.</data></Depth>
</opencv_storage>
