<?xml version="1.0"?>
<opencv_storage>
<Depth type_id="opencv-matrix">
  <rows>40</rows>
  <cols>40</cols>
  <dt>f</dt>
  <data>
    0. 0. 0. 0. 0. 0. 0. 0. 0. 0. 0. 0. 0. 0. 0. 0. 0. 0. 0. 0. 0. 0. 0.
    0. 0. 0. 0. 0. 0. 0. 0. 0. 0. 0. 0. 0. 0. 0. 0. 0. 0. 0. 0. 0. 0. 0.
    0. 0. 0. 0. 0. 0. 0. 0. 0. 0. 0. 0. 0. 0. 0. 0. 0. 0. 0. 0. 0. 0. 0.
    0. 0. 0. 0. 0. 0. 0. 0. 0. 0. 0. 0. 0. 0. 0. 0. 0. 0. 0. 0. 0. 0. 0.
    0. 0. 0. 0. 0. 0. 0. 0. 0. 0. 0. 0. 0. 0. 0. 0. 0. 0. 0. 0. 0. 0. 0.
    0. 0. 0. 0. 0. 0. 0. 0. 0. 0. 0. 0. 0. 0. 0. 0. 2.61100006e+00 2. 2.
    2.02300000e+00 2.05999994e+00 2.03399992e+00 2. 2. 2. 2.
    1.95799994e+00 1.88699996e+00 1.87399995e+00 1.87399995e+00
    1.87399995e+00 1.86300004e+00 1.82900000e+00 1.81400001e+00
    1.81400001e+00 2.60800004e+00 0. 0. 0. 0. 0. 0. 0. 0. 0. 0. 0. 0. 0.
    0. 0. 0. 0. 0. 0. 0. 2.40300012e+00 2. 2. 2.01500010e+00
    2.03900003e+00 2.02200007e+00 1.99899995e+00 1.98599994e+00
    1.97800004e+00 1.97800004e+00 1.95099998e+00 1.90499997e+00
    1.89600003e+00 1.89499998e+00 1.88300002e+00 1.86300004e+00
    1.82900000e+00 1.81400001e+00 1.81400001e+00 2.62599993e+00 0. 0. 0.
    0. 0. 0. 0. 0. 0. 0. 0. 0. 0. 0. 0. 2.31399989e+00 2.29099989e+00
    2.25500011e+00 2.21900010e+00 2.17499995e+00 2.06900001e+00 2. 2.
    2.00200009e+00 2.00500011e+00 2.00300002e+00 1.99699998e+00
    1.96399999e+00 1.94200003e+00 1.94200003e+00 1.93900001e+00
    1.93299997e+00 1.93200004e+00 1.92999995e+00 1.89699996e+00
    1.86300004e+00 1.82900000e+00 1.81400001e+00 1.81400001e+00
    2.65700006e+00 0. 0. 0. 0. 0. 0. 0. 0. 0. 0. 0. 0. 0. 0. 0.
    2.20300007e+00 2.17899990e+00 2.13899994e+00 2.09999990e+00
    2.06399989e+00 2.04500008e+00 2.03299999e+00 2.03299999e+00
    2.02099991e+00 2.00300002e+00 2. 1.99699998e+00 1.96099997e+00
    1.93700004e+00 1.93700004e+00 1.93700004e+00 1.93700004e+00
    1.93700004e+00 1.93599999e+00 1.91799998e+00 1.88900006e+00
    1.83700001e+00 1.81400001e+00 1.81400001e+00 2.66100001e+00 0. 0. 0.
    0. 0. 0. 0. 0. 0. 0. 0. 0. 0. 0. 0. 2.20300007e+00 2.17899990e+00
    2.13899994e+00 2.09999990e+00 2.06599998e+00 2.06599998e+00
    2.06599998e+00 2.06599998e+00 2.04299998e+00 2.00600004e+00 2.
    1.99699998e+00 1.96300006e+00 1.94000006e+00 1.93799996e+00
    1.93700004e+00 1.93700004e+00 1.93700004e+00 1.93700004e+00
    1.93700004e+00 1.91499996e+00 1.84500003e+00 1.81400001e+00
    1.81400001e+00 2.60899997e+00 0. 0. 0. 0. 0. 0. 0. 0. 0. 0. 0. 0. 0.
    0. 0. 2.20300007e+00 2.17899990e+00 2.13899994e+00 2.09999990e+00
    2.06599998e+00 2.06599998e+00 2.06599998e+00 2.06599998e+00
    2.04299998e+00 2.00600004e+00 2. 1.99899995e+00 1.98599994e+00
    1.96899998e+00 1.94700003e+00 1.93700004e+00 1.93700004e+00
    1.93700004e+00 1.93700004e+00 1.93700004e+00 1.91499996e+00
    1.84500003e+00 1.81400001e+00 1.81400001e+00 2.14199996e+00
    2.55699992e+00 0. 0. 0. 0. 0. 0. 0. 0. 0. 0. 0. 0. 0. 0.
    2.20300007e+00 2.17899990e+00 2.13899994e+00 2.10700011e+00
    2.07900000e+00 2.07100010e+00 2.06599998e+00 2.06599998e+00
    2.04800010e+00 2.01799989e+00 2.00699997e+00 2. 2. 1.99000001e+00
    1.96200001e+00 1.95000005e+00 1.95000005e+00 1.94400001e+00
    1.93700004e+00 1.93700004e+00 1.91700006e+00 1.85399997e+00
    1.82599998e+00 1.82599998e+00 1.84800005e+00 1.91600001e+00
    2.80599999e+00 0. 0. 0. 0. 0. 0. 0. 0. 0. 0. 0. 0. 0. 2.20300007e+00
    2.17899990e+00 2.13899994e+00 2.12599993e+00 2.11500001e+00
    2.08500004e+00 2.06599998e+00 2.06599998e+00 2.06100011e+00
    2.05200005e+00 2.02600002e+00 2. 2. 1.99699998e+00 1.98899996e+00
    1.98599994e+00 1.98599994e+00 1.96300006e+00 1.93700004e+00
    1.93700004e+00 1.92299998e+00 1.88000000e+00 1.86000001e+00
    1.86000001e+00 1.86699998e+00 1.91600001e+00 2.80599999e+00 0. 0. 0.
    0. 0. 0. 0. 0. 0. 0. 0. 0. 0. 2.20300007e+00 2.17899990e+00
    2.13899994e+00 2.13400006e+00 2.13000011e+00 2.09100008e+00
    2.06599998e+00 2.06599998e+00 2.06599998e+00 2.06599998e+00
    2.04500008e+00 2.02099991e+00 2.00900006e+00 2. 2. 2. 2.
    1.98099995e+00 1.95899999e+00 1.95899999e+00 1.94700003e+00
    1.91100001e+00 1.89600003e+00 1.89600003e+00 1.89600003e+00
    1.93700004e+00 2.81500006e+00 0. 0. 0. 0. 0. 0. 0. 0. 0. 0. 0. 0. 0.
    2.20300007e+00 2.17899990e+00 2.13899994e+00 2.13400006e+00
    2.13000011e+00 2.09100008e+00 2.06599998e+00 2.06599998e+00
    2.06599998e+00 2.06599998e+00 2.06299996e+00 2.05699992e+00
    2.02300000e+00 2. 2. 2. 2. 1.99699998e+00 1.99399996e+00
    1.99399996e+00 1.98300004e+00 1.94700003e+00 1.93099999e+00
    1.93099999e+00 1.93099999e+00 1.97099996e+00 2.82999992e+00 0. 0. 0.
    0. 0. 0. 0. 0. 0. 0. 0. 0. 0. 2.20300007e+00 2.17899990e+00
    2.13899994e+00 2.13400006e+00 2.13000011e+00 2.09100008e+00
    2.06599998e+00 2.06599998e+00 2.06599998e+00 2.06599998e+00
    2.06599998e+00 2.06299996e+00 2.02500010e+00 2. 2. 2. 2. 2. 2. 2.
    1.99399996e+00 1.97599995e+00 1.96700001e+00 1.96700001e+00
    1.96700001e+00 2.00600004e+00 2.84400010e+00 0. 0. 0. 0. 0. 0. 0. 0.
    0. 0. 0. 0. 0. 2.27800012e+00 2.22700000e+00 2.14499998e+00
    2.13400006e+00 2.13000011e+00 2.09299994e+00 2.06900001e+00
    2.06699991e+00 2.06599998e+00 2.06599998e+00 2.06599998e+00
    2.06299996e+00 2.02500010e+00 2. 2. 2. 2. 2. 2. 2. 2. 2. 2. 2. 2.
    2.03600001e+00 2.81299996e+00 0. 0. 0. 0. 0. 0. 0. 0. 0. 0. 0. 0. 0.
    0. 2.76500010e+00 2.20799994e+00 2.13400006e+00 2.13199997e+00
    2.11800003e+00 2.09999990e+00 2.07599998e+00 2.06599998e+00
    2.06599998e+00 2.06599998e+00 2.06299996e+00 2.02500010e+00 2. 2. 2.
    2. 2. 2. 2. 2. 2. 2. 2. 2. 2.01399994e+00 2.32500005e+00
    2.54500008e+00 0. 0. 0. 0. 0. 0. 0. 0. 0. 0. 0. 0. 0. 0.
    2.25000000e+00 2.13400006e+00 2.13400006e+00 2.13400006e+00
    2.12299991e+00 2.09100008e+00 2.07500005e+00 2.06699991e+00
    2.06599998e+00 2.06299996e+00 2.02500010e+00 2. 2. 2. 2. 2. 2. 2.
    1.99800003e+00 1.99100006e+00 1.98800004e+00 1.98800004e+00
    1.98800004e+00 1.98800004e+00 1.98099995e+00 1.97599995e+00 0. 0. 0.
    0. 0. 0. 0. 0. 0. 0. 0. 0. 0. 0. 2.25000000e+00 2.13400006e+00
    2.13400006e+00 2.13400006e+00 2.13100004e+00 2.12100005e+00
    2.09999990e+00 2.07100010e+00 2.06599998e+00 2.06299996e+00
    2.02500010e+00 2. 2. 2. 2. 2. 2. 2. 1.99100006e+00 1.96399999e+00
    1.95200002e+00 1.95200002e+00 1.95200002e+00 1.95099998e+00
    1.92400002e+00 1.90400004e+00 0. 0. 0. 0. 0. 0. 0. 0. 0. 0. 0. 0. 0.
    0. 2.25000000e+00 2.13400006e+00 2.13499999e+00 2.14800000e+00
    2.15700006e+00 2.15700006e+00 2.12599993e+00 2.07399988e+00
    2.06599998e+00 2.06299996e+00 2.02500010e+00 2. 2. 2. 2. 2. 2. 2.
    1.98899996e+00 1.95299995e+00 1.93700004e+00 1.93700004e+00
    1.92799997e+00 1.91499996e+00 1.87899995e+00 1.85399997e+00 0. 0. 0.
    0. 0. 0. 0. 0. 0. 0. 0. 0. 0. 0. 2.25000000e+00 2.13400006e+00
    2.13800001e+00 2.17300010e+00 2.19600010e+00 2.19600010e+00
    2.15199995e+00 2.07699990e+00 2.06599998e+00 2.06299996e+00
    2.02500010e+00 2. 2. 2. 2. 2. 2. 2. 1.98899996e+00 1.95299995e+00
    1.93700004e+00 1.93700004e+00 1.91100001e+00 1.87899995e+00
    1.84399998e+00 1.82000005e+00 0. 0. 0. 0. 0. 0. 0. 0. 0. 0. 0. 0. 0.
    0. 2.27999997e+00 2.16599989e+00 2.16899991e+00 2.19000006e+00
    2.20300007e+00 2.20300007e+00 2.16700006e+00 2.10700011e+00
    2.08299994e+00 2.06299996e+00 2.02500010e+00 2. 2. 2. 2. 2. 2. 2.
    1.98899996e+00 1.95299995e+00 1.93700004e+00 1.93700004e+00
    1.90799999e+00 1.87199998e+00 1.83800006e+00 1.81400001e+00 0. 0. 0.
    0. 0. 0. 0. 0. 0. 0. 0. 0. 0. 0. 2.31399989e+00 2.20300007e+00
    2.20300007e+00 2.20300007e+00 2.20300007e+00 2.20300007e+00
    2.17899990e+00 2.14000010e+00 2.10100007e+00 2.06299996e+00
    2.02500010e+00 2. 2. 2. 2. 2. 2. 2. 1.98899996e+00 1.95299995e+00
    1.93700004e+00 1.93700004e+00 1.90799999e+00 1.87199998e+00
    1.84000003e+00 1.81599998e+00 0. 0. 0. 0. 0. 0. 0. 0. 0. 0. 0. 0. 0.
    0. 2.31999993e+00 2.20300007e+00 2.20300007e+00 2.20300007e+00
    2.20300007e+00 2.20300007e+00 2.17899990e+00 2.14000010e+00
    2.10100007e+00 2.06299996e+00 2.02500010e+00 2. 2. 2. 2. 2. 2. 2.
    1.98899996e+00 1.95299995e+00 1.93700004e+00 1.93700004e+00
    1.90799999e+00 1.87300003e+00 1.86000001e+00 1.85099995e+00 0. 0. 0.
    0. 0. 0. 0. 0. 0. 0. 0. 0. 0. 0. 2.58400011e+00 2.34599996e+00
    2.20300007e+00 2.20300007e+00 2.20099998e+00 2.19400001e+00
    2.17100000e+00 2.13899994e+00 2.10100007e+00 2.06299996e+00
    2.03200006e+00 2.00999999e+00 2.00300002e+00 2. 2. 2. 2. 2.
    1.98899996e+00 1.95299995e+00 1.93700004e+00 1.93700004e+00
    1.91799998e+00 1.89600003e+00 1.89600003e+00 1.89600003e+00 0. 0. 0.
    0. 0. 0. 0. 0. 0. 0. 0. 0. 0. 0. 0. 2.80299997e+00 2.20300007e+00
    2.20300007e+00 2.19300008e+00 2.16300011e+00 2.14499998e+00
    2.13599992e+00 2.10100007e+00 2.06500006e+00 2.05599999e+00
    2.03999996e+00 2.01200008e+00 2. 2. 2. 2. 2. 1.98899996e+00
    1.95299995e+00 1.93700004e+00 1.93700004e+00 1.95099998e+00
    1.96800005e+00 1.96800005e+00 1.96800005e+00 0. 0. 0. 0. 0. 0. 0. 0.
    0. 0. 0. 0. 0. 0. 0. 0. 2.22399998e+00 2.21099997e+00 2.18899989e+00
    2.15000010e+00 2.13400006e+00 2.13400006e+00 2.10100007e+00
    2.06599998e+00 2.06599998e+00 2.05699992e+00 2.03200006e+00
    2.01399994e+00 2.00200009e+00 2. 2. 2. 1.99199998e+00 1.96800005e+00
    1.95700002e+00 1.95700002e+00 1.97700000e+00 1.99899995e+00
    1.98800004e+00 1.98000002e+00 0. 0. 0. 0. 0. 0. 0. 0. 0. 0. 0. 0. 0.
    0. 0. 0. 2.26300001e+00 2.22600007e+00 2.18899989e+00 2.15000010e+00
    2.13400006e+00 2.13400006e+00 2.10100007e+00 2.06599998e+00
    2.06599998e+00 2.06500006e+00 2.05999994e+00 2.03900003e+00
    2.00600004e+00 2. 2. 2. 1.99899995e+00 1.99500000e+00 1.99300003e+00
    1.99300003e+00 1.99600005e+00 1.99899995e+00 1.96700001e+00
    1.94400001e+00 0. 0. 0. 0. 0. 0. 0. 0. 0. 0. 0. 0. 0. 0. 0. 0.
    2.26999998e+00 2.22900009e+00 2.19499993e+00 2.17400002e+00
    2.15499997e+00 2.13700008e+00 2.10100007e+00 2.06599998e+00
    2.06599998e+00 2.06599998e+00 2.06599998e+00 2.04399991e+00
    2.00699997e+00 2. 2. 2. 2. 2. 1.99100006e+00 1.97399998e+00
    1.97099996e+00 1.97000003e+00 1.95099998e+00 1.93700004e+00 0. 0. 0.
    0. 0. 0. 0. 0. 0. 0. 0. 0. 0. 0. 0. 0. 2.27099991e+00 2.23099995e+00
    2.20499992e+00 2.20300007e+00 2.18000007e+00 2.14199996e+00
    2.10299993e+00 2.06800008e+00 2.06699991e+00 2.06599998e+00
    2.06599998e+00 2.04500008e+00 2.00799990e+00 2.00099993e+00 2. 2. 2.
    2. 1.98000002e+00 1.94400001e+00 1.93700004e+00 1.93700004e+00
    1.93599999e+00 1.93499994e+00 0. 0. 0. 0. 0. 0. 0. 0. 0. 0. 0. 0. 0.
    0. 0. 0. 2.27300000e+00 2.25699997e+00 2.23699999e+00 2.21300006e+00
    2.19300008e+00 2.17799997e+00 2.14199996e+00 2.10400009e+00
    2.08100009e+00 2.06599998e+00 2.06599998e+00 2.05699992e+00
    2.04200006e+00 2.02099991e+00 2. 2. 2. 2. 1.98000002e+00
    1.94400001e+00 1.93700004e+00 1.93599999e+00 1.91499996e+00
    1.89900005e+00 0. 0. 0. 0. 0. 0. 0. 0. 0. 0. 0. 0. 0. 0. 0. 0.
    2.27500010e+00 2.27500010e+00 2.26300001e+00 2.22900009e+00
    2.21099997e+00 2.20400000e+00 2.17000008e+00 2.13100004e+00
    2.09200001e+00 2.06599998e+00 2.06599998e+00 2.06599998e+00
    2.06599998e+00 2.03500009e+00 2. 2. 1.99800003e+00 1.99199998e+00
    1.97000003e+00 1.93400002e+00 1.92700005e+00 1.92499995e+00
    1.89499998e+00 1.87399995e+00 0. 0. 0. 0. 0. 0. 0. 0. 0. 0. 0. 0. 0.
    0. 0. 0. 2.27500010e+00 2.27500010e+00 2.27099991e+00 2.25999999e+00
    2.23799992e+00 2.20799994e+00 2.17000008e+00 2.13100004e+00
    2.09200001e+00 2.06599998e+00 2.06599998e+00 2.06599998e+00
    2.06599998e+00 2.03500009e+00 2. 2. 1.99199998e+00 1.96500003e+00
    1.93400002e+00 1.89800000e+00 1.89100003e+00 1.88999999e+00
    1.88100004e+00 1.87399995e+00 0. 0. 0. 0. 0. 0. 0. 0. 0. 0. 0. 0. 0.
    0. 0. 0. 2.67300010e+00 2.43099999e+00 2.27500010e+00 2.27500010e+00
    2.25000000e+00 2.20900011e+00 2.17000008e+00 2.13100004e+00
    2.09200001e+00 2.06599998e+00 2.06599998e+00 2.05900002e+00
    2.04800010e+00 2.02399993e+00 2. 2. 1.98899996e+00 1.95299995e+00
    1.91700006e+00 1.88100004e+00 1.87399995e+00 1.87500000e+00
    1.88499999e+00 1.89300001e+00 0. 0. 0. 0. 0. 0. 0. 0. 0. 0. 0. 0. 0.
    0. 0. 0. 0. 2.72199988e+00 2.27500010e+00 2.27500010e+00
    2.25000000e+00 2.20900011e+00 2.17000008e+00 2.13100004e+00
    2.09200001e+00 2.06599998e+00 2.06599998e+00 2.04699993e+00
    2.01399994e+00 2.00399995e+00 2. 2. 1.98899996e+00 1.95299995e+00
    1.91700006e+00 1.88100004e+00 1.87399995e+00 1.87500000e+00
    1.90699995e+00 1.92900002e+00 0. 0. 0. 0. 0. 0. 0. 0. 0. 0. 0. 0. 0.
    0. 0. 0. 0. 0. 2.76799989e+00 2.41599989e+00 2.23000002e+00
    2.15400004e+00 2.10999990e+00 2.07200003e+00 2.05100012e+00
    2.03699994e+00 2.03699994e+00 2.01500010e+00 1.97800004e+00
    1.97200000e+00 1.97200000e+00 1.97200000e+00 1.97099996e+00
    1.96700001e+00 1.95400000e+00 1.93400002e+00 2.31900001e+00
    2.77999997e+00 2.76900005e+00 2.75999999e+00 0. 0. 0. 0. 0. 0. 0. 0.
    0. 0. 0. 0. 0. 0. 0. 0. 0. 0. 0. 2.59200001e+00 2.20300007e+00
    2.08400011e+00 2.03399992e+00 2. 2. 2. 2. 1.97899997e+00
    1.94299996e+00 1.93700004e+00 1.93700004e+00 1.93700004e+00
    1.94799995e+00 1.98399997e+00 2. 2. 2.87400007e+00 0. 0. 0. 0. 0. 0.
    0. 0. 0. 0. 0. 0. 0. 0. 0. 0. 0. 0. 0. 0. 0. 0. 0. 0. 0. 0. 0. 0. 0.
    0. 0. 0. 0. 0. 0. 0. 0. 0. 0. 0. 0. 0. 0. 0. 0. 0. 0. 0. 0. 0. 0. 0.
    0. 0. 0. 0. 0. 0. 0. 0. 0. 0. 0. 0. 0. 0. 0. 0. 0. 0. 0. 0. 0. 0. 0.
    0. 0. 0. 0. 0. 0. 0. 0. 0. 0. 0. 0. 0. 0. 0. 0. 0. 0. 0. 0. 0. 0. 0.
    0. 0. 0. 0. 0. 0. 0. 0. 0. 0. 0. 0. 0. 0. 0. 0. 0. 0. 0. 0. 0. 0. 0.
    0. 0. 0. 0. 0. 0. 0. 0. 0. 0. 0. 0. 0. 0. 0. 0. 0. 0. 0. 0. 0. 0. 0.
    0. 0. 0. 0. 0. 0. 0. 0. 0. 0. 0. 0. 0. 0. 0. 0. 0. 0. 0. 0. 0. 0. 0.
    0. 0.</data></Depth>
</opencv_storage>
