<?xml version="1.0"?>
<opencv_storage>
<Depth type_id="opencv-matrix">
  <rows>40</rows>
  <cols>40</cols>
  <dt>f</dt>
  <data>
    0. 0. 0. 0. 0. 0. 0. 0. 0. 0. 0. 0. 0. 0. 0. 0. 0. 0. 0. 0. 0. 0. 0.
    0. 0. 0. 0. 0. 0. 0. 0. 0. 0. 0. 0. 0. 0. 0. 0. 0. 0. 0. 0. 0. 0. 0.
    0. 0. 0. 0. 0. 0. 0. 0. 0. 0. 2.87100005e+00 1.98899996e+00
    1.97899997e+00 2.17700005e+00 2.79399991e+00 2.02699995e+00
    2.03900003e+00 2.03200006e+00 2.00399995e+00 2.00500011e+00
    2.03999996e+00 2.03999996e+00 2.03299999e+00 2.02500010e+00 0. 0. 0.
    0. 0. 0. 0. 0. 0. 0. 0. 0. 0. 0. 0. 0. 0. 0. 0. 0. 0. 0. 0. 0. 0.
    2.85599995e+00 2.00999999e+00 2.00500011e+00 2.00500011e+00
    2.01999998e+00 2.02699995e+00 2.02699995e+00 2.03900003e+00
    2.03800011e+00 2.03200006e+00 2.03800011e+00 2.03999996e+00
    2.03999996e+00 2.03299999e+00 2.01600003e+00 2.13899994e+00 0. 0. 0.
    0. 0. 0. 0. 0. 0. 0. 0. 0. 0. 0. 0. 0. 0. 0. 0. 2.50500011e+00
    2.50900006e+00 2.50900006e+00 2.50399995e+00 2.50000000e+00
    2.01300001e+00 2.01300001e+00 2.01900005e+00 2.02200007e+00
    2.02699995e+00 2.02699995e+00 2.02699995e+00 2.03099990e+00
    2.03999996e+00 2.03999996e+00 2.03999996e+00 2.03999996e+00
    2.03999996e+00 2.03800011e+00 2.02500010e+00 2.06500006e+00
    2.82500005e+00 0. 0. 0. 0. 0. 0. 0. 0. 0. 0. 0. 0. 0. 0. 0. 0. 0.
    2.03600001e+00 1.97399998e+00 1.98800004e+00 1.98800004e+00
    1.98699999e+00 1.98699999e+00 2.02600002e+00 2.02600002e+00
    2.02699995e+00 2.02699995e+00 2.02699995e+00 2.02699995e+00
    2.02699995e+00 2.02699995e+00 2.03999996e+00 2.03999996e+00
    2.03999996e+00 2.03999996e+00 2.03999996e+00 2.03999996e+00
    2.03900003e+00 2.02699995e+00 2.52399993e+00 0. 0. 0. 0. 0. 0. 0. 0.
    0. 0. 0. 0. 0. 0. 0. 2.07299995e+00 1.98699999e+00 1.98699999e+00
    1.98899996e+00 1.99000001e+00 1.98699999e+00 1.98699999e+00
    1.98699999e+00 2.02699995e+00 2.02399993e+00 2.02399993e+00
    2.02399993e+00 2.02500010e+00 2.02699995e+00 2.02699995e+00
    2.02699995e+00 2.03999996e+00 2.03999996e+00 2.03999996e+00
    2.03999996e+00 2.03999996e+00 2.03999996e+00 2.03999996e+00
    2.04399991e+00 2.44300008e+00 0. 0. 0. 0. 0. 0. 0. 0. 0. 0. 0. 0. 0.
    0. 2.56500006e+00 1.99600005e+00 1.99199998e+00 1.98699999e+00
    1.99699998e+00 2. 1.98699999e+00 1.98699999e+00 1.99199998e+00
    2.01900005e+00 2.00699997e+00 2.01099992e+00 2.01300001e+00
    2.01500010e+00 2.02699995e+00 2.02699995e+00 2.02699995e+00
    2.03999996e+00 2.03999996e+00 2.03999996e+00 2.03999996e+00
    2.03999996e+00 2.03999996e+00 2.03999996e+00 2.05399990e+00
    2.05699992e+00 2.91000009e+00 0. 0. 0. 0. 0. 0. 0. 0. 0. 0. 0. 0.
    2.46799994e+00 2.17100000e+00 2.01099992e+00 1.99699998e+00
    1.98699999e+00 1.99699998e+00 2. 1.99699998e+00 1.99100006e+00
    1.99000001e+00 2.00300002e+00 2. 2.00799990e+00 2.01300001e+00
    2.01500010e+00 2.02699995e+00 2.02699995e+00 2.02699995e+00
    2.03200006e+00 2.03999996e+00 2.03999996e+00 2.03999996e+00
    2.03999996e+00 2.03999996e+00 2.03999996e+00 2.05299997e+00
    2.04399991e+00 2.90300012e+00 0. 0. 0. 0. 0. 0. 0. 0. 0. 0. 0.
    2.06800008e+00 2.06200004e+00 2.04500008e+00 2.02800012e+00
    2.00999999e+00 2. 2. 2. 1.98699999e+00 1.98699999e+00 1.98699999e+00
    2. 2. 2. 2.01099992e+00 2.01500010e+00 2.02699995e+00 2.02699995e+00
    2.02699995e+00 2.02699995e+00 2.03299999e+00 2.03999996e+00
    2.03999996e+00 2.03999996e+00 2.03999996e+00 2.03999996e+00
    2.05299997e+00 2.03999996e+00 2.88000011e+00 0. 0. 0. 0. 0. 0. 0. 0.
    0. 0. 0. 2.06599998e+00 2.05200005e+00 2.04299998e+00 2.03999996e+00
    2.01399994e+00 2.00200009e+00 1.99000001e+00 1.98699999e+00
    1.98699999e+00 1.98699999e+00 1.98699999e+00 2. 2. 2. 2.00799990e+00
    2.01099992e+00 2.02300000e+00 2.02300000e+00 2.02699995e+00
    2.02800012e+00 2.03500009e+00 2.03999996e+00 2.03999996e+00
    2.03999996e+00 2.03999996e+00 2.03999996e+00 2.05399990e+00
    2.05399990e+00 2.87899995e+00 0. 0. 0. 0. 0. 0. 0. 0. 0. 0. 0.
    2.06599998e+00 2.04800010e+00 2.03999996e+00 2.03999996e+00
    2.02399993e+00 2.00699997e+00 1.99000001e+00 1.98699999e+00
    1.98699999e+00 1.98699999e+00 1.98699999e+00 2. 2. 2. 2.
    2.00200009e+00 2.01300001e+00 2.01300001e+00 2.02600002e+00
    2.03500009e+00 2.03999996e+00 2.03999996e+00 2.03999996e+00
    2.03999996e+00 2.03999996e+00 2.03999996e+00 2.05399990e+00
    2.05399990e+00 2.86299992e+00 0. 0. 0. 0. 0. 0. 0. 0. 0. 0. 0.
    2.06800008e+00 2.05999994e+00 2.04399991e+00 2.03999996e+00
    2.02399993e+00 2.00699997e+00 1.99800003e+00 1.99699998e+00
    1.98699999e+00 1.98699999e+00 1.98699999e+00 2. 2. 2. 2.
    2.00200009e+00 2.01799989e+00 2.02399993e+00 2.02699995e+00
    2.02900004e+00 2.03500009e+00 2.03999996e+00 2.03999996e+00
    2.03999996e+00 2.03999996e+00 2.03999996e+00 2.05399990e+00
    2.05399990e+00 2.20900011e+00 0. 0. 0. 0. 0. 0. 0. 0. 0. 0. 0.
    2.07999992e+00 2.06299996e+00 2.04600000e+00 2.03999996e+00
    2.02699995e+00 2.01500010e+00 2. 2. 1.98699999e+00 1.98699999e+00
    1.98800004e+00 2. 2.00099993e+00 2. 2.00099993e+00 2.01300001e+00
    2.01900005e+00 2.02699995e+00 2.02699995e+00 2.02699995e+00
    2.03299999e+00 2.03900003e+00 2.03999996e+00 2.03999996e+00
    2.03999996e+00 2.04099989e+00 2.05299997e+00 2.03999996e+00
    2.04900002e+00 0. 0. 0. 0. 0. 0. 0. 0. 0. 0. 0. 2.08599997e+00
    2.07800007e+00 2.05999994e+00 2.04099989e+00 2.03099990e+00
    2.02300000e+00 2.00799990e+00 2. 1.98699999e+00 1.98699999e+00
    1.99800003e+00 2.00099993e+00 2.00600004e+00 2. 2.01099992e+00
    2.01300001e+00 2.01699996e+00 2.02200007e+00 2.02200007e+00
    2.02200007e+00 2.02500010e+00 2.02699995e+00 2.03999996e+00
    2.03999996e+00 2.03999996e+00 2.05100012e+00 2.05299997e+00
    2.03999996e+00 2.04900002e+00 2.05399990e+00 0. 0. 0. 0. 0. 0. 0. 0.
    0. 0. 2.92199993e+00 2.08699989e+00 2.06900001e+00 2.04900002e+00
    2.03699994e+00 2.02699995e+00 2.01699996e+00 2. 1.99300003e+00
    1.98699999e+00 1.99100006e+00 2. 2. 2. 2.00399995e+00 2.01300001e+00
    2.01300001e+00 2.01300001e+00 2.01300001e+00 2.01300001e+00
    2.01999998e+00 2.02699995e+00 2.03999996e+00 2.03999996e+00
    2.03999996e+00 2.04399991e+00 2.04500008e+00 2.03999996e+00
    2.04299998e+00 2.04500008e+00 0. 0. 0. 0. 0. 0. 0. 0. 0. 0. 0.
    2.08299994e+00 2.08100009e+00 2.05599999e+00 2.03999996e+00
    2.03800011e+00 2.02900004e+00 2.02399993e+00 2.00799990e+00
    1.99199998e+00 1.98699999e+00 2. 2. 2. 2. 2.00200009e+00
    2.00200009e+00 2.00900006e+00 2.01300001e+00 2.01600003e+00
    2.02600002e+00 2.03600001e+00 2.03999996e+00 2.03999996e+00
    2.03999996e+00 2.03999996e+00 2.03999996e+00 2.03999996e+00
    2.03999996e+00 2.03999996e+00 0. 0. 0. 0. 0. 0. 0. 0. 0. 0. 0.
    2.22000003e+00 2.08200002e+00 2.06900001e+00 2.05100012e+00
    2.03999996e+00 2.02999997e+00 2.02699995e+00 1.99600005e+00
    1.98699999e+00 1.98699999e+00 2. 2. 2. 2. 2. 2.00200009e+00
    2.00900006e+00 2.01300001e+00 2.02699995e+00 2.02699995e+00
    2.03699994e+00 2.03999996e+00 2.03999996e+00 2.03999996e+00
    2.03999996e+00 2.03999996e+00 2.03800011e+00 2.03900003e+00
    2.03999996e+00 2.24300003e+00 0. 0. 0. 0. 0. 0. 0. 0. 0. 0. 0.
    2.28800011e+00 2.06900001e+00 2.05100012e+00 2.03999996e+00
    2.02999997e+00 2.02699995e+00 1.99800003e+00 1.98899996e+00
    1.98699999e+00 2. 2. 2. 2. 2.00099993e+00 2.00999999e+00
    2.01300001e+00 2.01300001e+00 2.02200007e+00 2.02699995e+00
    2.03699994e+00 2.03999996e+00 2.03500009e+00 2.03800011e+00
    2.03600001e+00 2.03399992e+00 2.02699995e+00 2.03200006e+00
    2.02900004e+00 2.15100002e+00 0. 0. 0. 0. 0. 0. 0. 0. 0. 0. 0.
    2.58100009e+00 2.06800008e+00 2.05900002e+00 2.03999996e+00
    2.02999997e+00 2.02699995e+00 2. 1.99300003e+00 1.98699999e+00 2. 2.
    2. 2. 2. 2.00500011e+00 2.01300001e+00 2.01300001e+00 2.01600003e+00
    2.02699995e+00 2.02999997e+00 2.03099990e+00 2.02699995e+00
    2.03399992e+00 2.02900004e+00 2.02699995e+00 2.02699995e+00
    2.02699995e+00 2.01500010e+00 2.01300001e+00 2.58299994e+00 0. 0. 0.
    0. 0. 0. 0. 0. 0. 0. 2.58100009e+00 2.06800008e+00 2.06800008e+00
    2.05399990e+00 2.02999997e+00 2.02699995e+00 2.00900006e+00
    1.99300003e+00 1.98699999e+00 2. 2. 2. 2. 2. 2.00500011e+00
    2.01300001e+00 2.01300001e+00 2.01600003e+00 2.02699995e+00
    2.02699995e+00 2.02699995e+00 2.02699995e+00 2.03399992e+00
    2.03900003e+00 2.03900003e+00 2.03900003e+00 2.03900003e+00
    2.02800012e+00 2.01300001e+00 2.58299994e+00 0. 0. 0. 0. 0. 0. 0. 0.
    0. 0. 2.59500003e+00 2.06800008e+00 2.06800008e+00 2.06100011e+00
    2.04399991e+00 2.02999997e+00 2.01999998e+00 1.99300003e+00
    1.98699999e+00 2. 2. 2. 2. 2. 2. 2. 2. 2.01300001e+00 2.02500010e+00
    2.02500010e+00 2.01300001e+00 2.01300001e+00 2.02099991e+00
    2.02699995e+00 2.03999996e+00 2.03999996e+00 2.03999996e+00
    2.02800012e+00 2. 2. 0. 0. 0. 0. 0. 0. 0. 0. 0. 0. 0. 2.12299991e+00
    2.06800008e+00 2.06100011e+00 2.04399991e+00 2.03999996e+00
    2.01999998e+00 1.99300003e+00 1.98699999e+00 2. 2. 2. 2. 2. 2. 2. 2.
    2.00300002e+00 2.01600003e+00 2.01500010e+00 2.01300001e+00
    2.01300001e+00 2.02099991e+00 2.02699995e+00 2.03999996e+00
    2.03999996e+00 2.03999996e+00 2.02800012e+00 2.01200008e+00
    2.00600004e+00 0. 0. 0. 0. 0. 0. 0. 0. 0. 0. 0. 2.19199991e+00
    2.06599998e+00 2.05599999e+00 2.05100012e+00 2.03999996e+00
    2.02900004e+00 2.00300002e+00 1.99699998e+00 2. 2. 2. 2. 2. 2. 2. 2.
    2.00300002e+00 2.01300001e+00 2.01300001e+00 2.01300001e+00
    2.01300001e+00 2.02099991e+00 2.02699995e+00 2.03900003e+00
    2.02999997e+00 2.02999997e+00 2.02699995e+00 2.02600002e+00
    2.02800012e+00 0. 0. 0. 0. 0. 0. 0. 0. 0. 0. 0. 2.19499993e+00
    2.07599998e+00 2.05399990e+00 2.05399990e+00 2.03999996e+00
    2.03600001e+00 2.01200008e+00 2. 2. 2. 2. 2. 2. 2. 2. 2.
    2.01300001e+00 2.00699997e+00 2. 2.01300001e+00 2.01300001e+00
    2.02099991e+00 2.02699995e+00 2.03900003e+00 2.02699995e+00
    2.02699995e+00 2.02699995e+00 2.02699995e+00 2.03200006e+00 0. 0. 0.
    0. 0. 0. 0. 0. 0. 0. 0. 2.18300009e+00 2.06800008e+00 2.06800008e+00
    2.05800009e+00 2.04399991e+00 2.03600001e+00 2.01399994e+00
    2.00399995e+00 2. 2. 2. 2. 2. 2. 2. 2.00900006e+00 2.00699997e+00 2.
    2. 2.00900006e+00 2.01300001e+00 2.01900005e+00 2.02600002e+00
    2.03900003e+00 2.02699995e+00 2.02699995e+00 2.02699995e+00
    2.02699995e+00 2.02699995e+00 0. 0. 0. 0. 0. 0. 0. 0. 0. 0. 0.
    2.97700000e+00 2.74900007e+00 2.05999994e+00 2.05599999e+00
    2.05399990e+00 2.03600001e+00 2.01900005e+00 2.01300001e+00 2. 2. 2.
    2. 2. 2. 2. 2. 2. 2. 2. 2. 2.01300001e+00 2.01300001e+00
    2.02399993e+00 2.03200006e+00 2.02699995e+00 2.02699995e+00
    2.02699995e+00 2.02699995e+00 2.02699995e+00 0. 0. 0. 0. 0. 0. 0. 0.
    0. 0. 0. 0. 0. 2.04299998e+00 2.05100012e+00 2.05399990e+00
    2.03600001e+00 2.01900005e+00 2.01300001e+00 2. 2. 2. 2. 2. 2. 2. 2.
    2. 2. 2. 2. 2.01300001e+00 2.01300001e+00 2.02399993e+00
    2.02699995e+00 2.02699995e+00 2.02699995e+00 2.02699995e+00
    2.02699995e+00 2.02699995e+00 0. 0. 0. 0. 0. 0. 0. 0. 0. 0. 0. 0.
    2.02699995e+00 2.03299999e+00 2.04999995e+00 2.05399990e+00
    2.03600001e+00 2.02699995e+00 2.01699996e+00 2.00099993e+00
    2.00099993e+00 2. 2. 2. 2. 2. 2. 2. 2. 2. 2.01300001e+00
    2.01300001e+00 2.02099991e+00 2.02600002e+00 2.02600002e+00
    2.02699995e+00 2.02699995e+00 2.02699995e+00 2.02699995e+00
    2.02800012e+00 0. 0. 0. 0. 0. 0. 0. 0. 0. 0. 0. 0. 2.03200006e+00
    2.03600001e+00 2.04999995e+00 2.05900002e+00 2.03800011e+00
    2.02900004e+00 2.02699995e+00 2.01799989e+00 2.00999999e+00
    2.00200009e+00 2. 2. 2. 2. 2. 2. 2. 2. 2.01300001e+00 2.01600003e+00
    2.01699996e+00 2.01300001e+00 2.01399994e+00 2.02699995e+00
    2.02999997e+00 2.03200006e+00 2.03200006e+00 2.03500009e+00 0. 0. 0.
    0. 0. 0. 0. 0. 0. 0. 0. 0. 0. 2.58599997e+00 2.06399989e+00
    2.06800008e+00 2.03999996e+00 2.03299999e+00 2.02699995e+00
    2.02600002e+00 2.00999999e+00 2.00200009e+00 2. 2. 2. 2. 2. 2. 2. 2.
    2.00500011e+00 2.01300001e+00 2.01300001e+00 2.01300001e+00
    2.01300001e+00 2.02099991e+00 2.03500009e+00 2.03999996e+00
    2.03800011e+00 2.02699995e+00 0. 0. 0. 0. 0. 0. 0. 0. 0. 0. 0. 0. 0.
    0. 2.43899989e+00 2.06800008e+00 2.05200005e+00 2.04500008e+00
    2.03900003e+00 2.02600002e+00 2.00900006e+00 2. 2. 2. 2. 2. 2. 2. 2.
    2. 2. 2.01300001e+00 2.01300001e+00 2.01300001e+00 2.01300001e+00
    2.02200007e+00 2.03900003e+00 2.03999996e+00 2.03999996e+00
    2.03399992e+00 0. 0. 0. 0. 0. 0. 0. 0. 0. 0. 0. 0. 0. 0. 0.
    2.06800008e+00 2.05399990e+00 2.04800010e+00 2.04200006e+00
    2.02800012e+00 2.01099992e+00 2.00099993e+00 2. 2. 2. 2. 2. 2. 2. 2.
    2. 2.00399995e+00 2.01300001e+00 2.01500010e+00 2.01500010e+00
    2.01900005e+00 2.02699995e+00 2.03900003e+00 2.03999996e+00
    2.03999996e+00 0. 0. 0. 0. 0. 0. 0. 0. 0. 0. 0. 0. 0. 0. 0.
    2.06800008e+00 2.05999994e+00 2.05999994e+00 2.05999994e+00
    2.04500008e+00 2.02800012e+00 2.01099992e+00 2.00099993e+00 2. 2. 2.
    2. 2. 2. 2. 2. 2.00799990e+00 2.01300001e+00 2.01999998e+00
    2.02600002e+00 2.02099991e+00 2.02500010e+00 2.03900003e+00
    2.03999996e+00 2.04299998e+00 0. 0. 0. 0. 0. 0. 0. 0. 0. 0. 0. 0. 0.
    0. 0. 2.06800008e+00 2.06800008e+00 2.06800008e+00 2.06800008e+00
    2.05299997e+00 2.03900003e+00 2.02800012e+00 2.01099992e+00 2. 2. 2.
    2. 2. 2. 2. 2. 2.01300001e+00 2.01300001e+00 2.01300001e+00
    2.02600002e+00 2.01300001e+00 2.02699995e+00 2.03999996e+00
    2.18799996e+00 2.97600007e+00 0. 0. 0. 0. 0. 0. 0. 0. 0. 0. 0. 0. 0.
    0. 0. 2.06800008e+00 2.06800008e+00 2.06800008e+00 2.06800008e+00
    2.05399990e+00 2.04900002e+00 2.03999996e+00 2.02800012e+00
    2.01099992e+00 2. 2. 2. 2. 2. 2. 2.01200008e+00 2.01300001e+00
    2.01300001e+00 2.01300001e+00 2.02900004e+00 2.05200005e+00
    2.04500008e+00 2.03999996e+00 0. 0. 0. 0. 0. 0. 0. 0. 0. 0. 0. 0. 0.
    0. 0. 0. 0. 2.06800008e+00 2.06800008e+00 2.06800008e+00
    2.06800008e+00 2.05399990e+00 2.04999995e+00 2.04099989e+00
    2.02900004e+00 2.01099992e+00 2. 2. 2. 2. 2. 2.00200009e+00
    2.01300001e+00 2.01600003e+00 2.20199990e+00 2.36100006e+00 0. 0. 0.
    0. 0. 0. 0. 0. 0. 0. 0. 0. 0. 0. 0. 0. 0. 0. 0. 0. 0. 2.87199998e+00
    2.06800008e+00 2.07200003e+00 2.06900001e+00 2.05999994e+00
    2.05399990e+00 2.04500008e+00 2.02900004e+00 2.01200008e+00
    2.00600004e+00 2.00600004e+00 2.00600004e+00 2.00600004e+00
    2.00999999e+00 2.02300000e+00 2.03999996e+00 2.75600004e+00 0. 0. 0.
    0. 0. 0. 0. 0. 0. 0. 0. 0. 0. 0. 0. 0. 0. 0. 0. 0. 0. 0. 0. 0.
    2.06800008e+00 2.07599998e+00 2.07900000e+00 2.06699991e+00
    2.05399990e+00 2.04500008e+00 2.02900004e+00 2.01300001e+00
    2.01300001e+00 2.01999998e+00 2.02399993e+00 2.02399993e+00
    2.56800008e+00 0. 0. 0. 0. 0. 0. 0. 0. 0. 0. 0. 0. 0. 0. 0. 0. 0. 0.
    0. 0. 0. 0. 0. 0. 0. 0. 0. 0. 2.08800006e+00 2.08200002e+00
    2.06800008e+00 2.05800009e+00 2.03999996e+00 2.02900004e+00
    2.01300001e+00 2.01900005e+00 2.02699995e+00 2.03900003e+00
    2.35500002e+00 0. 0. 2.05399990e+00 2.03999996e+00 2.03999996e+00 0.
    0. 0. 0. 0. 0. 0. 0. 0. 0. 0. 0. 0. 0. 0. 0. 0. 0. 0. 0. 0. 0. 0. 0.
    0. 0. 0. 0. 0. 0. 0. 0. 0. 0. 0. 0. 0. 0. 0. 0. 0. 0. 0. 0. 0. 0. 0.
    0. 0. 0. 0.</data></Depth>
</opencv_storage>
