<?xml version="1.0"?>
<opencv_storage>
<Depth type_id="opencv-matrix">
  <rows>40</rows>
  <cols>40</cols>
  <dt>f</dt>
  <data>
    0. 0. 0. 0. 0. 0. 0. 0. 0. 0. 0. 0. 0. 0. 0. 0. 0. 0. 0. 0. 0. 0. 0.
    0. 0. 0. 0. 0. 0. 0. 0. 0. 0. 0. 0. 0. 0. 0. 0. 0. 0. 0. 0. 0. 0. 0.
    0. 0. 0. 0. 2.16100001e+00 2.19300008e+00 2.19799995e+00
    2.16700006e+00 2.11599994e+00 2.11599994e+00 2.11599994e+00
    2.11599994e+00 2.34800005e+00 0. 0. 0. 0. 0. 0. 0. 0. 0. 0. 0. 0. 0.
    0. 0. 0. 0. 0. 0. 0. 0. 0. 0. 0. 0. 0. 0. 0. 0. 0. 0. 2.15799999e+00
    2.17000008e+00 2.17199993e+00 2.15100002e+00 2.11599994e+00
    2.11599994e+00 2.11599994e+00 2.10700011e+00 2.17600012e+00
    2.67899990e+00 2.74799991e+00 2.74000001e+00 2.73699999e+00
    2.71900010e+00 2.71600008e+00 2.70099998e+00 2.67400002e+00
    2.67400002e+00 2.67400002e+00 2.72099996e+00 2.80200005e+00
    2.82900000e+00 0. 0. 0. 0. 0. 0. 0. 0. 0. 0. 0. 0. 0. 0. 0. 0. 0. 0.
    2.15599990e+00 2.15599990e+00 2.15599990e+00 2.14100003e+00
    2.11599994e+00 2.11599994e+00 2.11599994e+00 2.10100007e+00
    2.07200003e+00 2.04299998e+00 2.01399994e+00 2. 1.99500000e+00
    1.96800005e+00 1.96300006e+00 1.97700000e+00 2. 2. 2. 2.00900006e+00
    2.02399993e+00 2.02399993e+00 0. 0. 0. 0. 0. 0. 0. 0. 0. 0. 0. 0. 0.
    0. 0. 2.11599994e+00 2.11599994e+00 2.12899995e+00 2.15199995e+00
    2.15499997e+00 2.15300012e+00 2.13800001e+00 2.11599994e+00
    2.11599994e+00 2.11599994e+00 2.10100007e+00 2.07200003e+00
    2.04299998e+00 2.01399994e+00 2. 1.99600005e+00 1.97200000e+00
    1.96800005e+00 1.98000002e+00 2. 2. 2. 2. 2. 2. 0. 0. 0. 0. 0. 0. 0.
    0. 0. 0. 0. 0. 0. 0. 0. 2.11599994e+00 2.11599994e+00 2.11800003e+00
    2.12500000e+00 2.15199995e+00 2.13400006e+00 2.11899996e+00
    2.11599994e+00 2.11599994e+00 2.11599994e+00 2.10100007e+00
    2.07200003e+00 2.04299998e+00 2.01399994e+00 2. 1.99899995e+00
    1.99600005e+00 1.99500000e+00 1.99699998e+00 2. 2. 2. 2. 2. 2. 0. 0.
    0. 0. 0. 0. 0. 0. 0. 0. 0. 0. 0. 0. 0. 2.14100003e+00 2.12500000e+00
    2.11599994e+00 2.12100005e+00 2.15100002e+00 2.13100004e+00
    2.11599994e+00 2.11599994e+00 2.11599994e+00 2.10100007e+00
    2.07699990e+00 2.04800010e+00 2.01900005e+00 2.00500011e+00 2. 2. 2.
    2. 2. 2. 2. 2. 2. 2. 2. 0. 0. 0. 0. 0. 0. 0. 0. 0. 0. 0. 0. 0. 0. 0.
    2.14100003e+00 2.12500000e+00 2.12199998e+00 2.13400006e+00
    2.15300012e+00 2.13100004e+00 2.11599994e+00 2.11599994e+00
    2.11599994e+00 2.09200001e+00 2.06200004e+00 2.03299999e+00
    2.00500011e+00 2. 2. 2. 2. 2. 2. 2. 2. 2. 2. 2. 2. 0. 0. 0. 0. 0. 0.
    0. 0. 0. 0. 0. 0. 0. 0. 0. 2.11599994e+00 2.11599994e+00
    2.13100004e+00 2.15599990e+00 2.15599990e+00 2.13100004e+00
    2.11599994e+00 2.11599994e+00 2.11599994e+00 2.09200001e+00
    2.06200004e+00 2.03299999e+00 2.00500011e+00 2. 2. 2. 2. 2. 2. 2. 2.
    2. 1.99800003e+00 1.99500000e+00 1.99500000e+00 0. 0. 0. 0. 0. 0. 0.
    0. 0. 0. 0. 0. 0. 0. 0. 2.11599994e+00 2.11599994e+00 2.13100004e+00
    2.15599990e+00 2.15599990e+00 2.13100004e+00 2.11599994e+00
    2.11599994e+00 2.11599994e+00 2.09200001e+00 2.06200004e+00
    2.03299999e+00 2.00500011e+00 2. 2. 2. 2. 2. 2. 2. 2. 2.
    1.98800004e+00 1.96800005e+00 1.96800005e+00 0. 0. 0. 0. 0. 0. 0. 0.
    0. 0. 0. 0. 0. 0. 0. 2.11599994e+00 2.11599994e+00 2.13100004e+00
    2.15599990e+00 2.15599990e+00 2.13100004e+00 2.11599994e+00
    2.11599994e+00 2.11599994e+00 2.09200001e+00 2.07200003e+00
    2.05800009e+00 2.02900004e+00 2.00900006e+00 2. 2. 2. 2. 2. 2. 2. 2.
    1.97800004e+00 1.93200004e+00 1.88399994e+00 0. 0. 0. 0. 0. 0. 0. 0.
    0. 0. 0. 0. 0. 0. 0. 2.11599994e+00 2.11599994e+00 2.13100004e+00
    2.15599990e+00 2.15599990e+00 2.13100004e+00 2.11599994e+00
    2.11599994e+00 2.11599994e+00 2.10100007e+00 2.08599997e+00
    2.07200003e+00 2.04299998e+00 2.01399994e+00 2. 2. 2. 2. 2.
    1.99800003e+00 1.98800004e+00 1.98599994e+00 1.96399999e+00
    1.91400003e+00 1.83599997e+00 0. 0. 0. 0. 0. 0. 0. 0. 0. 0. 0. 0. 0.
    0. 0. 2.11599994e+00 2.11599994e+00 2.13100004e+00 2.15599990e+00
    2.15599990e+00 2.13100004e+00 2.11599994e+00 2.11599994e+00
    2.11599994e+00 2.11299992e+00 2.09800005e+00 2.07200003e+00
    2.04299998e+00 2.01399994e+00 2. 2. 2. 2. 2. 1.99500000e+00
    1.96800005e+00 1.96300006e+00 1.95000005e+00 1.91499996e+00
    1.84000003e+00 0. 0. 0. 0. 0. 0. 0. 0. 0. 0. 0. 0. 0. 0. 0.
    2.11599994e+00 2.11599994e+00 2.13100004e+00 2.15599990e+00
    2.15599990e+00 2.13100004e+00 2.11599994e+00 2.11599994e+00
    2.11599994e+00 2.09500003e+00 2.07999992e+00 2.07200003e+00
    2.04299998e+00 2.01399994e+00 2. 2. 2. 2. 2. 1.99500000e+00
    1.96800005e+00 1.96300006e+00 1.95000005e+00 1.91799998e+00
    1.86199999e+00 0. 0. 0. 0. 0. 0. 0. 0. 0. 0. 0. 0. 0. 0. 0.
    2.11599994e+00 2.11599994e+00 2.13100004e+00 2.15599990e+00
    2.15599990e+00 2.13100004e+00 2.11599994e+00 2.11299992e+00
    2.09500003e+00 2.06699991e+00 2.05299997e+00 2.04800010e+00
    2.01900005e+00 2.00500011e+00 2. 2. 2. 1.98599994e+00 1.97700000e+00
    1.97500002e+00 1.96500003e+00 1.96300006e+00 1.95000005e+00
    1.92400002e+00 1.90400004e+00 0. 0. 0. 0. 0. 0. 0. 0. 0. 0. 0. 0. 0.
    0. 0. 2.11599994e+00 2.11599994e+00 2.13100004e+00 2.15400004e+00
    2.14299989e+00 2.12500000e+00 2.11100006e+00 2.09800005e+00
    2.07999992e+00 2.05299997e+00 2.03299999e+00 2.02099991e+00
    2.00300002e+00 1.99100006e+00 1.98599994e+00 1.98599994e+00
    1.98599994e+00 1.97200000e+00 1.96300006e+00 1.96300006e+00
    1.96300006e+00 1.96300006e+00 1.95500004e+00 1.94000006e+00
    1.94000006e+00 0. 0. 0. 0. 0. 0. 0. 0. 0. 0. 0. 0. 0. 0. 0.
    2.11599994e+00 2.11599994e+00 2.13100004e+00 2.15100002e+00
    2.12100005e+00 2.11599994e+00 2.10100007e+00 2.07599998e+00
    2.07299995e+00 2.04800010e+00 2.02099991e+00 2. 2. 1.97700000e+00
    1.96300006e+00 1.96300006e+00 1.96300006e+00 1.96300006e+00
    1.96300006e+00 1.96300006e+00 1.96300006e+00 1.96300006e+00
    1.96300006e+00 1.96399999e+00 1.96700001e+00 0. 0. 0. 0. 0. 0. 0. 0.
    0. 0. 0. 0. 0. 0. 0. 2.11599994e+00 2.11599994e+00 2.13100004e+00
    2.15100002e+00 2.12100005e+00 2.11599994e+00 2.10100007e+00
    2.07299995e+00 2.04699993e+00 2.01900005e+00 2.00300002e+00 2. 2.
    1.97700000e+00 1.96300006e+00 1.96300006e+00 1.96300006e+00
    1.96300006e+00 1.96300006e+00 1.96300006e+00 1.96300006e+00
    1.96300006e+00 1.96300006e+00 1.96700001e+00 1.99100006e+00 0. 0. 0.
    0. 0. 0. 0. 0. 0. 0. 0. 0. 0. 0. 0. 2.11599994e+00 2.11599994e+00
    2.13100004e+00 2.15100002e+00 2.12100005e+00 2.11599994e+00
    2.10100007e+00 2.07200003e+00 2.04299998e+00 2.01399994e+00 2. 2. 2.
    1.97700000e+00 1.96300006e+00 1.96599996e+00 1.98300004e+00
    1.97200000e+00 1.96300006e+00 1.96300006e+00 1.96300006e+00
    1.96300006e+00 1.96300006e+00 1.96800005e+00 1.99500000e+00 0. 0. 0.
    0. 0. 0. 0. 0. 0. 0. 0. 0. 0. 0. 0. 2.11599994e+00 2.11599994e+00
    2.13100004e+00 2.15100002e+00 2.12100005e+00 2.11599994e+00
    2.10100007e+00 2.07200003e+00 2.04299998e+00 2.01399994e+00 2. 2. 2.
    1.98599994e+00 1.97700000e+00 1.98000002e+00 1.99699998e+00
    1.98599994e+00 1.97700000e+00 1.97500002e+00 1.96500003e+00
    1.96300006e+00 1.96300006e+00 1.96800005e+00 1.99500000e+00 0. 0. 0.
    0. 0. 0. 0. 0. 0. 0. 0. 0. 0. 0. 0. 2.11599994e+00 2.11599994e+00
    2.13100004e+00 2.15100002e+00 2.12100005e+00 2.11599994e+00
    2.10100007e+00 2.07299995e+00 2.04699993e+00 2.01600003e+00 2. 2. 2.
    2. 2. 2. 2. 2. 2. 1.99500000e+00 1.96800005e+00 1.96300006e+00
    1.96300006e+00 1.96800005e+00 1.99500000e+00 0. 0. 0. 0. 0. 0. 0. 0.
    0. 0. 0. 0. 0. 0. 0. 2.11599994e+00 2.11599994e+00 2.13100004e+00
    2.15100002e+00 2.12100005e+00 2.11599994e+00 2.10100007e+00
    2.07599998e+00 2.07299995e+00 2.02699995e+00 2. 2. 2. 2. 2. 2. 2. 2.
    2. 1.99500000e+00 1.96800005e+00 1.96300006e+00 1.96300006e+00
    1.96800005e+00 1.99500000e+00 0. 0. 0. 0. 0. 0. 0. 0. 0. 0. 0. 0. 0.
    0. 0. 2.11599994e+00 2.11599994e+00 2.12199998e+00 2.12899995e+00
    2.11800003e+00 2.11599994e+00 2.10100007e+00 2.07699990e+00
    2.07699990e+00 2.02900004e+00 2. 2. 2. 2. 2. 2. 2. 2. 1.99100006e+00
    1.97500002e+00 1.96500003e+00 1.96300006e+00 1.96300006e+00
    1.96800005e+00 1.99500000e+00 0. 0. 0. 0. 0. 0. 0. 0. 0. 0. 0. 0. 0.
    0. 0. 2.11599994e+00 2.11599994e+00 2.11599994e+00 2.11599994e+00
    2.11599994e+00 2.11599994e+00 2.10100007e+00 2.07500005e+00
    2.06399989e+00 2.02300000e+00 2. 2. 2. 2. 1.99500000e+00
    1.98599994e+00 1.98599994e+00 1.98599994e+00 1.97700000e+00
    1.96300006e+00 1.96300006e+00 1.96300006e+00 1.96300006e+00
    1.96800005e+00 1.99500000e+00 0. 0. 0. 0. 0. 0. 0. 0. 0. 0. 0. 0. 0.
    0. 0. 2.11599994e+00 2.11599994e+00 2.11599994e+00 2.11599994e+00
    2.11599994e+00 2.11299992e+00 2.09800005e+00 2.07200003e+00
    2.04299998e+00 2.01399994e+00 2. 1.99899995e+00 1.99600005e+00
    1.99500000e+00 1.98300004e+00 1.96300006e+00 1.96300006e+00
    1.96300006e+00 1.96300006e+00 1.96300006e+00 1.96300006e+00
    1.96300006e+00 1.96300006e+00 2.00600004e+00 2.26500010e+00 0. 0. 0.
    0. 0. 0. 0. 0. 0. 0. 0. 0. 0. 0. 0. 2.11599994e+00 2.11599994e+00
    2.11599994e+00 2.11599994e+00 2.11599994e+00 2.09500003e+00
    2.07999992e+00 2.07200003e+00 2.04299998e+00 2.01399994e+00 2.
    1.99600005e+00 1.97200000e+00 1.96800005e+00 1.96599996e+00
    1.96300006e+00 1.96300006e+00 1.96300006e+00 1.96300006e+00
    1.96300006e+00 1.96300006e+00 1.96300006e+00 1.96300006e+00
    2.23699999e+00 0. 0. 0. 0. 0. 0. 0. 0. 0. 0. 0. 0. 0. 0. 0. 0.
    2.11599994e+00 2.11599994e+00 2.11599994e+00 2.11599994e+00
    2.11599994e+00 2.09200001e+00 2.07699990e+00 2.07200003e+00
    2.04299998e+00 2.01399994e+00 2. 1.99500000e+00 1.96800005e+00
    1.96300006e+00 1.96300006e+00 1.96300006e+00 1.96300006e+00
    1.96300006e+00 1.96300006e+00 1.96300006e+00 1.96300006e+00
    1.96300006e+00 1.96300006e+00 2.26699996e+00 0. 0. 0. 0. 0. 0. 0. 0.
    0. 0. 0. 0. 0. 0. 0. 0. 2.11599994e+00 2.11599994e+00 2.11599994e+00
    2.11599994e+00 2.11599994e+00 2.09200001e+00 2.07699990e+00
    2.07200003e+00 2.04299998e+00 2.01399994e+00 2. 1.99500000e+00
    1.96800005e+00 1.96300006e+00 1.96300006e+00 1.96300006e+00
    1.96300006e+00 1.96300006e+00 1.96300006e+00 1.96300006e+00
    1.96300006e+00 1.96300006e+00 1.96300006e+00 2.15499997e+00 0. 0. 0.
    0. 0. 0. 0. 0. 0. 0. 0. 0. 0. 0. 0. 0. 2.11599994e+00 2.11599994e+00
    2.11599994e+00 2.11599994e+00 2.11599994e+00 2.09200001e+00
    2.07699990e+00 2.07200003e+00 2.04299998e+00 2.01399994e+00
    1.99800003e+00 1.99100006e+00 1.96700001e+00 1.96300006e+00
    1.96300006e+00 1.96300006e+00 1.96300006e+00 1.96300006e+00
    1.96300006e+00 1.96300006e+00 1.96300006e+00 1.96300006e+00
    1.96500003e+00 1.98099995e+00 2.06299996e+00 0. 0. 0. 0. 0. 0. 0. 0.
    0. 0. 0. 0. 0. 0. 0. 2.11599994e+00 2.11599994e+00 2.11599994e+00
    2.11599994e+00 2.11599994e+00 2.09200001e+00 2.07699990e+00
    2.07200003e+00 2.04299998e+00 2.01399994e+00 1.98800004e+00
    1.96700001e+00 1.96399999e+00 1.96300006e+00 1.96300006e+00
    1.96300006e+00 1.96300006e+00 1.96300006e+00 1.96300006e+00
    1.96300006e+00 1.96300006e+00 1.96300006e+00 1.97500002e+00
    2.00600004e+00 2.06699991e+00 0. 0. 0. 0. 0. 0. 0. 0. 0. 0. 0. 0. 0.
    0. 0. 2.11599994e+00 2.11599994e+00 2.11599994e+00 2.11599994e+00
    2.11599994e+00 2.10700011e+00 2.09200001e+00 2.07200003e+00
    2.04299998e+00 2.01399994e+00 1.98599994e+00 1.96300006e+00
    1.96300006e+00 1.94900000e+00 1.94000006e+00 1.93799996e+00
    1.92100000e+00 1.91900003e+00 1.93499994e+00 1.96300006e+00
    1.96300006e+00 1.96300006e+00 1.98599994e+00 2.03299999e+00
    2.09200001e+00 0. 0. 0. 0. 0. 0. 0. 0. 0. 0. 0. 0. 0. 0. 0.
    2.11599994e+00 2.11599994e+00 2.11599994e+00 2.11400008e+00
    2.10299993e+00 2.10100007e+00 2.08699989e+00 2.05800009e+00
    2.02900004e+00 2.00900006e+00 1.98599994e+00 1.96099997e+00
    1.95099998e+00 1.93499994e+00 1.92700005e+00 1.92299998e+00
    1.89600003e+00 1.89199996e+00 1.91400003e+00 1.95000005e+00
    1.95000005e+00 1.95799994e+00 1.98599994e+00 2.03500009e+00
    2.10400009e+00 0. 0. 0. 0. 0. 0. 0. 0. 0. 0. 0. 0. 0. 0. 0.
    2.11599994e+00 2.11599994e+00 2.11599994e+00 2.11100006e+00
    2.08200002e+00 2.07399988e+00 2.05800009e+00 2.02900004e+00
    2.00399995e+00 1.99699998e+00 1.98300004e+00 1.95799994e+00
    1.93200004e+00 1.92700005e+00 1.92700005e+00 1.92299998e+00
    1.89600003e+00 1.89199996e+00 1.90499997e+00 1.92700005e+00
    1.92700005e+00 1.95200002e+00 1.98000002e+00 2.04600000e+00
    2.32500005e+00 0. 0. 0. 0. 0. 0. 0. 0. 0. 0. 0. 0. 0. 0. 0.
    2.11599994e+00 2.11599994e+00 2.11599994e+00 2.11100006e+00
    2.08200002e+00 2.05599999e+00 2.02900004e+00 2.00399995e+00
    2.00099993e+00 1.98000002e+00 1.96599996e+00 1.95799994e+00
    1.93200004e+00 1.92700005e+00 1.92700005e+00 1.92299998e+00
    1.89600003e+00 1.89199996e+00 1.90499997e+00 1.92700005e+00
    1.92700005e+00 1.97000003e+00 1.99699998e+00 2.23799992e+00 0. 0. 0.
    0. 0. 0. 0. 0. 0. 0. 0. 0. 0. 0. 0. 0. 2.11599994e+00 2.11599994e+00
    2.11599994e+00 2.11100006e+00 2.08200002e+00 2.05299997e+00
    2.02399993e+00 1.99699998e+00 1.98000002e+00 1.96800005e+00
    1.96300006e+00 1.95799994e+00 1.93200004e+00 1.92700005e+00
    1.92700005e+00 1.92499995e+00 1.91600001e+00 1.91400003e+00
    1.92700005e+00 1.95000005e+00 1.95000005e+00 1.98099995e+00 2.
    2.26200008e+00 0. 0. 0. 0. 0. 0. 0. 0. 0. 0. 0. 0. 0. 0. 0. 0. 0.
    2.50099993e+00 2.10100007e+00 2.09500003e+00 2.05500007e+00
    2.03299999e+00 2.01500010e+00 1.99500000e+00 1.96800005e+00
    1.96300006e+00 1.96300006e+00 1.95799994e+00 1.93200004e+00
    1.92700005e+00 1.93200004e+00 1.93900001e+00 1.92900002e+00
    1.92700005e+00 1.93499994e+00 1.95000005e+00 1.95000005e+00
    1.98099995e+00 2. 2.25399995e+00 0. 0. 0. 0. 0. 0. 0. 0. 0. 0. 0. 0.
    0. 0. 0. 0. 0. 0. 2.07699990e+00 2.06699991e+00 2.00999999e+00 2. 2.
    1.99600005e+00 1.97200000e+00 1.96800005e+00 1.96800005e+00
    1.96399999e+00 1.94000006e+00 1.93599999e+00 1.94799995e+00
    1.96300006e+00 1.93599999e+00 1.93200004e+00 1.92999995e+00
    1.92700005e+00 1.92700005e+00 1.96700001e+00 2.08699989e+00
    2.46199989e+00 0. 0. 0. 0. 0. 0. 0. 0. 0. 0. 0. 0. 0. 0. 0. 0. 0. 0.
    2.07699990e+00 2.06699991e+00 2.00999999e+00 2. 2. 1.99899995e+00
    1.99600005e+00 1.99500000e+00 1.99500000e+00 1.99500000e+00
    1.99100006e+00 1.99100006e+00 1.99300003e+00 1.99100006e+00
    1.96300006e+00 1.95799994e+00 1.94700003e+00 1.92700005e+00
    1.92700005e+00 1.93299997e+00 2.60700011e+00 0. 0. 0. 0. 0. 0. 0. 0.
    0. 0. 0. 0. 0. 0. 0. 0. 0. 0. 0. 0. 0. 0. 0. 0. 0. 0. 0. 0. 0. 0. 0.
    0. 0. 0. 0. 0. 0. 0. 0. 0. 0. 0. 0. 0. 0. 0. 0. 0. 0. 0. 0. 0. 0. 0.
    0. 0. 0. 0. 0. 0. 0. 0. 0. 0. 0. 0. 0. 0. 0. 0. 0. 0. 0. 0. 0. 0. 0.
    0. 0. 0. 0. 0. 0. 0. 0. 0. 0. 0. 0. 0.</data></Depth>
</opencv_storage>
