<?xml version="1.0"?>
<opencv_storage>
<Depth type_id="opencv-matrix">
  <rows>40</rows>
  <cols>40</cols>
  <dt>f</dt>
  <data>
    0. 0. 0. 0. 0. 0. 0. 0. 0. 0. 0. 1.61899996e+00 1.94799995e+00
    1.94799995e+00 1.94799995e+00 1.95700002e+00 1.97300005e+00
    1.97300005e+00 1.97300005e+00 1.97300005e+00 1.97399998e+00
    1.99199998e+00 2. 2. 2.01099992e+00 2.02600002e+00 2.03200006e+00
    2.05200005e+00 2.08100009e+00 0. 0. 0. 0. 0. 0. 0. 0. 0. 0. 0. 0. 0.
    0. 0. 0. 0. 0. 0. 0. 0. 0. 1.60399997e+00 1.92600000e+00
    1.92600000e+00 1.93599999e+00 1.95000005e+00 1.95099998e+00
    1.95099998e+00 1.95099998e+00 1.95099998e+00 1.97000003e+00
    1.97500002e+00 1.99100006e+00 2. 2.01099992e+00 2.02600002e+00
    2.02600002e+00 2.02800012e+00 2.02999997e+00 2.11800003e+00 0. 0. 0.
    0. 0. 0. 0. 0. 0. 0. 0. 0. 0. 0. 0. 0. 0. 0. 0. 0. 0. 1.60500002e+00
    1.92400002e+00 1.92400002e+00 1.93499994e+00 1.94900000e+00
    1.94900000e+00 1.94900000e+00 1.94900000e+00 1.94900000e+00
    1.97000003e+00 1.97399998e+00 1.99000001e+00 2. 2.01099992e+00
    2.02600002e+00 2.02600002e+00 2.02600002e+00 2.02600002e+00
    2.02999997e+00 0. 0. 0. 0. 0. 0. 0. 0. 0. 0. 0. 0. 0. 0. 0. 0. 0. 0.
    0. 0. 0. 1.61899996e+00 1.93099999e+00 1.92400002e+00 1.92700005e+00
    1.93700004e+00 1.94900000e+00 1.94900000e+00 1.95000005e+00
    1.96599996e+00 1.97300005e+00 1.98800004e+00 1.99699998e+00 2.
    2.00300002e+00 2.01300001e+00 2.02600002e+00 2.02600002e+00
    2.02600002e+00 2.02600002e+00 0. 0. 0. 0. 0. 0. 0. 0. 0. 0. 0. 0. 0.
    0. 0. 0. 0. 0. 0. 0. 0. 1.62199998e+00 1.93299997e+00 1.92400002e+00
    1.92400002e+00 1.92700005e+00 1.93700004e+00 1.94900000e+00
    1.95000005e+00 1.97200000e+00 1.97399998e+00 1.98099995e+00
    1.99399996e+00 2. 2. 2.00900006e+00 2.02600002e+00 2.02600002e+00
    2.02600002e+00 2.02600002e+00 0. 0. 0. 0. 0. 0. 0. 0. 0. 0. 0. 0. 0.
    0. 0. 0. 0. 0. 0. 0. 0. 1.62100005e+00 1.93299997e+00 1.92400002e+00
    1.92400002e+00 1.92400002e+00 1.92999995e+00 1.94900000e+00
    1.95000005e+00 1.97200000e+00 1.97399998e+00 1.97399998e+00
    1.99000001e+00 2. 2. 2.00399995e+00 2.01500010e+00 2.02600002e+00
    2.02600002e+00 2.02600002e+00 0. 0. 0. 0. 0. 0. 0. 0. 0. 0. 0. 0. 0.
    0. 0. 0. 0. 0. 0. 0. 1.11500001e+00 1.75100005e+00 1.92900002e+00
    1.92400002e+00 1.92400002e+00 1.92799997e+00 1.93799996e+00
    1.94900000e+00 1.95000005e+00 1.96200001e+00 1.97200000e+00
    1.97399998e+00 1.98300004e+00 1.99500000e+00 2. 2. 2.00600004e+00
    2.02600002e+00 2.02600002e+00 2.02600002e+00 0. 0. 0. 0. 0. 0. 0. 0.
    0. 0. 0. 0. 0. 0. 0. 0. 0. 0. 0. 0. 1.73000002e+00 1.92400002e+00
    1.92400002e+00 1.92400002e+00 1.92799997e+00 1.93799996e+00
    1.94900000e+00 1.94900000e+00 1.94900000e+00 1.94900000e+00
    1.97000003e+00 1.97399998e+00 1.97399998e+00 1.98800004e+00 2. 2.
    2.00600004e+00 2.02600002e+00 2.02600002e+00 2.02600002e+00 0. 0. 0.
    0. 0. 0. 0. 0. 0. 0. 0. 0. 0. 0. 0. 0. 0. 0. 0. 0. 1.76999998e+00
    1.91799998e+00 1.91799998e+00 1.92100000e+00 1.93499994e+00
    1.94900000e+00 1.94900000e+00 1.94900000e+00 1.94900000e+00
    1.94900000e+00 1.97500002e+00 1.98000002e+00 1.98000002e+00
    1.99100006e+00 2. 2. 2.00600004e+00 2.02600002e+00 2.02600002e+00
    2.02600002e+00 0. 0. 0. 0. 0. 0. 0. 0. 0. 0. 0. 0. 0. 0. 0. 0. 0. 0.
    0. 1.92400002e+00 1.90300000e+00 1.89900005e+00 1.89900005e+00
    1.91299999e+00 1.93400002e+00 1.94700003e+00 1.94900000e+00
    1.94900000e+00 1.95200002e+00 1.95200002e+00 1.99199998e+00 2. 2. 2.
    2. 2. 2.00600004e+00 2.02600002e+00 2.02600002e+00 2.02600002e+00 0.
    0. 0. 0. 0. 0. 0. 0. 0. 0. 0. 0. 0. 0. 0. 0. 0. 0. 0. 1.92400002e+00
    1.90300000e+00 1.89900005e+00 1.89900005e+00 1.91299999e+00
    1.92400002e+00 1.93200004e+00 1.94799995e+00 1.95200002e+00
    1.97300005e+00 1.97500002e+00 1.99600005e+00 2. 2. 2. 2. 2.
    2.00600004e+00 2.02600002e+00 2.02600002e+00 2.02600002e+00 0. 0. 0.
    0. 0. 0. 0. 0. 0. 0. 0. 0. 0. 0. 0. 0. 0. 0. 0. 1.92400002e+00
    1.90300000e+00 1.89900005e+00 1.89900005e+00 1.91299999e+00
    1.92400002e+00 1.92499995e+00 1.92600000e+00 1.92900002e+00
    1.95299995e+00 1.99500000e+00 2. 2. 2. 2. 2. 2. 2.00600004e+00
    2.02600002e+00 2.02600002e+00 2.02600002e+00 0. 0. 0. 0. 0. 0. 0. 0.
    0. 0. 0. 0. 0. 0. 0. 0. 0. 0. 0. 1.92400002e+00 1.90300000e+00
    1.89900005e+00 1.89900005e+00 1.91299999e+00 1.92400002e+00
    1.92400002e+00 1.92400002e+00 1.92700005e+00 1.95099998e+00
    1.99699998e+00 2. 2.01600003e+00 2.00799990e+00 2. 2. 2.00699997e+00
    2.02200007e+00 2.02600002e+00 2.02600002e+00 2.02600002e+00 0. 0. 0.
    0. 0. 0. 0. 0. 0. 0. 0. 0. 0. 0. 0. 0. 0. 0. 0. 1.90600002e+00
    1.89999998e+00 1.89900005e+00 1.91100001e+00 1.92100000e+00
    1.92400002e+00 1.92400002e+00 1.92400002e+00 1.92999995e+00
    1.96800005e+00 1.99800003e+00 2. 2.00500011e+00 2.00300002e+00 2. 2.
    2.00200009e+00 2.00699997e+00 2.00699997e+00 2.00699997e+00
    2.00699997e+00 0. 0. 0. 0. 0. 0. 0. 0. 0. 0. 0. 0. 0. 0. 0. 0. 0. 0.
    0. 1.88399994e+00 1.88399994e+00 1.89499998e+00 1.91499996e+00
    1.92400002e+00 1.92400002e+00 1.92400002e+00 1.92400002e+00
    1.93099999e+00 1.97500002e+00 1.99800003e+00 2. 2. 2. 2. 2. 2. 2. 2.
    2. 2. 0. 0. 0. 0. 0. 0. 0. 0. 0. 0. 0. 0. 0. 0. 0. 0. 0. 0. 0.
    1.87500000e+00 1.87500000e+00 1.89300001e+00 1.91499996e+00
    1.92400002e+00 1.92400002e+00 1.92400002e+00 1.92400002e+00
    1.93099999e+00 1.97500002e+00 1.99800003e+00 2. 2. 1.99100006e+00
    1.98599994e+00 1.99199998e+00 2. 2. 1.99800003e+00 1.98599994e+00
    1.98599994e+00 0. 0. 0. 0. 0. 0. 0. 0. 0. 0. 0. 0. 0. 0. 0. 0. 0. 0.
    0. 1.87500000e+00 1.87500000e+00 1.89300001e+00 1.91499996e+00
    1.92400002e+00 1.92400002e+00 1.92400002e+00 1.92700005e+00
    1.94200003e+00 1.98500001e+00 1.99899995e+00 2. 2. 1.98399997e+00
    1.97399998e+00 1.98500001e+00 2. 2. 1.99699998e+00 1.97399998e+00
    1.97399998e+00 0. 0. 0. 0. 0. 0. 0. 0. 0. 0. 0. 0. 0. 0. 0. 0. 0. 0.
    0. 1.87500000e+00 1.87500000e+00 1.89300001e+00 1.90999997e+00
    1.91999996e+00 1.92400002e+00 1.92400002e+00 1.92999995e+00
    1.95599997e+00 2. 2. 2. 2. 1.98899996e+00 1.98199999e+00
    1.99000001e+00 2. 2. 1.99699998e+00 1.97399998e+00 1.97399998e+00 0.
    0. 0. 0. 0. 0. 0. 0. 0. 0. 0. 0. 0. 0. 0. 0. 0. 0. 0. 1.87500000e+00
    1.87500000e+00 1.89300001e+00 1.89900005e+00 1.91299999e+00
    1.92400002e+00 1.92400002e+00 1.93099999e+00 1.96099997e+00 2. 2. 2.
    2. 2. 2. 2. 2. 2. 1.99699998e+00 1.97399998e+00 1.97399998e+00 0. 0.
    0. 0. 0. 0. 0. 0. 0. 0. 0. 0. 0. 0. 0. 0. 0. 0. 0. 1.87199998e+00
    1.87199998e+00 1.88999999e+00 1.89800000e+00 1.91100001e+00
    1.92200005e+00 1.92499995e+00 1.93900001e+00 1.98099995e+00
    2.00300002e+00 2. 2. 2. 2. 2. 2. 2. 2. 1.99699998e+00 1.97700000e+00
    1.97700000e+00 0. 0. 0. 0. 0. 0. 0. 0. 0. 0. 0. 0. 0. 0. 0. 0. 0. 0.
    0. 1.85099995e+00 1.85099995e+00 1.86899996e+00 1.88999999e+00
    1.89900005e+00 1.90999997e+00 1.93299997e+00 1.96200001e+00
    2.00399995e+00 2.02500010e+00 2.00200009e+00 2. 2. 2. 2. 2. 2. 2. 2.
    2. 2. 0. 0. 0. 0. 0. 0. 0. 0. 0. 0. 0. 0. 0. 0. 0. 0. 0. 0. 0.
    1.85099995e+00 1.85099995e+00 1.86899996e+00 1.88999999e+00
    1.89900005e+00 1.91999996e+00 1.95500004e+00 1.97899997e+00
    2.00399995e+00 2.02500010e+00 2.00200009e+00 2. 2. 2. 2. 2. 2. 2. 2.
    2. 2. 0. 0. 0. 0. 0. 0. 0. 0. 0. 0. 0. 0. 0. 0. 0. 0. 0. 0. 0.
    1.87000000e+00 1.87000000e+00 1.87399995e+00 1.88999999e+00
    1.89900005e+00 1.92100000e+00 1.95799994e+00 1.98000002e+00
    2.00399995e+00 2.02500010e+00 2.00200009e+00 2. 2. 2. 2. 2.
    1.99300003e+00 1.97899997e+00 1.98199999e+00 2. 2. 0. 0. 0. 0. 0. 0.
    0. 0. 0. 0. 0. 0. 0. 0. 0. 0. 0. 0. 0. 1.89199996e+00 1.87800002e+00
    1.87500000e+00 1.88999999e+00 1.90900004e+00 1.93099999e+00
    1.96399999e+00 1.99899995e+00 2.01999998e+00 2.02500010e+00
    2.00200009e+00 2. 2. 2. 1.99000001e+00 1.98199999e+00 1.97899997e+00
    1.97399998e+00 1.97500002e+00 1.98199999e+00 1.99899995e+00 0. 0. 0.
    0. 0. 0. 0. 0. 0. 0. 0. 0. 0. 0. 0. 0. 0. 0. 0. 1.89900005e+00
    1.87899995e+00 1.87500000e+00 1.88999999e+00 1.91299999e+00
    1.93499994e+00 1.96099997e+00 1.99399996e+00 2.02600002e+00
    2.02500010e+00 2.00200009e+00 2. 2. 2. 1.98599994e+00 1.97399998e+00
    1.97399998e+00 1.97399998e+00 1.97399998e+00 1.97399998e+00
    1.98300004e+00 0. 0. 0. 0. 0. 0. 0. 0. 0. 0. 0. 0. 0. 0. 0. 0. 0. 0.
    0. 1.89900005e+00 1.88900006e+00 1.88699996e+00 1.89499998e+00
    1.91299999e+00 1.93499994e+00 1.95799994e+00 1.98699999e+00
    2.02600002e+00 2.02500010e+00 2.00200009e+00 2. 1.99000001e+00
    1.98699999e+00 1.98000002e+00 1.96899998e+00 1.96099997e+00
    1.96099997e+00 1.96099997e+00 1.96099997e+00 1.96099997e+00 0. 0. 0.
    0. 0. 0. 0. 0. 0. 0. 0. 0. 0. 0. 0. 0. 0. 0. 0. 1.88900006e+00
    1.88900006e+00 1.89699996e+00 1.89900005e+00 1.91299999e+00
    1.93499994e+00 1.95799994e+00 1.98399997e+00 2.01699996e+00
    2.02500010e+00 2.00200009e+00 1.99100006e+00 1.97800004e+00
    1.97399998e+00 1.97399998e+00 1.96300006e+00 1.94900000e+00
    1.94900000e+00 1.94799995e+00 1.93900001e+00 1.93900001e+00 0. 0. 0.
    0. 0. 0. 0. 0. 0. 0. 0. 0. 0. 0. 0. 0. 0. 0. 0. 1.86800003e+00
    1.87399995e+00 1.89300001e+00 1.90400004e+00 1.91600001e+00
    1.93499994e+00 1.95799994e+00 1.98000002e+00 2.00300002e+00
    2.01699996e+00 2.00099993e+00 1.97800004e+00 1.97399998e+00
    1.97399998e+00 1.97399998e+00 1.96300006e+00 1.94900000e+00
    1.94900000e+00 1.94599998e+00 1.92400002e+00 1.92400002e+00 0. 0. 0.
    0. 0. 0. 0. 0. 0. 0. 0. 0. 0. 0. 0. 0. 0. 0. 0. 1.85099995e+00
    1.87100005e+00 1.89300001e+00 1.91499996e+00 1.92400002e+00
    1.93499994e+00 1.95799994e+00 1.97899997e+00 1.99500000e+00 2.
    1.99500000e+00 1.97700000e+00 1.97000003e+00 1.96899998e+00
    1.96899998e+00 1.96000004e+00 1.94900000e+00 1.94900000e+00
    1.94599998e+00 1.92900002e+00 1.92900002e+00 0. 0. 0. 0. 0. 0. 0. 0.
    0. 0. 0. 0. 0. 0. 0. 0. 0. 0. 0. 1.84899998e+00 1.87100005e+00
    1.89300001e+00 1.91499996e+00 1.92400002e+00 1.93499994e+00
    1.95799994e+00 1.97399998e+00 1.97800004e+00 1.99899995e+00
    1.97599995e+00 1.97399998e+00 1.95599997e+00 1.94900000e+00
    1.94900000e+00 1.94799995e+00 1.94599998e+00 1.94599998e+00
    1.94700003e+00 1.94900000e+00 1.94900000e+00 0. 0. 0. 0. 0. 0. 0. 0.
    0. 0. 0. 0. 0. 0. 0. 0. 0. 0. 0. 1.82799995e+00 1.86800003e+00
    1.89300001e+00 1.91499996e+00 1.92400002e+00 1.93499994e+00
    1.95799994e+00 1.97399998e+00 1.97800004e+00 1.99899995e+00
    1.97599995e+00 1.97399998e+00 1.95599997e+00 1.94900000e+00
    1.94900000e+00 1.93799996e+00 1.92400002e+00 1.92400002e+00
    1.92700005e+00 1.94900000e+00 1.94900000e+00 0. 0. 0. 0. 0. 0. 0. 0.
    0. 0. 0. 0. 0. 0. 0. 0. 0. 0. 0. 1.82799995e+00 1.86800003e+00
    1.89300001e+00 1.90100002e+00 1.91400003e+00 1.93499994e+00
    1.95000005e+00 1.95700002e+00 1.97800004e+00 1.99899995e+00
    1.97599995e+00 1.97399998e+00 1.95599997e+00 1.94900000e+00
    1.93700004e+00 1.92499995e+00 1.92400002e+00 1.92400002e+00
    1.92700005e+00 1.94900000e+00 1.94900000e+00 0. 0. 0. 0. 0. 0. 0. 0.
    0. 0. 0. 0. 0. 0. 0. 0. 0. 0. 0. 1.82799995e+00 1.86800003e+00
    1.89300001e+00 1.89900005e+00 1.91299999e+00 1.92600000e+00
    1.93599999e+00 1.95000005e+00 1.96000004e+00 2. 1.99500000e+00
    1.97700000e+00 1.95599997e+00 1.93599999e+00 1.92600000e+00
    1.92400002e+00 1.92400002e+00 1.92400002e+00 1.92499995e+00
    1.92999995e+00 1.94799995e+00 0. 0. 0. 0. 0. 0. 0. 0. 0. 0. 0. 0. 0.
    0. 0. 0. 0. 0. 0. 1.84399998e+00 1.87000000e+00 1.88000000e+00
    1.89300001e+00 1.90300000e+00 1.91400003e+00 1.93299997e+00
    1.94900000e+00 1.95599997e+00 2. 2. 1.97800004e+00 1.95599997e+00
    1.93299997e+00 1.92400002e+00 1.92400002e+00 1.92400002e+00
    1.92400002e+00 1.92400002e+00 1.92499995e+00 1.94700003e+00 0. 0. 0.
    0. 0. 0. 0. 0. 0. 0. 0. 0. 0. 0. 0. 0. 0. 0. 0. 1.85099995e+00
    1.87100005e+00 1.87500000e+00 1.88999999e+00 1.89900005e+00
    1.90999997e+00 1.93299997e+00 1.94900000e+00 1.95400000e+00
    1.98399997e+00 1.98399997e+00 1.97599995e+00 1.94500005e+00
    1.92799997e+00 1.92400002e+00 1.92400002e+00 1.92400002e+00
    1.92400002e+00 1.92400002e+00 1.92499995e+00 1.94700003e+00 0. 0. 0.
    0. 0. 0. 0. 0. 0. 0. 0. 0. 0. 0. 0. 0. 0. 0. 0. 1.85099995e+00
    1.87100005e+00 1.87500000e+00 1.88300002e+00 1.89400005e+00
    1.90999997e+00 1.93299997e+00 1.94900000e+00 1.95099998e+00
    1.96200001e+00 1.96200001e+00 1.96200001e+00 1.93400002e+00
    1.92400002e+00 1.92400002e+00 1.92400002e+00 1.92400002e+00
    1.92400002e+00 1.92400002e+00 1.92499995e+00 1.94700003e+00 0. 0. 0.
    0. 0. 0. 0. 0. 0. 0. 0. 0. 0. 0. 0. 0. 0. 0. 0. 1.85099995e+00
    1.87100005e+00 1.87500000e+00 1.87500000e+00 1.88800001e+00
    1.90999997e+00 1.93299997e+00 1.94900000e+00 1.94900000e+00
    1.94900000e+00 1.94900000e+00 1.94900000e+00 1.93099999e+00
    1.92400002e+00 1.92400002e+00 1.92400002e+00 1.92400002e+00
    1.92400002e+00 1.92400002e+00 1.92499995e+00 1.94700003e+00 0. 0. 0.
    0. 0. 0. 0. 0. 0. 0. 0. 0. 0. 0. 0. 0. 0. 0. 0. 1.85099995e+00
    1.87100005e+00 1.87500000e+00 1.87500000e+00 1.88800001e+00
    1.90999997e+00 1.93299997e+00 1.94900000e+00 1.94799995e+00
    1.94200003e+00 1.94200003e+00 1.94200003e+00 1.92900002e+00
    1.92400002e+00 1.92400002e+00 1.92400002e+00 1.92400002e+00
    1.92400002e+00 1.92400002e+00 1.92400002e+00 1.94000006e+00 0. 0. 0.
    0. 0. 0. 0. 0. 0. 0. 0. 0. 0. 0. 0. 0. 0. 0. 0. 1.85099995e+00
    1.87500000e+00 1.88000000e+00 1.88000000e+00 1.89300001e+00
    1.91299999e+00 1.93299997e+00 1.94900000e+00 1.94599998e+00
    1.92400002e+00 1.92400002e+00 1.92400002e+00 1.92400002e+00
    1.92400002e+00 1.92400002e+00 1.92400002e+00 1.92400002e+00
    1.92299998e+00 1.91900003e+00 1.91900003e+00 1.91900003e+00 0. 0. 0.
    0. 0. 0. 0. 0. 0. 0. 0. 0. 0. 0. 0. 0. 0. 0. 0. 1.85500002e+00
    1.89199996e+00 1.89900005e+00 1.89900005e+00 1.91299999e+00
    1.92400002e+00 1.93200004e+00 1.94700003e+00 1.94599998e+00
    1.92600000e+00 1.92400002e+00 1.92400002e+00 1.92400002e+00
    1.92400002e+00 1.92299998e+00 1.92200005e+00 1.92200005e+00
    1.91700006e+00 1.89900005e+00 1.89900005e+00 1.89900005e+00 0. 0. 0.
    0. 0. 0. 0. 0. 0. 0.</data></Depth>
</opencv_storage>
