<?xml version="1.0"?>
<opencv_storage>
<Depth type_id="opencv-matrix">
  <rows>40</rows>
  <cols>40</cols>
  <dt>f</dt>
  <data>
    0. 0. 0. 0. 0. 0. 0. 0. 0. 0. 0. 0. 0. 0. 0. 0. 0. 0. 0. 0. 0. 0. 0.
    0. 0. 0. 0. 0. 1.84000003e+00 1.84000003e+00 1.84000003e+00
    1.86199999e+00 1.91900003e+00 1.97599995e+00 2. 2. 2. 2. 2. 2. 0. 0.
    0. 0. 0. 0. 0. 0. 0. 0. 0. 0. 0. 0. 0. 0. 0. 0. 0. 0. 0. 0. 0. 0. 0.
    0. 0. 0. 1.84000003e+00 1.84000003e+00 1.84000003e+00 1.86199999e+00
    1.91900003e+00 1.97599995e+00 2. 2. 2. 2. 2. 2. 0. 0. 0. 0. 0. 0. 0.
    0. 0. 0. 0. 0. 0. 0. 0. 0. 0. 0. 0. 0. 0. 0. 0. 0. 0. 0. 0.
    1.30100000e+00 1.84000003e+00 1.84000003e+00 1.84000003e+00
    1.86199999e+00 1.91900003e+00 1.97599995e+00 2. 2. 2. 2. 2. 2. 0. 0.
    0. 0. 0. 0. 0. 0. 0. 0. 0. 0. 0. 0. 0. 0. 0. 0. 0. 0. 0. 0. 0. 0. 0.
    1.75100005e+00 1.84000003e+00 1.84000003e+00 1.84000003e+00
    1.84000003e+00 1.84000003e+00 1.86199999e+00 1.91900003e+00
    1.97599995e+00 2. 2. 2. 2. 2. 2. 0. 0. 0. 0. 0. 0. 0. 0. 0. 0. 0. 0.
    0. 0. 0. 0. 0. 0. 0. 0. 0. 0. 0. 0. 0. 1.78499997e+00 1.84000003e+00
    1.84000003e+00 1.84000003e+00 1.84000003e+00 1.84000003e+00
    1.86199999e+00 1.91900003e+00 1.97599995e+00 2. 2. 2. 2. 2. 2. 0. 0.
    0. 0. 0. 0. 0. 0. 0. 0. 0. 0. 0. 0. 0. 0. 0. 0. 0. 0. 0. 0. 0. 0.
    1.23199999e+00 1.81799996e+00 1.84000003e+00 1.84000003e+00
    1.84000003e+00 1.84000003e+00 1.84000003e+00 1.86199999e+00
    1.91900003e+00 1.97599995e+00 2. 2. 2. 2. 2. 2. 0. 0. 0. 0. 0. 0. 0.
    0. 0. 0. 0. 0. 0. 0. 0. 0. 0. 0. 0. 0. 1.39699996e+00 1.39699996e+00
    1.39699996e+00 1.51699996e+00 1.67499995e+00 1.83399999e+00
    1.84000003e+00 1.84000003e+00 1.84000003e+00 1.84000003e+00
    1.84000003e+00 1.85800004e+00 1.90400004e+00 1.95099998e+00
    1.97000003e+00 1.97000003e+00 1.97000003e+00 1.97000003e+00
    1.97000003e+00 1.97000003e+00 0. 0. 0. 0. 0. 0. 0. 0. 0. 0. 0. 0. 0.
    0. 0. 0. 0. 0. 0. 0. 1.39699996e+00 1.39699996e+00 1.39699996e+00
    1.51699996e+00 1.67499995e+00 1.83399999e+00 1.84000003e+00
    1.84000003e+00 1.84000003e+00 1.84000003e+00 1.84000003e+00
    1.85000002e+00 1.87600005e+00 1.90199995e+00 1.91299999e+00
    1.91299999e+00 1.91299999e+00 1.91299999e+00 1.91299999e+00
    1.91299999e+00 0. 0. 0. 0. 0. 0. 0. 0. 0. 0. 0. 0. 0. 0. 0. 0. 0. 0.
    0. 0. 1.39699996e+00 1.39699996e+00 1.39699996e+00 1.51699996e+00
    1.67499995e+00 1.83399999e+00 1.84000003e+00 1.84000003e+00
    1.84000003e+00 1.84000003e+00 1.84000003e+00 1.84200001e+00
    1.84800005e+00 1.85300004e+00 1.85599995e+00 1.85599995e+00
    1.85599995e+00 1.85599995e+00 1.85599995e+00 1.85599995e+00 0. 0. 0.
    0. 0. 0. 0. 0. 0. 0. 0. 0. 0. 0. 0. 0. 0. 0. 0. 0. 1.51999998e+00
    1.53499997e+00 1.54900002e+00 1.64199996e+00 1.75899994e+00
    1.87699997e+00 1.86699998e+00 1.85200000e+00 1.84000003e+00
    1.84000003e+00 1.84000003e+00 1.84000003e+00 1.84000003e+00
    1.84000003e+00 1.84000003e+00 1.84000003e+00 1.84000003e+00
    1.84000003e+00 1.84000003e+00 1.84000003e+00 0. 0. 0. 0. 0. 0. 0. 0.
    0. 0. 0. 0. 0. 0. 0. 0. 0. 0. 0. 1.24399996e+00 1.69000006e+00
    1.72500002e+00 1.75999999e+00 1.81500006e+00 1.87600005e+00
    1.93599999e+00 1.90499997e+00 1.86899996e+00 1.84000003e+00
    1.84000003e+00 1.84000003e+00 1.84000003e+00 1.84000003e+00
    1.84000003e+00 1.84000003e+00 1.84000003e+00 1.84000003e+00
    1.84000003e+00 1.84000003e+00 1.84000003e+00 0. 0. 0. 0. 0. 0. 0. 0.
    0. 0. 0. 0. 0. 0. 0. 0. 0. 1.67600000e+00 1.73899996e+00
    1.80100000e+00 1.85899997e+00 1.91499996e+00 1.97099996e+00
    1.98800004e+00 1.99199998e+00 1.99600005e+00 1.94200003e+00
    1.88600004e+00 1.84000003e+00 1.84000003e+00 1.84000003e+00
    1.84000003e+00 1.84000003e+00 1.84000003e+00 1.84000003e+00
    1.84000003e+00 1.84000003e+00 1.84000003e+00 1.84000003e+00
    1.84000003e+00 0. 0. 0. 0. 0. 0. 0. 0. 0. 0. 0. 0. 0. 0. 0. 0. 0.
    1.84000003e+00 1.84000003e+00 1.84000003e+00 1.87100005e+00
    1.92900002e+00 1.98599994e+00 2. 2. 2. 1.96300006e+00 1.92499995e+00
    1.88999999e+00 1.87100005e+00 1.85200000e+00 1.84000003e+00
    1.84000003e+00 1.84000003e+00 1.84000003e+00 1.84000003e+00
    1.84000003e+00 1.92299998e+00 2.02699995e+00 2.13199997e+00 0. 0. 0.
    0. 0. 0. 0. 0. 0. 0. 0. 0. 0. 0. 0. 0. 1.30599999e+00 1.84000003e+00
    1.84000003e+00 1.84000003e+00 1.87100005e+00 1.92900002e+00
    1.98599994e+00 2. 2. 2. 1.98300004e+00 1.96500003e+00 1.94400001e+00
    1.90400004e+00 1.86500001e+00 1.84000003e+00 1.84000003e+00
    1.84000003e+00 1.84000003e+00 1.84000003e+00 1.84000003e+00
    2.01200008e+00 2.22900009e+00 2.44700003e+00 0. 0. 0. 0. 0. 0. 0. 0.
    0. 0. 0. 0. 0. 0. 1.84000003e+00 1.84000003e+00 1.84000003e+00
    1.84099996e+00 1.84399998e+00 1.84700000e+00 1.87800002e+00
    1.93200004e+00 1.98699999e+00 2. 2. 2. 2. 2. 1.99100006e+00
    1.93599999e+00 1.88199997e+00 1.84800005e+00 1.84800005e+00
    1.84800005e+00 1.85699999e+00 1.87300003e+00 1.88900006e+00
    2.12899995e+00 2.42899990e+00 2.72799993e+00 0. 0. 0. 0. 0. 0. 0. 0.
    0. 0. 0. 0. 0. 0. 1.84000003e+00 1.84000003e+00 1.84000003e+00
    1.84800005e+00 1.87100005e+00 1.89499998e+00 1.92400002e+00
    1.95799994e+00 1.99199998e+00 2. 2. 2. 2. 2. 1.99399996e+00
    1.96000004e+00 1.92600000e+00 1.90499997e+00 1.90499997e+00
    1.90499997e+00 1.98300004e+00 2.11700010e+00 2.25099993e+00
    2.42700005e+00 2.61400008e+00 2.80100012e+00 0. 0. 0. 0. 0. 0. 0. 0.
    0. 0. 0. 0. 0. 1.34399998e+00 1.84000003e+00 1.84000003e+00
    1.84000003e+00 1.85500002e+00 1.89900005e+00 1.94299996e+00
    1.97000003e+00 1.98300004e+00 1.99699998e+00 2. 2. 2. 2. 2.
    1.99800003e+00 1.98399997e+00 1.97099996e+00 1.96200001e+00
    1.96200001e+00 1.96200001e+00 2.10899997e+00 2.36100006e+00
    2.61299992e+00 2.72499990e+00 2.79900002e+00 2.87299991e+00 0. 0. 0.
    0. 0. 0. 0. 0. 0. 0. 0. 1.81099999e+00 1.95299995e+00 1.90300000e+00
    1.86000001e+00 1.86000001e+00 1.86000001e+00 1.87699997e+00
    1.92700005e+00 1.97700000e+00 2. 2. 2. 2. 2. 2. 2. 2. 2. 2. 2. 2. 2.
    2. 2.19199991e+00 2.52200007e+00 2.85100007e+00 2.92100000e+00
    2.92100000e+00 2.92100000e+00 0. 0. 0. 0. 0. 0. 0. 0. 0. 0. 0.
    1.81099999e+00 1.97200000e+00 1.94299996e+00 1.91700006e+00
    1.91700006e+00 1.91700006e+00 1.92700005e+00 1.95700002e+00
    1.98699999e+00 2. 2. 2. 2. 2. 2. 2. 2. 2. 2. 2. 2. 2. 2.
    2.19199991e+00 2.52200007e+00 2.85100007e+00 2.92100000e+00
    2.92100000e+00 2.92100000e+00 0. 0. 0. 0. 0. 0. 0. 0. 0. 0. 0.
    1.81099999e+00 1.99100006e+00 1.98199999e+00 1.97399998e+00
    1.97399998e+00 1.97399998e+00 1.97700000e+00 1.98699999e+00
    1.99600005e+00 2. 2. 2. 2. 2. 2. 2. 2. 2. 2. 2. 2. 2. 2.
    2.19199991e+00 2.52200007e+00 2.85100007e+00 2.92100000e+00
    2.92100000e+00 2.92100000e+00 0. 0. 0. 0. 0. 0. 0. 0. 0. 0. 0.
    1.84899998e+00 2. 2. 2. 2. 2. 2. 2. 2. 2. 2. 2. 2. 2. 2. 2. 2. 2. 2.
    2. 2.02399993e+00 2.08899999e+00 2.15400004e+00 2.33500004e+00
    2.59999990e+00 2.86500001e+00 2.92100000e+00 2.92100000e+00
    2.92100000e+00 0. 0. 0. 0. 0. 0. 0. 0. 0. 0. 0. 1.91799998e+00 2. 2.
    2. 2. 2. 2. 2. 2. 2. 2. 2. 2. 2. 2. 2. 2. 2. 2. 2. 2.06900001e+00
    2.25200009e+00 2.43400002e+00 2.59599996e+00 2.74300003e+00
    2.89000010e+00 2.92100000e+00 2.92100000e+00 2.92100000e+00 0. 0. 0.
    0. 0. 0. 0. 0. 0. 1.62800002e+00 1.80799997e+00 1.98699999e+00 2. 2.
    2. 2. 2. 2. 2. 2. 2. 2. 2. 2. 2. 2. 2. 2. 2. 2. 2. 2.11299992e+00
    2.41400003e+00 2.71499991e+00 2.85700011e+00 2.88599992e+00
    2.91499996e+00 2.92100000e+00 2.92100000e+00 2.92100000e+00 0. 0. 0.
    0. 0. 0. 0. 0. 1.57299995e+00 2.09100008e+00 2.04699993e+00
    2.00300002e+00 2. 2. 2. 2. 2. 2. 2. 2. 2. 2. 2. 2. 2. 2. 2. 2.
    2.01200008e+00 2.08200002e+00 2.15100002e+00 2.29200006e+00
    2.55200005e+00 2.81200004e+00 2.92100000e+00 2.92100000e+00
    2.92100000e+00 2.92100000e+00 2.92100000e+00 2.92100000e+00 0. 0. 0.
    0. 0. 0. 0. 0. 1.79100001e+00 2.04600000e+00 2.02399993e+00
    2.00200009e+00 2. 2. 2. 2. 2. 2. 2. 2. 2. 2. 2. 2. 2. 2. 2. 2.
    2.02699995e+00 2.18899989e+00 2.35100007e+00 2.51600003e+00
    2.68300009e+00 2.85100007e+00 2.92100000e+00 2.92100000e+00
    2.92100000e+00 2.92100000e+00 2.92100000e+00 2.92100000e+00 0. 0. 0.
    0. 0. 0. 2.05299997e+00 2.03099990e+00 2.00799990e+00 2.00200009e+00
    2.00099993e+00 2. 2. 2. 2. 2. 2. 2. 2. 2. 2. 2. 2. 2. 2. 2. 2. 2.
    2.04299998e+00 2.29699993e+00 2.55100012e+00 2.73900008e+00
    2.81399989e+00 2.88899994e+00 2.92100000e+00 2.92100000e+00
    2.92100000e+00 2.92100000e+00 2.92100000e+00 2.92100000e+00 0. 0. 0.
    0. 0. 1.24100006e+00 2.08999991e+00 2.04999995e+00 2.01099992e+00 2.
    2. 2. 2. 2. 2. 2. 2. 2. 2. 2. 2. 2. 2. 2. 2. 2. 2.10899997e+00
    2.22300005e+00 2.34200001e+00 2.48600006e+00 2.63000011e+00
    2.73799992e+00 2.78500009e+00 2.83200002e+00 2.85200000e+00
    2.85200000e+00 2.85200000e+00 2.85200000e+00 2.85200000e+00
    2.85200000e+00 0. 0. 0. 0. 0. 1.65499997e+00 2.04099989e+00
    2.02300000e+00 2.00500011e+00 2. 2. 2. 2. 2. 2. 2. 2. 2. 2. 2. 2. 2.
    2. 2. 2. 2. 2.22300005e+00 2.45400000e+00 2.65100002e+00
    2.67799997e+00 2.70400000e+00 2.72799993e+00 2.74900007e+00
    2.77099991e+00 2.77999997e+00 2.77999997e+00 2.77999997e+00
    2.77999997e+00 2.77999997e+00 2.77999997e+00 1.99000001e+00
    1.99000001e+00 1.99000001e+00 1.99000001e+00 1.99000001e+00
    1.99000001e+00 1.99000001e+00 1.99000001e+00 1.99000001e+00
    1.99000001e+00 1.99000001e+00 1.99000001e+00 1.99000001e+00
    1.99000001e+00 1.99100006e+00 1.99399996e+00 1.99800003e+00
    2.00099993e+00 2.00500011e+00 2.00900006e+00 2.00999999e+00
    2.00999999e+00 2.00999999e+00 2.02200007e+00 2.03900003e+00
    2.05500007e+00 2.35400009e+00 2.66400003e+00 2.91000009e+00
    2.84200001e+00 2.77399993e+00 2.73099995e+00 2.72600007e+00
    2.72199988e+00 2.72000003e+00 2.72000003e+00 2.72000003e+00
    2.72000003e+00 2.72000003e+00 2.72000003e+00 1.93299997e+00
    1.93299997e+00 1.93299997e+00 1.93299997e+00 1.93299997e+00
    1.93299997e+00 1.93299997e+00 1.93299997e+00 1.93299997e+00
    1.93299997e+00 1.93299997e+00 1.93299997e+00 1.93299997e+00
    1.93299997e+00 1.93599999e+00 1.96000004e+00 1.98399997e+00
    2.00900006e+00 2.03399992e+00 2.05900002e+00 2.06999993e+00
    2.06999993e+00 2.06999993e+00 2.15599990e+00 2.26799989e+00
    2.38100004e+00 2.56999993e+00 2.76200008e+00 2.91400003e+00
    2.87199998e+00 2.82999992e+00 2.79299998e+00 2.76300001e+00
    2.73300004e+00 2.72000003e+00 2.72000003e+00 2.72000003e+00
    2.72000003e+00 2.72000003e+00 2.72000003e+00 1.87600005e+00
    1.87600005e+00 1.87600005e+00 1.87600005e+00 1.87600005e+00
    1.87600005e+00 1.87600005e+00 1.87600005e+00 1.87600005e+00
    1.87600005e+00 1.87600005e+00 1.87600005e+00 1.87600005e+00
    1.87600005e+00 1.88199997e+00 1.92600000e+00 1.97099996e+00
    2.01600003e+00 2.06299996e+00 2.10899997e+00 2.13000011e+00
    2.13000011e+00 2.13000011e+00 2.28900003e+00 2.49799991e+00
    2.70700002e+00 2.78600001e+00 2.85999990e+00 2.91799998e+00
    2.90199995e+00 2.88599992e+00 2.85500002e+00 2.79900002e+00
    2.74300003e+00 2.72000003e+00 2.72000003e+00 2.72000003e+00
    2.72000003e+00 2.72000003e+00 2.72000003e+00 1.84000003e+00
    1.84000003e+00 1.84000003e+00 1.84000003e+00 1.84000003e+00
    1.84000003e+00 1.84000003e+00 1.84000003e+00 1.84000003e+00
    1.84000003e+00 1.84000003e+00 1.84000003e+00 1.84000003e+00
    1.84000003e+00 1.84800005e+00 1.90499997e+00 1.96200001e+00
    2.01799989e+00 2.06999993e+00 2.12199998e+00 2.17000008e+00
    2.21399999e+00 2.25799990e+00 2.44600010e+00 2.67899990e+00
    2.91199994e+00 2.92100000e+00 2.92100000e+00 2.92100000e+00
    2.92100000e+00 2.92100000e+00 2.89800000e+00 2.83500004e+00
    2.77300000e+00 2.74099994e+00 2.73200011e+00 2.72199988e+00
    2.72000003e+00 2.72000003e+00 2.72000003e+00 1.84000003e+00
    1.84000003e+00 1.84000003e+00 1.84000003e+00 1.84000003e+00
    1.84000003e+00 1.84000003e+00 1.84000003e+00 1.84000003e+00
    1.84000003e+00 1.84000003e+00 1.84000003e+00 1.84000003e+00
    1.84000003e+00 1.84800005e+00 1.90499997e+00 1.96200001e+00
    2.00999999e+00 2.04099989e+00 2.07200003e+00 2.17400002e+00
    2.33699989e+00 2.49900007e+00 2.64199996e+00 2.77900004e+00
    2.91599989e+00 2.92100000e+00 2.92100000e+00 2.92100000e+00
    2.92100000e+00 2.92100000e+00 2.90700006e+00 2.87100005e+00
    2.83400011e+00 2.79800010e+00 2.76300001e+00 2.72700000e+00
    2.72000003e+00 2.72000003e+00 2.72000003e+00 1.84000003e+00
    1.84000003e+00 1.84000003e+00 1.84000003e+00 1.84000003e+00
    1.84000003e+00 1.84000003e+00 1.84000003e+00 1.84000003e+00
    1.84000003e+00 1.84000003e+00 1.84000003e+00 1.84000003e+00
    1.84000003e+00 1.84800005e+00 1.90499997e+00 1.96200001e+00
    2.00300002e+00 2.01200008e+00 2.02099991e+00 2.17899990e+00
    2.45900011e+00 2.74000001e+00 2.83899999e+00 2.87899995e+00
    2.91899991e+00 2.92100000e+00 2.92100000e+00 2.92100000e+00
    2.92100000e+00 2.92100000e+00 2.91700006e+00 2.90599990e+00
    2.89499998e+00 2.85500002e+00 2.79399991e+00 2.73300004e+00
    2.72000003e+00 2.72000003e+00 2.72000003e+00 1.84000003e+00
    1.84000003e+00 1.84000003e+00 1.84000003e+00 1.84000003e+00
    1.84000003e+00 1.84000003e+00 1.84000003e+00 1.84000003e+00
    1.84899998e+00 1.86099994e+00 1.87199998e+00 1.87300003e+00
    1.87300003e+00 1.89300001e+00 2.03999996e+00 2.18600011e+00
    2.27200007e+00 2.23900008e+00 2.20700002e+00 2.33500004e+00
    2.59599996e+00 2.85700011e+00 2.92100000e+00 2.92100000e+00
    2.92100000e+00 2.92100000e+00 2.92100000e+00 2.92400002e+00
    2.94000006e+00 2.95499992e+00 2.96499991e+00 2.96499991e+00
    2.96499991e+00 2.91400003e+00 2.82599998e+00 2.73900008e+00
    2.72000003e+00 2.72000003e+00 2.72000003e+00 1.84000003e+00
    1.84000003e+00 1.84000003e+00 1.84000003e+00 1.84000003e+00
    1.84000003e+00 1.84000003e+00 1.84000003e+00 1.84000003e+00
    1.86300004e+00 1.89600003e+00 1.92799997e+00 1.93099999e+00
    1.93099999e+00 1.97099996e+00 2.27099991e+00 2.57100010e+00
    2.73799992e+00 2.65000010e+00 2.56100011e+00 2.59999990e+00
    2.74300003e+00 2.88599992e+00 2.92100000e+00 2.92100000e+00
    2.92100000e+00 2.92100000e+00 2.92100000e+00 2.92799997e+00
    2.97099996e+00 0. 0. 0. 0. 2.97499990e+00 2.85899997e+00
    2.74399996e+00 2.72000003e+00 2.72000003e+00 2.72000003e+00
    1.84000003e+00 1.84000003e+00 1.84000003e+00 1.84000003e+00
    1.84000003e+00 1.84000003e+00 1.84000003e+00 1.84000003e+00
    1.84000003e+00 1.87800002e+00 1.93099999e+00 1.98399997e+00
    1.98800004e+00 1.98800004e+00 2.04999995e+00 2.50300002e+00
    2.95600009e+00 0. 0. 2.91599989e+00 2.86500001e+00 2.89000010e+00
    2.91499996e+00 2.92100000e+00 2.92100000e+00 2.92100000e+00
    2.92100000e+00 2.92100000e+00 2.93300009e+00 0. 0. 0. 0. 0. 0.
    2.89299989e+00 2.75000000e+00 2.72000003e+00 2.72000003e+00
    2.72000003e+00 1.84000003e+00 1.84000003e+00 1.84000003e+00
    1.84000003e+00 1.84000003e+00 1.84000003e+00 1.84000003e+00
    1.84000003e+00 1.84000003e+00 1.87000000e+00 1.91100001e+00
    1.95200002e+00 2.09699988e+00 2.25099993e+00 2.43099999e+00
    2.77900004e+00 0. 0. 0. 2.94400001e+00 2.86400008e+00 2.86400008e+00
    2.86400008e+00 2.88000011e+00 2.90000010e+00 2.92000008e+00
    2.92100000e+00 2.92100000e+00 2.93400002e+00 0. 0. 0. 0. 0. 0.
    2.99300003e+00 2.86400008e+00 2.83699989e+00 2.83699989e+00
    2.83699989e+00 1.84000003e+00 1.84000003e+00 1.84000003e+00
    1.84000003e+00 1.84000003e+00 1.84000003e+00 1.84000003e+00
    1.84000003e+00 1.84000003e+00 1.85500002e+00 1.87500000e+00
    1.89600003e+00 2.22099996e+00 2.56800008e+00 2.89299989e+00 0. 0. 0.
    0. 2.88299990e+00 2.79200006e+00 2.79200006e+00 2.79200006e+00
    2.82699990e+00 2.87299991e+00 2.91899991e+00 2.92100000e+00
    2.92100000e+00 2.93400002e+00 0. 0. 0. 0. 0. 0. 0. 0. 2.98499990e+00
    2.98499990e+00 2.98499990e+00 1.84000003e+00 1.84000003e+00
    1.84000003e+00 1.84000003e+00 1.84000003e+00 1.84000003e+00
    1.84000003e+00 1.84000003e+00 1.84000003e+00 1.84000003e+00
    1.84000003e+00 1.84000003e+00 2.34400010e+00 2.88599992e+00 0. 0. 0.
    0. 0. 2.82299995e+00 2.72000003e+00 2.72000003e+00 2.72000003e+00
    2.77500010e+00 2.84599996e+00 2.91799998e+00 2.92100000e+00
    2.92100000e+00 2.93400002e+00 0. 0. 0. 0. 0. 0. 0. 0. 0. 0. 0.</data></Depth>
</opencv_storage>
