<?xml version="1.0"?>
<opencv_storage>
<Depth type_id="opencv-matrix">
  <rows>40</rows>
  <cols>40</cols>
  <dt>f</dt>
  <data>
    0. 0. 0. 0. 0. 0. 0. 0. 0. 0. 0. 0. 0. 0. 0. 0. 0. 0. 0. 0. 0. 0. 0.
    0. 0. 0. 0. 0. 0. 0. 0. 0. 0. 0. 0. 0. 0. 0. 0. 0. 0. 0. 0. 0. 0. 0.
    0. 0. 0. 0. 0. 0. 0. 0. 0. 0. 0. 0. 0. 0. 0. 0. 0. 0. 0. 0. 0. 0. 0.
    0. 0. 0. 0. 0. 0. 0. 0. 0. 0. 0. 0. 0. 0. 0. 0. 0. 0. 0. 0. 0. 0. 0.
    0. 0. 0. 0. 0. 0. 0. 0. 0. 0. 0. 0. 0. 0. 0. 0. 0. 0. 0. 0. 0. 0. 0.
    0. 0. 0. 0. 0. 0. 0. 0. 0. 0. 0. 0. 0. 0. 0. 0. 0. 0. 0. 0. 0. 0. 0.
    0. 0. 0. 0. 0. 0. 0. 0. 0. 0. 0. 0. 0. 0. 0. 0. 0. 0. 0. 0. 0. 0. 0.
    0. 0. 0. 0. 0. 0. 0. 0. 0. 2.06500006e+00 2.04399991e+00
    2.00200009e+00 1.99899995e+00 2.96099997e+00 2.16899991e+00
    2.08699989e+00 2.96600008e+00 2.95199990e+00 0. 0. 0. 0. 0.
    2.95400000e+00 0. 0. 0. 0. 2.93000007e+00 0. 0. 0. 0. 0. 0. 0. 0. 0.
    0. 0. 0. 0. 0. 0. 0. 0. 0. 1.74699998e+00 0. 2.04200006e+00
    2.01300001e+00 1.99500000e+00 1.99199998e+00 2.00699997e+00
    2.02800012e+00 2.03200006e+00 2.03600001e+00 2.04099989e+00
    2.05299997e+00 2.05399990e+00 2.04999995e+00 2.57999992e+00
    2.08899999e+00 2.08299994e+00 2.08100009e+00 2.08100009e+00
    2.08899999e+00 2.09500003e+00 2.08899999e+00 2.08800006e+00
    2.51099992e+00 0. 0. 0. 0. 0. 0. 0. 0. 0. 0. 0. 0. 0. 0. 0. 0. 0.
    1.88100004e+00 2.03600001e+00 1.98699999e+00 1.98599994e+00
    1.98599994e+00 1.99000001e+00 1.99600005e+00 2.00099993e+00
    2.00200009e+00 2.00699997e+00 2.00600004e+00 2.00799990e+00
    2.01500010e+00 2.01699996e+00 2.02399993e+00 2.03900003e+00
    2.05599999e+00 2.04999995e+00 2.05200005e+00 2.03999996e+00
    2.05200005e+00 2.08899999e+00 2.52099991e+00 0. 0. 0. 0. 0. 0. 0. 0.
    0. 0. 0. 0. 0. 0. 0. 0. 0. 2.05699992e+00 2.02699995e+00
    1.98599994e+00 1.98199999e+00 1.98199999e+00 1.98599994e+00
    1.99000001e+00 1.99100006e+00 1.99100006e+00 1.99500000e+00
    1.99500000e+00 1.99800003e+00 2.00399995e+00 2.00500011e+00
    2.00900006e+00 2.00900006e+00 2.00900006e+00 2.00900006e+00
    2.00900006e+00 2.01799989e+00 2.02300000e+00 2.02800012e+00
    2.02200007e+00 2.01799989e+00 0. 0. 0. 0. 0. 0. 0. 0. 0. 0. 0. 0. 0.
    0. 0. 0. 2.05100012e+00 2.01900005e+00 1.98599994e+00 1.98599994e+00
    1.98599994e+00 1.98599994e+00 1.98599994e+00 1.99100006e+00
    1.99100006e+00 1.99100006e+00 1.99100006e+00 1.99500000e+00
    1.99899995e+00 2. 2.00500011e+00 2.00600004e+00 2.00900006e+00
    2.00500011e+00 2.00500011e+00 2.00900006e+00 2.01399994e+00
    2.01300001e+00 2.01300001e+00 2.01600003e+00 2.01600003e+00 0. 0. 0.
    0. 0. 0. 0. 0. 0. 0. 0. 0. 0. 0. 1.88699996e+00 2.04200006e+00
    2.00200009e+00 1.98500001e+00 1.98399997e+00 1.98599994e+00
    1.98599994e+00 1.98599994e+00 1.99000001e+00 1.99100006e+00
    1.99199998e+00 1.99500000e+00 2. 2. 2. 2.00500011e+00 2.00500011e+00
    2.00900006e+00 2.00900006e+00 2.00600004e+00 2.00900006e+00
    2.01399994e+00 2.00900006e+00 2.01099992e+00 2.01399994e+00
    2.01500010e+00 0. 0. 0. 0. 0. 0. 0. 0. 0. 0. 0. 0. 0. 0.
    1.88399994e+00 2.04200006e+00 1.99899995e+00 1.98599994e+00
    1.98599994e+00 1.98599994e+00 1.98599994e+00 1.98599994e+00
    1.98599994e+00 1.99100006e+00 1.99100006e+00 1.99300003e+00 2. 2. 2.
    2.00500011e+00 2.00500011e+00 2.00900006e+00 2.00900006e+00
    2.00900006e+00 2.00900006e+00 2.00900006e+00 2.00900006e+00
    2.00900006e+00 2.01200008e+00 2.00900006e+00 0. 0. 0. 0. 0. 0. 0. 0.
    0. 0. 0. 0. 0. 0. 1.88399994e+00 2.03800011e+00 1.99899995e+00
    1.98599994e+00 1.98599994e+00 1.98599994e+00 1.98599994e+00
    1.98599994e+00 1.98599994e+00 1.99100006e+00 1.99100006e+00
    1.99600005e+00 2. 2. 2. 2.00500011e+00 2.00500011e+00 2.00600004e+00
    2.00699997e+00 2.00799990e+00 2.00900006e+00 2.01200008e+00
    2.00900006e+00 2.00900006e+00 2.00900006e+00 2.01200008e+00 0. 0. 0.
    0. 0. 0. 0. 0. 0. 0. 0. 0. 2.24600005e+00 0. 1.88499999e+00
    2.03800011e+00 1.99500000e+00 1.98599994e+00 1.98599994e+00
    1.98599994e+00 1.98599994e+00 1.98599994e+00 1.98599994e+00
    1.99100006e+00 1.99399996e+00 1.99500000e+00 2. 2. 2. 2.00500011e+00
    2.00500011e+00 2.00500011e+00 2.00500011e+00 2.00900006e+00
    2.00900006e+00 2.01399994e+00 2.01399994e+00 2.00900006e+00
    2.01500010e+00 2.02099991e+00 0. 0. 0. 0. 0. 0. 0. 0. 0. 0. 0. 0. 0.
    0. 1.87500000e+00 2.03299999e+00 1.99100006e+00 1.98599994e+00
    1.98599994e+00 1.98599994e+00 1.98800004e+00 1.98599994e+00
    1.98599994e+00 1.99100006e+00 1.99500000e+00 2. 2. 2. 2.
    2.00500011e+00 2.00500011e+00 2.00600004e+00 2.00900006e+00
    2.00900006e+00 2.00900006e+00 2.01399994e+00 2.01399994e+00
    2.00999999e+00 2.01500010e+00 2.02099991e+00 0. 0. 0. 0. 0. 0. 0. 0.
    0. 0. 0. 0. 0. 0. 2.05299997e+00 2.03200006e+00 1.99000001e+00
    1.98599994e+00 1.98599994e+00 1.98599994e+00 1.99000001e+00
    1.98599994e+00 1.99100006e+00 1.99500000e+00 1.99699998e+00 2. 2. 2.
    2. 2.00500011e+00 2.00900006e+00 2.00900006e+00 2.00900006e+00
    2.00900006e+00 2.01399994e+00 2.01399994e+00 2.01399994e+00
    2.01500010e+00 2.01799989e+00 2.04699993e+00 0. 0. 0. 0. 0. 0. 0. 0.
    0. 0. 0. 0. 1.01100004e+00 0. 1.87000000e+00 2.00500011e+00
    1.99000001e+00 1.98599994e+00 1.98599994e+00 1.98599994e+00
    1.98599994e+00 1.98599994e+00 1.99500000e+00 1.99500000e+00
    1.99500000e+00 2. 2. 2. 2. 2.00900006e+00 2.00900006e+00
    2.00900006e+00 2.00900006e+00 2.00900006e+00 2.01300001e+00
    2.01399994e+00 2.01399994e+00 2.01399994e+00 2.01799989e+00 0. 0. 0.
    0. 0. 0. 0. 0. 0. 0. 0. 0. 0. 2.25099993e+00 0. 1.92499995e+00
    2.00300002e+00 1.98899996e+00 1.98599994e+00 1.98599994e+00
    1.98599994e+00 1.98699999e+00 1.98699999e+00 1.99500000e+00
    1.99500000e+00 1.99600005e+00 2. 2.00200009e+00 2.00399995e+00
    2.00500011e+00 2.00900006e+00 2.00900006e+00 2.00900006e+00
    2.00900006e+00 2.01200008e+00 2.01399994e+00 2.01399994e+00
    2.00900006e+00 2.01399994e+00 2.01399994e+00 2.70199990e+00 0. 0. 0.
    0. 0. 0. 0. 0. 0. 0. 0. 0. 0. 0. 2.05399990e+00 1.99800003e+00
    1.98599994e+00 1.98599994e+00 1.98599994e+00 1.98599994e+00
    1.98800004e+00 1.99100006e+00 1.99500000e+00 1.99500000e+00
    1.99800003e+00 2.00099993e+00 2.00500011e+00 2.00500011e+00
    2.00500011e+00 2.00900006e+00 2.00699997e+00 2.00900006e+00
    2.00900006e+00 2.01200008e+00 2.01500010e+00 2.01399994e+00
    2.01099992e+00 2.01399994e+00 2.01500010e+00 2.01799989e+00 0. 0. 0.
    0. 0. 0. 0. 0. 0. 0. 0. 0. 0. 0. 2.06500006e+00 1.99500000e+00
    1.98599994e+00 1.98599994e+00 1.99000001e+00 1.98699999e+00
    1.98599994e+00 1.99000001e+00 1.99500000e+00 1.99500000e+00 2. 2. 2.
    2. 2. 2.00900006e+00 2.00799990e+00 2.00900006e+00 2.00999999e+00
    2.01600003e+00 2.01500010e+00 2.01399994e+00 2.01399994e+00
    2.01799989e+00 2.01900005e+00 2.63599992e+00 0. 0. 0. 0. 0. 0. 0. 0.
    0. 0. 0. 0. 0. 1.47500002e+00 2.04800010e+00 1.99500000e+00
    1.98599994e+00 1.98599994e+00 1.99100006e+00 1.99000001e+00
    1.99000001e+00 1.99100006e+00 1.99500000e+00 1.99500000e+00 2. 2. 2.
    2. 2. 2.00500011e+00 2.00900006e+00 2.00900006e+00 2.01399994e+00
    2.01500010e+00 2.01500010e+00 2.01500010e+00 2.01500010e+00
    2.01600003e+00 2.01799989e+00 0. 0. 0. 0. 0. 0. 0. 0. 0. 0. 0. 0. 0.
    0. 1.70000005e+00 2.02900004e+00 1.99500000e+00 1.98599994e+00
    1.98599994e+00 1.98599994e+00 1.99100006e+00 1.99199998e+00
    1.99100006e+00 1.99100006e+00 1.99500000e+00 1.99699998e+00 2. 2.
    2.00500011e+00 2. 2.00500011e+00 2.00900006e+00 2.00900006e+00
    2.01399994e+00 2.01399994e+00 2.01399994e+00 2.01699996e+00
    2.01799989e+00 2.01799989e+00 2.01999998e+00 0. 0. 0. 0. 0. 0. 0. 0.
    0. 0. 0. 0. 0. 0. 1.68900001e+00 2.02200007e+00 1.99500000e+00
    1.99100006e+00 1.98599994e+00 1.98599994e+00 1.98899996e+00
    1.99399996e+00 1.99500000e+00 1.99100006e+00 1.99199998e+00 2. 2.
    2.00500011e+00 2.00500011e+00 2.00099993e+00 2.00900006e+00
    2.01399994e+00 2.01399994e+00 2.01399994e+00 2.01399994e+00
    2.01399994e+00 2.01799989e+00 2.01799989e+00 2.01799989e+00
    2.01799989e+00 0. 0. 0. 0. 0. 0. 0. 0. 0. 0. 0. 0. 0. 0.
    1.68900001e+00 2.02099991e+00 1.99100006e+00 1.98599994e+00
    1.99000001e+00 1.98599994e+00 1.98899996e+00 1.99399996e+00
    1.99500000e+00 1.99600005e+00 1.99500000e+00 1.99899995e+00 2.
    2.00500011e+00 2.00099993e+00 2. 2.00500011e+00 2.00999999e+00
    2.01300001e+00 2.01399994e+00 2.01399994e+00 2.01399994e+00
    2.01399994e+00 2.01699996e+00 2.01799989e+00 2.99300003e+00 0. 0. 0.
    0. 0. 0. 0. 0. 0. 0. 0. 0. 0. 0. 2.05599999e+00 2.01699996e+00
    1.98599994e+00 1.98599994e+00 1.99100006e+00 1.99100006e+00
    1.99100006e+00 1.99100006e+00 1.99500000e+00 1.99800003e+00
    1.99600005e+00 1.99699998e+00 2.00200009e+00 2.00500011e+00
    2.00099993e+00 2. 2.00600004e+00 2.01099992e+00 2.01200008e+00
    2.01399994e+00 2.01399994e+00 2.01399994e+00 2.01399994e+00
    2.01600003e+00 2.01799989e+00 2.73499990e+00 0. 0. 0. 0. 0. 0. 0. 0.
    0. 0. 0. 0. 0. 0. 1.85800004e+00 2.01099992e+00 1.98599994e+00
    1.98599994e+00 1.99100006e+00 1.99100006e+00 1.99100006e+00
    1.99199998e+00 1.99500000e+00 1.99500000e+00 1.99800003e+00
    1.99800003e+00 2.00099993e+00 2. 2.00200009e+00 2.00200009e+00
    2.00900006e+00 2.01399994e+00 2.01399994e+00 2.01600003e+00
    2.01399994e+00 2.01399994e+00 2.01799989e+00 2.01799989e+00
    2.01799989e+00 2.73499990e+00 0. 0. 0. 0. 0. 0. 0. 0. 0. 0. 0. 0. 0.
    0. 2.03600001e+00 2.00500011e+00 1.98899996e+00 1.98599994e+00
    1.99100006e+00 1.99100006e+00 1.99100006e+00 1.99399996e+00
    1.99800003e+00 1.99500000e+00 1.99600005e+00 2. 2. 2. 2.00500011e+00
    2. 2.00900006e+00 2.01399994e+00 2.01399994e+00 2.01600003e+00
    2.01600003e+00 2.01699996e+00 2.01799989e+00 2.02099991e+00
    2.02300000e+00 2.74499989e+00 0. 0. 0. 0. 0. 0. 0. 0. 0. 0. 0. 0. 0.
    1.76800001e+00 2.02900004e+00 1.99600005e+00 1.99100006e+00
    1.98899996e+00 1.98800004e+00 1.99100006e+00 1.99399996e+00
    1.99500000e+00 1.99600005e+00 1.99500000e+00 1.99500000e+00
    1.99699998e+00 2. 2. 2.00500011e+00 2.00399995e+00 2.00900006e+00
    2.01399994e+00 2.01399994e+00 2.01600003e+00 2.01799989e+00
    2.01799989e+00 2.01799989e+00 2.01799989e+00 2.01900005e+00 0. 0. 0.
    0. 0. 0. 0. 0. 0. 0. 0. 0. 0. 0. 2.06200004e+00 2.02600002e+00
    1.99600005e+00 1.98599994e+00 1.98599994e+00 1.98599994e+00
    1.99100006e+00 1.99100006e+00 1.99100006e+00 1.99500000e+00 2. 2. 2.
    2. 2. 2.00500011e+00 2.00500011e+00 2.00900006e+00 2.00900006e+00
    2.01399994e+00 2.01399994e+00 2.01699996e+00 2.01799989e+00
    2.01799989e+00 2.01399994e+00 2.01399994e+00 0. 0. 0. 0. 0. 0. 0. 0.
    0. 0. 0. 0. 0. 0. 2.06399989e+00 2.02500010e+00 1.99600005e+00
    1.98599994e+00 1.98599994e+00 1.98599994e+00 1.98800004e+00
    1.99100006e+00 1.99100006e+00 1.99500000e+00 1.99500000e+00 2. 2. 2.
    2.00300002e+00 2.00500011e+00 2.00500011e+00 2.00900006e+00
    2.00900006e+00 2.01399994e+00 2.01799989e+00 2.01399994e+00
    2.01399994e+00 2.01399994e+00 2.01399994e+00 2.01500010e+00
    2.72499990e+00 0. 0. 0. 0. 0. 0. 0. 0. 0. 0. 0. 0. 0. 2.07299995e+00
    2.01999998e+00 1.99500000e+00 1.98699999e+00 1.98699999e+00
    1.98800004e+00 1.99100006e+00 1.99100006e+00 1.99199998e+00
    1.99500000e+00 1.99500000e+00 2. 2. 2. 2.00300002e+00 2.00500011e+00
    2.00500011e+00 2.01399994e+00 2.00999999e+00 2.01399994e+00
    2.01399994e+00 2.01500010e+00 2.01399994e+00 2.01399994e+00
    2.01399994e+00 2.01500010e+00 0. 0. 0. 0. 0. 0. 0. 0. 0. 0. 0. 0. 0.
    0. 2.07800007e+00 2.01200008e+00 1.99199998e+00 1.98899996e+00
    1.98899996e+00 1.99100006e+00 1.99100006e+00 1.99100006e+00
    1.99399996e+00 1.99699998e+00 2. 2. 2. 2.00099993e+00 2.00300002e+00
    2.00500011e+00 2.00500011e+00 2.00900006e+00 2.00999999e+00
    2.01399994e+00 2.01399994e+00 2.01399994e+00 2.01500010e+00
    2.01799989e+00 2.01799989e+00 2.42000008e+00 0. 0. 0. 0. 0. 0. 0. 0.
    0. 0. 0. 0. 0. 0. 2.04800010e+00 2.00999999e+00 1.99399996e+00
    1.98899996e+00 1.98899996e+00 1.99100006e+00 1.99100006e+00
    1.99500000e+00 2. 2. 2. 2. 2. 2. 2.00300002e+00 2.00500011e+00
    2.00500011e+00 2.00900006e+00 2.00900006e+00 2.01300001e+00
    2.01600003e+00 2.01600003e+00 2.01799989e+00 2.01600003e+00
    2.01799989e+00 2.42199993e+00 0. 0. 0. 0. 0. 0. 0. 0. 0. 0. 0. 0. 0.
    0. 2.04800010e+00 2.00399995e+00 1.99600005e+00 1.99100006e+00
    1.99100006e+00 1.99100006e+00 1.99399996e+00 1.99500000e+00
    1.99600005e+00 2. 2. 2. 2. 2. 2.00500011e+00 2.00500011e+00
    2.00500011e+00 2.00900006e+00 2.00900006e+00 2.01300001e+00
    2.01699996e+00 2.01500010e+00 2.01399994e+00 2.01399994e+00
    2.01399994e+00 0. 0. 0. 0. 0. 0. 0. 0. 0. 0. 0. 0. 0. 0. 0.
    2.04999995e+00 2.00099993e+00 1.99500000e+00 1.99100006e+00
    1.98599994e+00 1.99100006e+00 1.99199998e+00 1.99399996e+00
    1.99500000e+00 1.99899995e+00 1.99500000e+00 2. 2. 2.00399995e+00
    2.00200009e+00 2.00399995e+00 2.00500011e+00 2.00900006e+00
    2.01300001e+00 2.01399994e+00 2.01600003e+00 2.01399994e+00
    2.01399994e+00 2.01399994e+00 2.01399994e+00 2.42199993e+00 0. 0. 0.
    0. 0. 0. 0. 0. 0. 0. 0. 0. 0. 0. 2.03500009e+00 2.00300002e+00
    1.99199998e+00 1.99100006e+00 1.99100006e+00 1.98599994e+00
    1.99100006e+00 1.99500000e+00 1.99500000e+00 1.99500000e+00 2.
    2.00099993e+00 2. 2.00500011e+00 2.00500011e+00 2.00500011e+00
    2.00500011e+00 2.00900006e+00 2.01399994e+00 2.01399994e+00
    2.01600003e+00 2.01799989e+00 2.01399994e+00 2.01399994e+00
    2.01799989e+00 2.43099999e+00 0. 0. 0. 0. 0. 0. 0. 0. 0. 0. 0. 0. 0.
    0. 2.02800012e+00 2.00099993e+00 1.99199998e+00 1.99100006e+00
    1.98599994e+00 1.99100006e+00 1.99100006e+00 1.99500000e+00
    1.99899995e+00 2. 2. 2. 2.00500011e+00 2.00500011e+00 2.00500011e+00
    2.00500011e+00 2.00500011e+00 2.00900006e+00 2.00999999e+00
    2.01399994e+00 2.01399994e+00 2.01399994e+00 2.01399994e+00
    2.01399994e+00 2.01399994e+00 1.45899999e+00 0. 0. 0. 0. 0. 0. 0. 0.
    0. 0. 0. 0. 0. 0. 0. 0. 0. 0. 0. 0. 0. 0. 0. 0. 0. 0. 0. 0. 0. 0. 0.
    0. 0. 0. 0. 0. 0. 0. 0. 0. 0. 0. 0. 0. 0. 0. 0. 0. 0. 0. 0. 0. 0. 0.
    0. 0. 0. 0. 0. 0. 0. 0. 0. 0. 0. 0. 0. 0. 0. 0. 0. 0. 0. 0. 0. 0. 0.
    0. 0. 0. 0. 0. 0. 0. 0. 0. 0. 0. 0. 0. 0. 0. 0. 0. 0. 0. 0. 0. 0. 0.
    0. 0. 0. 0. 0. 0. 0. 0. 0. 0. 0. 0. 0. 0. 0. 0. 0. 0. 0. 0. 0. 0. 0.
    0. 0. 0. 0. 0. 0. 0. 0. 0. 0. 0. 0. 0. 0. 0. 0. 0. 0. 0. 0. 0. 0. 0.
    0. 0. 0. 0. 0. 0. 0. 0. 0. 0. 0. 0. 0. 0. 0. 0. 0. 0. 0. 0. 0. 0.</data></Depth>
</opencv_storage>
