<?xml version="1.0"?>
<opencv_storage>
<Depth type_id="opencv-matrix">
  <rows>40</rows>
  <cols>40</cols>
  <dt>f</dt>
  <data>
    0. 0. 0. 0. 0. 0. 0. 0. 0. 0. 0. 0. 0. 0. 0. 0. 0. 0. 0. 0. 0. 0. 0.
    0. 0. 0. 0. 0. 0. 0. 0. 0. 0. 0. 0. 0. 0. 0. 0. 0. 0. 0. 0. 0. 0. 0.
    0. 0. 0. 0. 0. 0. 0. 0. 0. 0. 0. 0. 0. 0. 0. 0. 0. 0. 0. 0. 0. 0. 0.
    0. 0. 0. 0. 0. 0. 0. 0. 0. 0. 0. 0. 0. 0. 0. 0. 0. 0. 0. 0. 0. 0. 0.
    0. 0. 0. 0. 0. 0. 0. 0. 0. 0. 0. 0. 0. 0. 0. 0. 0. 0. 0. 0. 0. 0. 0.
    0. 0. 0. 0. 0. 0. 0. 0. 0. 0. 0. 0. 0. 0. 0. 0. 0. 0. 0. 0. 0. 0. 0.
    0. 0. 0. 0. 0. 0. 0. 0. 0. 0. 0. 0. 0. 0. 0. 0. 0. 0. 0. 0. 0. 0. 0.
    0. 0. 0. 0. 0. 0. 0. 0. 0. 0. 0. 0. 0. 0. 0. 0. 0. 0. 0. 0. 0. 0. 0.
    0. 0. 0. 0. 0. 0. 0. 0. 0. 0. 0. 0. 0. 0. 0. 0. 0. 0. 0. 0. 0. 0. 0.
    0. 0. 0. 0. 0. 0. 0. 0. 0. 0. 0. 0. 0. 0. 0. 0. 0. 0. 0. 0. 0. 0. 0.
    0. 0. 0. 0. 0. 0. 0. 0. 0. 0. 0. 0. 0. 0. 0. 0. 0. 0. 0. 0. 0. 0. 0.
    0. 0. 0. 0. 0. 0. 0. 0. 0. 0. 0. 0. 0. 0. 0. 0. 0. 0. 0. 0. 0. 0. 0.
    0. 0. 0. 0. 2.82800007e+00 2.78299999e+00 2.78299999e+00
    2.76200008e+00 2.71499991e+00 2.70700002e+00 2.70700002e+00
    2.70700002e+00 2.73399997e+00 2.78099990e+00 2.78299999e+00
    2.78299999e+00 2.78299999e+00 2.78299999e+00 2.78800011e+00
    2.83599997e+00 2.86100006e+00 2.86100006e+00 2.81999993e+00
    2.78299999e+00 2.78299999e+00 2.78299999e+00 2.78299999e+00
    2.83100009e+00 2.86100006e+00 2.86100006e+00 2.86100006e+00
    2.86100006e+00 2.86100006e+00 2.86100006e+00 2.86100006e+00
    2.39400005e+00 2. 2. 2. 1.99899995e+00 1.96599996e+00 1.93299997e+00
    1.89999998e+00 1.89199996e+00 2.84200001e+00 2.81500006e+00
    2.79399991e+00 2.76200008e+00 2.71499991e+00 2.70700002e+00
    2.70700002e+00 2.70700002e+00 2.72300005e+00 2.75000000e+00
    2.75099993e+00 2.75099993e+00 2.75099993e+00 2.75099993e+00
    2.75699997e+00 2.82500005e+00 2.87100005e+00 2.89199996e+00
    2.85400009e+00 2.81100011e+00 2.79099989e+00 2.78299999e+00
    2.78299999e+00 2.83100009e+00 2.86899996e+00 2.89000010e+00
    2.89499998e+00 2.86500001e+00 2.61800003e+00 2.49499989e+00
    2.49499989e+00 2.22600007e+00 2. 2. 1.99100006e+00 1.97700000e+00
    1.95799994e+00 1.93299997e+00 1.89999998e+00 1.89199996e+00
    2.86100006e+00 2.85800004e+00 2.81200004e+00 2.76399994e+00
    2.71600008e+00 2.70700002e+00 2.70700002e+00 2.70700002e+00
    2.70700002e+00 2.70700002e+00 2.70700002e+00 2.70700002e+00
    2.70700002e+00 2.70700002e+00 2.71600008e+00 2.81100011e+00
    2.88400006e+00 2.93199992e+00 2.89800000e+00 2.84999990e+00
    2.80200005e+00 2.78299999e+00 2.78299999e+00 2.83299994e+00
    2.87400007e+00 2.89899993e+00 2.90400004e+00 2.83400011e+00
    2.27800012e+00 2. 2. 2. 2. 1.99800003e+00 1.97700000e+00
    1.94599998e+00 1.94599998e+00 1.93299997e+00 1.90199995e+00
    1.89300001e+00 2.86100006e+00 2.85999990e+00 2.84299994e+00
    2.79900002e+00 2.72099996e+00 2.70700002e+00 2.70700002e+00
    2.70700002e+00 2.70700002e+00 2.70700002e+00 2.70700002e+00
    2.70700002e+00 2.70700002e+00 2.70700002e+00 2.71600008e+00
    2.81100011e+00 2.86899996e+00 2.88599992e+00 2.87400007e+00
    2.84999990e+00 2.80200005e+00 2.78299999e+00 2.78299999e+00
    2.86299992e+00 2.78900003e+00 2.44600010e+00 2.34200001e+00
    2.29699993e+00 2.09899998e+00 2. 2. 2. 1.99399996e+00 1.97200000e+00
    1.95700002e+00 1.94599998e+00 1.94599998e+00 1.94200003e+00
    1.92999995e+00 1.91100001e+00 2.86100006e+00 2.86100006e+00
    2.86100006e+00 2.82399988e+00 2.74200010e+00 2.72799993e+00
    2.72799993e+00 2.72799993e+00 2.72799993e+00 2.72799993e+00
    2.71600008e+00 2.70700002e+00 2.70700002e+00 2.70700002e+00
    2.71499991e+00 2.79699993e+00 2.83999991e+00 2.83999991e+00
    2.83999991e+00 2.83100009e+00 2.79699993e+00 2.70799994e+00
    2.58500004e+00 2.65300012e+00 2.55299997e+00 2.15700006e+00
    2.02999997e+00 2. 2. 2. 2. 1.99199998e+00 1.97899997e+00
    1.95500004e+00 1.94599998e+00 1.94599998e+00 1.94599998e+00
    1.94200003e+00 1.93299997e+00 1.91299999e+00 2.86100006e+00
    2.86100006e+00 2.86100006e+00 2.83699989e+00 2.78399992e+00
    2.77500010e+00 2.77500010e+00 2.77500010e+00 2.77500010e+00
    2.77500010e+00 2.73499990e+00 2.70700002e+00 2.70700002e+00
    2.70700002e+00 2.71199989e+00 2.76399994e+00 2.79099989e+00
    2.79099989e+00 2.79099989e+00 2.78999996e+00 2.78500009e+00
    2.53900003e+00 2.14000010e+00 2.14499998e+00 2.13000011e+00
    2.07100010e+00 2.02999997e+00 2. 2. 2. 2. 1.97399998e+00
    1.95099998e+00 1.94700003e+00 1.94599998e+00 1.94599998e+00
    1.94599998e+00 1.93400002e+00 1.90499997e+00 1.89499998e+00
    2.86100006e+00 2.86100006e+00 2.86100006e+00 2.84999990e+00
    2.82699990e+00 2.82299995e+00 2.81800008e+00 2.79299998e+00
    2.78299999e+00 2.78299999e+00 2.73799992e+00 2.69899988e+00
    2.67600012e+00 2.67000008e+00 2.67700005e+00 2.74600005e+00
    2.69199991e+00 2.50099993e+00 2.44199991e+00 2.41300011e+00
    2.41300011e+00 2.26799989e+00 2.02999997e+00 2.02800012e+00
    2.02800012e+00 2.02800012e+00 2.02800012e+00 2.02600002e+00
    2.00900006e+00 2. 2. 1.97099996e+00 1.94599998e+00 1.94599998e+00
    1.94599998e+00 1.94599998e+00 1.92900002e+00 1.91199994e+00
    1.89600003e+00 1.89199996e+00 2.86100006e+00 2.86100006e+00
    2.86100006e+00 2.86100006e+00 2.86100006e+00 2.86100006e+00
    2.85200000e+00 2.80999994e+00 2.78900003e+00 2.78299999e+00
    2.69400001e+00 2.61899996e+00 2.57999992e+00 2.56900001e+00
    2.57599998e+00 2.65199995e+00 2.53600001e+00 2.20700002e+00
    2.10500002e+00 2.05500007e+00 2.05100012e+00 2.03099990e+00 2. 2. 2.
    2. 2.02600002e+00 2.05200005e+00 2.01699996e+00 2. 2. 1.97099996e+00
    1.94599998e+00 1.94599998e+00 1.94599998e+00 1.94500005e+00
    1.91199994e+00 1.89199996e+00 1.89199996e+00 1.89199996e+00
    2.86100006e+00 2.86100006e+00 2.86100006e+00 2.86100006e+00
    2.86100006e+00 2.86100006e+00 2.85800004e+00 2.84599996e+00
    2.81999993e+00 2.78399992e+00 2.47799993e+00 2.26300001e+00
    2.25200009e+00 2.24799991e+00 2.24799991e+00 2.24499989e+00
    2.19799995e+00 2.10100007e+00 2.06999993e+00 2.04999995e+00
    2.02399993e+00 2.00900006e+00 2. 2. 2. 2. 2.02600002e+00
    2.05200005e+00 2.01699996e+00 2. 2. 1.97099996e+00 1.94599998e+00
    1.94599998e+00 1.94599998e+00 1.94500005e+00 1.91199994e+00
    1.89199996e+00 1.89199996e+00 1.89199996e+00 2.86100006e+00
    2.86100006e+00 2.86100006e+00 2.86100006e+00 2.86100006e+00
    2.86100006e+00 2.82999992e+00 2.67799997e+00 2.58899999e+00
    2.54500008e+00 2.27699995e+00 2.09299994e+00 2.09299994e+00
    2.10200000e+00 2.11100006e+00 2.07500005e+00 2.05599999e+00
    2.05599999e+00 2.05599999e+00 2.04800010e+00 2.01399994e+00 2. 2.
    1.98800004e+00 1.98099995e+00 1.98099995e+00 2.00600004e+00
    2.03200006e+00 1.99800003e+00 1.98099995e+00 1.98099995e+00
    1.96200001e+00 1.94599998e+00 1.94599998e+00 1.94599998e+00
    1.94500005e+00 1.91199994e+00 1.89199996e+00 1.89199996e+00
    1.89199996e+00 2.86100006e+00 2.86100006e+00 2.86100006e+00
    2.86100006e+00 2.86100006e+00 2.86100006e+00 2.77699995e+00
    2.36299992e+00 2.16899991e+00 2.13199997e+00 2.08699989e+00
    2.05699992e+00 2.05699992e+00 2.08200002e+00 2.11100006e+00
    2.07500005e+00 2.05599999e+00 2.05599999e+00 2.05599999e+00
    2.04800010e+00 2.01399994e+00 2. 2. 1.96800005e+00 1.94700003e+00
    1.94700003e+00 1.97200000e+00 1.99699998e+00 1.96399999e+00
    1.94700003e+00 1.94700003e+00 1.94700003e+00 1.94599998e+00
    1.94599998e+00 1.94599998e+00 1.94500005e+00 1.91199994e+00
    1.89199996e+00 1.89199996e+00 1.89199996e+00 2.86100006e+00
    2.84299994e+00 2.56999993e+00 2.41899991e+00 2.41899991e+00
    2.41899991e+00 2.38400006e+00 2.21099997e+00 2.12899995e+00
    2.11500001e+00 2.07999992e+00 2.05599999e+00 2.05599999e+00
    2.08200002e+00 2.11100006e+00 2.07500005e+00 2.05599999e+00
    2.05599999e+00 2.05599999e+00 2.04800010e+00 2.01399994e+00 2. 2.
    1.96700001e+00 1.94599998e+00 1.94599998e+00 1.94099998e+00
    1.93400002e+00 1.92100000e+00 1.91400003e+00 1.91400003e+00
    1.91400003e+00 1.91400003e+00 1.91400003e+00 1.92700005e+00
    1.94599998e+00 1.93200004e+00 1.92400002e+00 1.92400002e+00
    1.90900004e+00 2.65899992e+00 2.63499999e+00 2.27699995e+00
    2.08500004e+00 2.09899998e+00 2.10200000e+00 2.10200000e+00
    2.10200000e+00 2.10599995e+00 2.11400008e+00 2.07999992e+00
    2.05599999e+00 2.05599999e+00 2.08200002e+00 2.11100006e+00
    2.07500005e+00 2.05599999e+00 2.05599999e+00 2.05599999e+00
    2.04800010e+00 2.01399994e+00 2. 2. 1.96700001e+00 1.94599998e+00
    1.94599998e+00 1.92100000e+00 1.89100003e+00 1.88499999e+00
    1.87800002e+00 1.87199998e+00 1.87100005e+00 1.87199998e+00
    1.87899995e+00 1.90199995e+00 1.93499994e+00 1.94900000e+00
    1.96000004e+00 1.96700001e+00 1.94299996e+00 2.06100011e+00
    2.05800009e+00 2.00500011e+00 2. 2.05599999e+00 2.06599998e+00
    2.06599998e+00 2.06599998e+00 2.08299994e+00 2.11299992e+00
    2.07999992e+00 2.05599999e+00 2.05599999e+00 2.08200002e+00
    2.11100006e+00 2.07500005e+00 2.05599999e+00 2.05599999e+00
    2.05599999e+00 2.04800010e+00 2.01399994e+00 2. 2. 1.96700001e+00
    1.94599998e+00 1.94599998e+00 1.92100000e+00 1.88900006e+00
    1.86300004e+00 1.83700001e+00 1.81099999e+00 1.80799997e+00
    1.81500006e+00 1.84000003e+00 1.87000000e+00 1.90199995e+00
    1.95700002e+00 2.00200009e+00 2.02999997e+00 2.00999999e+00
    1.86899996e+00 1.87300003e+00 1.91999996e+00 1.96300006e+00
    2.00099993e+00 2.00699997e+00 2.00999999e+00 2.02500010e+00
    2.06100011e+00 2.11199999e+00 2.07999992e+00 2.05599999e+00
    2.05599999e+00 2.08200002e+00 2.11100006e+00 2.07500005e+00
    2.05599999e+00 2.05599999e+00 2.05599999e+00 2.04800010e+00
    2.01399994e+00 2. 2. 1.96700001e+00 1.94599998e+00 1.94599998e+00
    1.92100000e+00 1.88800001e+00 1.85699999e+00 1.82500005e+00
    1.79400003e+00 1.78999996e+00 1.79799998e+00 1.83000004e+00
    1.86099994e+00 1.89400005e+00 2.00699997e+00 2.07800007e+00
    2.08100009e+00 2.06699991e+00 1.84099996e+00 1.84500003e+00
    1.90999997e+00 1.94599998e+00 1.94599998e+00 1.94599998e+00
    1.95299995e+00 1.98599994e+00 2.04099989e+00 2.11100006e+00
    2.07999992e+00 2.05599999e+00 2.05599999e+00 2.07900000e+00
    2.10400009e+00 2.06999993e+00 2.05399990e+00 2.05599999e+00
    2.05599999e+00 2.04900002e+00 2.01600003e+00 2.00300002e+00
    2.00300002e+00 1.97000003e+00 1.94900000e+00 1.94900000e+00
    1.92299998e+00 1.88800001e+00 1.85899997e+00 1.75199997e+00
    1.56900001e+00 1.54700005e+00 1.55400002e+00 1.58399999e+00
    1.61399996e+00 1.64499998e+00 1.80799997e+00 1.89400005e+00
    1.86000001e+00 1.85200000e+00 1.84099996e+00 1.84500003e+00
    1.90999997e+00 1.94599998e+00 1.94599998e+00 1.94599998e+00
    1.95299995e+00 1.98599994e+00 2.04099989e+00 2.11100006e+00
    2.07999992e+00 2.05599999e+00 2.05599999e+00 2.04800010e+00
    2.03600001e+00 2.02399993e+00 2.02900004e+00 2.05299997e+00
    2.05599999e+00 2.05299997e+00 2.04200006e+00 2.03800011e+00
    2.03800011e+00 2.00399995e+00 1.98199999e+00 1.98199999e+00
    1.94099998e+00 1.89100003e+00 1.88100004e+00 0. 0. 0. 0. 0. 0. 0. 0.
    0. 0. 0. 1.85599995e+00 1.86000001e+00 1.91499996e+00 1.94599998e+00
    1.94599998e+00 1.94599998e+00 1.95299995e+00 1.98599994e+00
    2.04099989e+00 2.11100006e+00 2.07999992e+00 2.05599999e+00
    2.05599999e+00 2.03099990e+00 2. 2. 2.01600003e+00 2.05100012e+00
    2.05599999e+00 2.05800009e+00 2.06900001e+00 2.07299995e+00
    2.07299995e+00 2.03800011e+00 2.01600003e+00 2.01600003e+00
    1.98099995e+00 1.84200001e+00 1.04900002e+00 0. 0. 0. 0. 0. 0. 0. 0.
    0. 0. 0. 1.88699996e+00 1.88999999e+00 1.92600000e+00 1.94599998e+00
    1.94599998e+00 1.94599998e+00 1.95299995e+00 1.98599994e+00
    2.04099989e+00 2.11100006e+00 2.07999992e+00 2.05599999e+00
    2.05599999e+00 2.03099990e+00 2. 2. 2.01600003e+00 2.05100012e+00
    2.05599999e+00 2.06299996e+00 2.09599996e+00 2.10899997e+00
    2.10899997e+00 2.07399988e+00 2.05100012e+00 2.05100012e+00
    2.04600000e+00 1.73800004e+00 0. 0. 0. 0. 0. 0. 0. 0. 0. 0. 0. 0.
    1.89199996e+00 1.89400005e+00 1.92799997e+00 1.94599998e+00
    1.94599998e+00 1.94599998e+00 1.95299995e+00 1.98599994e+00
    2.01900005e+00 2.05299997e+00 2.05500007e+00 2.05599999e+00
    2.05599999e+00 2.03099990e+00 2. 2. 2.02500010e+00 2.07900000e+00
    2.08599997e+00 2.08999991e+00 2.10700011e+00 2.11400008e+00
    2.11400008e+00 0. 0. 0. 0. 0. 0. 0. 0. 0. 0. 0. 0. 0. 0. 0. 0. 0.
    1.91499996e+00 1.91700006e+00 1.94099998e+00 1.95200002e+00
    1.94700003e+00 1.94599998e+00 1.95200002e+00 1.98000002e+00
    1.99199998e+00 1.99199998e+00 2.02500010e+00 2.05500007e+00
    2.07500005e+00 1.77199996e+00 1.41900003e+00 1.80999994e+00
    2.04500008e+00 2.10500002e+00 2.11400008e+00 2.02399993e+00
    1.63199997e+00 1.47899997e+00 1.47899997e+00 0. 0. 0. 0. 0. 0. 0. 0.
    0. 0. 0. 0. 0. 0. 0. 0. 0. 2.01600003e+00 2.01500010e+00
    1.99699998e+00 1.97599995e+00 1.95000005e+00 1.94599998e+00
    1.94799995e+00 1.95599997e+00 1.95899999e+00 1.95899999e+00
    1.99100006e+00 2.04999995e+00 2.15899992e+00 0. 0. 0. 2.09500003e+00
    2.11100006e+00 2.11400008e+00 1.63199997e+00 0. 0. 0. 0. 0. 0. 0. 0.
    0. 0. 0. 0. 0. 0. 0. 0. 0. 0. 0. 0. 2.07800007e+00 2.07500005e+00
    2.03999996e+00 2. 1.95400000e+00 1.94599998e+00 1.94599998e+00
    1.94599998e+00 1.94599998e+00 1.94599998e+00 1.97800004e+00
    1.68900001e+00 0. 0. 0. 0. 0. 0. 0. 0. 0. 0. 0. 0. 0. 0. 0. 0. 0. 0.
    0. 0. 0. 0. 0. 0. 0. 0. 0. 0. 2.11400008e+00 2.11100006e+00
    2.07500005e+00 2.02500010e+00 1.95799994e+00 1.94599998e+00
    1.94599998e+00 1.94599998e+00 1.94599998e+00 1.94599998e+00
    1.97800004e+00 1.10000002e+00 0. 0. 0. 0. 0. 0. 0. 0. 0. 0. 0. 0. 0.
    0. 0. 0. 0. 0. 0. 0. 0. 0. 0. 0. 0. 0. 0. 0. 2.11400008e+00
    2.10999990e+00 2.05299997e+00 2.00099993e+00 1.95400000e+00
    1.94599998e+00 1.94599998e+00 1.94599998e+00 1.95799994e+00
    1.97800004e+00 0. 0. 0. 0. 0. 0. 0. 0. 0. 0. 0. 0. 0. 0. 0. 0. 0. 0.
    0. 0. 0. 0. 0. 0. 0. 0. 0. 0. 0. 0. 2.11400008e+00 2.10899997e+00
    2.03900003e+00 1.98500001e+00 1.95200002e+00 1.94599998e+00
    1.94599998e+00 1.94599998e+00 1.96500003e+00 1.99899995e+00 0. 0. 0.
    0. 0. 0. 0. 0. 0. 0. 0. 0. 0. 0. 0. 0. 0. 0. 0. 0. 0. 0. 0. 0. 0. 0.
    0. 0. 0. 0. 0. 0. 0. 0. 0. 0. 0. 0. 0. 0. 0. 0. 0. 0. 0. 0. 0. 0. 0.
    0. 0. 0. 0. 0. 0. 0. 0. 0. 0. 0. 0. 0. 0. 0. 0. 0. 0. 0. 0. 0. 0. 0.
    0. 0. 0. 0. 0. 0. 0. 0. 0. 0. 0. 0. 0. 0. 0. 0. 0. 0. 0. 0. 0. 0. 0.
    0. 0. 0. 0. 0. 0. 0. 0. 0. 0. 0. 0. 0. 0. 0. 0. 0. 0. 0. 0. 0. 0. 0.
    0. 0. 0. 0. 0. 0. 0. 0. 0. 0. 0. 0. 0. 0. 0. 0. 0. 0. 0. 0. 0. 0. 0.
    0. 0. 0. 0. 0. 0. 0. 0. 0. 0. 0. 0. 0. 0. 0. 0. 0. 0. 0. 0. 0. 0. 0.
    0. 0. 0. 0. 0. 0. 0. 0. 0. 0. 0. 0. 0. 0. 0. 0. 0. 0. 0. 0. 0. 0. 0.
    0. 0. 0. 0. 0. 0. 0. 0. 0. 0. 0. 0. 0. 0. 0. 0. 0. 0. 0. 0. 0. 0. 0.
    0. 0. 0. 0. 0. 0. 0. 0. 0. 0. 0. 0. 0. 0. 0. 0. 0. 0. 0. 0. 0. 0. 0.
    0. 0. 0. 0. 0. 0. 0. 0. 0. 0. 0. 0. 0. 0. 0. 0. 0. 0. 0. 0. 0. 0. 0.
    0. 0. 0. 0. 0. 0. 0. 0. 0. 0. 0. 0. 0. 0. 0. 0. 0. 0. 0. 0. 0. 0. 0.
    0. 0. 0. 0. 0. 0. 0. 0. 0. 0. 0. 0. 0. 0. 0. 0. 0. 0. 0. 0. 0. 0. 0.
    0. 0. 0. 0. 0. 0. 0. 0.</data></Depth>
</opencv_storage>
