<?xml version="1.0"?>
<opencv_storage>
<Depth type_id="opencv-matrix">
  <rows>40</rows>
  <cols>40</cols>
  <dt>f</dt>
  <data>
    0. 0. 0. 0. 0. 0. 0. 0. 0. 0. 0. 0. 0. 0. 0. 0. 0. 0. 0. 0. 0. 0. 0.
    0. 0. 0. 0. 0. 0. 0. 0. 0. 0. 0. 0. 0. 0. 0. 0. 0. 0. 0. 0. 0. 0. 0.
    0. 0. 0. 0. 0. 0. 0. 0. 0. 0. 0. 0. 0. 0. 0. 0. 0. 0. 0. 0. 0. 0. 0.
    0. 0. 0. 0. 0. 0. 0. 0. 0. 0. 0. 0. 0. 0. 0. 0. 0. 0. 1.11500001e+00
    1.29299998e+00 1.82799995e+00 2.36299992e+00 2.36299992e+00
    2.36299992e+00 2.36299992e+00 2.36299992e+00 2.36299992e+00
    2.36299992e+00 2.36299992e+00 2.36299992e+00 2.36299992e+00
    2.32699990e+00 2.27399993e+00 2.20400000e+00 2.10200000e+00 2.
    1.95200002e+00 1.90300000e+00 1.88699996e+00 1.88699996e+00
    1.91900003e+00 2.01699996e+00 2.11599994e+00 2.11599994e+00 0. 0. 0.
    0. 0. 0. 0. 0. 0. 0. 0. 0. 0. 0. 1.10300004e+00 1.28299999e+00
    1.82299995e+00 2.36299992e+00 2.36299992e+00 2.36299992e+00
    2.36299992e+00 2.36299992e+00 2.36299992e+00 2.36299992e+00
    2.36299992e+00 2.36299992e+00 2.36299992e+00 2.32699990e+00
    2.27399993e+00 2.20700002e+00 2.11199999e+00 2.01699996e+00
    1.96800005e+00 1.91900003e+00 1.90300000e+00 1.90300000e+00
    1.93299997e+00 2.02399993e+00 2.11599994e+00 2.11599994e+00 0. 0. 0.
    0. 0. 0. 0. 0. 0. 0. 0. 0. 0. 0. 1.06799996e+00 1.25300002e+00
    1.80799997e+00 2.36299992e+00 2.36299992e+00 2.36299992e+00
    2.36299992e+00 2.36299992e+00 2.36299992e+00 2.36299992e+00
    2.36299992e+00 2.36299992e+00 2.36299992e+00 2.32699990e+00
    2.27399993e+00 2.21399999e+00 2.14000010e+00 2.06599998e+00
    2.01699996e+00 1.96800005e+00 1.95200002e+00 1.95200002e+00
    1.97500002e+00 2.04500008e+00 2.11599994e+00 2.11599994e+00 0. 0. 0.
    0. 0. 0. 0. 0. 0. 0. 0. 0. 0. 0. 1.03199995e+00 1.22200000e+00
    1.79200006e+00 2.36299992e+00 2.36299992e+00 2.36299992e+00
    2.36299992e+00 2.36299992e+00 2.36299992e+00 2.36299992e+00
    2.36299992e+00 2.36299992e+00 2.36299992e+00 2.32699990e+00
    2.27399993e+00 2.22099996e+00 2.16799998e+00 2.11599994e+00
    2.06599998e+00 2.01699996e+00 2. 2. 2.01600003e+00 2.06599998e+00
    2.11599994e+00 2.11599994e+00 0. 0. 0. 0. 0. 0. 0. 0. 0. 0. 0. 0. 0.
    0. 0. 1.16400003e+00 1.76300001e+00 2.36299992e+00 2.36299992e+00
    2.36299992e+00 2.36299992e+00 2.36299992e+00 2.36299992e+00
    2.36299992e+00 2.36299992e+00 2.31800008e+00 2.27200007e+00
    2.23699999e+00 2.20600009e+00 2.16899991e+00 2.11800003e+00
    2.06599998e+00 2.03800011e+00 2.00999999e+00 2.01399994e+00
    2.03500009e+00 2.06599998e+00 2.11700010e+00 2.16799998e+00
    2.16799998e+00 0. 0. 0. 0. 0. 0. 0. 0. 0. 0. 0. 0. 0. 0. 0.
    1.10500002e+00 1.73399997e+00 2.36299992e+00 2.36299992e+00
    2.36299992e+00 2.36299992e+00 2.36299992e+00 2.36299992e+00
    2.36299992e+00 2.36299992e+00 2.27200007e+00 2.18199992e+00
    2.14599991e+00 2.13899994e+00 2.11700010e+00 2.06699991e+00
    2.01699996e+00 2.00999999e+00 2.00200009e+00 2.02800012e+00
    2.07100010e+00 2.11700010e+00 2.16799998e+00 2.22000003e+00
    2.22099996e+00 0. 0. 0. 0. 0. 0. 0. 0. 0. 0. 0. 0. 0. 0. 0.
    1.08099997e+00 1.70400000e+00 2.32699990e+00 2.32699990e+00
    2.32699990e+00 2.32699990e+00 2.32699990e+00 2.32200003e+00
    2.30699992e+00 2.29299998e+00 2.21700001e+00 2.14100003e+00
    2.11599994e+00 2.11599994e+00 2.09999990e+00 2.04999995e+00 2. 2. 2.
    2.03299999e+00 2.08299994e+00 1.87100005e+00 1.12899995e+00 0. 0. 0.
    0. 0. 0. 0. 0. 0. 0. 0. 0. 0. 0. 0. 0. 0. 1.07299995e+00
    1.67299998e+00 2.27300000e+00 2.27399993e+00 2.27399993e+00
    2.27399993e+00 2.27399993e+00 2.26099992e+00 2.22399998e+00
    2.18700004e+00 2.15599990e+00 2.12599993e+00 2.11599994e+00
    2.11599994e+00 2.09999990e+00 2.04999995e+00 2. 2. 2. 2.03299999e+00
    2.08299994e+00 1.47800004e+00 0. 0. 0. 0. 0. 0. 0. 0. 0. 0. 0. 0. 0.
    0. 0. 0. 0. 1.08500004e+00 1.25000000e+00 1.74399996e+00
    2.23799992e+00 2.23799992e+00 2.23799992e+00 2.23300004e+00
    2.22600007e+00 2.20600009e+00 2.16100001e+00 2.11599994e+00
    2.11599994e+00 2.11599994e+00 2.10700011e+00 2.09299994e+00
    2.06900001e+00 2.02699995e+00 1.98399997e+00 1.98399997e+00
    1.98399997e+00 2.01699996e+00 2.06599998e+00 1.33200002e+00 0. 0. 0.
    0. 0. 0. 0. 0. 0. 0. 0. 0. 0. 0. 0. 0. 0. 1.72300005e+00
    1.79700005e+00 2.01699996e+00 2.23799992e+00 2.23799992e+00
    2.23799992e+00 2.21799994e+00 2.18799996e+00 2.16100001e+00
    2.13800001e+00 2.11599994e+00 2.11599994e+00 2.11599994e+00
    2.07900000e+00 2.02300000e+00 1.97800004e+00 1.95700002e+00
    1.93599999e+00 1.93599999e+00 1.93599999e+00 1.96800005e+00
    2.01699996e+00 1.68200004e+00 0. 0. 0. 0. 0. 0. 0. 0. 0. 0. 0. 0. 0.
    0. 0. 0. 0. 2.36199999e+00 2.34400010e+00 2.29099989e+00
    2.23799992e+00 2.23799992e+00 2.23799992e+00 2.20300007e+00
    2.15100002e+00 2.11599994e+00 2.11599994e+00 2.11599994e+00
    2.11599994e+00 2.11599994e+00 2.05100012e+00 1.95299995e+00
    1.88699996e+00 1.88699996e+00 1.88699996e+00 1.88699996e+00
    1.88699996e+00 1.91900003e+00 1.96800005e+00 2.03299999e+00
    2.13299990e+00 2.23300004e+00 2.23300004e+00 0. 0. 0. 0. 0. 0. 0. 0.
    0. 0. 0. 0. 0. 0. 2.30999994e+00 2.29900002e+00 2.26900005e+00
    2.23799992e+00 2.23799992e+00 2.23799992e+00 2.20300007e+00
    2.15100002e+00 2.11599994e+00 2.11599994e+00 2.11599994e+00
    2.11599994e+00 2.11599994e+00 2.05100012e+00 1.95299995e+00
    1.88699996e+00 1.88699996e+00 1.88699996e+00 1.88699996e+00
    1.88699996e+00 1.91900003e+00 1.96800005e+00 2.01900005e+00
    2.07800007e+00 2.13599992e+00 2.13599992e+00 0. 0. 0. 0. 0. 0. 0. 0.
    0. 0. 0. 0. 0. 0. 2.25600004e+00 2.25300002e+00 2.24600005e+00
    2.23799992e+00 2.23799992e+00 2.23799992e+00 2.20300007e+00
    2.15100002e+00 2.11599994e+00 2.11599994e+00 2.11599994e+00
    2.11599994e+00 2.11599994e+00 2.05100012e+00 1.95299995e+00
    1.88699996e+00 1.88699996e+00 1.88699996e+00 1.88699996e+00
    1.88699996e+00 1.91900003e+00 1.96800005e+00 2.00500011e+00
    2.01900005e+00 2.03399992e+00 2.03399992e+00 0. 0. 0. 0. 0. 0. 0. 0.
    0. 0. 0. 0. 0. 0. 2.20300007e+00 2.20799994e+00 2.22300005e+00
    2.23799992e+00 2.23799992e+00 2.23799992e+00 2.21300006e+00
    2.17600012e+00 2.14599991e+00 2.13100004e+00 2.11599994e+00
    2.11599994e+00 2.11599994e+00 2.05100012e+00 1.95299995e+00
    1.88699996e+00 1.88699996e+00 1.88699996e+00 1.88699996e+00
    1.88699996e+00 1.91900003e+00 1.96800005e+00 2. 2. 2. 2. 0. 0. 0. 0.
    0. 0. 0. 0. 0. 0. 0. 0. 0. 0. 2.15100002e+00 2.16300011e+00
    2.20099998e+00 2.23799992e+00 2.23799992e+00 2.23799992e+00
    2.22799993e+00 2.21300006e+00 2.19099998e+00 2.15300012e+00
    2.11599994e+00 2.11599994e+00 2.11599994e+00 2.05100012e+00
    1.95299995e+00 1.88699996e+00 1.88699996e+00 1.88699996e+00
    1.88699996e+00 1.88699996e+00 1.91900003e+00 1.96800005e+00 2. 2. 2.
    2. 0. 0. 0. 0. 0. 0. 0. 0. 0. 0. 0. 0. 0. 0. 2.11599994e+00
    2.13100004e+00 2.17600012e+00 2.22099996e+00 2.22099996e+00
    2.22099996e+00 2.22099996e+00 2.22099996e+00 2.20600009e+00
    2.16100001e+00 2.11599994e+00 2.10899997e+00 2.10200000e+00
    2.03900003e+00 1.94799995e+00 1.88699996e+00 1.88699996e+00
    1.88699996e+00 1.88699996e+00 1.88699996e+00 1.91900003e+00
    1.96800005e+00 2. 2. 2. 2. 0. 0. 0. 0. 0. 0. 0. 0. 0. 0. 0. 0. 0. 0.
    2.11599994e+00 2.12299991e+00 2.14599991e+00 2.16799998e+00
    2.16799998e+00 2.16799998e+00 2.16799998e+00 2.16799998e+00
    2.16100001e+00 2.13899994e+00 2.11599994e+00 2.08800006e+00
    2.05900002e+00 2.00300002e+00 1.93400002e+00 1.88699996e+00
    1.88699996e+00 1.88699996e+00 1.88699996e+00 1.88699996e+00
    1.91900003e+00 1.96800005e+00 2. 2. 2. 2. 0. 0. 0. 0. 0. 0. 0. 0. 0.
    0. 0. 0. 0. 0. 2.11599994e+00 2.11599994e+00 2.11599994e+00
    2.11599994e+00 2.11599994e+00 2.11599994e+00 2.11599994e+00
    2.11599994e+00 2.11599994e+00 2.11599994e+00 2.11599994e+00
    2.06599998e+00 2.01699996e+00 1.96800005e+00 1.91900003e+00
    1.88699996e+00 1.88699996e+00 1.88699996e+00 1.88699996e+00
    1.88699996e+00 1.91900003e+00 1.96800005e+00 2. 2. 2. 2. 0. 0. 0. 0.
    0. 0. 0. 0. 0. 0. 0. 0. 0. 0. 2.11599994e+00 2.11599994e+00
    2.11599994e+00 2.11599994e+00 2.11599994e+00 2.11599994e+00
    2.11599994e+00 2.11599994e+00 2.11599994e+00 2.11599994e+00
    2.11599994e+00 2.06599998e+00 2.01699996e+00 1.98199999e+00
    1.95400000e+00 1.93499994e+00 1.93499994e+00 1.93499994e+00
    1.93499994e+00 1.93499994e+00 1.95400000e+00 1.98099995e+00 2. 2. 2.
    2. 0. 0. 0. 0. 0. 0. 0. 0. 0. 0. 0. 0. 0. 0. 2.11599994e+00
    2.11599994e+00 2.11599994e+00 2.11599994e+00 2.11599994e+00
    2.11599994e+00 2.11599994e+00 2.11599994e+00 2.11599994e+00
    2.11599994e+00 2.11599994e+00 2.06599998e+00 2.01699996e+00
    1.99500000e+00 1.98800004e+00 1.98399997e+00 1.98399997e+00
    1.98399997e+00 1.98399997e+00 1.98399997e+00 1.98800004e+00
    1.99500000e+00 2. 2. 2. 2. 0. 0. 0. 0. 0. 0. 0. 0. 0. 0. 0. 0. 0. 0.
    2.11599994e+00 2.11599994e+00 2.11599994e+00 2.11599994e+00
    2.11599994e+00 2.11599994e+00 2.11599994e+00 2.11599994e+00
    2.11599994e+00 2.11599994e+00 2.11599994e+00 2.06599998e+00
    2.01699996e+00 2. 2. 2. 2. 2. 2. 2. 2.00900006e+00 2.02399993e+00
    2.03299999e+00 2.03299999e+00 2.03299999e+00 2.03299999e+00 0. 0. 0.
    0. 0. 0. 0. 0. 0. 0. 0. 0. 0. 0. 2.11599994e+00 2.11599994e+00
    2.11599994e+00 2.11599994e+00 2.11599994e+00 2.11599994e+00
    2.11599994e+00 2.11599994e+00 2.11599994e+00 2.11599994e+00
    2.11599994e+00 2.06599998e+00 2.01699996e+00 2. 2. 2. 2. 2. 2. 2.
    2.02399993e+00 2.05900002e+00 2.08299994e+00 2.08299994e+00
    2.08299994e+00 2.08299994e+00 0. 0. 0. 0. 0. 0. 0. 0. 0. 0. 0. 0. 0.
    0. 2.13299990e+00 2.13299990e+00 2.13299990e+00 2.13299990e+00
    2.13299990e+00 2.13299990e+00 2.13299990e+00 2.13299990e+00
    2.13299990e+00 2.13299990e+00 2.13299990e+00 2.08299994e+00
    2.03299999e+00 2.01600003e+00 2.01600003e+00 2.01399994e+00
    2.00699997e+00 2. 2. 2. 2.03299999e+00 2.08299994e+00 2.11599994e+00
    2.11599994e+00 2.11599994e+00 2.11599994e+00 0. 0. 0. 0. 0. 0. 0. 0.
    0. 0. 0. 0. 0. 0. 2.18600011e+00 2.18600011e+00 2.18600011e+00
    2.18600011e+00 2.18600011e+00 2.18600011e+00 2.18600011e+00
    2.18600011e+00 2.18600011e+00 2.18600011e+00 2.18600011e+00
    2.13400006e+00 2.08299994e+00 2.06599998e+00 2.06599998e+00
    2.05699992e+00 2.02800012e+00 2. 2. 2. 2.03299999e+00 2.08299994e+00
    2.11599994e+00 2.11599994e+00 2.11599994e+00 2.11599994e+00 0. 0. 0.
    0. 0. 0. 0. 0. 0. 0. 0. 0. 0. 0. 2.23799992e+00 2.23799992e+00
    2.23799992e+00 2.23799992e+00 2.23799992e+00 2.23799992e+00
    2.23799992e+00 2.23799992e+00 2.23799992e+00 2.23799992e+00
    2.23799992e+00 2.18600011e+00 2.13299990e+00 2.11599994e+00
    2.11599994e+00 2.09899998e+00 2.04999995e+00 2. 2. 2. 2.03299999e+00
    2.08299994e+00 2.11599994e+00 2.11599994e+00 2.11599994e+00
    2.11599994e+00 0. 0. 0. 0. 0. 0. 0. 0. 0. 0. 0. 0. 0. 0.
    2.23799992e+00 2.23799992e+00 2.23799992e+00 2.23799992e+00
    2.23799992e+00 2.23799992e+00 2.23799992e+00 2.23799992e+00
    2.23799992e+00 2.23799992e+00 2.23799992e+00 2.20799994e+00
    2.17799997e+00 2.15300012e+00 2.13100004e+00 2.10700011e+00
    2.07800007e+00 2.04999995e+00 2.04999995e+00 2.04999995e+00
    2.06800008e+00 2.09699988e+00 2.11599994e+00 2.11599994e+00
    2.11599994e+00 2.11599994e+00 0. 0. 0. 0. 0. 0. 0. 0. 0. 0. 0. 0. 0.
    0. 2.23799992e+00 2.23799992e+00 2.23799992e+00 2.23799992e+00
    2.23799992e+00 2.23799992e+00 2.23799992e+00 2.23799992e+00
    2.23799992e+00 2.23799992e+00 2.23799992e+00 2.23000002e+00
    2.22300005e+00 2.19099998e+00 2.14599991e+00 2.11400008e+00
    2.10599995e+00 2.09899998e+00 2.09899998e+00 2.09899998e+00
    2.10400009e+00 2.11100006e+00 2.11599994e+00 2.11599994e+00
    2.11599994e+00 2.11599994e+00 0. 0. 0. 0. 0. 0. 0. 0. 0. 0. 0. 0. 0.
    0. 0. 0. 1.44700003e+00 2.23799992e+00 2.23799992e+00 2.23799992e+00
    2.24799991e+00 2.26300001e+00 2.27300000e+00 2.27300000e+00
    2.27300000e+00 2.27300000e+00 2.27300000e+00 2.23799992e+00
    2.18600011e+00 2.14599991e+00 2.13100004e+00 2.11599994e+00
    2.11599994e+00 2.11599994e+00 2.11599994e+00 2.11599994e+00
    2.11599994e+00 2.11599994e+00 2.11599994e+00 2.11599994e+00 0. 0. 0.
    0. 0. 0. 0. 0. 0. 0. 0. 0. 0. 0. 0. 0. 0. 2.23699999e+00
    2.23799992e+00 2.23799992e+00 2.26300001e+00 2.30200005e+00
    2.32699990e+00 2.32699990e+00 2.32699990e+00 2.32699990e+00
    2.32699990e+00 2.29200006e+00 2.23799992e+00 2.19099998e+00
    2.15300012e+00 2.11599994e+00 2.11599994e+00 2.11599994e+00
    2.11599994e+00 2.11599994e+00 2.11599994e+00 2.11599994e+00
    2.11599994e+00 2.11599994e+00 0. 0. 0. 0. 0. 0. 0. 0. 0. 0. 0. 0. 0.
    0. 0. 0. 0. 2.23600006e+00 2.23099995e+00 2.22300005e+00
    2.25099993e+00 2.29699993e+00 2.33100009e+00 2.33800006e+00
    2.34500003e+00 2.34500003e+00 2.34500003e+00 2.31500006e+00
    2.26900005e+00 2.22099996e+00 2.16799998e+00 2.11599994e+00
    2.11599994e+00 2.11599994e+00 2.11599994e+00 2.11599994e+00
    2.11800003e+00 2.12599993e+00 2.13299990e+00 2.13299990e+00 0. 0. 0.
    0. 0. 0. 0. 0. 0. 0. 0. 0. 0. 0. 0. 0. 0. 2.23600006e+00
    2.20799994e+00 2.17799997e+00 2.18400002e+00 2.20700002e+00
    2.23200011e+00 2.26200008e+00 2.29200006e+00 2.29200006e+00
    2.29200006e+00 2.27699995e+00 2.25300002e+00 2.22099996e+00
    2.16799998e+00 2.11599994e+00 2.11599994e+00 2.11599994e+00
    2.11599994e+00 2.11599994e+00 2.12599993e+00 2.15599990e+00
    2.18499994e+00 2.18499994e+00 0. 0. 0. 0. 0. 0. 0. 0. 0. 0. 0. 0. 0.
    0. 0. 0. 0. 2.23600006e+00 2.18600011e+00 2.13400006e+00
    2.11599994e+00 2.11599994e+00 2.13400006e+00 2.18600011e+00
    2.23799992e+00 2.23799992e+00 2.23799992e+00 2.23799992e+00
    2.23799992e+00 2.22099996e+00 2.16799998e+00 2.11599994e+00
    2.11599994e+00 2.11599994e+00 2.11599994e+00 2.11599994e+00
    2.13299990e+00 2.18499994e+00 2.23799992e+00 2.23799992e+00 0. 0. 0.
    0. 0. 0. 0. 0. 0. 0. 0. 0. 0. 0. 0. 0. 0. 0. 0. 1.73699999e+00
    2.11599994e+00 2.11599994e+00 2.12599993e+00 2.15599990e+00
    2.18600011e+00 2.18600011e+00 2.18600011e+00 2.21600008e+00
    2.26099992e+00 2.27399993e+00 2.22099996e+00 2.16799998e+00
    2.16799998e+00 2.16799998e+00 2.16799998e+00 2.16799998e+00
    2.17799997e+00 2.20799994e+00 2.23799992e+00 2.23799992e+00 0. 0. 0.
    0. 0. 0. 0. 0. 0. 0. 0. 0. 0. 0. 0. 0. 0. 0. 0. 1.33800006e+00
    2.11599994e+00 2.11599994e+00 2.11899996e+00 2.12599993e+00
    2.13400006e+00 2.13400006e+00 2.13400006e+00 2.19400001e+00
    2.28399992e+00 2.32699990e+00 2.27399993e+00 2.22000003e+00
    2.22000003e+00 2.22000003e+00 2.22000003e+00 2.22000003e+00
    2.22300005e+00 2.23000002e+00 2.23799992e+00 2.23799992e+00 0. 0. 0.
    0. 0. 0. 0. 0. 0. 0. 0. 0. 0. 0. 0. 0. 0. 0. 0. 1.20299995e+00
    2.11599994e+00 2.11599994e+00 2.11599994e+00 2.11599994e+00
    2.11599994e+00 2.11599994e+00 2.11599994e+00 2.18600011e+00
    2.29200006e+00 2.34500003e+00 2.29200006e+00 2.23799992e+00
    2.23799992e+00 2.23799992e+00 2.23799992e+00 2.23799992e+00
    2.23799992e+00 2.23799992e+00 2.23799992e+00 2.23799992e+00 0. 0. 0.
    0. 0. 0. 0. 0. 0. 0. 0. 0. 0. 0. 0. 0. 0. 0. 0. 0. 0. 0. 0. 0. 0. 0.
    0. 0. 0. 0. 0. 0. 0. 0. 0. 0. 0. 0. 0. 0. 0. 0. 0. 0. 0. 0. 0. 0. 0.
    0. 0. 0. 0. 0. 0. 0. 0. 0. 0. 0. 0. 0. 0. 0. 0. 0. 0. 0. 0. 0. 0. 0.
    0. 0. 0. 0. 0. 0. 0. 0. 0. 0. 0. 0. 0. 0. 0. 0. 0. 0. 0. 0. 0. 0. 0.
    0. 0. 0. 0. 0. 0. 0. 0. 0. 0. 0. 0. 0. 0. 0. 0. 0. 0. 0. 0. 0. 0. 0.
    0. 0. 0. 0. 0. 0. 0. 0. 0.</data></Depth>
</opencv_storage>
