<?xml version="1.0"?>
<opencv_storage>
<Depth type_id="opencv-matrix">
  <rows>40</rows>
  <cols>40</cols>
  <dt>f</dt>
  <data>
    0. 0. 0. 0. 0. 0. 0. 0. 0. 0. 0. 0. 0. 0. 0. 0. 0. 0. 0. 0. 0. 0. 0.
    2.19300008e+00 2.05299997e+00 2.04999995e+00 2.31100011e+00 0. 0. 0.
    0. 0. 0. 0. 0. 0. 0. 0. 0. 0. 0. 0. 0. 0. 0. 0. 0. 0. 0. 0. 0. 0. 0.
    0. 0. 0. 0. 0. 0. 0. 0. 0. 0. 1.99600005e+00 1.97500002e+00
    1.98000002e+00 1.05200005e+00 1.25500000e+00 0. 0. 0. 0. 0. 0. 0. 0.
    0. 0. 0. 0. 0. 0. 0. 0. 0. 0. 0. 0. 0. 0. 0. 0. 0. 0. 0. 0. 0. 0. 0.
    0. 0. 1.98399997e+00 1.98000002e+00 1.97700000e+00 1.97700000e+00
    1.97599995e+00 1.05999994e+00 1.05200005e+00 0. 0. 0. 0. 0. 0. 0. 0.
    0. 0. 0. 0. 0. 0. 0. 0. 0. 0. 0. 0. 0. 0. 0. 0. 0. 0. 0. 0. 0.
    2.96799994e+00 1.99300003e+00 1.98899996e+00 1.98399997e+00
    1.98000002e+00 1.98000002e+00 1.97800004e+00 1.97700000e+00
    1.97500002e+00 1.98000002e+00 1.05200005e+00 0. 0. 0. 0. 0. 0. 0. 0.
    0. 0. 0. 0. 0. 0. 0. 0. 0. 0. 0. 0. 0. 0. 0. 0. 0. 0. 1.99199998e+00
    1.99000001e+00 1.99000001e+00 1.98699999e+00 1.98699999e+00
    1.98500001e+00 1.98500001e+00 1.98199999e+00 1.98000002e+00
    1.97899997e+00 1.97700000e+00 1.97700000e+00 1.97800004e+00
    1.09200001e+00 1.05200005e+00 0. 0. 0. 0. 0. 0. 0. 0. 0. 0. 0. 0. 0.
    0. 0. 0. 0. 0. 0. 0. 0. 0. 0. 1.99500000e+00 1.99500000e+00
    1.99199998e+00 1.99000001e+00 1.99000001e+00 1.98699999e+00
    1.98699999e+00 1.98500001e+00 1.98500001e+00 1.98500001e+00
    1.98199999e+00 1.97899997e+00 1.97700000e+00 1.97700000e+00
    1.98000002e+00 1.22500002e+00 1.05200005e+00 0. 0. 0. 0. 0. 0. 0. 0.
    0. 0. 0. 0. 0. 0. 0. 0. 0. 0. 0. 0. 2.39800000e+00 1.99899995e+00
    1.99800003e+00 1.99699998e+00 1.99500000e+00 1.99500000e+00
    1.99500000e+00 1.99199998e+00 1.99000001e+00 1.98899996e+00
    1.98699999e+00 1.98500001e+00 1.98500001e+00 1.98199999e+00
    1.98000002e+00 1.97700000e+00 1.97700000e+00 1.98000002e+00
    1.97700000e+00 1.05200005e+00 0. 0. 0. 0. 0. 0. 0. 0. 0. 0. 0. 0. 0.
    0. 0. 0. 2.01600003e+00 2.00600004e+00 2. 2. 2.00300002e+00
    1.99899995e+00 1.99800003e+00 1.99800003e+00 1.99500000e+00
    1.99500000e+00 1.99500000e+00 1.99399996e+00 1.99100006e+00
    1.99000001e+00 1.98699999e+00 1.98500001e+00 1.98500001e+00
    1.98300004e+00 1.98099995e+00 1.98000002e+00 1.97700000e+00
    1.98000002e+00 1.97899997e+00 1.05200005e+00 1.61500001e+00 0. 0. 0.
    0. 0. 0. 0. 0. 0. 0. 0. 0. 0. 0. 2.01200008e+00 2.00500011e+00
    2.00300002e+00 2.00300002e+00 2.00300002e+00 2. 1.99899995e+00
    1.99800003e+00 1.99800003e+00 1.99800003e+00 1.99800003e+00
    1.99500000e+00 1.99500000e+00 1.99300003e+00 1.99000001e+00
    1.99100006e+00 1.98699999e+00 1.98500001e+00 1.98500001e+00
    1.98199999e+00 1.98199999e+00 1.98000002e+00 1.98000002e+00
    1.98000002e+00 1.05200005e+00 1.05200005e+00 0. 0. 0. 0. 0. 0. 0. 0.
    0. 0. 0. 0. 0. 2.00600004e+00 2.00600004e+00 2.00300002e+00
    2.00300002e+00 2.00300002e+00 2.00300002e+00 2. 2.00099993e+00
    1.99899995e+00 1.99800003e+00 1.99800003e+00 1.99800003e+00
    1.99500000e+00 1.99500000e+00 1.99300003e+00 1.99100006e+00
    1.99000001e+00 1.98699999e+00 1.98699999e+00 1.98500001e+00
    1.98399997e+00 1.98199999e+00 1.98000002e+00 1.98000002e+00
    1.98000002e+00 1.17700005e+00 1.05200005e+00 0. 0. 0. 0. 0. 0. 0. 0.
    0. 0. 0. 0. 0. 2.00600004e+00 2.00600004e+00 2.00500011e+00
    2.00399995e+00 2.00300002e+00 2.00300002e+00 2.00099993e+00
    2.00300002e+00 2.00300002e+00 2.00200009e+00 1.99800003e+00
    1.99800003e+00 1.99500000e+00 1.99600005e+00 1.99500000e+00
    1.99199998e+00 1.99000001e+00 1.98800004e+00 1.98699999e+00
    1.98599994e+00 1.98500001e+00 1.98199999e+00 1.98000002e+00
    1.98199999e+00 1.98000002e+00 1.98699999e+00 1.05200005e+00
    1.05200005e+00 0. 0. 0. 0. 0. 0. 0. 0. 0. 0. 0. 0. 2.00799990e+00
    2.00799990e+00 2.00600004e+00 2.00600004e+00 2.00399995e+00
    2.00300002e+00 2.00300002e+00 2.00600004e+00 2.00399995e+00
    2.00200009e+00 1.99800003e+00 1.99800003e+00 1.99800003e+00
    1.99500000e+00 1.99500000e+00 1.99399996e+00 1.99000001e+00
    1.99000001e+00 1.98699999e+00 1.98800004e+00 1.98699999e+00
    1.98399997e+00 1.98199999e+00 1.98500001e+00 1.98000002e+00
    1.98199999e+00 1.05200005e+00 1.05200005e+00 0. 0. 0. 0. 0. 0. 0. 0.
    0. 0. 0. 0. 1.92600000e+00 2.00799990e+00 2.00799990e+00
    2.00600004e+00 2.00600004e+00 2.00600004e+00 2.00300002e+00
    2.00600004e+00 2.00600004e+00 2.00300002e+00 2. 1.99800003e+00
    1.99800003e+00 1.99500000e+00 1.99600005e+00 1.99500000e+00
    1.99199998e+00 1.99199998e+00 1.99000001e+00 1.98800004e+00
    1.98500001e+00 1.98500001e+00 1.98500001e+00 1.98699999e+00
    1.98500001e+00 1.98199999e+00 1.05200005e+00 1.05200005e+00
    2.09800005e+00 0. 0. 0. 0. 0. 0. 0. 0. 0. 0. 0. 1.05200005e+00
    2.00799990e+00 2.00799990e+00 2.00699997e+00 2.00600004e+00
    2.00300002e+00 2.00300002e+00 2.00600004e+00 2.00600004e+00
    2.00600004e+00 2.00200009e+00 2. 1.99899995e+00 1.99800003e+00
    1.99500000e+00 1.99500000e+00 1.99500000e+00 1.99500000e+00
    1.99000001e+00 1.99000001e+00 1.98699999e+00 1.98599994e+00
    1.98500001e+00 1.98500001e+00 1.98500001e+00 1.98500001e+00
    1.85000002e+00 1.05200005e+00 1.60200000e+00 0. 0. 0. 0. 0. 0. 0. 0.
    0. 0. 0. 1.05200005e+00 1.88300002e+00 2.00999999e+00 2.00900006e+00
    2.00699997e+00 2.00600004e+00 2.00600004e+00 2.00600004e+00
    2.00600004e+00 2.00600004e+00 2.00600004e+00 2.00300002e+00
    1.99899995e+00 1.99800003e+00 1.99699998e+00 1.99500000e+00
    1.99399996e+00 1.99199998e+00 1.99100006e+00 1.99000001e+00
    1.98699999e+00 1.98699999e+00 1.98500001e+00 1.98699999e+00
    1.98500001e+00 1.98500001e+00 1.98500001e+00 1.05200005e+00
    1.59599996e+00 0. 0. 0. 0. 0. 0. 0. 0. 0. 0. 0. 1.05200005e+00
    1.05200005e+00 2.01399994e+00 2.01099992e+00 2.00799990e+00
    2.00799990e+00 2.00600004e+00 2.00600004e+00 2.00600004e+00
    2.00600004e+00 2.00399995e+00 2.00300002e+00 2.00300002e+00 2.
    1.99800003e+00 1.99699998e+00 1.99500000e+00 1.99500000e+00
    1.99199998e+00 1.99199998e+00 1.98699999e+00 1.98699999e+00
    1.98500001e+00 1.98699999e+00 1.98699999e+00 1.98599994e+00
    1.98500001e+00 1.70500004e+00 1.05200005e+00 0. 0. 0. 0. 0. 0. 0. 0.
    0. 0. 0. 1.05200005e+00 1.05200005e+00 2.01399994e+00 2.01399994e+00
    2.00799990e+00 2.00799990e+00 2.00799990e+00 2.00600004e+00
    2.00600004e+00 2.00600004e+00 2.00600004e+00 2.00600004e+00
    2.00600004e+00 2.00300002e+00 1.99899995e+00 1.99800003e+00
    1.99600005e+00 1.99600005e+00 1.99300003e+00 1.99100006e+00
    1.99000001e+00 1.98899996e+00 1.98699999e+00 1.98800004e+00
    1.98699999e+00 1.98699999e+00 1.98699999e+00 1.75500000e+00
    1.05200005e+00 0. 0. 0. 0. 0. 0. 0. 0. 0. 0. 0. 1.05599999e+00
    1.05200005e+00 2.01099992e+00 2.01399994e+00 2.00799990e+00
    2.00799990e+00 2.01099992e+00 2.00799990e+00 2.00799990e+00
    2.00600004e+00 2.00600004e+00 2.00600004e+00 2.00600004e+00
    2.00099993e+00 2. 1.99899995e+00 1.99800003e+00 1.99800003e+00
    1.99500000e+00 1.99500000e+00 1.99100006e+00 1.98899996e+00
    1.98699999e+00 1.99000001e+00 1.98699999e+00 1.98699999e+00
    1.98699999e+00 1.98599994e+00 1.05200005e+00 1.05200005e+00 0. 0. 0.
    0. 0. 0. 0. 0. 0. 0. 1.46599996e+00 1.05200005e+00 1.60200000e+00
    2.01399994e+00 2.01300001e+00 2.00799990e+00 2.00799990e+00
    2.00900006e+00 2.00799990e+00 2.00799990e+00 2.00600004e+00
    2.00600004e+00 2.00600004e+00 2.00600004e+00 2. 1.99899995e+00
    1.99800003e+00 1.99800003e+00 1.99800003e+00 1.99500000e+00
    1.99199998e+00 1.99199998e+00 1.99000001e+00 1.99000001e+00
    1.99000001e+00 1.98699999e+00 1.98699999e+00 1.98699999e+00
    1.96700001e+00 1.05200005e+00 0. 0. 0. 0. 0. 0. 0. 0. 0. 0. 0.
    2.29299998e+00 1.23500001e+00 2.01399994e+00 2.01399994e+00
    2.01099992e+00 2.01300001e+00 2.00999999e+00 2.00999999e+00
    2.00900006e+00 2.00799990e+00 2.00600004e+00 2.00600004e+00
    2.00500011e+00 2. 2.00200009e+00 1.99899995e+00 1.99800003e+00
    1.99800003e+00 1.99600005e+00 1.99399996e+00 1.99199998e+00
    1.99000001e+00 1.99199998e+00 1.99000001e+00 1.98800004e+00
    1.98699999e+00 1.98699999e+00 1.98699999e+00 1.09000003e+00
    1.05200005e+00 0. 0. 0. 0. 0. 0. 0. 0. 0. 0. 2.29299998e+00
    1.05200005e+00 1.72800004e+00 2.01399994e+00 2.01399994e+00
    2.01399994e+00 2.01200008e+00 2.01300001e+00 2.01300001e+00
    2.00900006e+00 2.00799990e+00 2.00600004e+00 2.00600004e+00
    2.00399995e+00 2.00300002e+00 2. 1.99800003e+00 1.99800003e+00
    1.99699998e+00 1.99500000e+00 1.99300003e+00 1.99199998e+00
    1.99000001e+00 1.99000001e+00 1.99000001e+00 1.98800004e+00
    1.98800004e+00 1.99000001e+00 1.09099996e+00 1.05200005e+00 0. 0. 0.
    0. 0. 0. 0. 0. 0. 0. 0. 1.05200005e+00 1.05200005e+00 2.01399994e+00
    2.01399994e+00 2.01399994e+00 2.01200008e+00 2.01099992e+00
    2.01300001e+00 2.01099992e+00 2.00799990e+00 2.00600004e+00
    2.00600004e+00 2.00600004e+00 2.00500011e+00 2.00300002e+00
    1.99899995e+00 1.99800003e+00 1.99800003e+00 1.99500000e+00
    1.99500000e+00 1.99199998e+00 1.99300003e+00 1.99199998e+00
    1.99000001e+00 1.99000001e+00 1.98899996e+00 1.99000001e+00
    1.38300002e+00 1.05200005e+00 1.05200005e+00 0. 0. 0. 0. 0. 0. 0. 0.
    0. 0. 1.05200005e+00 1.05200005e+00 1.90100002e+00 2.01399994e+00
    2.01600003e+00 2.01200008e+00 2.01200008e+00 2.01099992e+00
    2.00999999e+00 2.00799990e+00 2.00799990e+00 2.00600004e+00
    2.00600004e+00 2.00600004e+00 2.00600004e+00 1.99800003e+00
    1.99800003e+00 1.99800003e+00 1.99800003e+00 1.99500000e+00
    1.99500000e+00 1.99500000e+00 1.99500000e+00 1.99000001e+00
    1.99000001e+00 1.99000001e+00 1.99000001e+00 1.98800004e+00
    1.05200005e+00 1.05200005e+00 0. 0. 0. 0. 0. 0. 0. 0. 0. 0. 0.
    1.05200005e+00 1.27499998e+00 2.01399994e+00 2.01600003e+00
    2.01600003e+00 2.01399994e+00 2.01300001e+00 2.01099992e+00
    2.01099992e+00 2.00799990e+00 2.00799990e+00 2.00600004e+00
    2.00600004e+00 2.00600004e+00 2.00600004e+00 2.00300002e+00
    1.99800003e+00 1.99800003e+00 1.99800003e+00 1.99500000e+00
    1.99800003e+00 1.99600005e+00 1.99000001e+00 1.99199998e+00
    1.99000001e+00 1.99000001e+00 1.99000001e+00 1.05200005e+00
    1.05200005e+00 2.98099995e+00 0. 0. 0. 0. 0. 0. 0. 0. 0. 0.
    1.05200005e+00 1.27400005e+00 2.01399994e+00 2.01600003e+00
    2.01699996e+00 2.01600003e+00 2.01500010e+00 2.01399994e+00
    2.00999999e+00 2.00799990e+00 2.00799990e+00 2.00799990e+00
    2.00600004e+00 2.00500011e+00 2.00600004e+00 2.00300002e+00 2.
    1.99899995e+00 1.99800003e+00 1.99800003e+00 1.99800003e+00
    1.99600005e+00 1.99300003e+00 1.99199998e+00 1.99100006e+00
    1.99000001e+00 1.99000001e+00 1.80700004e+00 1.05200005e+00 0. 0. 0.
    0. 0. 0. 0. 0. 0. 0. 0. 1.05200005e+00 1.05200005e+00 1.43499994e+00
    2.01799989e+00 2.01600003e+00 2.01600003e+00 2.01500010e+00
    2.01399994e+00 2.01399994e+00 2.01399994e+00 2.00900006e+00
    2.00799990e+00 2.00799990e+00 2.00600004e+00 2.00600004e+00
    2.00600004e+00 2.00200009e+00 2.00099993e+00 1.99899995e+00
    1.99800003e+00 1.99800003e+00 1.99800003e+00 1.99699998e+00
    1.99399996e+00 1.99199998e+00 1.99399996e+00 1.99000001e+00
    1.98699999e+00 1.05200005e+00 1.05200005e+00 0. 0. 0. 0. 0. 0. 0. 0.
    0. 0. 0. 1.05200005e+00 1.07900000e+00 2.01600003e+00 2.01699996e+00
    2.01600003e+00 2.01600003e+00 2.01399994e+00 2.01399994e+00
    2.01399994e+00 2.01099992e+00 2.00900006e+00 2.00699997e+00
    2.00699997e+00 2.00600004e+00 2.00600004e+00 2.00300002e+00 2. 2.
    1.99800003e+00 1.99800003e+00 1.99800003e+00 1.99800003e+00
    1.99500000e+00 1.99199998e+00 1.99199998e+00 1.99000001e+00
    1.99000001e+00 1.05200005e+00 1.05200005e+00 0. 0. 0. 0. 0. 0. 0. 0.
    0. 0. 0. 1.05200005e+00 1.05200005e+00 1.98399997e+00 2.01900005e+00
    2.01799989e+00 2.01600003e+00 2.01600003e+00 2.01399994e+00
    2.01099992e+00 2.01099992e+00 2.00799990e+00 2.00799990e+00
    2.00799990e+00 2.00799990e+00 2.00600004e+00 2.00399995e+00
    2.00300002e+00 2.00200009e+00 1.99800003e+00 1.99899995e+00
    1.99899995e+00 1.99899995e+00 1.99500000e+00 1.99500000e+00
    1.99199998e+00 1.99000001e+00 1.99000001e+00 1.40999997e+00
    1.05200005e+00 1.05200005e+00 0. 0. 0. 0. 0. 0. 0. 0. 0. 0.
    1.05200005e+00 1.05200005e+00 1.05200005e+00 2.01900005e+00
    2.01799989e+00 2.01799989e+00 2.01600003e+00 2.01600003e+00
    2.01399994e+00 2.01399994e+00 2.01300001e+00 2.00999999e+00
    2.00799990e+00 2.00799990e+00 2.00600004e+00 2.00600004e+00
    2.00300002e+00 2.00300002e+00 2. 2. 2. 1.99899995e+00 1.99800003e+00
    1.99500000e+00 1.99500000e+00 1.99199998e+00 1.99000001e+00
    1.98699999e+00 1.05200005e+00 1.05200005e+00 0. 0. 0. 0. 0. 0. 0. 0.
    0. 0. 0. 1.05200005e+00 1.05200005e+00 2.01999998e+00 2.01900005e+00
    2.01900005e+00 2.01600003e+00 2.01600003e+00 2.01600003e+00
    2.01600003e+00 2.01500010e+00 2.01099992e+00 2.00799990e+00
    2.00799990e+00 2.00600004e+00 2.00600004e+00 2.00500011e+00
    2.00300002e+00 2.00300002e+00 2. 2. 2. 1.99800003e+00 1.99800003e+00
    1.99500000e+00 1.99199998e+00 1.99199998e+00 1.99000001e+00
    1.97000003e+00 1.05200005e+00 0. 0. 0. 0. 0. 0. 0. 0. 0. 0. 0.
    1.05200005e+00 1.05200005e+00 1.74899995e+00 2.02200007e+00
    2.01900005e+00 2.01799989e+00 2.01600003e+00 2.01600003e+00
    2.01600003e+00 2.01500010e+00 2.01099992e+00 2.00799990e+00
    2.00799990e+00 2.00799990e+00 2.00799990e+00 2.00600004e+00
    2.00300002e+00 2.00300002e+00 2.00300002e+00 2. 2. 1.99800003e+00
    1.99800003e+00 1.99800003e+00 1.99399996e+00 1.99399996e+00
    1.99500000e+00 2.00500011e+00 1.05200005e+00 0. 0. 0. 0. 0. 0. 0. 0.
    0. 0. 0. 1.05200005e+00 1.05200005e+00 1.31900001e+00 2.02200007e+00
    2.01999998e+00 2.01900005e+00 2.01799989e+00 2.01600003e+00
    2.01600003e+00 2.01399994e+00 2.01300001e+00 2.01300001e+00
    2.01099992e+00 2.00799990e+00 2.00699997e+00 2.00600004e+00
    2.00600004e+00 2.00300002e+00 2.00699997e+00 2.00300002e+00
    2.00099993e+00 2. 2. 1.99800003e+00 1.99800003e+00 1.99500000e+00
    1.99500000e+00 1.99500000e+00 1.05200005e+00 0. 0. 0. 0. 0. 0. 0. 0.
    0. 0. 0. 0. 1.05200005e+00 1.05200005e+00 2.02399993e+00
    2.01900005e+00 2.01900005e+00 2.01900005e+00 2.01799989e+00
    2.01600003e+00 2.01600003e+00 2.01600003e+00 2.01399994e+00
    2.01099992e+00 2.00799990e+00 2.00699997e+00 2.00699997e+00
    2.00600004e+00 2.00600004e+00 2.00600004e+00 2.00399995e+00
    2.00300002e+00 2. 2. 1.99800003e+00 1.99800003e+00 1.99600005e+00
    1.99300003e+00 1.99300003e+00 1.99500000e+00 0. 0. 0. 0. 0. 0. 0. 0.
    0. 0. 0. 0. 1.20000005e+00 1.05200005e+00 1.43700004e+00
    2.02300000e+00 2.01900005e+00 2.01900005e+00 2.01900005e+00
    2.01900005e+00 2.01699996e+00 2.01500010e+00 2.01099992e+00
    2.01099992e+00 2.01200008e+00 2.00799990e+00 2.00799990e+00
    2.00600004e+00 2.00600004e+00 2.00600004e+00 2.00699997e+00
    2.00300002e+00 2. 2. 1.99800003e+00 1.99800003e+00 1.99800003e+00
    1.99600005e+00 1.99600005e+00 1.99500000e+00 0. 0. 0. 0. 0. 0. 0. 0.
    0. 0. 0. 0. 1.58099997e+00 1.05200005e+00 1.05200005e+00
    1.96399999e+00 2.02500010e+00 2.01900005e+00 2.01900005e+00
    2.01900005e+00 2.01799989e+00 2.01500010e+00 2.01399994e+00
    2.01099992e+00 2.01099992e+00 2.00900006e+00 2.00799990e+00
    2.00600004e+00 2.00600004e+00 2.00300002e+00 2.00799990e+00
    2.00399995e+00 2. 2. 2. 1.99800003e+00 1.99800003e+00 1.99800003e+00
    1.99600005e+00 1.99500000e+00 0. 0. 0. 0. 0. 0. 0. 0. 0. 0. 0. 0. 0.
    1.05200005e+00 1.05200005e+00 1.05200005e+00 2.02500010e+00
    2.02200007e+00 2.01900005e+00 2.01900005e+00 2.01900005e+00
    2.01600003e+00 2.01600003e+00 2.01600003e+00 2.01099992e+00
    2.00799990e+00 2.00799990e+00 2.00699997e+00 2.00600004e+00
    2.00799990e+00 2.00799990e+00 2.00399995e+00 2. 2.00300002e+00 2. 2.
    2. 2. 1.11500001e+00 1.05200005e+00 0. 0. 0. 0. 0. 0. 0. 0. 0. 0. 0.
    0. 0. 1.82799995e+00 1.05200005e+00 1.05200005e+00 2.02500010e+00
    2.02300000e+00 2.02300000e+00 2.01900005e+00 2.01900005e+00
    2.01900005e+00 2.01600003e+00 2.01399994e+00 2.01099992e+00
    2.00900006e+00 2.00799990e+00 2.00799990e+00 2.00799990e+00
    2.00799990e+00 2.00900006e+00 2.00699997e+00 2.00399995e+00
    2.00300002e+00 2.00300002e+00 1.99800003e+00 1.10000002e+00
    1.05200005e+00 1.05200005e+00 1.05200005e+00 0. 0. 0. 0. 0. 0. 0. 0.
    0. 0. 0. 0. 0. 0. 1.05200005e+00 1.05200005e+00 2.02200007e+00
    2.02500010e+00 2.02200007e+00 2.02099991e+00 2.01900005e+00
    2.01799989e+00 2.01600003e+00 2.01399994e+00 2.01399994e+00
    2.01500010e+00 2.01300001e+00 2.00900006e+00 2.00799990e+00
    2.00799990e+00 2.00799990e+00 2.01099992e+00 2.02200007e+00
    1.05200005e+00 1.05200005e+00 1.05200005e+00 1.05200005e+00
    1.05200005e+00 1.05200005e+00 1.05200005e+00 0. 0. 0. 0. 0. 0. 0. 0.
    0. 0. 0. 0. 0. 0. 1.05200005e+00 1.05200005e+00 1.70000005e+00
    2.02699995e+00 2.02300000e+00 2.02200007e+00 2.01999998e+00
    2.01900005e+00 2.01900005e+00 2.01699996e+00 2.01600003e+00
    2.01600003e+00 2.01300001e+00 2.00600004e+00 1.60599995e+00
    1.60699999e+00 1.50500000e+00 1.31599998e+00 2.02699995e+00
    1.05200005e+00 1.05200005e+00 2.10400009e+00 2.10599995e+00
    2.10599995e+00 1.05200005e+00 1.05200005e+00 0. 0. 0. 0. 0. 0. 0. 0.
    0. 0. 0. 0. 0. 0. 1.05200005e+00 1.05200005e+00 1.25300002e+00
    2.02699995e+00 2.02500010e+00 2.02500010e+00 2.01999998e+00
    2.01999998e+00 2.01900005e+00 2.01799989e+00 2.01600003e+00
    2.01600003e+00 1.54100001e+00 1.05200005e+00 2.08999991e+00
    2.10100007e+00 1.97300005e+00 2.12199998e+00 1.61699998e+00
    1.05200005e+00 1.84000003e+00 2.09299994e+00 2.07699990e+00
    2.09599996e+00 1.05200005e+00 1.05200005e+00 0. 0. 0.</data></Depth>
</opencv_storage>
