<?xml version="1.0"?>
<opencv_storage>
<Depth type_id="opencv-matrix">
  <rows>40</rows>
  <cols>40</cols>
  <dt>f</dt>
  <data>
    0. 0. 0. 0. 0. 0. 0. 0. 0. 0. 0. 0. 0. 0. 0. 0. 0. 0. 0. 0. 0. 0. 0.
    0. 0. 0. 0. 0. 0. 0. 0. 0. 0. 0. 0. 0. 0. 0. 0. 0. 0. 0. 0. 0. 0. 0.
    0. 0. 0. 0. 0. 0. 0. 0. 0. 0. 0. 0. 0. 0. 0. 0. 0. 0. 0. 0. 0. 0. 0.
    0. 0. 0. 0. 0. 0. 0. 0. 0. 0. 0. 0. 0. 0. 0. 0. 0. 0. 0. 0. 0. 0. 0.
    0. 0. 0. 0. 0. 0. 0. 0. 0. 0. 0. 0. 0. 0. 0. 0. 0. 0. 0. 0. 0. 0. 0.
    0. 0. 0. 0. 0. 0. 0. 0. 0. 0. 0. 0. 0. 0. 0. 0. 0. 0. 0. 0. 0. 0. 0.
    0. 0. 0. 0. 0. 0. 0. 0. 0. 0. 0. 0. 0. 0. 0. 0. 0. 0. 0. 0. 0. 0. 0.
    0. 0. 0. 0. 0. 0. 0. 0. 0. 0. 0. 0. 0. 0. 0. 0. 0. 0. 0. 0. 0. 0. 0.
    0. 0. 0. 0. 0. 0. 0. 0. 0. 0. 0. 0. 0. 0. 0. 0. 0. 0. 0. 0. 0. 0. 0.
    0. 0. 0. 0. 0. 0. 0. 0. 0. 0. 0. 0. 0. 0. 0. 0. 0. 0. 0. 0. 0. 0. 0.
    0. 0. 0. 0. 0. 0. 0. 0. 0. 0. 0. 0. 0. 0. 0. 0. 0. 0. 0. 0. 0. 0. 0.
    0. 0. 0. 0. 0. 0. 0. 0. 0. 0. 0. 0. 0. 0. 0. 0. 0. 0. 0. 0. 0. 0. 0.
    0. 0. 0. 0. 0. 0. 0. 0. 0. 0. 0. 0. 0. 0. 0. 0. 0. 0. 0. 0. 0. 0. 0.
    0. 0. 0. 0. 0. 0. 0. 0. 0. 0. 0. 0. 0. 0. 0. 0. 0. 0. 0. 0. 0. 0. 0.
    0. 0. 0. 0. 0. 0. 0. 0. 0. 0. 0. 0. 0. 0. 0. 0. 0. 0. 0. 0. 0. 0. 0.
    0. 0. 0. 0. 0. 0. 0. 0. 0. 0. 0. 0. 0. 0. 0. 2.18600011e+00
    2.19099998e+00 2.19099998e+00 2.19099998e+00 2.19099998e+00
    1.89699996e+00 1.35200000e+00 1.35200000e+00 1.35200000e+00
    1.35000002e+00 1.32900000e+00 1.32099998e+00 1.31799996e+00
    1.29700005e+00 1.28999996e+00 1.28999996e+00 1.28999996e+00
    1.28999996e+00 1.28999996e+00 1.28999996e+00 1.27400005e+00
    1.25999999e+00 1.25999999e+00 1.24300003e+00 1.23000002e+00
    1.23000002e+00 1.23000002e+00 1.22099996e+00 1.20200002e+00
    1.20099998e+00 1.19099998e+00 1.17200005e+00 1.17200005e+00
    1.16199994e+00 1.14400005e+00 1.14400005e+00 1.14400005e+00
    1.14400005e+00 1.14400005e+00 1.14400005e+00 2.18600011e+00
    2.17499995e+00 2.16499996e+00 2.16499996e+00 2.16499996e+00
    2.02399993e+00 1.76100004e+00 1.76100004e+00 1.76100004e+00
    1.75999999e+00 1.75000000e+00 1.56500006e+00 1.31900001e+00
    1.30900002e+00 1.30599999e+00 1.30599999e+00 1.30599999e+00
    1.30599999e+00 1.37000000e+00 1.60899997e+00 1.66400003e+00
    1.67299998e+00 1.69000006e+00 1.68400002e+00 1.68400002e+00
    1.70099998e+00 1.68700004e+00 1.66700006e+00 1.64100003e+00
    1.62399995e+00 1.46800005e+00 1.17200005e+00 1.17200005e+00
    1.16199994e+00 1.14400005e+00 1.14400005e+00 1.14400005e+00
    1.14400005e+00 1.14400005e+00 1.14400005e+00 2.17700005e+00
    2.15599990e+00 2.14100003e+00 2.14100003e+00 2.14100003e+00
    2.13800001e+00 2.13100004e+00 2.13100004e+00 2.13100004e+00
    2.13100004e+00 2.13100004e+00 1.84700000e+00 1.46399999e+00
    1.45799994e+00 1.45200002e+00 1.44700003e+00 1.44700003e+00
    1.44700003e+00 1.54700005e+00 1.92299998e+00 2.01999998e+00
    2.04699993e+00 2.07900000e+00 2.08400011e+00 2.09400010e+00
    2.11999989e+00 2.09299994e+00 2.06299996e+00 2.03800011e+00
    2.00699997e+00 1.76999998e+00 1.32700002e+00 1.32700002e+00
    1.31900001e+00 1.30499995e+00 1.31099999e+00 1.31400001e+00
    1.31299996e+00 1.30700004e+00 1.30499995e+00 2.14499998e+00
    2.14299989e+00 2.14100003e+00 2.14100003e+00 2.14100003e+00
    2.12599993e+00 2.09899998e+00 2.09899998e+00 2.09899998e+00
    2.09899998e+00 2.09899998e+00 2.03900003e+00 1.95299995e+00
    1.92600000e+00 1.89900005e+00 1.87699997e+00 1.87699997e+00
    1.87699997e+00 1.89999998e+00 1.98300004e+00 2.00300002e+00
    2.01600003e+00 2.04699993e+00 2.05200005e+00 2.05299997e+00
    2.05699992e+00 2.02900004e+00 2.00999999e+00 2.00600004e+00
    1.97599995e+00 1.92700005e+00 1.85899997e+00 1.85899997e+00
    1.85800004e+00 1.85800004e+00 1.88499999e+00 1.89499998e+00
    1.89199996e+00 1.86500001e+00 1.85599995e+00 2.13899994e+00
    2.14100003e+00 2.14100003e+00 2.14100003e+00 2.12299991e+00
    2.10700011e+00 2.09299994e+00 2.09299994e+00 2.08299994e+00
    2.06699991e+00 2.06699991e+00 2.05800009e+00 2.04099989e+00
    2.00999999e+00 1.99100006e+00 1.97599995e+00 1.95899999e+00
    1.95500004e+00 1.95899999e+00 1.97200000e+00 1.98800004e+00
    2.00399995e+00 2.01799989e+00 2.01999998e+00 2.01999998e+00
    2.01999998e+00 2.00799990e+00 2. 2. 1.97099996e+00 1.95500004e+00
    1.95500004e+00 1.95500004e+00 1.95500004e+00 1.95700002e+00
    1.98800004e+00 2. 1.99600005e+00 1.96500003e+00 1.95500004e+00
    2.13899994e+00 2.14100003e+00 2.13700008e+00 2.13000011e+00
    2.10500002e+00 2.08899999e+00 2.08200002e+00 2.08200002e+00
    2.06800008e+00 2.04500008e+00 2.03800011e+00 2.03500009e+00
    2.03099990e+00 2.00799990e+00 1.99500000e+00 1.98399997e+00
    1.96099997e+00 1.95500004e+00 1.95500004e+00 1.95500004e+00
    1.97899997e+00 2. 2. 2. 2. 2. 2. 1.99699998e+00 1.99000001e+00
    1.96700001e+00 1.95500004e+00 1.95500004e+00 1.95500004e+00
    1.95500004e+00 1.95700002e+00 1.98000002e+00 1.98899996e+00
    1.98500001e+00 1.95500004e+00 1.94500005e+00 2.13899994e+00
    2.14100003e+00 2.12700009e+00 2.09699988e+00 2.09400010e+00
    2.07800007e+00 2.04999995e+00 2.04999995e+00 2.04800010e+00
    2.04299998e+00 2.01500010e+00 2.00399995e+00 2.00300002e+00
    2.00099993e+00 1.98099995e+00 1.95799994e+00 1.95599997e+00
    1.95500004e+00 1.95500004e+00 1.95500004e+00 1.97899997e+00 2. 2. 2.
    2. 2. 2. 1.98800004e+00 1.96000004e+00 1.95599997e+00 1.95500004e+00
    1.95500004e+00 1.95500004e+00 1.95500004e+00 1.95500004e+00
    1.95799994e+00 1.95899999e+00 1.95500004e+00 1.92499995e+00
    1.91499996e+00 2.13899994e+00 2.14100003e+00 2.12599993e+00
    2.09299994e+00 2.07399988e+00 2.05800009e+00 2.04600000e+00
    2.04600000e+00 2.04600000e+00 2.04299998e+00 2.01200008e+00 2. 2. 2.
    1.97899997e+00 1.95500004e+00 1.95500004e+00 1.95500004e+00
    1.95500004e+00 1.95500004e+00 1.97899997e+00 2. 2. 2. 2. 2.
    1.98399997e+00 1.96800005e+00 1.95500004e+00 1.95500004e+00
    1.95500004e+00 1.95500004e+00 1.95500004e+00 1.95500004e+00
    1.95500004e+00 1.95500004e+00 1.95500004e+00 1.95099998e+00
    1.92100000e+00 1.91100001e+00 2.13899994e+00 2.14100003e+00
    2.12599993e+00 2.09299994e+00 2.06100011e+00 2.04600000e+00
    2.04600000e+00 2.03699994e+00 2.03299999e+00 2.03200006e+00
    2.01799989e+00 2.00699997e+00 2. 2. 1.98500001e+00 1.96599996e+00
    1.95700002e+00 1.95500004e+00 1.95500004e+00 1.95500004e+00
    1.97899997e+00 1.99699998e+00 1.98899996e+00 1.98800004e+00
    1.98800004e+00 1.98800004e+00 1.96800005e+00 1.95500004e+00
    1.95500004e+00 1.95500004e+00 1.95099998e+00 1.94299996e+00
    1.94299996e+00 1.94700003e+00 1.95400000e+00 1.94599998e+00
    1.94299996e+00 1.94000006e+00 1.91799998e+00 1.91100001e+00
    2.13899994e+00 2.14100003e+00 2.12599993e+00 2.09299994e+00
    2.06100011e+00 2.04600000e+00 2.04500008e+00 2.01500010e+00
    2.00200009e+00 2.00500011e+00 2.03299999e+00 2.02500010e+00 2. 2.
    1.99899995e+00 1.99199998e+00 1.96300006e+00 1.95500004e+00
    1.95500004e+00 1.95500004e+00 1.97899997e+00 1.99100006e+00
    1.96099997e+00 1.95700002e+00 1.95700002e+00 1.95700002e+00
    1.95599997e+00 1.95500004e+00 1.95500004e+00 1.95500004e+00
    1.94099998e+00 1.91299999e+00 1.91299999e+00 1.92900002e+00
    1.95299995e+00 1.92400002e+00 1.91299999e+00 1.91299999e+00
    1.91100001e+00 1.91100001e+00 2.10999990e+00 2.11100006e+00
    2.09599996e+00 2.06399989e+00 2.05200005e+00 2.04600000e+00
    2.04500008e+00 2.01300001e+00 2. 2.00099993e+00 2.01300001e+00
    2.00999999e+00 1.99699998e+00 1.97800004e+00 1.97200000e+00
    1.96899998e+00 1.95799994e+00 1.95500004e+00 1.95500004e+00
    1.95500004e+00 1.97899997e+00 1.99000001e+00 1.96000004e+00
    1.95500004e+00 1.95500004e+00 1.95500004e+00 1.95500004e+00
    1.95500004e+00 1.95500004e+00 1.95500004e+00 1.94000006e+00
    1.91100001e+00 1.91100001e+00 1.91700006e+00 1.92600000e+00
    1.91499996e+00 1.91100001e+00 1.91100001e+00 1.91100001e+00
    1.91100001e+00 2.09299994e+00 2.09299994e+00 2.07800007e+00
    2.04600000e+00 2.04600000e+00 2.04099989e+00 2.03099990e+00
    2.00900006e+00 2. 2. 2. 1.99399996e+00 1.98300004e+00 1.96200001e+00
    1.95500004e+00 1.95500004e+00 1.95500004e+00 1.95500004e+00
    1.95500004e+00 1.95500004e+00 1.97200000e+00 1.97899997e+00
    1.95799994e+00 1.96300006e+00 1.96500003e+00 1.95599997e+00
    1.95500004e+00 1.95500004e+00 1.95500004e+00 1.95500004e+00
    1.94500005e+00 1.92499995e+00 1.91499996e+00 1.91100001e+00
    1.91100001e+00 1.91100001e+00 1.91100001e+00 1.91100001e+00
    1.91100001e+00 1.91100001e+00 2.09299994e+00 2.09299994e+00
    2.07800007e+00 2.04600000e+00 2.04600000e+00 2.02999997e+00 2. 2. 2.
    2. 2. 1.98099995e+00 1.95500004e+00 1.95500004e+00 1.95500004e+00
    1.95500004e+00 1.95500004e+00 1.95500004e+00 1.95500004e+00
    1.95500004e+00 1.95500004e+00 1.95500004e+00 1.95500004e+00
    1.98099995e+00 1.98800004e+00 1.95799994e+00 1.95500004e+00
    1.95500004e+00 1.95500004e+00 1.95500004e+00 1.95500004e+00
    1.95400000e+00 1.92400002e+00 1.91100001e+00 1.91100001e+00
    1.91100001e+00 1.91100001e+00 1.91100001e+00 1.91100001e+00
    1.91100001e+00 2.09200001e+00 2.09299994e+00 2.07800007e+00
    2.04600000e+00 2.04600000e+00 2.02999997e+00 2. 2. 1.98800004e+00
    1.97000003e+00 1.97000003e+00 1.95099998e+00 1.92499995e+00
    1.92499995e+00 1.92499995e+00 1.92100000e+00 1.90199995e+00
    1.89699996e+00 1.90199995e+00 1.92100000e+00 1.94099998e+00
    1.95500004e+00 1.95500004e+00 1.98099995e+00 1.98800004e+00
    1.95799994e+00 1.95500004e+00 1.95500004e+00 1.95500004e+00
    1.95500004e+00 1.95500004e+00 1.95400000e+00 1.92499995e+00
    1.91100001e+00 1.91100001e+00 1.91100001e+00 1.91100001e+00
    1.91100001e+00 1.91100001e+00 1.91100001e+00 2.07500005e+00
    2.07699990e+00 2.06699991e+00 2.04600000e+00 2.03500009e+00
    2.01900005e+00 2. 2. 1.98300004e+00 1.95500004e+00 1.95500004e+00
    1.93599999e+00 1.91100001e+00 1.91100001e+00 1.91100001e+00
    1.90499997e+00 1.87600005e+00 1.86800003e+00 1.87600005e+00
    1.90499997e+00 1.93499994e+00 1.95500004e+00 1.95500004e+00
    1.98099995e+00 1.98800004e+00 1.95799994e+00 1.95500004e+00
    1.95500004e+00 1.95500004e+00 1.95500004e+00 1.95500004e+00
    1.95400000e+00 1.92499995e+00 1.91100001e+00 1.91100001e+00
    1.91100001e+00 1.91100001e+00 1.91100001e+00 1.91100001e+00
    1.90400004e+00 2.04600000e+00 2.04600000e+00 2.04600000e+00
    2.04600000e+00 2.01500010e+00 2. 2. 1.99899995e+00 1.98199999e+00
    1.95500004e+00 1.95500004e+00 1.93599999e+00 1.91100001e+00
    1.91100001e+00 1.90999997e+00 1.90400004e+00 1.87500000e+00
    1.86899996e+00 1.87699997e+00 1.90499997e+00 1.93499994e+00
    1.95500004e+00 1.95500004e+00 1.98000002e+00 1.98699999e+00
    1.95799994e+00 1.95500004e+00 1.95500004e+00 1.95400000e+00
    1.95299995e+00 1.95200002e+00 1.95200002e+00 1.92200005e+00
    1.90799999e+00 1.90900004e+00 1.90900004e+00 1.90999997e+00
    1.90999997e+00 1.90999997e+00 1.89100003e+00 2.04399991e+00
    2.04600000e+00 2.04600000e+00 2.04600000e+00 2.01500010e+00 2.
    1.99899995e+00 1.97700000e+00 1.96300006e+00 1.95500004e+00
    1.95500004e+00 1.93599999e+00 1.91100001e+00 1.91100001e+00
    1.89699996e+00 1.87899995e+00 1.87000000e+00 1.88300002e+00
    1.90100002e+00 1.90900004e+00 1.93499994e+00 1.95500004e+00
    1.95500004e+00 1.96300006e+00 1.96500003e+00 1.95599997e+00
    1.95500004e+00 1.94599998e+00 1.92499995e+00 1.90400004e+00
    1.89300001e+00 1.89300001e+00 1.86399996e+00 1.85099995e+00
    1.85200000e+00 1.87199998e+00 1.88100004e+00 1.88100004e+00
    1.88100004e+00 1.87500000e+00 2.04399991e+00 2.04600000e+00
    2.04600000e+00 2.04600000e+00 2.01500010e+00 2. 1.99899995e+00
    1.96800005e+00 1.95500004e+00 1.95500004e+00 1.95500004e+00
    1.93599999e+00 1.91100001e+00 1.91100001e+00 1.89100003e+00
    1.86800003e+00 1.86800003e+00 1.88999999e+00 1.91400003e+00
    1.92600000e+00 1.94299996e+00 1.95500004e+00 1.95500004e+00
    1.95500004e+00 1.95099998e+00 1.93900001e+00 1.93799996e+00
    1.92999995e+00 1.91199994e+00 1.88300002e+00 1.86800003e+00
    1.86699998e+00 1.83899999e+00 1.82599998e+00 1.82700002e+00
    1.84500003e+00 1.85200000e+00 1.85300004e+00 1.86399996e+00
    1.86800003e+00 2.04399991e+00 2.04399991e+00 2.04299998e+00
    2.04299998e+00 2.01399994e+00 2. 1.99899995e+00 1.96800005e+00
    1.95500004e+00 1.95500004e+00 1.95500004e+00 1.93799996e+00
    1.91400003e+00 1.91199994e+00 1.89199996e+00 1.87100005e+00
    1.87300003e+00 1.89400005e+00 1.92100000e+00 1.94900000e+00
    1.95500004e+00 1.95400000e+00 1.95200002e+00 1.95200002e+00
    1.94099998e+00 1.91100001e+00 1.90799999e+00 1.90900004e+00
    1.91100001e+00 1.88300002e+00 1.86800003e+00 1.86699998e+00
    1.83899999e+00 1.82599998e+00 1.82599998e+00 1.82599998e+00
    1.82599998e+00 1.83000004e+00 1.85800004e+00 1.86800003e+00
    2.04200006e+00 2.02399993e+00 2.01200008e+00 2.01200008e+00
    2.00399995e+00 2. 1.99899995e+00 1.96800005e+00 1.95500004e+00
    1.95500004e+00 1.95500004e+00 1.95000005e+00 1.94000006e+00
    1.91799998e+00 1.90600002e+00 1.90499997e+00 1.92700005e+00
    1.93799996e+00 1.94599998e+00 1.95299995e+00 1.95500004e+00
    1.94799995e+00 1.92499995e+00 1.92200005e+00 1.91100001e+00
    1.88199997e+00 1.87899995e+00 1.88800001e+00 1.90999997e+00
    1.88300002e+00 1.86800003e+00 1.86699998e+00 1.83899999e+00
    1.82599998e+00 1.82599998e+00 1.82599998e+00 1.82599998e+00
    1.83000004e+00 1.85800004e+00 1.86800003e+00 2.04200006e+00
    2.01699996e+00 2. 2. 2. 2. 1.99899995e+00 1.96800005e+00
    1.95500004e+00 1.95500004e+00 1.95500004e+00 1.95500004e+00
    1.95200002e+00 1.93499994e+00 1.92999995e+00 1.93299997e+00
    1.95099998e+00 1.95500004e+00 1.95500004e+00 1.95500004e+00
    1.95500004e+00 1.94500005e+00 1.91499996e+00 1.91100001e+00
    1.89999998e+00 1.87100005e+00 1.86800003e+00 1.88100004e+00
    1.90999997e+00 1.89499998e+00 1.88600004e+00 1.88600004e+00
    1.85699999e+00 1.84399998e+00 1.84399998e+00 1.84399998e+00
    1.84399998e+00 1.84399998e+00 1.84899998e+00 1.85000002e+00
    2.04200006e+00 2.01699996e+00 2. 2. 2. 2. 1.99899995e+00
    1.96800005e+00 1.95500004e+00 1.95500004e+00 1.95500004e+00
    1.95500004e+00 1.95500004e+00 1.95500004e+00 1.95500004e+00
    1.95500004e+00 1.95500004e+00 1.95500004e+00 1.95500004e+00
    1.95500004e+00 1.95500004e+00 1.94500005e+00 1.91499996e+00
    1.91100001e+00 1.89999998e+00 1.87100005e+00 1.86800003e+00
    1.88100004e+00 1.90999997e+00 1.91100001e+00 1.91100001e+00
    1.90999997e+00 1.88100004e+00 1.86800003e+00 1.86800003e+00
    1.86800003e+00 1.86800003e+00 1.86399996e+00 1.83599997e+00
    1.82599998e+00 0. 0. 0. 0. 0. 0. 0. 0. 0. 0. 0. 0. 0. 0. 0. 0. 0. 0.
    0. 0. 0. 0. 0. 0. 0. 0. 0. 0. 0. 0. 0. 0. 0. 0. 0. 0. 0. 0. 0. 0. 0.
    0. 0. 0. 0. 0. 0. 0. 0. 0. 0. 0. 0. 0. 0. 0. 0. 0. 0. 0. 0. 0. 0. 0.
    0. 0. 0. 0. 0. 0. 0. 0. 0. 0. 0. 0. 0. 0. 0. 0. 0. 0. 0. 0. 0. 0. 0.
    0. 0. 0. 0. 0. 0. 0. 0. 0. 0. 0. 0. 0. 0. 0. 0. 0. 0. 0. 0. 0. 0. 0.
    0. 0. 0. 0. 0. 0. 0. 0. 0. 0. 0. 0. 0. 0. 0. 0. 0. 0. 0. 0. 0. 0. 0.
    0. 0. 0. 0. 0. 0. 0. 0. 0. 0. 0. 0. 0. 0. 0. 0. 0. 0. 0. 0. 0. 0. 0.
    0. 0. 0. 0. 0. 0. 0. 0. 0. 0. 0. 0. 0. 0. 0. 0. 0. 0. 0. 0. 0. 0. 0.
    0. 0. 0. 0. 0. 0. 0. 0. 0. 0. 0. 0. 0. 0. 0. 0. 0. 0. 0. 0. 0. 0. 0.
    0. 0. 0. 0. 0. 0. 0. 0. 0. 0. 0. 0. 0. 0. 0. 0. 0. 0. 0. 0. 0. 0. 0.
    0. 0. 0. 0. 0. 0. 0. 0. 0. 0. 0. 0. 0. 0. 0. 0. 0. 0. 0. 0. 0. 0. 0.
    0. 0. 0. 0. 0. 0. 0. 0. 0. 0. 0. 0. 0. 0. 0. 0. 0. 0. 0. 0. 0. 0. 0.
    0. 0. 0. 0. 0. 0. 0. 0. 0. 0. 0. 0. 0. 0. 0. 0. 0. 0. 0. 0. 0. 0. 0.
    0. 0. 0. 0. 0. 0. 0. 0. 0. 0. 0. 0. 0. 0. 0. 0. 0. 0. 0. 0. 0. 0. 0.
    0. 0. 0. 0. 0. 0. 0. 0. 0. 0. 0. 0. 0. 0. 0. 0. 0. 0. 0. 0. 0. 0. 0.
    0. 0. 0. 0. 0. 0. 0. 0. 0. 0. 0. 0. 0. 0. 0. 0. 0. 0. 0. 0.</data></Depth>
</opencv_storage>
