<?xml version="1.0"?>
<opencv_storage>
<Depth type_id="opencv-matrix">
  <rows>40</rows>
  <cols>40</cols>
  <dt>f</dt>
  <data>
    2.03800011e+00 2.03600001e+00 2.01900005e+00 2.01900005e+00
    2.02099991e+00 2.06800008e+00 2.68199992e+00 0. 0. 0. 0. 0. 0. 0. 0.
    0. 0. 0. 2. 2. 2. 1.99300003e+00 1.98099995e+00 1.98099995e+00 0. 0.
    0. 0. 0. 0. 0. 0. 0. 0. 0. 0. 0. 0. 0. 0. 2.03800011e+00
    2.03600001e+00 2.02200007e+00 2.02600002e+00 2.10500002e+00
    2.68600011e+00 0. 0. 0. 0. 0. 0. 0. 2.33100009e+00 2.03800011e+00
    2.03800011e+00 2.01900005e+00 2.01699996e+00 2. 2. 2. 1.99300003e+00
    1.98099995e+00 1.98199999e+00 1.99300003e+00 0. 0. 0. 0. 0. 0. 0. 0.
    0. 0. 0. 0. 0. 0. 0. 2.03800011e+00 2.03800011e+00 2.04200006e+00
    2.11500001e+00 2.68499994e+00 0. 0. 0. 0. 0. 0. 2.56299996e+00
    2.03800011e+00 2.03800011e+00 2.03800011e+00 2.03800011e+00
    2.01900005e+00 2.01699996e+00 2. 2. 2.00099993e+00 1.99899995e+00
    1.98800004e+00 1.99000001e+00 1.99600005e+00 1.99600005e+00 0. 0. 0.
    0. 0. 0. 0. 0. 0. 0. 0. 0. 0. 0. 2.46099997e+00 2.46099997e+00
    2.46099997e+00 2.68499994e+00 0. 0. 0. 0. 0. 0. 2.38199997e+00
    2.03800011e+00 2.03800011e+00 2.03800011e+00 2.03800011e+00
    2.03299999e+00 2.01900005e+00 2.01799989e+00 2.00500011e+00
    2.00500011e+00 2.00999999e+00 2.01900005e+00 2.01099992e+00
    1.99100006e+00 1.98099995e+00 1.98099995e+00 0. 0. 0. 0. 0. 0. 0. 0.
    0. 0. 0. 0. 0. 0. 0. 0. 0. 0. 0. 0. 0. 2.97799993e+00 2.48099995e+00
    2.05299997e+00 2.04200006e+00 2.03800011e+00 2.03800011e+00
    2.03800011e+00 2.03800011e+00 2.01900005e+00 2.01900005e+00
    2.01900005e+00 2.01900005e+00 2.01900005e+00 2.01900005e+00
    2.01699996e+00 2.00699997e+00 1.99100006e+00 1.98099995e+00
    1.98099995e+00 0. 0. 0. 0. 0. 0. 0. 0. 0. 0. 0. 0. 0. 0. 0. 0. 0. 0.
    0. 0. 2.54600000e+00 2.05299997e+00 2.04900002e+00 2.04200006e+00
    2.03800011e+00 2.03800011e+00 2.03800011e+00 2.03800011e+00
    2.03099990e+00 2.01900005e+00 2.01900005e+00 2.01900005e+00
    2.01900005e+00 2.01699996e+00 2.01099992e+00 2.00699997e+00 2.
    1.99100006e+00 1.98099995e+00 1.97599995e+00 2.91000009e+00 0. 0. 0.
    0. 0. 0. 0. 0. 0. 0. 0. 0. 0. 0. 0. 0. 0. 0. 2.53099990e+00
    2.05200005e+00 2.04800010e+00 2.03800011e+00 2.03800011e+00
    2.03200006e+00 2.02900004e+00 2.03600001e+00 2.03800011e+00
    2.02099991e+00 2.01900005e+00 2.01900005e+00 2.01900005e+00
    2.01699996e+00 2.00799990e+00 2. 2. 2. 1.99100006e+00 1.98099995e+00
    1.97000003e+00 1.96300006e+00 1.96300006e+00 0. 0. 0. 0. 0. 0. 0. 0.
    0. 0. 0. 0. 0. 0. 0. 0. 2.51699996e+00 2.03800011e+00 2.04200006e+00
    2.04299998e+00 2.03800011e+00 2.03200006e+00 2.02200007e+00
    2.01900005e+00 2.02600002e+00 2.02800012e+00 2.01999998e+00
    2.01900005e+00 2.01900005e+00 2.01799989e+00 2.00699997e+00 2. 2. 2.
    2. 1.99600005e+00 1.98599994e+00 1.97599995e+00 1.95899999e+00
    1.95299995e+00 0. 0. 0. 0. 0. 0. 0. 0. 0. 0. 0. 0. 0. 2.63800001e+00
    2.63499999e+00 2.49200010e+00 2.04299998e+00 2.03800011e+00
    2.03800011e+00 2.03299999e+00 2.02699995e+00 2.02200007e+00
    2.01900005e+00 2.01900005e+00 2.01900005e+00 2.01900005e+00
    2.00799990e+00 2.00799990e+00 2.01900005e+00 2.01699996e+00 2. 2. 2.
    2. 2. 1.99399996e+00 1.98399997e+00 1.98099995e+00 1.95599997e+00
    1.94500005e+00 2.71600008e+00 2.90899992e+00 0. 0. 0. 0. 0. 0. 0. 0.
    0. 0. 2.54500008e+00 2.05599999e+00 2.04399991e+00 2.04299998e+00
    2.03800011e+00 2.03800011e+00 2.03800011e+00 2.02900004e+00
    2.01900005e+00 2.01900005e+00 2.01900005e+00 2.02800012e+00
    2.02200007e+00 2.01900005e+00 2.00200009e+00 2. 2.01900005e+00
    2.01699996e+00 2. 2. 2. 2. 2. 1.99100006e+00 1.98099995e+00
    1.98099995e+00 1.97300005e+00 1.96000004e+00 1.96200001e+00
    1.97899997e+00 0. 0. 0. 0. 0. 0. 0. 0. 0. 0. 2.04299998e+00
    2.04299998e+00 2.03800011e+00 2.03800011e+00 2.03800011e+00
    2.03800011e+00 2.03800011e+00 2.03600001e+00 2.03299999e+00
    2.03299999e+00 2.03299999e+00 2.03699994e+00 2.03399992e+00
    2.02099991e+00 2.00200009e+00 2. 2.01900005e+00 2.01799989e+00
    2.01099992e+00 2. 2. 2. 2. 1.99100006e+00 1.98099995e+00
    1.98099995e+00 1.98099995e+00 1.97700000e+00 1.97599995e+00
    1.98000002e+00 0. 0. 0. 0. 0. 0. 0. 0. 0. 0. 2.03800011e+00
    2.03800011e+00 2.03800011e+00 2.03800011e+00 2.03800011e+00
    2.03800011e+00 2.03800011e+00 2.03800011e+00 2.03800011e+00
    2.03800011e+00 2.03800011e+00 2.03800011e+00 2.03800011e+00
    2.02200007e+00 2.00200009e+00 2. 2.01900005e+00 2.01900005e+00
    2.01600003e+00 2. 2. 2. 2. 1.99100006e+00 1.98099995e+00
    1.98099995e+00 1.98099995e+00 1.98099995e+00 1.98099995e+00
    1.96899998e+00 2.40599990e+00 0. 0. 0. 0. 0. 0. 0. 0. 0.
    2.03800011e+00 2.03800011e+00 2.03800011e+00 2.03800011e+00
    2.03800011e+00 2.03800011e+00 2.03800011e+00 2.03800011e+00
    2.03800011e+00 2.02800012e+00 2.02200007e+00 2.02200007e+00
    2.02200007e+00 2.01900005e+00 2.01600003e+00 2.01600003e+00
    2.01900005e+00 2.01900005e+00 2.01900005e+00 2.01600003e+00
    2.01099992e+00 2. 2. 1.99100006e+00 1.98099995e+00 1.98099995e+00
    1.98099995e+00 1.99300003e+00 1.98399997e+00 1.96500003e+00
    1.96300006e+00 2.29099989e+00 0. 0. 0. 0. 0. 0. 0. 0. 2.03800011e+00
    2.03800011e+00 2.03800011e+00 2.03800011e+00 2.03800011e+00
    2.03800011e+00 2.03800011e+00 2.03800011e+00 2.03800011e+00
    2.02699995e+00 2.01900005e+00 2.01900005e+00 2.01900005e+00
    2.01900005e+00 2.01900005e+00 2.01900005e+00 2.01900005e+00
    2.01900005e+00 2.01900005e+00 2.01900005e+00 2.01900005e+00
    2.01099992e+00 2. 1.99899995e+00 1.99800003e+00 1.99800003e+00
    1.99800003e+00 2. 1.99899995e+00 1.98199999e+00 1.96399999e+00
    1.96300006e+00 0. 0. 0. 0. 0. 0. 0. 0. 2.05699992e+00 2.05500007e+00
    2.03800011e+00 2.03800011e+00 2.03800011e+00 2.03800011e+00
    2.03800011e+00 2.03800011e+00 2.03800011e+00 2.03800011e+00
    2.03800011e+00 2.03800011e+00 2.02300000e+00 2.01900005e+00
    2.01900005e+00 2.01900005e+00 2.01900005e+00 2.01900005e+00
    2.01900005e+00 2.01900005e+00 2.01900005e+00 2.01200008e+00 2. 2. 2.
    2. 2. 2. 1.98500001e+00 1.98099995e+00 1.96399999e+00 1.96300006e+00
    2.13599992e+00 0. 0. 0. 0. 0. 0. 0. 2.05699992e+00 2.05500007e+00
    2.03900003e+00 2.03800011e+00 2.03800011e+00 2.03800011e+00
    2.03800011e+00 2.03800011e+00 2.03800011e+00 2.03800011e+00
    2.03800011e+00 2.03800011e+00 2.02300000e+00 2.01900005e+00
    2.01900005e+00 2.01900005e+00 2.01799989e+00 2. 2. 2. 2. 2. 2. 2. 2.
    1.99899995e+00 1.99899995e+00 1.98599994e+00 1.98099995e+00
    1.98099995e+00 1.98099995e+00 1.96300006e+00 1.96300006e+00
    2.24200010e+00 0. 0. 0. 0. 0. 0. 2.05699992e+00 2.05699992e+00
    2.05399990e+00 2.03999996e+00 2.03999996e+00 2.03900003e+00
    2.03800011e+00 2.03800011e+00 2.03800011e+00 2.03800011e+00
    2.03800011e+00 2.03800011e+00 2.02300000e+00 2.01900005e+00
    2.02099991e+00 2.01900005e+00 2.01799989e+00 2.00200009e+00 2. 2. 2.
    2. 2. 2. 2. 1.98800004e+00 1.98099995e+00 1.98099995e+00
    1.98099995e+00 1.98099995e+00 1.98099995e+00 1.96300006e+00
    1.96300006e+00 2.24300003e+00 0. 0. 0. 0. 0. 0. 2.05699992e+00
    2.05699992e+00 2.05699992e+00 2.05599999e+00 2.05399990e+00
    2.04800010e+00 2.03800011e+00 2.03800011e+00 2.03800011e+00
    2.03800011e+00 2.03800011e+00 2.03800011e+00 2.02300000e+00
    2.01900005e+00 2.03299999e+00 2.01900005e+00 2.01900005e+00
    2.01699996e+00 2. 2. 2. 2. 2. 2. 2. 1.98800004e+00 1.98099995e+00
    1.98099995e+00 1.98099995e+00 1.98099995e+00 1.98099995e+00
    1.96300006e+00 1.96300006e+00 2.25799990e+00 0. 0. 0. 0. 0. 0.
    2.43899989e+00 2.05699992e+00 2.05699992e+00 2.05299997e+00
    2.03800011e+00 2.03800011e+00 2.03800011e+00 2.03800011e+00
    2.03800011e+00 2.03800011e+00 2.03800011e+00 2.03800011e+00
    2.02699995e+00 2.01999998e+00 2.01900005e+00 2.01900005e+00
    2.01900005e+00 2.01699996e+00 2. 2. 2. 2. 2. 2. 2. 1.98800004e+00
    1.98099995e+00 1.98099995e+00 1.98099995e+00 1.98099995e+00
    1.98099995e+00 1.96700001e+00 1.96300006e+00 2.18799996e+00 0. 0. 0.
    0. 0. 0. 0. 2.55699992e+00 2.47700000e+00 2.05399990e+00
    2.04399991e+00 2.04200006e+00 2.03800011e+00 2.03800011e+00
    2.03800011e+00 2.03800011e+00 2.03800011e+00 2.03800011e+00
    2.03800011e+00 2.02200007e+00 2.01900005e+00 2.01900005e+00
    2.01900005e+00 2.01699996e+00 2. 2. 2. 2. 2. 2. 2. 1.98800004e+00
    1.98099995e+00 1.98099995e+00 1.98099995e+00 1.98099995e+00
    1.98099995e+00 1.98099995e+00 1.96300006e+00 1.96300006e+00
    2.39100003e+00 0. 0. 0. 0. 0. 0. 0. 0. 2.05699992e+00 2.05699992e+00
    2.04999995e+00 2.03800011e+00 2.03800011e+00 2.03800011e+00
    2.03800011e+00 2.03800011e+00 2.03800011e+00 2.03800011e+00
    2.02200007e+00 2.01900005e+00 2.01900005e+00 2.01900005e+00
    2.01699996e+00 2. 2. 2. 2. 2. 2. 2. 1.98800004e+00 1.98099995e+00
    1.98099995e+00 1.98099995e+00 1.98099995e+00 1.98099995e+00
    1.98099995e+00 1.96300006e+00 1.96300006e+00 2.23000002e+00 0. 0. 0.
    0. 0. 0. 0. 0. 2.05699992e+00 2.05699992e+00 2.04999995e+00
    2.03800011e+00 2.03800011e+00 2.03800011e+00 2.03800011e+00
    2.03800011e+00 2.03200006e+00 2.02999997e+00 2.02800012e+00
    2.02699995e+00 2.02699995e+00 2.02699995e+00 2.01799989e+00
    2.00699997e+00 2. 2. 2. 2. 2. 2. 1.99300003e+00 1.98399997e+00
    1.98099995e+00 1.98099995e+00 1.98099995e+00 1.98099995e+00
    1.98099995e+00 1.96300006e+00 1.96300006e+00 1.96300006e+00
    2.27500010e+00 0. 0. 0. 0. 0. 0. 0. 2.05699992e+00 2.05399990e+00
    2.04399991e+00 2.03800011e+00 2.03800011e+00 2.03800011e+00
    2.03800011e+00 2.03800011e+00 2.02399993e+00 2.01900005e+00
    2.03500009e+00 2.03800011e+00 2.03800011e+00 2.03699994e+00
    2.01900005e+00 2.01699996e+00 2.00699997e+00 2. 2. 2. 1.99500000e+00
    1.99100006e+00 1.99100006e+00 1.98399997e+00 1.98099995e+00
    1.98099995e+00 1.98099995e+00 1.98099995e+00 1.98099995e+00
    1.96300006e+00 1.96300006e+00 1.96300006e+00 1.96300006e+00
    2.64499998e+00 0. 0. 0. 0. 0. 0. 2.75200009e+00 2.05200005e+00
    2.03800011e+00 2.03800011e+00 2.03800011e+00 2.03800011e+00
    2.03800011e+00 2.03800011e+00 2.03200006e+00 2.02999997e+00
    2.03699994e+00 2.03800011e+00 2.03800011e+00 2.03699994e+00
    2.01900005e+00 2.01900005e+00 2.01399994e+00 2. 2. 2. 1.99100006e+00
    1.98099995e+00 1.98099995e+00 1.98099995e+00 1.98099995e+00
    1.98099995e+00 1.98099995e+00 1.98099995e+00 1.98099995e+00
    1.96300006e+00 1.96300006e+00 1.96300006e+00 1.96300006e+00
    2.26999998e+00 0. 0. 0. 0. 0. 0. 0. 2.74000001e+00 2.03800011e+00
    2.03800011e+00 2.03800011e+00 2.03800011e+00 2.03800011e+00
    2.03800011e+00 2.03800011e+00 2.03800011e+00 2.03800011e+00
    2.03800011e+00 2.03800011e+00 2.03699994e+00 2.01900005e+00
    2.01900005e+00 2.01699996e+00 2.00799990e+00 2. 2. 1.99600005e+00
    1.99300003e+00 1.99300003e+00 1.98500001e+00 1.98099995e+00
    1.98099995e+00 1.98099995e+00 1.98099995e+00 1.98099995e+00
    1.97300005e+00 1.96300006e+00 1.96300006e+00 1.96300006e+00
    1.96899998e+00 2.80800009e+00 0. 0. 0. 0. 0. 0. 0. 2.72099996e+00
    2.04600000e+00 2.03800011e+00 2.03800011e+00 2.03800011e+00
    2.03800011e+00 2.03800011e+00 2.03800011e+00 2.03800011e+00
    2.03800011e+00 2.03800011e+00 2.03699994e+00 2.01900005e+00
    2.01900005e+00 2.01600003e+00 2.00399995e+00 2. 2. 2. 1.99300003e+00
    1.98699999e+00 1.98300004e+00 1.98099995e+00 1.98099995e+00
    1.98099995e+00 1.98099995e+00 1.98099995e+00 1.98000002e+00
    1.96300006e+00 1.96300006e+00 1.96300006e+00 1.96500003e+00
    2.23499990e+00 0. 0. 0. 0. 0. 0. 0. 0. 2.68899989e+00 2.03800011e+00
    2.03800011e+00 2.03800011e+00 2.03800011e+00 2.03800011e+00
    2.03800011e+00 2.03800011e+00 2.03800011e+00 2.03800011e+00
    2.03699994e+00 2.01900005e+00 2.01699996e+00 2.00399995e+00 2. 2.
    1.99399996e+00 1.98599994e+00 1.98300004e+00 1.98099995e+00
    1.98099995e+00 1.98099995e+00 1.98099995e+00 1.98099995e+00
    1.98099995e+00 1.98099995e+00 1.98099995e+00 1.97599995e+00
    1.97599995e+00 1.97300005e+00 1.96300006e+00 1.96300006e+00
    2.94700003e+00 0. 0. 0. 0. 0. 0. 0. 2.91499996e+00 2.03900003e+00
    2.02300000e+00 2.03200006e+00 2.03800011e+00 2.03800011e+00
    2.03800011e+00 2.03800011e+00 2.03800011e+00 2.03800011e+00
    2.03699994e+00 2.01900005e+00 2.01600003e+00 2. 2. 2. 1.99199998e+00
    1.98099995e+00 1.98099995e+00 1.98099995e+00 1.98099995e+00
    1.97000003e+00 1.96599996e+00 1.97899997e+00 1.98099995e+00
    1.98099995e+00 1.98099995e+00 1.98099995e+00 1.98099995e+00
    1.97599995e+00 1.96300006e+00 1.96300006e+00 2.15199995e+00 0. 0. 0.
    0. 0. 0. 0. 0. 2.70700002e+00 2.01900005e+00 2.01999998e+00
    2.03200006e+00 2.03800011e+00 2.03800011e+00 2.03800011e+00
    2.03800011e+00 2.03800011e+00 2.03699994e+00 2.01900005e+00
    2.01900005e+00 2.01699996e+00 2.01699996e+00 2.01099992e+00
    1.99899995e+00 1.98899996e+00 1.98099995e+00 1.98099995e+00
    1.98099995e+00 1.96800005e+00 1.96300006e+00 1.97899997e+00
    1.98099995e+00 1.98099995e+00 1.98099995e+00 1.98099995e+00
    1.98099995e+00 1.98000002e+00 1.97899997e+00 1.97300005e+00
    1.96300006e+00 0. 0. 0. 0. 0. 0. 0. 0. 0. 2.66499996e+00
    2.01900005e+00 2.03200006e+00 2.03800011e+00 2.03800011e+00
    2.03800011e+00 2.03800011e+00 2.02099991e+00 2.01999998e+00
    2.01900005e+00 2.01900005e+00 2.01900005e+00 2.01900005e+00
    2.01200008e+00 2. 1.99100006e+00 1.98099995e+00 1.98099995e+00
    1.98099995e+00 1.98000002e+00 1.98000002e+00 1.98099995e+00
    1.98099995e+00 1.98099995e+00 1.98099995e+00 1.98099995e+00
    1.98099995e+00 1.97700000e+00 1.96399999e+00 1.96399999e+00
    1.96300006e+00 0. 0. 0. 0. 0. 0. 0. 0. 0. 2.74200010e+00
    2.01500010e+00 2. 2.02800012e+00 2.03800011e+00 2.03800011e+00
    2.03800011e+00 2.01900005e+00 2.01900005e+00 2.01900005e+00
    2.02200007e+00 2.03299999e+00 2.01900005e+00 2.01200008e+00 2. 2.
    1.98899996e+00 1.98099995e+00 1.98099995e+00 1.98099995e+00
    1.98099995e+00 1.98099995e+00 1.98099995e+00 1.96300006e+00
    1.96399999e+00 1.98099995e+00 1.98099995e+00 1.97599995e+00
    1.96300006e+00 1.96300006e+00 1.96300006e+00 0. 0. 0. 0. 0. 0. 0. 0.
    0. 0. 2.60599995e+00 2.00300002e+00 2.02800012e+00 2.03800011e+00
    2.03800011e+00 2.03800011e+00 2.01900005e+00 2.01900005e+00
    2.01900005e+00 2.01900005e+00 2.01900005e+00 2.01900005e+00
    2.01900005e+00 2.01900005e+00 2.00999999e+00 1.98899996e+00
    1.98099995e+00 1.98000002e+00 1.98000002e+00 1.98099995e+00
    1.98099995e+00 1.98099995e+00 1.96300006e+00 1.96300006e+00
    1.96300006e+00 1.96300006e+00 1.96300006e+00 1.96300006e+00
    1.96399999e+00 1.96300006e+00 0. 0. 0. 0. 0. 0. 0. 0. 0. 0.
    2.75099993e+00 2.10400009e+00 2.03600001e+00 2.03600001e+00
    2.03800011e+00 2.03800011e+00 2.02200007e+00 2.01900005e+00
    2.01900005e+00 2.01900005e+00 2.01900005e+00 2.01900005e+00
    2.01799989e+00 2.01699996e+00 2.00799990e+00 1.99100006e+00
    1.98199999e+00 1.96899998e+00 1.96300006e+00 1.97800004e+00
    1.98099995e+00 1.98099995e+00 1.96500003e+00 1.96300006e+00
    1.96300006e+00 1.96300006e+00 1.96500003e+00 2.05999994e+00
    2.25600004e+00 2.24200010e+00 0. 0. 0. 0. 0. 0. 0. 0. 0. 0. 0.
    2.51999998e+00 2.01600003e+00 2.01500010e+00 2.03200006e+00
    2.03800011e+00 2.03800011e+00 2.02300000e+00 2.02200007e+00
    2.01900005e+00 2.01900005e+00 2.01799989e+00 2.00999999e+00 2.
    1.99800003e+00 1.99600005e+00 1.98699999e+00 1.97099996e+00
    1.96599996e+00 1.97800004e+00 1.98099995e+00 1.98099995e+00
    1.98099995e+00 1.96300006e+00 1.96300006e+00 2.05200005e+00
    2.41899991e+00 2.99099994e+00 0. 0. 0. 0. 0. 0. 0. 0. 0. 0. 0. 0. 0.
    2.77200007e+00 2.10700011e+00 2. 2.01600003e+00 2.03600001e+00
    2.03800011e+00 2.03800011e+00 2.03600001e+00 2.01900005e+00
    2.01799989e+00 2.00999999e+00 1.99800003e+00 1.99500000e+00
    1.98800004e+00 1.98099995e+00 1.98099995e+00 1.98099995e+00
    1.98099995e+00 1.98099995e+00 1.98099995e+00 1.98099995e+00
    1.98099995e+00 2.57500005e+00 2.57599998e+00 2.91499996e+00 0. 0. 0.
    0. 0. 0. 0. 0. 0. 0. 0. 0. 0. 0. 0. 0. 2.76099992e+00 2.10899997e+00
    2.02300000e+00 2.03699994e+00 2.03800011e+00 2.03800011e+00
    2.03600001e+00 2.01900005e+00 2.01399994e+00 2. 1.99300003e+00
    1.98099995e+00 1.98099995e+00 1.98099995e+00 1.98099995e+00
    1.98099995e+00 1.98099995e+00 1.98099995e+00 1.98099995e+00
    1.98099995e+00 2.76300001e+00 0. 0. 0. 0. 0. 0. 0. 0. 0. 0. 0. 0. 0.
    0. 0. 0. 0. 0. 0. 0. 2.34500003e+00 2.03800011e+00 2.03099990e+00
    2.03099990e+00 2.03099990e+00 2.03600001e+00 2.01900005e+00
    2.01399994e+00 2. 1.99300003e+00 1.98099995e+00 1.98099995e+00
    1.98099995e+00 1.98500001e+00 1.98800004e+00 1.98300004e+00
    1.98099995e+00 2.79999995e+00 2.92100000e+00 0. 0. 0. 0. 0. 0. 0. 0.
    0. 0. 0. 0. 0. 0. 0. 0. 0. 0. 0. 0. 0. 2.86400008e+00 2.13199997e+00
    2.02099991e+00 2.01900005e+00 2.01900005e+00 2.02900004e+00
    2.02600002e+00 2.01399994e+00 2. 1.99300003e+00 1.98099995e+00
    1.98099995e+00 1.98599994e+00 2.00099993e+00 2.00799990e+00
    2.00699997e+00 2.89899993e+00 0. 0. 0. 0. 0. 0. 0. 0. 0. 0. 0. 0. 0.
    0. 0. 0. 0. 0. 0. 0. 0. 0. 0. 0. 2.89199996e+00 2.07200003e+00
    2.00900006e+00 2.00999999e+00 2.01999998e+00 2.02699995e+00
    2.01399994e+00 2. 1.99300003e+00 1.98099995e+00 1.98599994e+00
    2.00600004e+00 2.02500010e+00 2.03500009e+00 2.54399991e+00 0. 0. 0.
    0. 0. 0. 0. 0. 0. 0. 0. 0. 0. 0. 0. 0. 0. 0. 0. 0. 0. 0. 0. 0. 0. 0.
    2.12199998e+00 2. 2.00099993e+00 2.01900005e+00 2.01900005e+00
    2.01699996e+00 2.00799990e+00 1.99699998e+00 1.99600005e+00
    2.01699996e+00 2.44600010e+00 2.77800012e+00 2.78299999e+00 0. 0. 0.
    0. 0. 0. 0. 0. 0. 0. 0. 0. 0.</data></Depth>
</opencv_storage>
