<?xml version="1.0"?>
<opencv_storage>
<Depth type_id="opencv-matrix">
  <rows>40</rows>
  <cols>40</cols>
  <dt>f</dt>
  <data>
    0. 0. 0. 0. 0. 0. 0. 2.02099991e+00 2.01699996e+00 2.01200008e+00
    2.00600004e+00 2.00600004e+00 2. 1.99399996e+00 1.99399996e+00
    1.99399996e+00 1.99399996e+00 1.99399996e+00 1.99199998e+00
    1.98899996e+00 1.98300004e+00 1.97800004e+00 1.97800004e+00
    1.97200000e+00 1.97200000e+00 1.97200000e+00 1.96800005e+00
    1.96200001e+00 1.95599997e+00 1.95599997e+00 1.95899999e+00
    1.96599996e+00 2.00600004e+00 0. 0. 0. 0. 0. 0. 0. 0. 0. 0. 0. 0. 0.
    0. 2.01699996e+00 2.01699996e+00 2.01600003e+00 2.01200008e+00
    2.01200008e+00 2. 2. 1.99399996e+00 1.99800003e+00 1.99600005e+00
    1.99399996e+00 1.99399996e+00 1.99399996e+00 1.98699999e+00
    1.97800004e+00 1.97800004e+00 1.97200000e+00 1.97200000e+00
    1.97200000e+00 1.96200001e+00 1.95599997e+00 1.96099997e+00
    1.96099997e+00 1.96099997e+00 1.96399999e+00 2.01200008e+00 0. 0. 0.
    0. 0. 0. 0. 0. 0. 0. 0. 0. 0. 0. 2.01699996e+00 2.01699996e+00
    2.01600003e+00 2.01200008e+00 2.01200008e+00 2.00600004e+00 2.
    1.99500000e+00 1.99800003e+00 1.99600005e+00 1.99399996e+00
    1.99399996e+00 1.99000001e+00 1.98899996e+00 1.98099995e+00
    1.97800004e+00 1.97800004e+00 1.97200000e+00 1.97200000e+00
    1.96599996e+00 1.96000004e+00 1.96099997e+00 1.95799994e+00
    1.95899999e+00 1.96399999e+00 1.96700001e+00 0. 0. 0. 0. 0. 0. 0. 0.
    0. 0. 0. 0. 0. 1.25000000e+00 2.01300001e+00 2.01399994e+00
    2.01200008e+00 2.01200008e+00 2.01200008e+00 2.00600004e+00 2.
    1.99500000e+00 1.99800003e+00 1.99600005e+00 1.99399996e+00
    1.99399996e+00 1.99100006e+00 1.98699999e+00 1.98199999e+00
    1.97800004e+00 1.97800004e+00 1.97200000e+00 1.97200000e+00
    1.96800005e+00 1.96599996e+00 1.96300006e+00 1.95899999e+00
    1.95899999e+00 1.97200000e+00 1.97200000e+00 0. 0. 0. 0. 0. 0. 0. 0.
    0. 0. 0. 0. 0. 2.87500000e+00 2.01600003e+00 2.01600003e+00
    2.01600003e+00 2.01200008e+00 2.01200008e+00 2.00999999e+00
    2.00500011e+00 1.99899995e+00 2. 2. 1.99600005e+00 1.99399996e+00
    1.99199998e+00 1.98699999e+00 1.98199999e+00 1.97800004e+00
    1.97800004e+00 1.97200000e+00 1.97200000e+00 1.97200000e+00
    1.96800005e+00 1.96700001e+00 1.95700002e+00 1.95899999e+00
    1.96399999e+00 1.97000003e+00 0. 0. 0. 0. 0. 0. 0. 0. 0. 0. 0. 0. 0.
    0. 2.01699996e+00 2.01699996e+00 2.01699996e+00 2.01500010e+00
    2.01200008e+00 2.00600004e+00 2.00300002e+00 2. 2. 2. 1.99699998e+00
    1.99399996e+00 1.99199998e+00 1.98399997e+00 1.98199999e+00
    1.97800004e+00 1.97800004e+00 1.97800004e+00 1.97200000e+00
    1.97200000e+00 1.97200000e+00 1.96800005e+00 1.95599997e+00
    1.95899999e+00 1.96399999e+00 1.96700001e+00 0. 0. 0. 0. 0. 0. 0. 0.
    0. 0. 0. 0. 0. 0. 2.01699996e+00 2.01699996e+00 2.01699996e+00
    2.01699996e+00 2.01200008e+00 2.00600004e+00 2. 2. 2. 2.
    1.99699998e+00 1.99399996e+00 1.99199998e+00 1.98300004e+00
    1.98199999e+00 1.97800004e+00 1.97800004e+00 1.97800004e+00
    1.97200000e+00 1.97200000e+00 1.97200000e+00 1.96899998e+00
    1.95899999e+00 1.96000004e+00 1.96399999e+00 1.19700003e+00 0. 0. 0.
    0. 0. 0. 0. 0. 0. 0. 0. 0. 0. 0. 2.01900005e+00 2.01699996e+00
    2.01699996e+00 2.01600003e+00 2.01200008e+00 2.00600004e+00
    2.00300002e+00 2.00099993e+00 2. 2. 2. 1.99399996e+00 1.99399996e+00
    1.98899996e+00 1.98500001e+00 1.98000002e+00 1.97800004e+00
    1.97800004e+00 1.97800004e+00 1.97200000e+00 1.97200000e+00
    1.96700001e+00 1.96399999e+00 1.96399999e+00 1.96899998e+00
    2.20400000e+00 0. 0. 0. 0. 0. 0. 0. 0. 0. 0. 0. 0. 0. 2.90599990e+00
    2.02300000e+00 2.02200007e+00 2.01699996e+00 2.01600003e+00
    2.01200008e+00 2.01200008e+00 2.00699997e+00 2.00099993e+00 2. 2. 2.
    1.99399996e+00 1.99399996e+00 1.99199998e+00 1.98800004e+00
    1.98300004e+00 1.97800004e+00 1.97800004e+00 1.97300005e+00
    1.97200000e+00 1.97200000e+00 1.96800005e+00 1.96700001e+00
    1.97000003e+00 1.99500000e+00 0. 0. 0. 0. 0. 0. 0. 0. 0. 0. 0. 0. 0.
    0. 1.25699997e+00 2.02699995e+00 2.02300000e+00 2.01699996e+00
    2.01600003e+00 2.01200008e+00 2.01200008e+00 2.01200008e+00
    2.00200009e+00 2. 2. 2. 1.99699998e+00 1.99399996e+00 1.98899996e+00
    1.98300004e+00 1.98199999e+00 1.97899997e+00 1.97800004e+00
    1.97300005e+00 1.97200000e+00 1.97200000e+00 1.96899998e+00
    1.96700001e+00 1.97000003e+00 2.01900005e+00 2.02099991e+00 0. 0. 0.
    0. 0. 0. 0. 0. 0. 0. 0. 0. 0. 1.25500000e+00 2.02300000e+00
    2.02300000e+00 2.01699996e+00 2.01600003e+00 2.01200008e+00
    2.01200008e+00 2.01200008e+00 2.00099993e+00 2.00099993e+00 2. 2.
    1.99699998e+00 1.99399996e+00 1.99199998e+00 1.98399997e+00
    1.98300004e+00 1.98300004e+00 1.97800004e+00 1.97399998e+00
    1.97200000e+00 1.97200000e+00 1.96899998e+00 1.96700001e+00
    1.97000003e+00 2.01099992e+00 2.01699996e+00 0. 0. 0. 0. 0. 0. 0. 0.
    0. 0. 0. 0. 0. 1.25500000e+00 2.02300000e+00 2.02300000e+00
    2.01699996e+00 2.01200008e+00 2.01200008e+00 2.01200008e+00
    2.01200008e+00 2.00699997e+00 2.00600004e+00 2.00099993e+00 2.
    1.99699998e+00 1.99199998e+00 1.99100006e+00 1.98899996e+00
    1.98300004e+00 1.98300004e+00 1.97800004e+00 1.97800004e+00
    1.97399998e+00 1.97200000e+00 1.96800005e+00 1.96700001e+00
    1.97500002e+00 1.99899995e+00 2.00600004e+00 0. 0. 0. 0. 0. 0. 0. 0.
    0. 0. 0. 0. 0. 2.02999997e+00 2.02300000e+00 2.02300000e+00
    2.02200007e+00 2.01600003e+00 2.01200008e+00 2.01200008e+00
    2.01200008e+00 2.01200008e+00 2.01200008e+00 2.00600004e+00 2.
    1.99699998e+00 1.99399996e+00 1.99399996e+00 1.98800004e+00
    1.98300004e+00 1.98300004e+00 1.97800004e+00 1.97800004e+00
    1.97800004e+00 1.97300005e+00 1.96700001e+00 1.97000003e+00
    1.97500002e+00 1.98300004e+00 0. 0. 0. 0. 0. 0. 0. 0. 0. 0. 0. 0. 0.
    0. 2.03500009e+00 2.02900004e+00 2.02900004e+00 2.02200007e+00
    2.01699996e+00 2.01200008e+00 2.01200008e+00 2.01200008e+00
    2.01200008e+00 2.01200008e+00 2.00600004e+00 2. 2. 1.99399996e+00
    1.99399996e+00 1.99300003e+00 1.98800004e+00 1.98300004e+00
    1.98300004e+00 1.97800004e+00 1.97800004e+00 1.97200000e+00
    1.96899998e+00 1.97000003e+00 1.97500002e+00 1.98899996e+00 0. 0. 0.
    0. 0. 0. 0. 0. 0. 0. 0. 0. 0. 0. 2.04099989e+00 2.03399992e+00
    2.03299999e+00 2.02200007e+00 2.01699996e+00 2.01699996e+00
    2.01200008e+00 2.01200008e+00 2.00799990e+00 2.00699997e+00
    2.00600004e+00 2.00600004e+00 2. 1.99399996e+00 1.99399996e+00
    1.99300003e+00 1.98800004e+00 1.98300004e+00 1.97800004e+00
    1.97800004e+00 1.97800004e+00 1.97800004e+00 1.97200000e+00
    1.97200000e+00 1.97500002e+00 1.99899995e+00 0. 0. 0. 0. 0. 0. 0. 0.
    0. 0. 0. 0. 0. 0. 2.03500009e+00 2.03500009e+00 2.02999997e+00
    2.01799989e+00 2.01699996e+00 2.01699996e+00 2.01200008e+00
    2.01200008e+00 2.00099993e+00 2.00399995e+00 2.00600004e+00 2. 2.
    1.99899995e+00 1.99399996e+00 1.99399996e+00 1.98800004e+00
    1.98300004e+00 1.97800004e+00 1.97800004e+00 1.97800004e+00
    1.97800004e+00 1.97200000e+00 1.97200000e+00 1.97700000e+00
    2.80100012e+00 0. 0. 0. 0. 0. 0. 0. 0. 0. 0. 0. 0. 0. 0.
    2.01699996e+00 2.03099990e+00 2.03200006e+00 2.01699996e+00
    2.01699996e+00 2.01699996e+00 2.01200008e+00 2.01200008e+00
    2.00699997e+00 2.00600004e+00 2.00600004e+00 2.00399995e+00 2.
    1.99800003e+00 1.99399996e+00 1.98899996e+00 1.98899996e+00
    1.98300004e+00 1.98199999e+00 1.98300004e+00 1.97800004e+00
    1.97800004e+00 1.97399998e+00 1.97599995e+00 1.98099995e+00
    2.81699991e+00 0. 0. 0. 0. 0. 0. 0. 0. 0. 0. 0. 0. 0. 0.
    2.01699996e+00 2.03099990e+00 2.02800012e+00 2.01699996e+00
    2.01699996e+00 2.01699996e+00 2.01200008e+00 2.01200008e+00
    2.00999999e+00 2.00999999e+00 2.00600004e+00 2.00799990e+00 2.
    1.99800003e+00 1.99399996e+00 1.99399996e+00 1.99300003e+00
    1.98699999e+00 1.98000002e+00 1.98300004e+00 1.98199999e+00
    1.97399998e+00 1.97200000e+00 1.97300005e+00 1.98500001e+00
    2.82299995e+00 0. 0. 0. 0. 0. 0. 0. 0. 0. 0. 0. 0. 0. 0.
    2.04099989e+00 2.03500009e+00 2.02699995e+00 2.01999998e+00
    2.01699996e+00 2.01699996e+00 2.01200008e+00 2.01200008e+00
    2.01200008e+00 2.01200008e+00 2.00999999e+00 2.01200008e+00 2.
    1.99899995e+00 1.99399996e+00 1.99399996e+00 1.99399996e+00
    1.98899996e+00 1.97800004e+00 1.98000002e+00 1.98000002e+00
    1.97300005e+00 1.97200000e+00 1.97399998e+00 1.98899996e+00
    2.82599998e+00 0. 0. 0. 0. 0. 0. 0. 0. 0. 0. 0. 0. 0. 0.
    2.04099989e+00 2.03500009e+00 2.02699995e+00 2.02300000e+00
    2.01999998e+00 2.01699996e+00 2.01200008e+00 2.01200008e+00
    2.01200008e+00 2.01200008e+00 2.01200008e+00 2.00999999e+00
    2.00300002e+00 2. 1.99800003e+00 1.99399996e+00 1.99399996e+00
    1.98899996e+00 1.98300004e+00 1.97800004e+00 1.97800004e+00
    1.97500002e+00 1.97200000e+00 1.97700000e+00 1.99600005e+00
    2.83400011e+00 0. 0. 0. 0. 0. 0. 0. 0. 0. 0. 0. 0. 0. 0.
    2.03200006e+00 2.03200006e+00 2.02699995e+00 2.02300000e+00
    2.01999998e+00 2.01699996e+00 2.01699996e+00 2.01200008e+00
    2.01200008e+00 2.01600003e+00 2.01200008e+00 2.00999999e+00
    2.00300002e+00 2. 1.99800003e+00 1.99399996e+00 1.99399996e+00
    1.99399996e+00 1.98899996e+00 1.98300004e+00 1.97899997e+00
    1.97800004e+00 1.97500002e+00 1.97800004e+00 1.99500000e+00
    2.83400011e+00 0. 0. 0. 0. 0. 0. 0. 0. 0. 0. 0. 0. 0. 0.
    2.03099990e+00 2.03099990e+00 2.02800012e+00 2.02500010e+00
    2.01699996e+00 2.01699996e+00 2.01699996e+00 2.01300001e+00
    2.01200008e+00 2.01200008e+00 2.01200008e+00 2.01200008e+00
    2.00300002e+00 2. 1.99800003e+00 1.99399996e+00 1.99399996e+00
    1.99399996e+00 1.99399996e+00 1.98899996e+00 1.97899997e+00
    1.97800004e+00 1.97800004e+00 1.97800004e+00 1.99100006e+00 0. 0. 0.
    0. 0. 0. 0. 0. 0. 0. 0. 0. 0. 0. 0. 2.03500009e+00 2.03399992e+00
    2.03200006e+00 2.02900004e+00 2.02699995e+00 2.01699996e+00
    2.01699996e+00 2.01399994e+00 2.01200008e+00 2.01200008e+00
    2.01200008e+00 2.01200008e+00 2.00399995e+00 2. 2. 1.99500000e+00
    1.99399996e+00 1.99399996e+00 1.99399996e+00 1.98899996e+00
    1.97899997e+00 1.97800004e+00 1.97800004e+00 1.98099995e+00
    1.99000001e+00 0. 0. 0. 0. 0. 0. 0. 0. 0. 0. 0. 0. 0. 0. 0.
    2.02699995e+00 2.03200006e+00 2.02900004e+00 2.02900004e+00
    2.02200007e+00 2.01699996e+00 2.01699996e+00 2.01699996e+00
    2.01200008e+00 2.01300001e+00 2.01200008e+00 2.01200008e+00
    2.00300002e+00 2. 2. 1.99899995e+00 1.99399996e+00 1.99399996e+00
    1.99399996e+00 1.98899996e+00 1.98000002e+00 1.97800004e+00
    1.97800004e+00 1.97800004e+00 1.98899996e+00 0. 0. 0. 0. 0. 0. 0. 0.
    0. 0. 0. 0. 0. 0. 0. 2.01799989e+00 2.02999997e+00 2.02900004e+00
    2.02900004e+00 2.02200007e+00 2.01699996e+00 2.01699996e+00
    2.01699996e+00 2.01200008e+00 2.01600003e+00 2.01200008e+00
    2.01200008e+00 2.00300002e+00 2. 2. 1.99899995e+00 1.99399996e+00
    1.99399996e+00 1.99399996e+00 1.98899996e+00 1.98000002e+00
    1.97800004e+00 1.97800004e+00 1.98300004e+00 1.98899996e+00 0. 0. 0.
    0. 0. 0. 0. 0. 0. 0. 0. 0. 0. 0. 0. 2.02900004e+00 2.03500009e+00
    2.03299999e+00 2.02900004e+00 2.02200007e+00 2.01699996e+00
    2.01699996e+00 2.01300001e+00 2.01200008e+00 2.01600003e+00
    2.01699996e+00 2.01200008e+00 2.00300002e+00 2. 2. 2. 1.99399996e+00
    1.99399996e+00 1.99399996e+00 1.98899996e+00 1.98899996e+00
    1.97899997e+00 1.97800004e+00 1.98300004e+00 1.99399996e+00
    2.75999999e+00 0. 0. 0. 0. 0. 0. 0. 0. 0. 0. 0. 0. 0. 0.
    2.03500009e+00 2.03500009e+00 2.03500009e+00 2.02800012e+00
    2.02300000e+00 2.01699996e+00 2.01699996e+00 2.01699996e+00
    2.01300001e+00 2.01600003e+00 2.01200008e+00 2.01200008e+00
    2.01200008e+00 2.00399995e+00 2. 2. 1.99899995e+00 1.99399996e+00
    1.99399996e+00 1.98899996e+00 1.98300004e+00 1.98300004e+00
    1.98300004e+00 1.98599994e+00 1.34000003e+00 0. 0. 0. 0. 0. 0. 0. 0.
    0. 0. 0. 0. 0. 0. 0. 2.03999996e+00 2.03500009e+00 2.03900003e+00
    2.03200006e+00 2.02300000e+00 2.02200007e+00 2.01699996e+00
    2.01699996e+00 2.01600003e+00 2.01699996e+00 2.01399994e+00
    2.01200008e+00 2.01200008e+00 2.00600004e+00 2. 2. 2. 1.99399996e+00
    1.99399996e+00 1.98899996e+00 1.98300004e+00 1.98300004e+00
    1.98300004e+00 1.98300004e+00 2.96300006e+00 0. 0. 0. 0. 0. 0. 0. 0.
    0. 0. 0. 0. 0. 0. 0. 2.04299998e+00 2.04099989e+00 2.03900003e+00
    2.02900004e+00 2.02300000e+00 2.02300000e+00 2.02300000e+00
    2.01799989e+00 2.01699996e+00 2.01699996e+00 2.01699996e+00
    2.01600003e+00 2.01200008e+00 2.00900006e+00 2.00300002e+00 2. 2. 2.
    1.99399996e+00 1.99300003e+00 1.98399997e+00 1.97899997e+00
    1.97899997e+00 1.98099995e+00 2.96300006e+00 0. 0. 0. 0. 0. 0. 0. 0.
    0. 0. 0. 0. 0. 0. 0. 2.80800009e+00 2.03699994e+00 2.03600001e+00
    2.02800012e+00 2.02300000e+00 2.02300000e+00 2.02300000e+00
    2.02300000e+00 2.01799989e+00 2.01699996e+00 2.01699996e+00
    2.01699996e+00 2.01200008e+00 2.01099992e+00 2.00900006e+00
    2.00300002e+00 2. 2. 1.99800003e+00 1.99399996e+00 1.98800004e+00
    1.97899997e+00 1.97800004e+00 1.98099995e+00 2.97900009e+00 0. 0. 0.
    0. 0. 0. 0. 0. 0. 0. 0. 0. 0. 0. 0. 0. 0. 0. 0. 2.01699996e+00
    2.01699996e+00 2.02300000e+00 2.02300000e+00 2.01799989e+00
    2.01699996e+00 2.00999999e+00 2.00999999e+00 2.00799990e+00
    2.01300001e+00 2.00999999e+00 2.00600004e+00 2. 2. 2. 1.99399996e+00
    1.99199998e+00 1.98699999e+00 1.98699999e+00 1.99000001e+00
    2.98399997e+00 0. 0. 0. 0. 0. 0. 0. 0. 0. 0. 0. 0. 0. 0. 0. 0. 0. 0.
    0. 0. 0. 0. 1.58800006e+00 2.02200007e+00 2.01799989e+00
    1.99399996e+00 2.00300002e+00 2.00600004e+00 2.01200008e+00
    2.01399994e+00 2.00500011e+00 2. 2. 1.99399996e+00 1.99399996e+00
    1.99399996e+00 1.99199998e+00 1.99199998e+00 1.99000001e+00
    2.95799994e+00 0. 0. 0. 0. 0. 0. 0. 0. 0. 0. 0. 0. 0. 0. 0. 0. 0. 0.
    0. 0. 0. 0. 0. 2.04099989e+00 2.04299998e+00 2.09699988e+00
    2.08800006e+00 2.05599999e+00 2.01699996e+00 2.01399994e+00
    2.00999999e+00 2.87700009e+00 2.92199993e+00 2.80999994e+00
    2.79699993e+00 2.13199997e+00 1.99399996e+00 1.99399996e+00
    2.79399991e+00 0. 0. 0. 0. 0. 0. 0. 0. 0. 0. 0. 0. 0. 0. 0. 0. 0. 0.
    0. 0. 0. 0. 0. 2.07900000e+00 2.04299998e+00 2.04500008e+00
    2.11400008e+00 2.11500001e+00 2.11100006e+00 2.11299992e+00
    2.44000006e+00 0. 0. 0. 0. 0. 0. 0. 0. 0. 0. 0. 0. 0. 0. 0. 0. 0. 0.
    0. 0. 0. 0. 0. 0. 0. 0. 0. 0. 0. 0. 0. 2.05999994e+00 2.06999993e+00
    2.06299996e+00 2.05599999e+00 2.07699990e+00 2.08100009e+00
    2.09299994e+00 2.10100007e+00 2.02500010e+00 2.03500009e+00
    2.09400010e+00 2.09599996e+00 2.09599996e+00 0. 0. 0. 0. 0. 0. 0. 0.
    0. 0. 0. 0. 0. 0. 0. 0. 0. 0. 0. 0. 0. 0. 0. 0. 0. 0. 2.04999995e+00
    2.04999995e+00 2.05500007e+00 2.05299997e+00 2.06100011e+00
    2.06399989e+00 2.05800009e+00 2.05100012e+00 2.05200005e+00
    2.03600001e+00 2.03900003e+00 2.06500006e+00 2.07500005e+00
    2.06999993e+00 2.07100010e+00 0. 0. 0. 0. 0. 0. 0. 0. 0. 0. 0. 0. 0.
    0. 0. 0. 0. 0. 0. 0. 0. 0. 0. 2.85800004e+00 2.02900004e+00
    2.02900004e+00 2.02200007e+00 2.02200007e+00 2.03600001e+00
    2.04800010e+00 2.03900003e+00 2.03900003e+00 2.03399992e+00
    2.03099990e+00 2.03200006e+00 2.04099989e+00 2.04500008e+00
    2.04099989e+00 2.05299997e+00 2.24399996e+00 0. 0. 0. 0. 0. 0. 0. 0.
    0. 0. 0. 0. 0. 0. 0. 0. 0. 0. 0. 0. 0. 0. 0. 2.83200002e+00
    2.02900004e+00 2.02800012e+00 2.01699996e+00 2.01699996e+00
    2.01699996e+00 2.01699996e+00 2.01699996e+00 2.01699996e+00
    2.01699996e+00 2.01699996e+00 2.01699996e+00 2.01200008e+00
    2.01799989e+00 2.02900004e+00 2.04600000e+00 0. 0. 0. 0. 0. 0. 0. 0.
    0. 0. 0. 0. 0. 0. 0. 0. 0. 0. 0. 0. 0. 2.95900011e+00 2.97600007e+00
    2.98499990e+00 2.78099990e+00 2.02900004e+00 2.02900004e+00
    2.02300000e+00 2.01699996e+00 2.01300001e+00 2.01200008e+00
    2.00799990e+00 2.00600004e+00 2.00600004e+00 2.00399995e+00 2. 2. 2.
    2.01300001e+00 0. 0. 0. 0. 0. 0. 0. 0. 0. 0. 0. 0. 0. 0. 0. 0. 0. 0.
    0. 0. 0. 0. 2.95900011e+00 2.93199992e+00 2.92300010e+00
    2.92300010e+00 2.02800012e+00 2.02399993e+00 2.02300000e+00
    2.01699996e+00 2.01300001e+00 2.01200008e+00 2.01200008e+00
    2.01200008e+00 2.00900006e+00 2.00399995e+00 2. 2. 2. 2. 0. 0. 0. 0.
    0. 0. 0. 0. 0. 0. 0. 0. 0. 0. 0. 0.</data></Depth>
</opencv_storage>
