<?xml version="1.0"?>
<opencv_storage>
<Depth type_id="opencv-matrix">
  <rows>40</rows>
  <cols>40</cols>
  <dt>f</dt>
  <data>
    0. 0. 0. 0. 0. 0. 0. 0. 0. 0. 0. 0. 0. 0. 0. 0. 0. 2.04800010e+00
    2.04800010e+00 2.04399991e+00 2.03399992e+00 2.04099989e+00
    2.02900004e+00 1.96899998e+00 1.96700001e+00 1.96700001e+00
    1.96800005e+00 1.22899997e+00 1.22899997e+00 0. 0. 0. 0. 0. 0. 0. 0.
    0. 0. 0. 0. 0. 0. 0. 0. 0. 0. 0. 0. 0. 0. 0. 0. 0. 1.22899997e+00
    1.22899997e+00 1.22899997e+00 2.03399992e+00 2.01900005e+00
    2.01999998e+00 2.00900006e+00 1.96800005e+00 1.96700001e+00
    1.96800005e+00 1.96800005e+00 1.96899998e+00 1.97099996e+00
    1.33899999e+00 1.22899997e+00 0. 0. 0. 0. 0. 0. 0. 0. 0. 0. 0. 0. 0.
    0. 0. 0. 0. 0. 0. 0. 0. 0. 1.63399994e+00 1.22899997e+00
    1.22899997e+00 1.22899997e+00 1.22899997e+00 1.72700000e+00
    1.83700001e+00 1.96599996e+00 1.96500003e+00 1.96500003e+00
    1.96899998e+00 1.97000003e+00 1.97099996e+00 1.97000003e+00
    1.97099996e+00 1.97300005e+00 1.78999996e+00 1.22899997e+00 0. 0. 0.
    0. 0. 0. 0. 0. 0. 0. 0. 0. 0. 0. 0. 0. 0. 0. 0. 0. 1.22899997e+00
    1.22899997e+00 1.22899997e+00 1.97800004e+00 1.22899997e+00
    1.34300005e+00 1.96899998e+00 1.96500003e+00 1.96500003e+00
    1.96700001e+00 1.96800005e+00 1.97000003e+00 1.97000003e+00
    1.97099996e+00 1.97200000e+00 1.97200000e+00 1.97300005e+00
    1.97300005e+00 1.97300005e+00 1.22899997e+00 0. 0. 0. 0. 0. 0. 0. 0.
    0. 0. 0. 0. 0. 0. 0. 0. 0. 2.52800012e+00 1.22899997e+00
    1.22899997e+00 1.22899997e+00 1.22899997e+00 1.22899997e+00
    1.97300005e+00 1.96800005e+00 1.96700001e+00 1.96800005e+00
    1.96800005e+00 1.96899998e+00 1.96899998e+00 1.96899998e+00
    1.97099996e+00 1.97099996e+00 1.97300005e+00 1.97300005e+00
    1.97399998e+00 1.97599995e+00 1.97599995e+00 1.97500002e+00
    1.22899997e+00 1.45099998e+00 0. 0. 0. 0. 0. 0. 0. 0. 0. 0. 0. 0. 0.
    0. 1.40799999e+00 1.97500002e+00 1.96800005e+00 1.22899997e+00
    1.22899997e+00 1.96800005e+00 1.96800005e+00 1.96800005e+00
    1.96500003e+00 1.96800005e+00 1.97000003e+00 1.96899998e+00
    1.97000003e+00 1.97000003e+00 1.97000003e+00 1.97099996e+00
    1.97300005e+00 1.97300005e+00 1.97300005e+00 1.97500002e+00
    1.97599995e+00 1.97599995e+00 1.97599995e+00 1.97800004e+00
    1.97800004e+00 1.22899997e+00 0. 0. 0. 0. 0. 0. 0. 0. 0. 0. 0. 0. 0.
    0. 1.40799999e+00 1.97800004e+00 1.96700001e+00 1.96800005e+00
    1.97000003e+00 1.96899998e+00 1.96899998e+00 1.97000003e+00
    1.97000003e+00 1.97000003e+00 1.97099996e+00 1.97000003e+00
    1.97099996e+00 1.97099996e+00 1.97099996e+00 1.97099996e+00
    1.97300005e+00 1.97500002e+00 1.97599995e+00 1.97599995e+00
    1.97599995e+00 1.97800004e+00 1.97800004e+00 1.97899997e+00
    1.97899997e+00 1.22899997e+00 0. 0. 0. 0. 0. 0. 0. 0. 0. 0. 0. 0. 0.
    0. 1.97000003e+00 1.96899998e+00 1.96800005e+00 1.96800005e+00
    1.97000003e+00 1.97000003e+00 1.97099996e+00 1.97099996e+00
    1.97099996e+00 1.97099996e+00 1.97099996e+00 1.97300005e+00
    1.97300005e+00 1.97099996e+00 1.97300005e+00 1.97599995e+00
    1.97500002e+00 1.97800004e+00 1.97800004e+00 1.97800004e+00
    1.97899997e+00 1.97899997e+00 1.97899997e+00 1.97899997e+00
    1.98099995e+00 1.22899997e+00 1.22899997e+00 0. 0. 0. 0. 0. 0. 0. 0.
    0. 0. 0. 0. 0. 1.96899998e+00 1.96800005e+00 1.96800005e+00
    1.97000003e+00 1.97099996e+00 1.97099996e+00 1.97099996e+00
    1.97200000e+00 1.97200000e+00 1.97300005e+00 1.97300005e+00
    1.97500002e+00 1.97500002e+00 1.97599995e+00 1.97599995e+00
    1.97599995e+00 1.97700000e+00 1.97899997e+00 1.97899997e+00
    1.97899997e+00 1.98099995e+00 1.98199999e+00 1.98300004e+00
    1.98199999e+00 1.98399997e+00 1.83099997e+00 1.22899997e+00 0. 0. 0.
    0. 0. 0. 0. 0. 0. 0. 0. 0. 0. 1.97300005e+00 1.97099996e+00
    1.97099996e+00 1.97099996e+00 1.97300005e+00 1.97300005e+00
    1.97300005e+00 1.97500002e+00 1.97599995e+00 1.97500002e+00
    1.97599995e+00 1.97599995e+00 1.97599995e+00 1.97599995e+00
    1.97800004e+00 1.97599995e+00 1.97899997e+00 1.98099995e+00
    1.98099995e+00 1.98199999e+00 1.98399997e+00 1.98399997e+00
    1.98399997e+00 1.98599994e+00 1.98699999e+00 1.98800004e+00
    1.22899997e+00 1.69500005e+00 0. 0. 0. 0. 0. 0. 0. 0. 0. 0. 0. 0.
    1.68799996e+00 1.97399998e+00 1.97200000e+00 1.97200000e+00
    1.97599995e+00 1.97599995e+00 1.97599995e+00 1.97700000e+00
    1.97700000e+00 1.97599995e+00 1.97800004e+00 1.97800004e+00
    1.97800004e+00 1.97800004e+00 1.97899997e+00 1.97800004e+00
    1.98199999e+00 1.98399997e+00 1.98399997e+00 1.98500001e+00
    1.98399997e+00 1.98599994e+00 1.98599994e+00 1.98599994e+00
    1.98699999e+00 1.98899996e+00 1.22899997e+00 1.22899997e+00 0. 0. 0.
    0. 0. 0. 0. 0. 0. 0. 0. 0. 1.22899997e+00 1.97500002e+00
    1.97599995e+00 1.97599995e+00 1.97800004e+00 1.97800004e+00
    1.97800004e+00 1.97899997e+00 1.97899997e+00 1.97800004e+00
    1.97800004e+00 1.98000002e+00 1.98099995e+00 1.98099995e+00
    1.98099995e+00 1.98099995e+00 1.98300004e+00 1.98500001e+00
    1.98399997e+00 1.98599994e+00 1.98599994e+00 1.98699999e+00
    1.98800004e+00 1.99000001e+00 1.99000001e+00 1.99100006e+00
    1.46700001e+00 1.22899997e+00 0. 0. 0. 0. 0. 0. 0. 0. 0. 0. 0. 0.
    1.22899997e+00 1.97599995e+00 1.97599995e+00 1.97599995e+00
    1.97800004e+00 1.97800004e+00 1.98000002e+00 1.98099995e+00
    1.98099995e+00 1.97899997e+00 1.98099995e+00 1.98300004e+00
    1.98300004e+00 1.98300004e+00 1.98300004e+00 1.98399997e+00
    1.98399997e+00 1.98800004e+00 1.98800004e+00 1.98800004e+00
    1.98800004e+00 1.99000001e+00 1.99100006e+00 1.99100006e+00
    1.99199998e+00 1.99199998e+00 1.99300003e+00 1.22899997e+00
    2.24900007e+00 0. 0. 0. 0. 0. 0. 0. 0. 0. 0. 0. 1.22899997e+00
    1.26100004e+00 1.97800004e+00 1.97800004e+00 1.98099995e+00
    1.98000002e+00 1.98300004e+00 1.98300004e+00 1.98300004e+00
    1.98300004e+00 1.98300004e+00 1.98300004e+00 1.98399997e+00
    1.98399997e+00 1.98599994e+00 1.98599994e+00 1.98599994e+00
    1.99000001e+00 1.99100006e+00 1.99100006e+00 1.99100006e+00
    1.99300003e+00 1.99300003e+00 1.99300003e+00 1.99300003e+00
    1.99300003e+00 1.99500000e+00 1.22899997e+00 0. 0. 0. 0. 0. 0. 0. 0.
    0. 0. 0. 0. 1.22899997e+00 1.22899997e+00 1.98099995e+00
    1.98099995e+00 1.98300004e+00 1.98300004e+00 1.98399997e+00
    1.98399997e+00 1.98399997e+00 1.98399997e+00 1.98399997e+00
    1.98399997e+00 1.98599994e+00 1.98599994e+00 1.98699999e+00
    1.98899996e+00 1.98899996e+00 1.99100006e+00 1.99300003e+00
    1.99300003e+00 1.99300003e+00 1.99399996e+00 1.99500000e+00
    1.99600005e+00 1.99699998e+00 1.99699998e+00 1.99800003e+00
    1.22899997e+00 1.22899997e+00 0. 0. 0. 0. 0. 0. 0. 0. 0. 0. 0.
    1.22899997e+00 1.22899997e+00 1.43900001e+00 1.98300004e+00
    1.98399997e+00 1.98599994e+00 1.98399997e+00 1.98399997e+00
    1.98399997e+00 1.98599994e+00 1.98800004e+00 1.98699999e+00
    1.98800004e+00 1.98800004e+00 1.99000001e+00 1.99000001e+00
    1.99000001e+00 1.99300003e+00 1.99300003e+00 1.99399996e+00
    1.99300003e+00 1.99600005e+00 1.99600005e+00 1.99800003e+00
    1.99800003e+00 1.99800003e+00 1.99800003e+00 2. 1.22899997e+00
    1.84000003e+00 0. 0. 0. 0. 0. 0. 0. 0. 0. 0. 1.22899997e+00
    1.22899997e+00 1.32200003e+00 1.98399997e+00 1.98800004e+00
    1.98699999e+00 1.98699999e+00 1.98899996e+00 1.99000001e+00
    1.99000001e+00 1.99000001e+00 1.99000001e+00 1.99000001e+00
    1.99000001e+00 1.99100006e+00 1.99100006e+00 1.99300003e+00
    1.99300003e+00 1.99500000e+00 1.99800003e+00 1.99800003e+00
    1.99800003e+00 1.99800003e+00 1.99800003e+00 2. 2. 2. 2.
    1.22899997e+00 1.43700004e+00 0. 0. 0. 0. 0. 0. 0. 0. 0. 0.
    1.22899997e+00 1.22899997e+00 1.22899997e+00 1.74300003e+00
    1.98899996e+00 1.99000001e+00 1.99000001e+00 1.99100006e+00
    1.99100006e+00 1.99000001e+00 1.99100006e+00 1.99000001e+00
    1.99100006e+00 1.99300003e+00 1.99300003e+00 1.99500000e+00
    1.99600005e+00 1.99800003e+00 1.99800003e+00 1.99800003e+00
    1.99800003e+00 2. 2. 2. 2. 2.00300002e+00 2.00300002e+00
    2.00300002e+00 1.92600000e+00 1.22899997e+00 0. 0. 0. 0. 0. 0. 0. 0.
    0. 0. 0. 1.22899997e+00 1.22899997e+00 1.22899997e+00 1.99100006e+00
    1.99100006e+00 1.99100006e+00 1.99100006e+00 1.99100006e+00
    1.99100006e+00 1.99300003e+00 1.99399996e+00 1.99399996e+00
    1.99500000e+00 1.99500000e+00 1.99600005e+00 1.99699998e+00
    1.99899995e+00 1.99899995e+00 2. 2. 2.00200009e+00 2.00200009e+00
    2.00300002e+00 2.00399995e+00 2.00500011e+00 2.00500011e+00
    2.00600004e+00 2.00500011e+00 1.22899997e+00 2.98099995e+00 0. 0. 0.
    0. 0. 0. 0. 0. 0. 0. 1.22899997e+00 1.22899997e+00 1.22899997e+00
    1.99300003e+00 1.99199998e+00 1.99300003e+00 1.99300003e+00
    1.99500000e+00 1.99500000e+00 1.99600005e+00 1.99500000e+00
    1.99600005e+00 1.99600005e+00 1.99800003e+00 1.99800003e+00 2.
    2.00200009e+00 2.00200009e+00 2.00200009e+00 2.00300002e+00
    2.00399995e+00 2.00500011e+00 2.00500011e+00 2.00699997e+00
    2.00500011e+00 2.00500011e+00 2.00699997e+00 2.00600004e+00
    1.22899997e+00 1.22899997e+00 0. 0. 0. 0. 0. 0. 0. 0. 0. 0.
    2.14199996e+00 1.22899997e+00 1.22899997e+00 1.80700004e+00
    1.99600005e+00 1.99500000e+00 1.99600005e+00 1.99699998e+00
    1.99600005e+00 1.99600005e+00 1.99600005e+00 1.99800003e+00
    1.99600005e+00 1.99800003e+00 2. 2.00099993e+00 2.00200009e+00
    2.00500011e+00 2.00300002e+00 2.00500011e+00 2.00500011e+00
    2.00699997e+00 2.00600004e+00 2.00699997e+00 2.00799990e+00
    2.00999999e+00 2.00900006e+00 2.00799990e+00 1.94099998e+00
    1.22899997e+00 0. 0. 0. 0. 0. 0. 0. 0. 0. 0. 0. 1.22899997e+00
    1.22899997e+00 1.22899997e+00 1.99800003e+00 1.99800003e+00
    1.99800003e+00 1.99800003e+00 1.99800003e+00 1.99800003e+00 2. 2. 2.
    2. 2.00300002e+00 2.00300002e+00 2.00500011e+00 2.00500011e+00
    2.00500011e+00 2.00699997e+00 2.00699997e+00 2.00699997e+00
    2.00699997e+00 2.00900006e+00 2.00900006e+00 2.00999999e+00
    2.00999999e+00 2.01200008e+00 1.93799996e+00 1.22899997e+00 0. 0. 0.
    0. 0. 0. 0. 0. 0. 0. 0. 0. 1.22899997e+00 1.22899997e+00
    1.99800003e+00 1.99800003e+00 1.99899995e+00 2. 2. 2.00200009e+00
    2.00099993e+00 2.00300002e+00 2.00300002e+00 2.00300002e+00
    2.00500011e+00 2.00500011e+00 2.00699997e+00 2.00699997e+00
    2.00699997e+00 2.00699997e+00 2.00900006e+00 2.00999999e+00
    2.00999999e+00 2.01200008e+00 2.01200008e+00 2.01200008e+00
    2.01200008e+00 2.01300001e+00 2.01399994e+00 1.22899997e+00
    1.38800001e+00 0. 0. 0. 0. 0. 0. 0. 0. 0. 0. 0. 1.22899997e+00
    1.22899997e+00 1.79400003e+00 2.00200009e+00 2.00300002e+00
    2.00300002e+00 2.00300002e+00 2.00300002e+00 2.00300002e+00
    2.00399995e+00 2.00500011e+00 2.00500011e+00 2.00600004e+00
    2.00500011e+00 2.00900006e+00 2.01099992e+00 2.00999999e+00
    2.00799990e+00 2.01200008e+00 2.01200008e+00 2.01300001e+00
    2.01399994e+00 2.01300001e+00 2.01399994e+00 2.01300001e+00
    2.01300001e+00 2.01399994e+00 1.45899999e+00 1.22899997e+00 0. 0. 0.
    0. 0. 0. 0. 0. 0. 0. 0. 1.22899997e+00 1.22899997e+00 1.61800003e+00
    2.00300002e+00 2.00300002e+00 2.00300002e+00 2.00399995e+00
    2.00500011e+00 2.00500011e+00 2.00500011e+00 2.00500011e+00
    2.00699997e+00 2.00900006e+00 2.00699997e+00 2.01099992e+00
    2.01200008e+00 2.01200008e+00 2.01200008e+00 2.01399994e+00
    2.01399994e+00 2.01600003e+00 2.01399994e+00 2.01600003e+00
    2.01600003e+00 2.01399994e+00 2.01399994e+00 2.01799989e+00
    1.64400005e+00 1.38800001e+00 0. 0. 0. 0. 0. 0. 0. 0. 0. 0. 0.
    2.31200004e+00 1.22899997e+00 1.22899997e+00 2.00500011e+00
    2.00500011e+00 2.00600004e+00 2.00500011e+00 2.00699997e+00
    2.00699997e+00 2.00900006e+00 2.00900006e+00 2.00900006e+00
    2.00900006e+00 2.00999999e+00 2.01200008e+00 2.01200008e+00
    2.01399994e+00 2.01399994e+00 2.01600003e+00 2.01600003e+00
    2.01600003e+00 2.01799989e+00 2.01799989e+00 2.01799989e+00
    2.01900005e+00 2.01699996e+00 2.01900005e+00 2.02099991e+00
    1.22899997e+00 0. 0. 0. 0. 0. 0. 0. 0. 0. 0. 0. 0. 1.22899997e+00
    1.22899997e+00 1.22899997e+00 2.00900006e+00 2.00900006e+00
    2.00900006e+00 2.00999999e+00 2.00999999e+00 2.00999999e+00
    2.00999999e+00 2.00999999e+00 2.00999999e+00 2.01200008e+00
    2.01399994e+00 2.01399994e+00 2.01699996e+00 2.01600003e+00
    2.01600003e+00 2.01900005e+00 2.01900005e+00 2.01900005e+00
    2.01900005e+00 2.01900005e+00 2.02099991e+00 2.01900005e+00
    2.01900005e+00 2.02300000e+00 1.95799994e+00 0. 0. 0. 0. 0. 0. 0. 0.
    0. 0. 0. 0. 1.22899997e+00 1.22899997e+00 1.22899997e+00
    2.00900006e+00 2.00999999e+00 2.00999999e+00 2.00999999e+00
    2.01099992e+00 2.01200008e+00 2.01300001e+00 2.01200008e+00
    2.01300001e+00 2.01600003e+00 2.01799989e+00 2.01900005e+00
    2.01799989e+00 2.01799989e+00 2.01799989e+00 2.01799989e+00
    2.01900005e+00 2.01900005e+00 2.02099991e+00 2.02099991e+00
    2.02099991e+00 2.02200007e+00 2.02099991e+00 2.02500010e+00
    2.01999998e+00 0. 0. 0. 0. 0. 0. 0. 0. 0. 0. 0. 0. 0. 1.22899997e+00
    1.22899997e+00 1.97700000e+00 2.01200008e+00 2.01200008e+00
    2.01200008e+00 2.01200008e+00 2.01399994e+00 2.01399994e+00
    2.01600003e+00 2.01799989e+00 2.01799989e+00 2.02099991e+00
    2.01900005e+00 2.01999998e+00 2.01900005e+00 2.01900005e+00
    2.02099991e+00 2.02099991e+00 2.02099991e+00 2.02200007e+00
    2.02500010e+00 2.02399993e+00 2.02399993e+00 2.02500010e+00
    2.02500010e+00 2.02699995e+00 0. 0. 0. 0. 0. 0. 0. 0. 0. 0. 0. 0. 0.
    2.07500005e+00 1.22899997e+00 1.22899997e+00 2.01500010e+00
    2.01600003e+00 2.01600003e+00 2.01600003e+00 2.01799989e+00
    2.01699996e+00 2.01799989e+00 2.01799989e+00 2.01799989e+00
    2.02200007e+00 2.02300000e+00 2.02200007e+00 2.02099991e+00
    2.02200007e+00 2.02099991e+00 2.02399993e+00 2.02600002e+00
    2.02699995e+00 2.02699995e+00 2.02500010e+00 2.02600002e+00
    2.02500010e+00 2.02900004e+00 2.02900004e+00 0. 0. 0. 0. 0. 0. 0. 0.
    0. 0. 0. 0. 0. 0. 1.22899997e+00 1.22899997e+00 2.01699996e+00
    2.01699996e+00 2.01799989e+00 2.01799989e+00 2.01799989e+00
    2.01900005e+00 2.01900005e+00 2.01900005e+00 2.02099991e+00
    2.02500010e+00 2.02300000e+00 2.02399993e+00 2.02500010e+00
    2.02600002e+00 2.02699995e+00 2.02699995e+00 2.02699995e+00
    2.02699995e+00 2.02699995e+00 2.02699995e+00 2.02900004e+00
    2.02900004e+00 2.03200006e+00 2.03099990e+00 0. 0. 0. 0. 0. 0. 0. 0.
    0. 0. 0. 0. 0. 0. 1.22899997e+00 1.22899997e+00 1.22899997e+00
    2.01999998e+00 2.01999998e+00 2.01999998e+00 2.01999998e+00
    2.01999998e+00 2.02099991e+00 2.02300000e+00 2.02300000e+00
    2.02500010e+00 2.02699995e+00 2.02600002e+00 2.02800012e+00
    2.02699995e+00 2.02699995e+00 2.02699995e+00 2.02800012e+00
    2.02900004e+00 2.02999997e+00 2.03200006e+00 2.03099990e+00
    2.03099990e+00 2.03200006e+00 2.62599993e+00 0. 0. 0. 0. 0. 0. 0. 0.
    0. 0. 0. 0. 0. 0. 1.22899997e+00 1.22899997e+00 1.22899997e+00
    2.02200007e+00 2.02500010e+00 2.02300000e+00 2.02300000e+00
    2.02500010e+00 2.02500010e+00 2.02500010e+00 2.02699995e+00
    2.02800012e+00 2.02900004e+00 2.02800012e+00 2.02900004e+00
    2.02900004e+00 2.02900004e+00 2.03200006e+00 2.03200006e+00
    2.03200006e+00 2.03200006e+00 2.03099990e+00 2.06500006e+00 0. 0. 0.
    0. 0. 0. 0. 0. 0. 0. 0. 0. 2.82699990e+00 2.53800011e+00
    2.54800010e+00 0. 0. 0. 1.22899997e+00 1.22899997e+00 2.02699995e+00
    2.02600002e+00 2.02600002e+00 2.02600002e+00 2.02699995e+00
    2.02699995e+00 2.02699995e+00 2.02900004e+00 2.02900004e+00
    2.02900004e+00 2.03099990e+00 2.03200006e+00 2.03099990e+00
    2.03200006e+00 2.03099990e+00 2.03200006e+00 2.03200006e+00
    2.03200006e+00 0. 0. 0. 2.98300004e+00 2.97700000e+00 0. 0. 0. 0. 0.
    0. 0. 0. 2.97300005e+00 2.54699993e+00 2.52999997e+00 2.52099991e+00
    2.51699996e+00 0. 0. 1.22899997e+00 1.22899997e+00 1.66400003e+00
    2.02699995e+00 2.02699995e+00 2.02699995e+00 2.02699995e+00
    2.02900004e+00 2.02699995e+00 2.02900004e+00 2.03099990e+00
    2.03399992e+00 2.03200006e+00 2.03200006e+00 2.03200006e+00
    2.03200006e+00 2.13800001e+00 2.05999994e+00 2.05800009e+00
    2.11299992e+00 2.11400008e+00 2.96799994e+00 2.96000004e+00
    2.95300007e+00 2.95000005e+00 0. 0. 0. 0. 0. 0. 0. 0. 0.
    2.54699993e+00 2.53500009e+00 2.51399994e+00 2.50000000e+00
    2.49799991e+00 2.95499992e+00 0. 1.22899997e+00 1.22899997e+00
    2.02900004e+00 2.02900004e+00 2.02999997e+00 2.02900004e+00
    2.02999997e+00 2.03099990e+00 2.03099990e+00 2.03500009e+00
    2.03399992e+00 2.03299999e+00 2.14100003e+00 2.13700008e+00
    2.13000011e+00 2.12100005e+00 2.13199997e+00 2.05699992e+00
    2.10100007e+00 2.08899999e+00 1.53600001e+00 2.83599997e+00
    2.91899991e+00 2.90499997e+00 0. 0. 0. 0. 0. 0. 0. 0. 0.
    2.54699993e+00 2.53099990e+00 2.51699996e+00 2.49600005e+00
    2.48099995e+00 2.47000003e+00 2.46499991e+00 1.22899997e+00
    1.22899997e+00 1.28999996e+00 2.03200006e+00 2.03200006e+00
    2.03200006e+00 2.03200006e+00 2.03299999e+00 2.03200006e+00
    2.07599998e+00 2.13299990e+00 1.22899997e+00 2.12100005e+00
    2.11599994e+00 2.11199999e+00 2.10200000e+00 2.08899999e+00
    2.06299996e+00 2.07399988e+00 2.07399988e+00 1.53299999e+00
    2.22499990e+00 2.41599989e+00 2.47700000e+00 0. 0. 0. 0. 0. 0. 0. 0.
    0. 2.54699993e+00 2.52500010e+00 2.50600004e+00 2.49900007e+00
    2.48099995e+00 2.46099997e+00 2.45300007e+00 2.44600010e+00
    1.78100002e+00 1.22899997e+00 2.03299999e+00 2.03399992e+00
    2.03200006e+00 2.19700003e+00 2.20700002e+00 2.45900011e+00
    2.12800002e+00 2.11999989e+00 2.11700010e+00 2.11500001e+00
    2.10100007e+00 2.09500003e+00 2.08599997e+00 2.08100009e+00
    2.06800008e+00 2.06699991e+00 2.06200004e+00 2.05599999e+00
    2.42199993e+00 2.41799998e+00 2.40799999e+00 0. 0. 0. 0. 0. 0. 0. 0.
    0. 0. 2.53399992e+00 2.50000000e+00 2.48399997e+00 2.47900009e+00
    2.46399999e+00 2.44300008e+00 2.43099999e+00 2.42899990e+00
    2.42400002e+00 2.03399992e+00 2.03399992e+00 2.44300008e+00
    2.43499994e+00 2.42899990e+00 2.41899991e+00 2.10700011e+00
    2.09699988e+00 2.09299994e+00 2.06599998e+00 2.07699990e+00
    2.07699990e+00 2.06900001e+00 2.06599998e+00 2.05999994e+00
    2.05399990e+00 2.04399991e+00 2.03999996e+00 2.03600001e+00
    2.41100001e+00 2.40199995e+00 0. 0. 0. 0. 0. 0. 0. 0. 0. 0. 0.
    2.72300005e+00 2.48900008e+00 2.45600009e+00 2.45300007e+00
    2.44799995e+00 2.43000007e+00 2.41300011e+00 2.41100001e+00
    2.40599990e+00 2.39800000e+00 2.42600012e+00 2.41300011e+00
    2.40300012e+00 2.39400005e+00 2.09100008e+00 2.08400011e+00
    2.07500005e+00 2.06900001e+00 2.06299996e+00 2.05900002e+00
    2.05299997e+00 2.04600000e+00 2.04200006e+00 2.03800011e+00
    2.03900003e+00 2.03600001e+00 2.03500009e+00 2.04399991e+00
    1.89800000e+00 0. 0. 0. 0.</data></Depth>
</opencv_storage>
