<?xml version="1.0"?>
<opencv_storage>
<Depth type_id="opencv-matrix">
  <rows>40</rows>
  <cols>40</cols>
  <dt>f</dt>
  <data>
    0. 0. 0. 0. 0. 0. 2.00200009e+00 1.98199999e+00 1.93700004e+00
    1.89400005e+00 1.85300004e+00 1.82099998e+00 1.82099998e+00
    1.82000005e+00 1.82000005e+00 1.82200003e+00 1.86300004e+00
    1.90499997e+00 1.90799999e+00 1.90799999e+00 1.94400001e+00
    1.98699999e+00 2.06399989e+00 2.15499997e+00 0. 0. 0. 0. 0. 0. 0. 0.
    0. 0. 0. 0. 0. 0. 0. 0. 0. 0. 0. 0. 0. 0. 2.04600000e+00
    2.01699996e+00 1.95099998e+00 1.90100002e+00 1.87899995e+00
    1.85800004e+00 1.83800006e+00 1.82000005e+00 1.82000005e+00
    1.82200003e+00 1.86300004e+00 1.90499997e+00 1.90799999e+00
    1.90799999e+00 1.92600000e+00 1.94900000e+00 2.00399995e+00
    2.07200003e+00 0. 0. 0. 0. 0. 0. 0. 0. 0. 0. 0. 0. 0. 0. 0. 0. 0. 0.
    0. 0. 0. 0. 2.09100008e+00 2.05200005e+00 1.96500003e+00
    1.90799999e+00 1.90600002e+00 1.89499998e+00 1.85500002e+00
    1.82000005e+00 1.82000005e+00 1.82200003e+00 1.86300004e+00
    1.90499997e+00 1.90799999e+00 1.90799999e+00 1.90900004e+00
    1.91100001e+00 1.94400001e+00 1.98899996e+00 0. 0. 0. 0. 0. 0. 0. 0.
    0. 0. 0. 0. 0. 0. 0. 0. 0. 0. 0. 0. 0. 0. 2.43300009e+00
    2.32999992e+00 2.09899998e+00 1.94200003e+00 1.92299998e+00
    1.90199995e+00 1.87899995e+00 1.85899997e+00 1.85899997e+00
    1.86000001e+00 1.88300002e+00 1.90600002e+00 1.90799999e+00
    1.90799999e+00 1.90799999e+00 1.90799999e+00 1.92600000e+00
    1.95000005e+00 0. 0. 0. 0. 0. 0. 0. 0. 0. 0. 0. 0. 0. 0. 0. 0. 0. 0.
    0. 0. 0. 0. 2.79600000e+00 2.62400007e+00 2.24300003e+00
    1.97899997e+00 1.93799996e+00 1.90699995e+00 1.90400004e+00
    1.90100002e+00 1.90100002e+00 1.90100002e+00 1.90400004e+00
    1.90799999e+00 1.90799999e+00 1.90799999e+00 1.90799999e+00
    1.90799999e+00 1.91100001e+00 1.91400003e+00 0. 0. 0. 0. 0. 0. 0. 0.
    0. 0. 0. 0. 0. 0. 0. 0. 0. 0. 0. 0. 0. 0. 2.85700011e+00
    2.67400002e+00 2.26699996e+00 1.99100006e+00 1.96399999e+00
    1.94000006e+00 1.92299998e+00 1.90799999e+00 1.90799999e+00
    1.90799999e+00 1.90799999e+00 1.90799999e+00 1.90799999e+00
    1.90799999e+00 1.90799999e+00 1.90799999e+00 1.90799999e+00
    1.90799999e+00 0. 0. 0. 0. 0. 0. 0. 0. 0. 0. 0. 0. 0. 0. 0. 0. 0. 0.
    0. 0. 0. 0. 2.85700011e+00 2.67400002e+00 2.26699996e+00
    1.99800003e+00 1.99199998e+00 1.97899997e+00 1.94099998e+00
    1.90799999e+00 1.90799999e+00 1.90799999e+00 1.90799999e+00
    1.90799999e+00 1.90799999e+00 1.90799999e+00 1.90799999e+00
    1.90799999e+00 1.90799999e+00 1.90799999e+00 1.69500005e+00
    1.35399997e+00 0. 0. 0. 0. 0. 0. 0. 0. 0. 0. 0. 0. 0. 0. 0. 0. 0. 0.
    0. 0. 2.85700011e+00 2.68799996e+00 2.31200004e+00 2.06100011e+00
    2.04500008e+00 2.01799989e+00 1.95899999e+00 1.90799999e+00
    1.90799999e+00 1.90900004e+00 1.92400002e+00 1.93900001e+00
    1.92600000e+00 1.91100001e+00 1.90799999e+00 1.90799999e+00
    1.90799999e+00 1.90799999e+00 1.90799999e+00 1.90799999e+00
    1.00699997e+00 0. 0. 0. 0. 0. 0. 0. 0. 0. 0. 0. 0. 0. 0. 0. 0. 0. 0.
    0. 2.85700011e+00 2.70799994e+00 2.37500000e+00 2.14499998e+00
    2.10599995e+00 2.05800009e+00 1.97700000e+00 1.90799999e+00
    1.90799999e+00 1.90900004e+00 1.94500005e+00 1.98099995e+00
    1.95000005e+00 1.91400003e+00 1.90799999e+00 1.90799999e+00
    1.90799999e+00 1.90799999e+00 1.90799999e+00 1.90799999e+00
    1.66199994e+00 1.19200003e+00 0. 0. 0. 0. 0. 0. 0. 0. 0. 0. 0. 0. 0.
    0. 0. 0. 0. 0. 2.89400005e+00 2.75699997e+00 2.45300007e+00
    2.22700000e+00 2.15100002e+00 2.07900000e+00 2.01699996e+00
    1.96099997e+00 1.94799995e+00 1.93599999e+00 1.95400000e+00
    1.97099996e+00 1.94400001e+00 1.91299999e+00 1.90799999e+00
    1.90799999e+00 1.90799999e+00 1.90799999e+00 1.90799999e+00
    1.90799999e+00 1.90799999e+00 1.90799999e+00 0. 0. 0. 0. 0. 0. 0. 0.
    0. 0. 0. 0. 0. 0. 0. 0. 0. 0. 2.95400000e+00 2.82500005e+00
    2.53900003e+00 2.30900002e+00 2.18700004e+00 2.08899999e+00
    2.06900001e+00 2.04699993e+00 2.01200008e+00 1.97800004e+00
    1.95400000e+00 1.92999995e+00 1.91999996e+00 1.90999997e+00
    1.90799999e+00 1.90799999e+00 1.90799999e+00 1.90799999e+00
    1.90799999e+00 1.90799999e+00 1.90799999e+00 1.90799999e+00 0. 0. 0.
    0. 0. 0. 0. 0. 0. 0. 0. 0. 0. 0. 0. 0. 0. 0. 2.95099998e+00
    2.83299994e+00 2.56999993e+00 2.35200000e+00 2.21900010e+00
    2.11299992e+00 2.08999991e+00 2.06599998e+00 2.03200006e+00
    1.99800003e+00 1.95500004e+00 1.91100001e+00 1.90799999e+00
    1.90799999e+00 1.90799999e+00 1.90799999e+00 1.90799999e+00
    1.90799999e+00 1.90799999e+00 1.90799999e+00 1.91400003e+00
    1.92499995e+00 0. 0. 0. 0. 0. 0. 0. 0. 0. 0. 0. 0. 0. 0. 0. 0. 0. 0.
    2.89199996e+00 2.78600001e+00 2.55200005e+00 2.35999990e+00
    2.24900007e+00 2.14899993e+00 2.08299994e+00 2.02399993e+00
    2.01200008e+00 1.99800003e+00 1.95500004e+00 1.91100001e+00
    1.90799999e+00 1.90799999e+00 1.90799999e+00 1.90799999e+00
    1.90799999e+00 1.90799999e+00 1.90799999e+00 1.90799999e+00
    1.92499995e+00 1.95599997e+00 0. 0. 0. 0. 0. 0. 0. 0. 0. 0. 0. 0. 0.
    0. 0. 0. 0. 0. 2.85700011e+00 2.76799989e+00 2.57100010e+00
    2.40400004e+00 2.29500008e+00 2.18799996e+00 2.08699989e+00 2. 2.
    1.99800003e+00 1.95500004e+00 1.91100001e+00 1.90799999e+00
    1.90799999e+00 1.90799999e+00 1.90799999e+00 1.90799999e+00
    1.90799999e+00 1.90799999e+00 1.90799999e+00 1.92600000e+00
    1.96099997e+00 1.08500004e+00 0. 0. 0. 0. 0. 0. 0. 0. 0. 0. 0. 0. 0.
    0. 0. 0. 0. 2.85700011e+00 2.79099989e+00 2.64400005e+00
    2.50000000e+00 2.36400008e+00 2.23000002e+00 2.10599995e+00 2. 2.
    1.99800003e+00 1.95500004e+00 1.91100001e+00 1.90799999e+00
    1.90799999e+00 1.90799999e+00 1.90799999e+00 1.90799999e+00
    1.90799999e+00 1.90799999e+00 1.90799999e+00 1.91499996e+00
    1.92999995e+00 1.58500004e+00 0. 0. 0. 0. 0. 0. 0. 0. 0. 0. 0. 0. 0.
    0. 0. 0. 0. 2.85700011e+00 2.80999994e+00 2.70499992e+00
    2.58800006e+00 2.44799995e+00 2.30599999e+00 2.15700006e+00
    2.02699995e+00 2.01300001e+00 1.99899995e+00 1.96099997e+00
    1.92400002e+00 1.91600001e+00 1.90900004e+00 1.90799999e+00
    1.90799999e+00 1.90799999e+00 1.90799999e+00 1.90799999e+00
    1.90799999e+00 1.90799999e+00 1.90799999e+00 1.92400002e+00
    1.96099997e+00 1.13900006e+00 0. 0. 0. 0. 0. 0. 0. 0. 0. 0. 0. 0. 0.
    0. 0. 2.85700011e+00 2.82200003e+00 2.74300003e+00 2.66000009e+00
    2.56699991e+00 2.45400000e+00 2.27399993e+00 2.11199999e+00
    2.05500007e+00 1.99899995e+00 1.98300004e+00 1.96700001e+00
    1.94000006e+00 1.91299999e+00 1.90799999e+00 1.90799999e+00
    1.90799999e+00 1.90799999e+00 1.90799999e+00 1.90799999e+00
    1.90799999e+00 1.90799999e+00 1.91499996e+00 1.93099999e+00
    1.10200000e+00 0. 0. 0. 0. 0. 0. 0. 0. 0. 0. 0. 0. 0. 0. 0.
    2.86999989e+00 2.84100008e+00 2.77699995e+00 2.71600008e+00
    2.66100001e+00 2.57100010e+00 2.37299991e+00 2.18899989e+00
    2.09800005e+00 2.00900006e+00 2.00500011e+00 2. 1.96300006e+00
    1.92400002e+00 1.91700006e+00 1.91700006e+00 1.91400003e+00
    1.90999997e+00 1.90799999e+00 1.90799999e+00 1.90799999e+00
    1.90799999e+00 1.90799999e+00 1.90799999e+00 1.15799999e+00 0. 0. 0.
    0. 0. 0. 0. 0. 0. 0. 0. 0. 0. 0. 0. 2.92899990e+00 2.88800001e+00
    2.79500008e+00 2.71600008e+00 2.66100001e+00 2.57599998e+00
    2.40100002e+00 2.23699999e+00 2.14400005e+00 2.05299997e+00
    2.02800012e+00 2.00200009e+00 1.98300004e+00 1.96399999e+00
    1.96099997e+00 1.96099997e+00 1.94299996e+00 1.91700006e+00
    1.90799999e+00 1.90799999e+00 1.90799999e+00 1.90799999e+00
    1.90799999e+00 1.90799999e+00 1.55499995e+00 0. 0. 0. 0. 0. 0. 0. 0.
    0. 0. 0. 0. 0. 0. 0. 2.98200011e+00 2.92899990e+00 2.81200004e+00
    2.71600008e+00 2.66100001e+00 2.58200002e+00 2.43000007e+00
    2.28500009e+00 2.19000006e+00 2.09800005e+00 2.05299997e+00
    2.00799990e+00 2.00300002e+00 2. 2. 2. 1.97000003e+00 1.92799997e+00
    1.91100001e+00 1.90900004e+00 1.90799999e+00 1.90799999e+00
    1.90799999e+00 1.90799999e+00 1.90799999e+00 1.90799999e+00
    1.90799999e+00 0. 0. 0. 0. 0. 0. 0. 0. 0. 0. 0. 0. 0. 2.98200011e+00
    2.92899990e+00 2.81200004e+00 2.71600008e+00 2.66100001e+00
    2.58800006e+00 2.45900011e+00 2.33500004e+00 2.23900008e+00
    2.14400005e+00 2.09800005e+00 2.05299997e+00 2.02800012e+00
    2.00399995e+00 2. 2. 1.98500001e+00 1.96399999e+00 1.94200003e+00
    1.91900003e+00 1.90799999e+00 1.90799999e+00 1.90799999e+00
    1.90799999e+00 1.90799999e+00 1.90799999e+00 1.90799999e+00 0. 0. 0.
    0. 0. 0. 0. 0. 0. 0. 0. 0. 0. 2.98200011e+00 2.92899990e+00
    2.81200004e+00 2.71600008e+00 2.66100001e+00 2.59400010e+00
    2.48900008e+00 2.38499999e+00 2.28699994e+00 2.19099998e+00
    2.14400005e+00 2.09699988e+00 2.05299997e+00 2.00799990e+00 2. 2. 2.
    2. 1.97300005e+00 1.92900002e+00 1.90799999e+00 1.90799999e+00
    1.90799999e+00 1.90799999e+00 1.90799999e+00 1.90799999e+00
    1.90799999e+00 0. 0. 0. 0. 0. 0. 0. 0. 0. 0. 0. 0. 0. 2.98200011e+00
    2.94199991e+00 2.85200000e+00 2.77399993e+00 2.71700001e+00
    2.64899993e+00 2.54200006e+00 2.43600011e+00 2.33599997e+00
    2.23900008e+00 2.19099998e+00 2.14400005e+00 2.09800005e+00
    2.05299997e+00 2.02699995e+00 2.00600004e+00 2. 2. 1.97300005e+00
    1.92900002e+00 1.90799999e+00 1.90799999e+00 1.90799999e+00
    1.90799999e+00 1.90799999e+00 1.90799999e+00 1.90799999e+00 0. 0. 0.
    0. 0. 0. 0. 0. 0. 0. 0. 0. 0. 2.98200011e+00 2.95400000e+00
    2.89199996e+00 2.83100009e+00 2.77399993e+00 2.70300007e+00
    2.59500003e+00 2.48699999e+00 2.38599992e+00 2.28699994e+00
    2.23900008e+00 2.19099998e+00 2.14400005e+00 2.09800005e+00
    2.05399990e+00 2.01200008e+00 2. 2. 1.97300005e+00 1.92900002e+00
    1.90799999e+00 1.90799999e+00 1.90799999e+00 1.90799999e+00
    1.90799999e+00 1.90799999e+00 1.90799999e+00 0. 0. 0. 0. 0. 0. 0. 0.
    0. 0. 0. 0. 0. 2.98200011e+00 2.96700001e+00 2.93300009e+00
    2.88199997e+00 2.79800010e+00 2.71399999e+00 2.62800002e+00
    2.53699994e+00 2.41300011e+00 2.29099989e+00 2.24300003e+00
    2.19499993e+00 2.16700006e+00 2.14100003e+00 2.09800005e+00
    2.05299997e+00 2.03999996e+00 2.03999996e+00 2.01300001e+00
    1.96899998e+00 1.94799995e+00 1.94799995e+00 1.95599997e+00
    1.97500002e+00 1.98800004e+00 1.98800004e+00 1.98800004e+00 0. 0. 0.
    0. 0. 0. 0. 0. 0. 0. 0. 0. 0. 2.98200011e+00 2.97900009e+00
    2.97399998e+00 2.93199992e+00 2.81999993e+00 2.72000003e+00
    2.66000009e+00 2.58699989e+00 2.43700004e+00 2.29099989e+00
    2.24300003e+00 2.19499993e+00 2.18799996e+00 2.18400002e+00
    2.14400005e+00 2.09800005e+00 2.08500004e+00 2.08500004e+00
    2.05699992e+00 2.01300001e+00 1.99100006e+00 1.99100006e+00
    2.00799990e+00 2.04900002e+00 2.07599998e+00 2.07599998e+00
    2.07599998e+00 0. 0. 0. 0. 0. 0. 0. 0. 0. 0. 0. 0. 0. 2.98200011e+00
    2.98200011e+00 2.98200011e+00 2.94899988e+00 2.85400009e+00
    2.76799989e+00 2.71199989e+00 2.64100003e+00 2.48399997e+00
    2.33100009e+00 2.28200006e+00 2.23399997e+00 2.21300006e+00
    2.19499993e+00 2.15300012e+00 2.10700011e+00 2.09400010e+00
    2.09400010e+00 2.07699990e+00 2.04900002e+00 2.03600001e+00
    2.03600001e+00 2.04699993e+00 2.07500005e+00 2.09400010e+00
    2.09400010e+00 2.09400010e+00 0. 0. 0. 0. 0. 0. 0. 0. 0. 0. 0. 0. 0.
    2.98200011e+00 2.98200011e+00 2.98200011e+00 2.95900011e+00
    2.89100003e+00 2.82599998e+00 2.76799989e+00 2.69600010e+00
    2.53699994e+00 2.38100004e+00 2.33100009e+00 2.28200006e+00
    2.24000001e+00 2.19899988e+00 2.15300012e+00 2.10700011e+00
    2.09400010e+00 2.09400010e+00 2.08999991e+00 2.08400011e+00
    2.08100009e+00 2.08100009e+00 2.08299994e+00 2.08999991e+00
    2.09400010e+00 2.09400010e+00 2.09400010e+00 0. 0. 0. 0. 0. 0. 0. 0.
    0. 0. 0. 0. 0. 0. 0. 0. 0. 2.94400001e+00 2.88400006e+00
    2.82599998e+00 2.75500011e+00 2.61100006e+00 2.46900010e+00
    2.40100002e+00 2.33200002e+00 2.26799989e+00 2.20300007e+00
    2.15300012e+00 2.10700011e+00 2.09400010e+00 2.09400010e+00
    2.09400010e+00 2.09400010e+00 2.09400010e+00 2.09400010e+00
    2.09999990e+00 2.11599994e+00 2.12700009e+00 2.12700009e+00
    2.12700009e+00 0. 0. 0. 0. 0. 0. 0. 0. 0. 0. 0. 0. 0. 0. 0. 0. 0. 0.
    2.94400001e+00 2.88400006e+00 2.81599998e+00 2.69400001e+00
    2.57299995e+00 2.47900009e+00 2.38400006e+00 2.29500008e+00
    2.20700002e+00 2.15300012e+00 2.10700011e+00 2.09400010e+00
    2.09400010e+00 2.09400010e+00 2.09400010e+00 2.09400010e+00
    2.09400010e+00 2.10999990e+00 2.14700007e+00 2.17300010e+00
    2.17300010e+00 2.17300010e+00 0. 0. 0. 0. 0. 0. 0. 0. 0. 0. 0. 0. 0.
    0. 0. 0. 0. 0. 0. 2.96600008e+00 2.91300011e+00 2.79800010e+00
    2.68099999e+00 2.54399991e+00 2.40700006e+00 2.31900001e+00
    2.23499990e+00 2.18199992e+00 2.13499999e+00 2.12199998e+00
    2.12199998e+00 2.11400008e+00 2.09999990e+00 2.09400010e+00
    2.09400010e+00 2.10800004e+00 2.14100003e+00 2.16400003e+00
    2.16400003e+00 2.16400003e+00 0. 0. 0. 0. 0. 0. 0. 0. 0. 0. 0. 0. 0.
    0. 0. 0. 0. 0. 0. 0. 0. 2.91499996e+00 2.79299998e+00 2.60200000e+00
    2.41100001e+00 2.34100008e+00 2.27900004e+00 2.22900009e+00
    2.18099999e+00 2.16799998e+00 2.16799998e+00 2.14599991e+00
    2.11100006e+00 2.09400010e+00 2.09400010e+00 2.09899998e+00
    2.10999990e+00 2.11800003e+00 2.11800003e+00 2.11800003e+00 0. 0. 0.
    0. 0. 0. 0. 0. 0. 0. 0. 0. 0. 0. 0. 0. 0. 0. 0. 0. 0. 0.
    2.90799999e+00 2.66100001e+00 2.41400003e+00 2.35100007e+00
    2.30100012e+00 2.25300002e+00 2.20499992e+00 2.19199991e+00
    2.19199991e+00 2.16300011e+00 2.11599994e+00 2.09400010e+00
    2.09400010e+00 2.09400010e+00 2.09400010e+00 2.09400010e+00
    2.09400010e+00 2.09400010e+00 0. 0. 0. 0. 0. 0. 0. 0. 0. 0. 0. 0. 0.
    0. 0. 0. 0. 0. 0. 0. 0. 0. 0. 2.72300005e+00 2.41799998e+00
    2.35100007e+00 2.30100012e+00 2.25300002e+00 2.20499992e+00
    2.19199991e+00 2.19199991e+00 2.16300011e+00 2.11599994e+00
    2.09400010e+00 2.09400010e+00 2.09400010e+00 2.09400010e+00
    2.09400010e+00 2.09400010e+00 2.09400010e+00 0. 0. 0. 0. 0. 0. 0. 0.
    0. 0. 0. 0. 0. 0. 0. 0. 0. 0. 0. 0. 0. 0. 0. 2.75799990e+00
    2.43899989e+00 2.35400009e+00 2.28600001e+00 2.24200010e+00
    2.20300007e+00 2.19199991e+00 2.19199991e+00 2.16300011e+00
    2.11599994e+00 2.09400010e+00 2.09400010e+00 2.09400010e+00
    2.09400010e+00 2.09400010e+00 2.09400010e+00 2.09400010e+00 0. 0. 0.
    0. 0. 0. 0. 0. 0. 0. 0. 0. 0. 0. 0. 0. 0. 0. 0. 0. 0. 0. 0.
    2.75200009e+00 2.48699999e+00 2.36100006e+00 2.24600005e+00
    2.21300006e+00 2.19600010e+00 2.19199991e+00 2.19199991e+00
    2.16300011e+00 2.11599994e+00 2.09400010e+00 2.09400010e+00
    2.09400010e+00 2.09400010e+00 2.09400010e+00 2.09400010e+00
    2.09400010e+00 0. 0. 0. 0. 0. 0. 0. 0. 0. 0. 0. 0. 0. 0. 0. 0. 0. 0.
    0. 0. 0. 0. 2.97499990e+00 2.77900004e+00 2.58400011e+00
    2.39700007e+00 2.21000004e+00 2.17899990e+00 2.17899990e+00
    2.17899990e+00 2.17899990e+00 2.15300012e+00 2.11299992e+00
    2.09400010e+00 2.09400010e+00 2.09400010e+00 2.09400010e+00
    2.09400010e+00 2.09400010e+00 2.09400010e+00 0. 0. 0. 0. 0. 0. 0. 0.
    0. 0. 0. 0. 0. 0. 0. 0. 0. 0. 0. 0. 0. 0. 2.97900009e+00
    2.89100003e+00 2.80299997e+00 2.50200009e+00 2.18499994e+00
    2.13199997e+00 2.13199997e+00 2.13199997e+00 2.13199997e+00
    2.12100005e+00 2.10299993e+00 2.09400010e+00 2.09400010e+00
    2.09400010e+00 2.09400010e+00 2.09400010e+00 2.09400010e+00
    2.09400010e+00 0. 0. 0. 0. 0. 0. 0. 0. 0. 0. 0. 0. 0. 0. 0. 0. 0. 0.
    0. 0. 0. 0. 2.99300003e+00 2.98200011e+00 2.97199988e+00
    2.58100009e+00 2.16400003e+00 2.09400010e+00 2.09400010e+00
    2.09400010e+00 2.09400010e+00 2.09400010e+00 2.09400010e+00
    2.09400010e+00 2.09400010e+00 2.09400010e+00 2.09400010e+00
    2.09500003e+00 2.09899998e+00 2.10299993e+00 0. 0. 0. 0. 0. 0. 0. 0.
    0. 0. 0. 0. 0. 0. 0. 0. 0. 0. 0. 0. 0. 0. 0. 2.98499990e+00
    2.91599989e+00 2.54800010e+00 2.16000009e+00 2.09400010e+00
    2.09400010e+00 2.09400010e+00 2.09400010e+00 2.09400010e+00
    2.09400010e+00 2.09400010e+00 2.09400010e+00 2.09400010e+00
    2.09400010e+00 2.10200000e+00 2.12899995e+00 2.14899993e+00 0. 0. 0.
    0. 0. 0. 0.</data></Depth>
</opencv_storage>
