<?xml version="1.0"?>
<opencv_storage>
<Depth type_id="opencv-matrix">
  <rows>40</rows>
  <cols>40</cols>
  <dt>f</dt>
  <data>
    0. 0. 0. 0. 0. 0. 0. 0. 2.14599991e+00 2.00699997e+00 2.00799990e+00
    2.00699997e+00 2.51699996e+00 0. 1.99500000e+00 1.99300003e+00
    1.98699999e+00 1.98800004e+00 1.99000001e+00 1.99100006e+00
    1.97500002e+00 1.97200000e+00 1.97500002e+00 1.97599995e+00
    1.97599995e+00 1.98099995e+00 1.97800004e+00 1.97599995e+00
    1.98199999e+00 1.97899997e+00 1.12000000e+00 1.12000000e+00 0. 0. 0.
    0. 0. 0. 0. 0. 0. 0. 0. 0. 0. 0. 0. 2. 2. 2.00200009e+00
    1.99899995e+00 1.99800003e+00 1.99500000e+00 1.99300003e+00
    1.98899996e+00 1.99100006e+00 1.98699999e+00 1.98399997e+00
    1.98199999e+00 1.98000002e+00 1.98000002e+00 1.97800004e+00
    1.97500002e+00 1.97399998e+00 1.97399998e+00 1.97099996e+00
    1.97099996e+00 1.96899998e+00 1.96899998e+00 1.96700001e+00
    1.20799994e+00 1.12000000e+00 0. 0. 0. 0. 0. 0. 0. 0. 0. 0. 0. 0. 0.
    0. 0. 1.99100006e+00 2. 1.99899995e+00 1.99500000e+00 1.99500000e+00
    1.99199998e+00 1.99000001e+00 1.98899996e+00 1.98899996e+00
    1.98699999e+00 1.98399997e+00 1.98199999e+00 1.98199999e+00
    1.98000002e+00 1.97899997e+00 1.97700000e+00 1.97399998e+00
    1.97399998e+00 1.97099996e+00 1.97099996e+00 1.96899998e+00
    1.96899998e+00 1.96899998e+00 1.96000004e+00 1.12000000e+00 0. 0. 0.
    0. 0. 0. 0. 0. 0. 0. 0. 0. 0. 0. 0. 1.99800003e+00 2. 1.99800003e+00
    1.99600005e+00 1.99500000e+00 1.99300003e+00 1.99100006e+00
    1.98899996e+00 1.98800004e+00 1.98699999e+00 1.98399997e+00
    1.98199999e+00 1.98199999e+00 1.98000002e+00 1.98000002e+00
    1.97899997e+00 1.97599995e+00 1.97599995e+00 1.97099996e+00
    1.97099996e+00 1.97099996e+00 1.96700001e+00 1.96700001e+00
    1.96700001e+00 1.82200003e+00 0. 0. 0. 0. 0. 0. 0. 0. 0. 0. 0. 0. 0.
    0. 0. 2.00099993e+00 2. 1.99899995e+00 1.99800003e+00 1.99500000e+00
    1.99300003e+00 1.99100006e+00 1.99100006e+00 1.98899996e+00
    1.98699999e+00 1.98399997e+00 1.98699999e+00 1.98199999e+00
    1.98199999e+00 1.98000002e+00 1.97899997e+00 1.97800004e+00
    1.97599995e+00 1.97399998e+00 1.97399998e+00 1.97099996e+00
    1.96899998e+00 1.96700001e+00 1.96700001e+00 1.81900001e+00 0. 0. 0.
    0. 0. 0. 0. 0. 0. 0. 0. 0. 0. 0. 0. 2.00200009e+00 2.00200009e+00 2.
    1.99800003e+00 1.99699998e+00 1.99500000e+00 1.99300003e+00
    1.99100006e+00 1.98899996e+00 1.98699999e+00 1.98800004e+00
    1.98800004e+00 1.98399997e+00 1.98300004e+00 1.98199999e+00
    1.98000002e+00 1.97899997e+00 1.97599995e+00 1.97399998e+00
    1.97399998e+00 1.97399998e+00 1.97099996e+00 1.96899998e+00
    1.96800005e+00 1.12000000e+00 0. 0. 0. 0. 0. 0. 0. 0. 0. 0. 0. 0. 0.
    0. 0. 2.00300002e+00 2.00300002e+00 2. 2. 1.99800003e+00
    1.99500000e+00 1.99500000e+00 1.99300003e+00 1.98899996e+00
    1.98800004e+00 1.98800004e+00 1.99000001e+00 1.98699999e+00
    1.98699999e+00 1.98399997e+00 1.98099995e+00 1.98000002e+00
    1.97899997e+00 1.97599995e+00 1.97599995e+00 1.97399998e+00
    1.97200000e+00 1.97000003e+00 1.97099996e+00 1.12000000e+00 0. 0. 0.
    0. 0. 0. 0. 0. 0. 0. 0. 0. 0. 0. 0. 2.00799990e+00 2.00500011e+00
    2.00200009e+00 2.00200009e+00 1.99800003e+00 1.99699998e+00
    1.99500000e+00 1.99500000e+00 1.99100006e+00 1.98899996e+00
    1.99000001e+00 1.98899996e+00 1.98800004e+00 1.98500001e+00
    1.98199999e+00 1.98300004e+00 1.98000002e+00 1.98000002e+00
    1.97800004e+00 1.97599995e+00 1.97599995e+00 1.97399998e+00
    1.97399998e+00 1.97099996e+00 1.12000000e+00 0. 0. 0. 0. 0. 0. 0. 0.
    0. 0. 0. 0. 0. 0. 0. 1.61500001e+00 2.00500011e+00 2.00200009e+00
    2.00200009e+00 2. 1.99800003e+00 1.99500000e+00 1.99500000e+00
    1.99300003e+00 1.99100006e+00 1.99000001e+00 1.99100006e+00
    1.98899996e+00 1.98699999e+00 1.98399997e+00 1.98399997e+00
    1.98199999e+00 1.98000002e+00 1.98000002e+00 1.97899997e+00
    1.97599995e+00 1.97500002e+00 1.97399998e+00 1.97399998e+00
    1.12000000e+00 0. 0. 0. 0. 0. 0. 0. 0. 0. 0. 0. 0. 0. 0. 0.
    2.01099992e+00 2.00600004e+00 2.00399995e+00 2.00200009e+00 2.
    1.99800003e+00 1.99800003e+00 1.99699998e+00 1.99300003e+00
    1.99100006e+00 1.99100006e+00 1.99100006e+00 1.99100006e+00
    1.98800004e+00 1.98399997e+00 1.98399997e+00 1.98199999e+00
    1.98199999e+00 1.98000002e+00 1.97899997e+00 1.97800004e+00
    1.97500002e+00 1.97399998e+00 1.97399998e+00 1.47500002e+00 0. 0. 0.
    0. 0. 0. 0. 0. 0. 0. 0. 0. 0. 0. 0. 2.00900006e+00 2.00699997e+00
    2.00500011e+00 2.00200009e+00 2.00200009e+00 2. 2. 1.99800003e+00
    1.99399996e+00 1.99100006e+00 1.99199998e+00 1.99100006e+00
    1.99100006e+00 1.98899996e+00 1.98800004e+00 1.98699999e+00
    1.98199999e+00 1.98300004e+00 1.98000002e+00 1.98000002e+00
    1.97800004e+00 1.97700000e+00 1.97399998e+00 1.97300005e+00
    1.50899994e+00 0. 0. 0. 0. 0. 0. 0. 0. 0. 0. 0. 0. 0. 0. 0.
    1.14100003e+00 2.00699997e+00 2.00699997e+00 2.00200009e+00
    2.00200009e+00 2. 2. 1.99800003e+00 1.99699998e+00 1.99699998e+00
    1.99500000e+00 1.99399996e+00 1.99100006e+00 1.98899996e+00
    1.98899996e+00 1.98800004e+00 1.98399997e+00 1.98199999e+00
    1.98000002e+00 1.98000002e+00 1.97800004e+00 1.97700000e+00
    1.97399998e+00 1.97800004e+00 1.82900000e+00 0. 0. 0. 0. 0. 0. 0. 0.
    0. 0. 0. 0. 0. 0. 0. 1.14100003e+00 2.00900006e+00 2.00699997e+00
    2.00500011e+00 2.00200009e+00 2.00200009e+00 2. 1.99800003e+00
    1.99500000e+00 1.99399996e+00 1.99699998e+00 1.99500000e+00
    1.99199998e+00 1.99100006e+00 1.98899996e+00 1.98899996e+00
    1.98899996e+00 1.98300004e+00 1.98199999e+00 1.98199999e+00
    1.98000002e+00 1.97899997e+00 1.97700000e+00 1.97800004e+00
    1.83200002e+00 0. 0. 0. 0. 0. 0. 0. 0. 0. 0. 0. 0. 0. 0. 0.
    1.14100003e+00 2.00999999e+00 2.00900006e+00 2.00500011e+00
    2.00500011e+00 2.00200009e+00 2. 1.99800003e+00 1.99500000e+00
    1.99500000e+00 1.99699998e+00 1.99500000e+00 1.99199998e+00
    1.99100006e+00 1.98899996e+00 1.99000001e+00 1.98899996e+00
    1.98699999e+00 1.98300004e+00 1.98199999e+00 1.98000002e+00
    1.98000002e+00 1.98000002e+00 1.97899997e+00 1.83099997e+00 0. 0. 0.
    0. 0. 0. 0. 0. 0. 0. 0. 0. 0. 0. 0. 1.14100003e+00 2.01099992e+00
    2.00900006e+00 2.00699997e+00 2.00500011e+00 2.00500011e+00
    2.00399995e+00 2.00099993e+00 1.99699998e+00 1.99699998e+00
    1.99800003e+00 1.99600005e+00 1.99399996e+00 1.99100006e+00
    1.99100006e+00 1.98899996e+00 1.98899996e+00 1.98699999e+00
    1.98599994e+00 1.98199999e+00 1.98199999e+00 1.98000002e+00
    1.98000002e+00 1.98000002e+00 1.12000000e+00 0. 0. 0. 0. 0. 0. 0. 0.
    0. 0. 0. 0. 0. 0. 0. 1.12399995e+00 2.00900006e+00 2.00699997e+00
    2.00699997e+00 2.00699997e+00 2.00500011e+00 2.00399995e+00
    2.00200009e+00 1.99800003e+00 1.99800003e+00 1.99800003e+00
    1.99800003e+00 1.99600005e+00 1.99300003e+00 1.99100006e+00
    1.99100006e+00 1.98899996e+00 1.98899996e+00 1.98699999e+00
    1.98199999e+00 1.98399997e+00 1.98199999e+00 1.98000002e+00
    1.98000002e+00 1.27100003e+00 0. 0. 0. 0. 0. 0. 0. 0. 0. 0. 0. 0. 0.
    0. 0. 1.12000000e+00 2.01099992e+00 2.00900006e+00 2.00900006e+00
    2.00699997e+00 2.00600004e+00 2.00500011e+00 2.00300002e+00 2. 2.
    1.99800003e+00 1.99800003e+00 1.99800003e+00 1.99500000e+00
    1.99300003e+00 1.99100006e+00 1.99100006e+00 1.98899996e+00
    1.98899996e+00 1.98699999e+00 1.98399997e+00 1.98199999e+00
    1.98000002e+00 1.98000002e+00 1.71700001e+00 0. 0. 0. 0. 0. 0. 0. 0.
    0. 0. 0. 0. 0. 0. 0. 1.12000000e+00 2.01399994e+00 2.01099992e+00
    2.00900006e+00 2.00699997e+00 2.00699997e+00 2.00500011e+00
    2.00200009e+00 2.00200009e+00 1.99800003e+00 1.99899995e+00 2.
    1.99800003e+00 1.99800003e+00 1.99399996e+00 1.99500000e+00
    1.99100006e+00 1.98899996e+00 1.98899996e+00 1.98899996e+00
    1.98399997e+00 1.98199999e+00 1.98199999e+00 1.98199999e+00
    1.83399999e+00 0. 0. 0. 0. 0. 0. 0. 0. 0. 0. 0. 0. 0. 0. 0.
    1.12000000e+00 2.01399994e+00 2.01099992e+00 2.00900006e+00
    2.00699997e+00 2.00799990e+00 2.00699997e+00 2.00500011e+00
    2.00399995e+00 2. 2.00099993e+00 2.00099993e+00 1.99899995e+00
    1.99800003e+00 1.99500000e+00 1.99500000e+00 1.99300003e+00
    1.99100006e+00 1.98899996e+00 1.98899996e+00 1.98699999e+00
    1.98399997e+00 1.98199999e+00 1.98199999e+00 1.16999996e+00 0. 0. 0.
    0. 0. 0. 0. 0. 0. 0. 0. 0. 0. 0. 0. 1.12000000e+00 2.01399994e+00
    2.01399994e+00 2.01300001e+00 2.01099992e+00 2.00900006e+00
    2.00600004e+00 2.00500011e+00 2.00399995e+00 2.00099993e+00
    2.00099993e+00 2. 2. 1.99800003e+00 1.99800003e+00 1.99500000e+00
    1.99100006e+00 1.99100006e+00 1.98899996e+00 1.98899996e+00
    1.98899996e+00 1.98699999e+00 1.98399997e+00 1.98399997e+00
    1.12000000e+00 0. 0. 0. 0. 0. 0. 0. 0. 0. 0. 0. 0. 0. 0. 0.
    1.12000000e+00 2.01600003e+00 2.01399994e+00 2.01399994e+00
    2.01300001e+00 2.00900006e+00 2.00699997e+00 2.00600004e+00
    2.00500011e+00 2.00200009e+00 2.00500011e+00 2.00099993e+00 2.
    1.99800003e+00 1.99800003e+00 1.99800003e+00 1.99500000e+00
    1.99100006e+00 1.99100006e+00 1.99100006e+00 1.98899996e+00
    1.98899996e+00 1.98399997e+00 1.98399997e+00 1.13900006e+00 0. 0. 0.
    0. 0. 0. 0. 0. 0. 0. 0. 0. 0. 0. 0. 1.12000000e+00 2.01399994e+00
    2.01600003e+00 2.01399994e+00 2.01099992e+00 2.01099992e+00
    2.00799990e+00 2.00699997e+00 2.00500011e+00 2.00200009e+00
    2.00600004e+00 2.00200009e+00 2.00099993e+00 1.99899995e+00
    1.99800003e+00 1.99800003e+00 1.99600005e+00 1.99100006e+00
    1.99100006e+00 1.99100006e+00 1.99100006e+00 1.99100006e+00
    1.98399997e+00 1.98699999e+00 1.83599997e+00 0. 0. 0. 0. 0. 0. 0. 0.
    0. 0. 0. 0. 0. 0. 0. 1.12000000e+00 2.01799989e+00 2.01600003e+00
    2.01399994e+00 2.01099992e+00 2.01099992e+00 2.00900006e+00
    2.00699997e+00 2.00699997e+00 2.00500011e+00 2.00600004e+00
    2.00500011e+00 2.00099993e+00 2. 1.99800003e+00 1.99800003e+00
    1.99600005e+00 1.99500000e+00 1.99100006e+00 1.99100006e+00
    1.99100006e+00 1.98899996e+00 1.98699999e+00 1.98699999e+00
    1.96399999e+00 0. 0. 0. 0. 0. 0. 0. 0. 0. 0. 0. 0. 0. 0. 0.
    1.12000000e+00 2.01799989e+00 2.01399994e+00 2.01399994e+00
    2.01399994e+00 2.01200008e+00 2.00799990e+00 2.00699997e+00
    2.00699997e+00 2.00500011e+00 2.00600004e+00 2.00500011e+00
    2.00300002e+00 2. 1.99800003e+00 1.99800003e+00 1.99800003e+00
    1.99600005e+00 1.99300003e+00 1.99300003e+00 1.99100006e+00
    1.99100006e+00 1.98899996e+00 1.98899996e+00 1.12000000e+00 0. 0. 0.
    0. 0. 0. 0. 0. 0. 0. 0. 0. 0. 0. 0. 1.12000000e+00 2.01600003e+00
    2.01399994e+00 2.01500010e+00 2.01600003e+00 2.01099992e+00
    2.00900006e+00 2.00699997e+00 2.00699997e+00 2.00500011e+00
    2.00600004e+00 2.00699997e+00 2.00500011e+00 2.00200009e+00 2.
    1.99800003e+00 1.99800003e+00 1.99800003e+00 1.99600005e+00
    1.99300003e+00 1.99100006e+00 1.99100006e+00 1.98899996e+00
    1.99100006e+00 1.87399995e+00 0. 0. 0. 0. 0. 0. 0. 0. 0. 0. 0. 0. 0.
    0. 0. 1.12000000e+00 2.02099991e+00 2.01900005e+00 2.01799989e+00
    2.01399994e+00 2.01399994e+00 2.01399994e+00 2.00999999e+00
    2.00799990e+00 2.00500011e+00 2.00600004e+00 2.00699997e+00
    2.00500011e+00 2.00500011e+00 2.00300002e+00 2. 2. 1.99800003e+00
    1.99800003e+00 1.99600005e+00 1.99300003e+00 1.99199998e+00
    1.98899996e+00 1.99100006e+00 1.84200001e+00 0. 0. 0. 0. 0. 0. 0. 0.
    0. 0. 0. 0. 0. 0. 0. 1.12000000e+00 2.02300000e+00 2.02099991e+00
    2.01600003e+00 2.01500010e+00 2.01399994e+00 2.01399994e+00
    2.01099992e+00 2.00799990e+00 2.00699997e+00 2.00799990e+00
    2.00799990e+00 2.00699997e+00 2.00600004e+00 2.00500011e+00
    2.00099993e+00 2. 1.99899995e+00 1.99800003e+00 1.99800003e+00
    1.99500000e+00 1.99500000e+00 1.99100006e+00 1.99100006e+00
    1.84399998e+00 0. 0. 0. 0. 0. 0. 0. 0. 0. 0. 0. 0. 0. 0. 0.
    1.12000000e+00 2.01999998e+00 2.01799989e+00 2.01600003e+00
    2.01600003e+00 2.01500010e+00 2.01399994e+00 2.01099992e+00
    2.01099992e+00 2.00699997e+00 2.00799990e+00 2.00900006e+00
    2.00699997e+00 2.00699997e+00 2.00500011e+00 2.00300002e+00
    2.00200009e+00 2. 1.99800003e+00 1.99800003e+00 1.99500000e+00
    1.99500000e+00 1.99300003e+00 1.99300003e+00 1.98699999e+00 0. 0. 0.
    0. 0. 0. 0. 0. 0. 0. 0. 0. 0. 0. 0. 1.12000000e+00 2.02399993e+00
    2.02200007e+00 2.01799989e+00 2.01799989e+00 2.01699996e+00
    2.01399994e+00 2.01300001e+00 2.01099992e+00 2.00900006e+00
    2.00799990e+00 2.00900006e+00 2.00699997e+00 2.00600004e+00
    2.00699997e+00 2.00500011e+00 2.00300002e+00 2. 2. 1.99800003e+00
    1.99800003e+00 1.99600005e+00 1.99300003e+00 1.99500000e+00
    1.99100006e+00 0. 0. 0. 0. 0. 0. 0. 0. 0. 0. 0. 0. 0. 0. 0.
    1.12000000e+00 2.02500010e+00 2.02300000e+00 2.01999998e+00
    2.01799989e+00 2.01600003e+00 2.01500010e+00 2.01500010e+00
    2.01300001e+00 2.00799990e+00 2.00900006e+00 2.00900006e+00
    2.00900006e+00 2.00799990e+00 2.00699997e+00 2.00500011e+00
    2.00600004e+00 2.00200009e+00 2.00200009e+00 2. 1.99800003e+00
    1.99800003e+00 1.99399996e+00 1.99500000e+00 1.99100006e+00 0. 0. 0.
    0. 0. 0. 0. 0. 0. 0. 0. 0. 0. 0. 0. 1.12000000e+00 1.60200000e+00
    2.02300000e+00 2.02300000e+00 2.01799989e+00 2.01600003e+00
    2.01600003e+00 2.01500010e+00 2.01399994e+00 2.01099992e+00
    2.01099992e+00 2.01099992e+00 2.01099992e+00 2.00900006e+00
    2.00699997e+00 2.00699997e+00 2.00699997e+00 2.00500011e+00
    2.00500011e+00 2.00099993e+00 2. 1.99800003e+00 1.99600005e+00
    1.99500000e+00 1.99199998e+00 0. 0. 0. 0. 0. 0. 0. 0. 0. 0. 0. 0. 0.
    0. 0. 1.12000000e+00 1.18499994e+00 2.02300000e+00 2.02300000e+00
    2.02300000e+00 2.01799989e+00 2.01799989e+00 2.01699996e+00
    2.01500010e+00 2.01300001e+00 2.01300001e+00 2.01399994e+00
    2.01399994e+00 2.00900006e+00 2.00900006e+00 2.00799990e+00
    2.00799990e+00 2.00699997e+00 2.00500011e+00 2.00500011e+00 2. 2.
    1.99800003e+00 1.99800003e+00 1.99699998e+00 0. 0. 0. 0. 0. 0. 0. 0.
    0. 0. 0. 0. 0. 0. 0. 1.12000000e+00 1.18499994e+00 2.02300000e+00
    2.02300000e+00 2.02099991e+00 2.01799989e+00 2.01600003e+00
    2.01600003e+00 2.01600003e+00 2.01399994e+00 2.01300001e+00
    2.01399994e+00 2.01399994e+00 2.00999999e+00 2.00900006e+00
    2.00900006e+00 2.00900006e+00 2.00699997e+00 2.00500011e+00
    2.00399995e+00 2.00200009e+00 2.00200009e+00 1.99899995e+00
    1.99899995e+00 1.99699998e+00 0. 0. 0. 0. 0. 0. 0. 0. 0. 0. 0. 0. 0.
    0. 0. 1.12000000e+00 1.18499994e+00 2.02500010e+00 2.02300000e+00
    2.02200007e+00 2.02099991e+00 2.01699996e+00 2.01600003e+00
    2.01600003e+00 2.01600003e+00 2.01600003e+00 2.01500010e+00
    2.01500010e+00 2.01200008e+00 2.00900006e+00 2.00900006e+00
    2.00799990e+00 2.00799990e+00 2.00699997e+00 2.00500011e+00
    2.00399995e+00 2.00200009e+00 2.00099993e+00 2. 1.99800003e+00 0. 0.
    0. 0. 0. 0. 0. 0. 0. 0. 0. 0. 0. 0. 0. 2.57800007e+00 2.55399990e+00
    2.02600002e+00 2.02300000e+00 2.02200007e+00 2.02099991e+00
    2.02099991e+00 2.01799989e+00 2.01799989e+00 2.01600003e+00
    2.01699996e+00 2.01600003e+00 2.01600003e+00 2.01399994e+00
    2.01099992e+00 2.00900006e+00 2.00699997e+00 2.00699997e+00
    2.00699997e+00 2.00500011e+00 2.00500011e+00 2.00200009e+00
    2.00200009e+00 1.99899995e+00 1.99500000e+00 0. 0. 0. 0. 0. 0. 0. 0.
    0. 0. 0. 0. 0. 0. 0. 0. 0. 0. 2.92300010e+00 0. 0. 2.85599995e+00
    2.59800005e+00 1.63199997e+00 2.05100012e+00 2.03699994e+00
    2.03800011e+00 2.13100004e+00 2.10999990e+00 2.10400009e+00
    2.04900002e+00 2.01799989e+00 2.00699997e+00 2.72399998e+00
    2.81100011e+00 2.00200009e+00 2.03500009e+00 2.78399992e+00
    2.78200006e+00 2.12800002e+00 0. 0. 0. 0. 0. 0. 0. 0. 0. 0. 0. 0. 0.
    0. 0. 0. 0. 0. 0. 0. 0. 0. 2.42000008e+00 1.12000000e+00
    1.12000000e+00 2.03900003e+00 2.03500009e+00 2.12400007e+00
    2.12199998e+00 2.11800003e+00 2.11700010e+00 2.03200006e+00
    2.11299992e+00 2.11700010e+00 2.31999993e+00 0. 0. 0. 0. 0. 0. 0. 0.
    0. 0. 0. 0. 0. 0. 0. 0. 0. 0. 0. 0. 0. 0. 0. 0. 0. 0. 0.
    1.33000004e+00 1.12000000e+00 1.93900001e+00 2.03600001e+00
    2.03500009e+00 2.09999990e+00 2.09999990e+00 2.10200000e+00
    2.10800004e+00 2.09899998e+00 2.09899998e+00 2.09400010e+00
    2.09400010e+00 2.25000000e+00 0. 0. 0. 0. 0. 0. 0. 0. 0. 0. 0. 0. 0.
    0. 0. 0. 0. 0. 0. 0. 0. 0. 0. 0. 0. 2.60800004e+00 1.12000000e+00
    2.01799989e+00 2.07800007e+00 2.04299998e+00 2.05900002e+00
    2.07699990e+00 2.07800007e+00 2.07699990e+00 2.07599998e+00
    2.03500009e+00 2.07100010e+00 2.07200003e+00 2.07599998e+00
    2.95600009e+00 0. 0. 0. 0. 0. 0. 0. 0. 0. 0. 0. 0. 0. 0. 0. 0. 0. 0.
    0. 0. 0. 0. 0. 0. 1.22000003e+00 1.12000000e+00 1.12000000e+00
    2.06299996e+00 2.06100011e+00 2.04999995e+00 2.05299997e+00
    2.05599999e+00 2.05900002e+00 2.05999994e+00 2.05699992e+00
    2.03600001e+00 2.04999995e+00 2.05299997e+00 2.04900002e+00 0. 0. 0.
    0. 0. 0. 0. 0. 0. 0. 0. 0. 0.</data></Depth>
</opencv_storage>
