<?xml version="1.0"?>
<opencv_storage>
<Depth type_id="opencv-matrix">
  <rows>40</rows>
  <cols>40</cols>
  <dt>f</dt>
  <data>
    1.96099997e+00 1.96099997e+00 1.96099997e+00 1.96300006e+00
    1.96300006e+00 0. 0. 0. 0. 0. 0. 0. 0. 1.99000001e+00 1.98500001e+00
    1.98199999e+00 0. 1.74199998e+00 2.62899995e+00 2.96099997e+00 0. 0.
    0. 0. 0. 0. 0. 0. 0. 0. 0. 0. 0. 0. 0. 0. 0. 0. 0. 0. 1.96099997e+00
    1.96099997e+00 1.96099997e+00 1.96000004e+00 1.52699995e+00 0. 0. 0.
    0. 0. 0. 2.20499992e+00 1.98699999e+00 1.98699999e+00 1.98199999e+00
    1.98199999e+00 1.98800004e+00 1.98699999e+00 1.71399999e+00
    2.65599990e+00 0. 0. 0. 0. 0. 0. 0. 0. 0. 0. 0. 0. 0. 0. 0. 0. 0. 0.
    0. 0. 1.96099997e+00 1.96099997e+00 1.96099997e+00 1.62800002e+00 0.
    0. 0. 0. 0. 1.03199995e+00 1.03199995e+00 1.97800004e+00
    1.98199999e+00 1.98199999e+00 1.98199999e+00 1.98199999e+00
    1.98699999e+00 1.98699999e+00 1.99600005e+00 2.01600003e+00 0. 0. 0.
    0. 0. 0. 0. 0. 0. 0. 0. 0. 0. 0. 0. 0. 0. 0. 0. 0. 1.96099997e+00
    1.96099997e+00 1.81900001e+00 0. 0. 0. 0. 0. 0. 0. 1.98199999e+00
    1.98199999e+00 1.98199999e+00 1.98300004e+00 1.98699999e+00
    1.98699999e+00 1.98699999e+00 1.98699999e+00 1.99100006e+00
    2.00399995e+00 2.04600000e+00 2.06999993e+00 0. 0. 0. 0. 0. 0. 0. 0.
    0. 0. 0. 0. 0. 0. 0. 0. 0. 0. 1.96099997e+00 1.63100004e+00 0. 0. 0.
    0. 0. 1.13199997e+00 0. 1.43599999e+00 1.98199999e+00 1.98199999e+00
    1.98300004e+00 1.98699999e+00 1.98699999e+00 1.98699999e+00
    1.98800004e+00 1.99000001e+00 1.99100006e+00 1.99500000e+00
    2.00999999e+00 2.04699993e+00 2.06999993e+00 0. 0. 0. 0. 0. 0. 0. 0.
    0. 0. 0. 0. 0. 0. 0. 0. 0. 1.96099997e+00 0. 0. 0. 0. 0. 0.
    1.99500000e+00 1.99300003e+00 1.98699999e+00 1.98199999e+00
    1.98199999e+00 1.98599994e+00 1.98899996e+00 1.98500001e+00
    1.98899996e+00 1.99100006e+00 1.99100006e+00 1.99100006e+00
    1.99300003e+00 1.99500000e+00 2.00600004e+00 2.02699995e+00
    2.01999998e+00 0. 0. 0. 0. 0. 0. 0. 0. 0. 0. 0. 0. 0. 0. 0. 0. 0. 0.
    0. 0. 0. 0. 0. 1.98800004e+00 1.98800004e+00 1.98399997e+00
    1.98199999e+00 1.98599994e+00 1.98699999e+00 1.99100006e+00
    1.98199999e+00 1.98899996e+00 1.99100006e+00 1.99300003e+00
    1.99500000e+00 1.99100006e+00 1.99199998e+00 1.99699998e+00
    2.00399995e+00 1.64300001e+00 1.58500004e+00 0. 0. 0. 0. 0. 0. 0. 0.
    0. 0. 0. 0. 0. 0. 0. 0. 0. 0. 0. 0. 0. 1.59000003e+00 1.97500002e+00
    1.98199999e+00 1.98199999e+00 1.98500001e+00 1.98699999e+00
    1.98199999e+00 1.98699999e+00 1.98699999e+00 1.99100006e+00
    1.99300003e+00 1.99500000e+00 1.99500000e+00 1.99399996e+00
    1.99500000e+00 1.99500000e+00 2. 2.00099993e+00 2.00900006e+00
    2.16199994e+00 0. 0. 0. 0. 0. 0. 0. 0. 0. 0. 0. 0. 0. 0. 0. 0. 0. 0.
    0. 0. 1.98099995e+00 1.97800004e+00 1.97800004e+00 1.98199999e+00
    1.98500001e+00 1.98699999e+00 1.98699999e+00 1.98699999e+00
    1.98800004e+00 1.99100006e+00 1.99300003e+00 1.99500000e+00
    1.99500000e+00 1.99500000e+00 1.99500000e+00 1.99500000e+00
    1.99800003e+00 2. 2.00399995e+00 2.01399994e+00 2.04099989e+00 0. 0.
    0. 0. 0. 0. 0. 0. 0. 0. 0. 0. 0. 0. 0. 0. 2.00900006e+00
    2.00399995e+00 1.98800004e+00 1.98199999e+00 1.97800004e+00
    1.97899997e+00 1.98399997e+00 1.98699999e+00 1.98699999e+00
    1.99100006e+00 1.99100006e+00 1.98699999e+00 1.99199998e+00
    1.99500000e+00 1.99500000e+00 1.99500000e+00 1.99500000e+00
    1.99500000e+00 1.99500000e+00 1.99500000e+00 1.99899995e+00 2.
    2.00399995e+00 2.02300000e+00 2.05599999e+00 0. 0. 0. 0. 0. 0. 0. 0.
    0. 0. 0. 0. 0. 0. 0. 1.13300002e+00 1.99600005e+00 1.98500001e+00
    1.98199999e+00 1.98199999e+00 1.98199999e+00 1.98699999e+00
    1.98500001e+00 1.98699999e+00 1.99100006e+00 1.99100006e+00
    1.99100006e+00 1.99500000e+00 1.99500000e+00 1.99500000e+00
    1.99500000e+00 1.99500000e+00 1.99699998e+00 1.99800003e+00
    1.99699998e+00 1.99899995e+00 2. 2. 2.00399995e+00 2.00600004e+00
    2.00500011e+00 2.06100011e+00 0. 0. 0. 0. 0. 0. 0. 0. 0. 0. 0. 0. 0.
    1.58500004e+00 1.98300004e+00 1.98300004e+00 1.98199999e+00
    1.98199999e+00 1.98500001e+00 1.98699999e+00 1.98500001e+00
    1.98899996e+00 1.99100006e+00 1.99100006e+00 1.99100006e+00
    1.99500000e+00 1.99500000e+00 1.99500000e+00 1.99500000e+00
    1.99500000e+00 1.99699998e+00 2. 2. 2. 2. 2. 2.00300002e+00
    2.00200009e+00 2.00399995e+00 2.02699995e+00 2.05399990e+00 0. 0. 0.
    0. 0. 0. 0. 0. 0. 1.09500003e+00 0. 1.67400002e+00 1.98199999e+00
    1.98199999e+00 1.98199999e+00 1.98199999e+00 1.98599994e+00
    1.98699999e+00 1.98699999e+00 1.98699999e+00 1.99000001e+00
    1.99100006e+00 1.99100006e+00 1.99100006e+00 1.99300003e+00
    1.99500000e+00 1.99500000e+00 1.99500000e+00 1.99500000e+00 2. 2. 2.
    2. 2. 2.00300002e+00 2.00399995e+00 2.00600004e+00 2.00900006e+00
    2.00999999e+00 2.02800012e+00 1.71200001e+00 0. 0. 0. 0. 0. 0. 0. 0.
    0. 1.78499997e+00 1.97800004e+00 1.98199999e+00 1.98399997e+00
    1.98199999e+00 1.98199999e+00 1.98300004e+00 1.98699999e+00
    1.98699999e+00 1.99100006e+00 1.99100006e+00 1.99100006e+00
    1.99500000e+00 1.99100006e+00 1.99300003e+00 1.99500000e+00
    1.99500000e+00 2. 1.99500000e+00 2. 2. 2. 2.00099993e+00 2.
    2.00399995e+00 2.00399995e+00 2.00699997e+00 2.00900006e+00
    2.00900006e+00 2.01300001e+00 2.01799989e+00 1.77400005e+00 0. 0. 0.
    0. 0. 0. 0. 0. 1.98199999e+00 1.98199999e+00 1.98300004e+00
    1.98699999e+00 1.98699999e+00 1.98199999e+00 1.98199999e+00
    1.98199999e+00 1.99100006e+00 1.99300003e+00 1.99100006e+00
    1.99100006e+00 1.99500000e+00 1.99500000e+00 1.99500000e+00
    1.99500000e+00 1.99500000e+00 2. 2. 2. 2. 2. 2.00399995e+00
    2.00399995e+00 2.00900006e+00 2.00900006e+00 2.00900006e+00
    2.00900006e+00 2.00900006e+00 2.01300001e+00 2.01399994e+00
    2.04099989e+00 2.07500005e+00 0. 0. 0. 0. 0. 0. 1.98300004e+00
    1.98199999e+00 1.98199999e+00 1.98399997e+00 1.98699999e+00
    1.98699999e+00 1.99000001e+00 1.98800004e+00 1.98699999e+00
    1.98699999e+00 1.99100006e+00 1.99500000e+00 1.99500000e+00
    1.99500000e+00 1.99500000e+00 1.99500000e+00 1.99500000e+00
    1.99899995e+00 2. 2. 2. 2. 2.00300002e+00 2.00699997e+00
    2.00799990e+00 2.00900006e+00 2.00900006e+00 2.01099992e+00
    2.00900006e+00 2.00900006e+00 2.00900006e+00 2.01300001e+00
    2.01300001e+00 2.03500009e+00 2.05699992e+00 0. 0. 0. 0. 0.
    1.98699999e+00 1.98199999e+00 1.98300004e+00 1.98699999e+00
    1.98699999e+00 1.98800004e+00 1.99000001e+00 1.99100006e+00
    1.98800004e+00 1.98800004e+00 1.99100006e+00 1.99500000e+00
    1.99500000e+00 1.99500000e+00 1.99899995e+00 1.99500000e+00
    1.99500000e+00 1.99899995e+00 2. 2. 2. 2. 2. 2.00200009e+00
    2.00399995e+00 2.00900006e+00 2.00900006e+00 2.00900006e+00
    2.00900006e+00 2.00900006e+00 2.00900006e+00 2.01300001e+00
    2.01300001e+00 2.01500010e+00 2.02699995e+00 2.03900003e+00 0. 0. 0.
    0. 1.98699999e+00 1.98500001e+00 1.98699999e+00 1.98699999e+00
    1.98699999e+00 1.99100006e+00 1.99100006e+00 1.99100006e+00
    1.99100006e+00 1.99199998e+00 1.99500000e+00 1.99500000e+00
    1.99500000e+00 1.99500000e+00 1.99800003e+00 1.99899995e+00
    1.99899995e+00 2. 2. 2. 2. 2. 2. 2. 2.00399995e+00 2.00900006e+00
    2.00900006e+00 2.00399995e+00 2.00399995e+00 2.00900006e+00
    2.01099992e+00 2.01200008e+00 2.01099992e+00 2.01300001e+00
    2.01500010e+00 2.01500010e+00 2.01999998e+00 1.87300003e+00 0. 0.
    1.98599994e+00 1.98699999e+00 1.98699999e+00 1.98599994e+00
    1.98399997e+00 1.98800004e+00 1.99199998e+00 1.99500000e+00
    1.99500000e+00 1.99500000e+00 1.99500000e+00 1.99500000e+00
    1.99500000e+00 1.99500000e+00 1.99600005e+00 2. 2. 2. 2.
    2.00099993e+00 2.00300002e+00 2. 2. 2.00399995e+00 2.00399995e+00
    2.00900006e+00 2.00900006e+00 2.00399995e+00 2.00900006e+00
    2.01300001e+00 2.01300001e+00 2.01300001e+00 2.01200008e+00
    2.01300001e+00 2.01300001e+00 2.01300001e+00 2.01900005e+00
    2.02699995e+00 2.40899992e+00 0. 2.83200002e+00 1.99500000e+00
    1.99100006e+00 1.98699999e+00 1.98699999e+00 1.98699999e+00
    1.98699999e+00 1.99100006e+00 1.99500000e+00 1.99500000e+00
    1.99500000e+00 1.99500000e+00 1.99500000e+00 1.99500000e+00
    1.99600005e+00 2. 2. 2. 2. 2. 2. 2.00399995e+00 2.00699997e+00
    2.00900006e+00 2.00900006e+00 2.00900006e+00 2.00900006e+00
    2.00900006e+00 2.00900006e+00 2.01300001e+00 2.01300001e+00
    2.01300001e+00 2.01300001e+00 2.01300001e+00 2.01300001e+00
    2.01799989e+00 2.01799989e+00 2.02300000e+00 1.99699998e+00 0. 0.
    2.64599991e+00 1.98599994e+00 1.98099995e+00 1.98899996e+00
    1.98699999e+00 1.98699999e+00 1.99100006e+00 1.99500000e+00
    1.99500000e+00 1.99500000e+00 1.99500000e+00 1.99899995e+00
    1.99500000e+00 1.99500000e+00 2. 2. 2. 2. 2.00099993e+00
    2.00399995e+00 2.00399995e+00 2.00699997e+00 2.00900006e+00
    2.00900006e+00 2.00900006e+00 2.00999999e+00 2.01300001e+00
    2.01300001e+00 2.01300001e+00 2.01300001e+00 2.01300001e+00
    2.01399994e+00 2.01300001e+00 2.01300001e+00 2.01300001e+00
    2.01799989e+00 2.01799989e+00 2.01799989e+00 0. 0. 0. 2.36500001e+00
    1.99500000e+00 1.99100006e+00 1.99199998e+00 1.99500000e+00
    1.99199998e+00 1.99300003e+00 1.99500000e+00 1.99500000e+00
    1.99500000e+00 1.99500000e+00 1.99899995e+00 2. 2. 2. 2. 2.
    2.00300002e+00 2.00399995e+00 2.00399995e+00 2.00399995e+00
    2.00900006e+00 2.00999999e+00 2.00900006e+00 2.00900006e+00
    2.01300001e+00 2.01300001e+00 2.01300001e+00 2.01300001e+00
    2.01300001e+00 2.01799989e+00 2.01799989e+00 2.01799989e+00
    2.01799989e+00 2.01799989e+00 2.01799989e+00 2.01799989e+00
    2.02099991e+00 0. 0. 0. 0. 1.40400004e+00 1.99500000e+00
    1.99500000e+00 1.99500000e+00 1.99500000e+00 1.99500000e+00
    1.99500000e+00 1.99500000e+00 1.99500000e+00 1.99500000e+00 2. 2. 2.
    2. 2. 2.00099993e+00 2.00399995e+00 2.00399995e+00 2.00600004e+00
    2.00900006e+00 2.00900006e+00 2.00900006e+00 2.00900006e+00
    2.00999999e+00 2.01300001e+00 2.01300001e+00 2.01300001e+00
    2.01300001e+00 2.01699996e+00 2.01799989e+00 2.01799989e+00
    2.01799989e+00 2.01799989e+00 2.01799989e+00 2.01799989e+00
    2.02300000e+00 0. 0. 0. 0. 0. 0. 1.85500002e+00 1.99500000e+00
    1.99500000e+00 1.99500000e+00 1.99500000e+00 1.99500000e+00
    1.99800003e+00 2. 2. 2. 2.00200009e+00 2.00300002e+00 2.
    2.00300002e+00 2.00399995e+00 2.00699997e+00 2.01099992e+00
    2.00900006e+00 2.01200008e+00 2.01300001e+00 2.00900006e+00
    2.00900006e+00 2.01300001e+00 2.01300001e+00 2.01300001e+00
    2.01300001e+00 2.01500010e+00 2.01799989e+00 2.01799989e+00
    2.01799989e+00 2.01799989e+00 2.01300001e+00 2.01999998e+00
    2.02500010e+00 0. 0. 0. 0. 0. 0. 1.82200003e+00 2. 1.99800003e+00
    1.99500000e+00 1.99800003e+00 1.99899995e+00 2. 2. 2. 2. 2. 2. 2.
    2.00900006e+00 2.00699997e+00 2.00600004e+00 2.01300001e+00
    2.01300001e+00 2.01300001e+00 2.01300001e+00 2.01300001e+00
    2.01300001e+00 2.01300001e+00 2.01300001e+00 2.01300001e+00
    2.01699996e+00 2.01799989e+00 2.01399994e+00 2.01799989e+00
    2.01799989e+00 2.01799989e+00 2.01799989e+00 2.01799989e+00
    2.02399993e+00 0. 0. 0. 0. 0. 0. 0. 1.99800003e+00 1.99500000e+00
    1.99500000e+00 2. 2. 2. 2. 2. 2. 2. 2. 2.00399995e+00 2.00500011e+00
    2.00900006e+00 2.00900006e+00 2.00900006e+00 2.00900006e+00
    2.01300001e+00 2.01300001e+00 2.01300001e+00 2.01300001e+00
    2.01300001e+00 2.01300001e+00 2.01300001e+00 2.01300001e+00
    2.01799989e+00 2.01799989e+00 2.01799989e+00 2.01799989e+00
    2.01799989e+00 2.01799989e+00 2.01300001e+00 0. 0. 0. 0. 0. 0. 0. 0.
    0. 0. 2.00099993e+00 2. 1.99600005e+00 2. 2. 2. 2.00399995e+00
    2.00399995e+00 2. 2.00300002e+00 2.00500011e+00 2.00900006e+00
    2.01099992e+00 2.00900006e+00 2.00399995e+00 2.00900006e+00
    2.01300001e+00 2.01300001e+00 2.01300001e+00 2.01300001e+00
    2.01399994e+00 2.01399994e+00 2.01300001e+00 2.01500010e+00
    2.01799989e+00 2.01799989e+00 2.01799989e+00 2.01900005e+00
    2.01999998e+00 2.70400000e+00 0. 0. 0. 0. 0. 0. 0. 0. 0. 0. 0.
    1.79200006e+00 2. 2. 2. 2. 2.00600004e+00 2.00399995e+00
    2.00099993e+00 2. 2.00399995e+00 2.00900006e+00 2.00900006e+00
    2.00999999e+00 2.00900006e+00 2.00900006e+00 2.01300001e+00
    2.01300001e+00 2.01300001e+00 2.01300001e+00 2.01699996e+00
    2.01799989e+00 2.01799989e+00 2.01799989e+00 2.01799989e+00
    2.01799989e+00 2.01799989e+00 2.02399993e+00 0. 0. 0. 0. 0. 0. 0. 0.
    0. 0. 0. 0. 0. 0. 1.80900002e+00 2. 2. 2.00099993e+00 2.00399995e+00
    2.00399995e+00 2. 2.00399995e+00 2.00399995e+00 2.00900006e+00
    2.00999999e+00 2.01200008e+00 2.01300001e+00 2.01300001e+00
    2.01300001e+00 2.01300001e+00 2.01300001e+00 2.01500010e+00
    2.01799989e+00 2.01799989e+00 2.01799989e+00 2.01799989e+00
    2.01799989e+00 2.01799989e+00 2.01799989e+00 2.28500009e+00 0. 0. 0.
    0. 0. 0. 0. 0. 0. 0. 0. 0. 0. 0. 2.49200010e+00 1.52999997e+00
    2.00300002e+00 2.00399995e+00 2.00399995e+00 2.00399995e+00
    2.00300002e+00 2.00399995e+00 2.00799990e+00 2.00900006e+00
    2.01300001e+00 2.01300001e+00 2.01300001e+00 2.01300001e+00
    2.01300001e+00 2.01300001e+00 2.01300001e+00 2.01300001e+00
    2.01799989e+00 2.01799989e+00 2.01799989e+00 2.01300001e+00
    2.01799989e+00 2.02099991e+00 2.01799989e+00 0. 0. 0. 0. 0. 0. 0. 0.
    0. 0. 0. 0. 0. 0. 0. 0. 0. 2.00399995e+00 2.00399995e+00
    2.00399995e+00 2.00399995e+00 2.00399995e+00 2.00399995e+00
    2.00900006e+00 2.00900006e+00 2.01099992e+00 2.01300001e+00
    2.01300001e+00 2.01300001e+00 2.01300001e+00 2.01300001e+00
    2.01300001e+00 2.01300001e+00 2.01799989e+00 2.01799989e+00
    2.01799989e+00 2.01699996e+00 2.01799989e+00 2.02300000e+00 0. 0. 0.
    0. 0. 0. 0. 0. 0. 0. 0. 0. 0. 0. 0. 0. 0. 0. 0. 2.39899993e+00
    1.28999996e+00 2.00900006e+00 2.00399995e+00 2.00399995e+00
    2.00900006e+00 2.01300001e+00 2.01300001e+00 2.01300001e+00
    2.01300001e+00 2.01300001e+00 2.01300001e+00 2.01300001e+00
    2.01799989e+00 2.01399994e+00 2.01699996e+00 2.01799989e+00
    2.01799989e+00 2.01799989e+00 2.01799989e+00 0. 0. 0. 0. 0. 0. 0. 0.
    0. 0. 0. 0. 0. 0. 0. 0. 0. 0. 0. 0. 0. 0. 0. 1.93599999e+00
    2.00900006e+00 2.00900006e+00 2.01300001e+00 2.01300001e+00
    2.01300001e+00 2.01300001e+00 2.01300001e+00 2.01300001e+00
    2.01300001e+00 2.01399994e+00 2.01300001e+00 2.01699996e+00
    2.01799989e+00 2.01799989e+00 2.01799989e+00 0. 0. 0. 0. 0. 0. 0. 0.
    0. 0. 0. 0. 0. 0. 0. 0. 0. 0. 0. 0. 0. 0. 0. 0. 0. 1.98300004e+00
    2.00999999e+00 2.01300001e+00 2.01300001e+00 2.01300001e+00
    2.01300001e+00 2.01300001e+00 2.01300001e+00 2.01799989e+00
    2.01600003e+00 2.01500010e+00 2.01799989e+00 2.01799989e+00
    2.02200007e+00 2.71600008e+00 0. 0. 0. 0. 0. 0. 0. 0. 0. 0. 0. 0. 0.
    0. 0. 0. 0. 0. 0. 0. 0. 0. 0. 2.01999998e+00 0. 0. 2.00900006e+00
    2.00999999e+00 2.01300001e+00 2.01300001e+00 2.01300001e+00
    2.01300001e+00 2.01600003e+00 2.01799989e+00 2.01799989e+00
    2.01799989e+00 2.01399994e+00 2.01300001e+00 2.59699988e+00 0. 0. 0.
    0. 0. 0. 0. 0. 0. 0. 0. 0. 0. 0. 0. 0. 0. 0. 0. 0. 0. 0. 0. 0. 0. 0.
    0. 0. 2.01200008e+00 2.01300001e+00 2.01300001e+00 2.01300001e+00
    2.01300001e+00 2.01300001e+00 2.01799989e+00 2.01799989e+00
    2.01399994e+00 2.01300001e+00 0. 0. 0. 0. 0. 0. 0. 0. 0. 0. 0. 0. 0.
    0. 0. 0. 0. 0. 0. 0. 0. 0. 0. 0. 0. 0. 0. 0. 0. 0. 0. 2.01500010e+00
    2.01300001e+00 2.01300001e+00 2.01300001e+00 2.01300001e+00
    2.01799989e+00 2.01799989e+00 2.01799989e+00 0. 0. 0. 0. 0. 0. 0. 0.
    0. 0. 0. 0. 0. 0. 0. 0. 0. 0. 0. 0. 0. 0. 0. 0. 0. 0. 0. 0. 0. 0. 0.
    0. 0. 2.20099998e+00 2.01799989e+00 2.01799989e+00 2.01799989e+00
    2.02099991e+00 2.01799989e+00 2.40400004e+00 0. 0. 0. 0. 0. 0. 0. 0.
    0. 0. 0. 0. 0. 0. 0. 0. 0. 0. 0. 0. 0. 0. 0. 0. 0. 0. 0. 0. 0. 0. 0.
    0. 0. 0. 0. 0. 2.01999998e+00 2.01300001e+00 0. 0. 0. 0. 0. 0. 0. 0.
    0. 0. 0. 0. 0. 0. 0. 0. 0. 0. 0. 0. 0. 0. 0. 0. 0. 0. 0. 0. 0. 0. 0.
    0. 0. 0. 0. 0. 0. 0. 0. 0. 0. 0. 0. 0. 0. 0. 0. 0. 0. 0. 0. 0. 0.</data></Depth>
</opencv_storage>
