<?xml version="1.0"?>
<opencv_storage>
<Depth type_id="opencv-matrix">
  <rows>40</rows>
  <cols>40</cols>
  <dt>f</dt>
  <data>
    0. 2.08899999e+00 2.07500005e+00 2.06699991e+00 2.05999994e+00
    2.05999994e+00 2.05999994e+00 2.05999994e+00 2.05999994e+00 0. 0. 0.
    0. 0. 0. 0. 0. 2. 2.02500010e+00 2.05500007e+00 2.05800009e+00
    2.54299998e+00 0. 0. 0. 0. 0. 0. 0. 0. 0. 0. 0. 0. 0. 0. 0. 0. 0. 0.
    0. 2.09500003e+00 2.08200002e+00 2.06699991e+00 2.05999994e+00
    2.05999994e+00 2.05999994e+00 2.05999994e+00 2.05999994e+00 0. 0. 0.
    0. 0. 0. 2.04200006e+00 1.98800004e+00 2.00200009e+00 2.01900005e+00
    2.04200006e+00 2.04500008e+00 2.53900003e+00 0. 0. 0. 0. 0. 0. 0. 0.
    0. 0. 0. 0. 0. 0. 0. 0. 0. 0. 0. 2.11400008e+00 2.09999990e+00
    2.07900000e+00 0. 2.20199990e+00 2.09500003e+00 2.05999994e+00
    2.05999994e+00 0. 0. 0. 2.87899995e+00 2.00999999e+00 2.
    1.99300003e+00 1.99399996e+00 2.00600004e+00 2.02399993e+00
    2.03600001e+00 2.03699994e+00 2.27600002e+00 0. 0. 0. 0. 0. 0. 0. 0.
    0. 0. 0. 0. 0. 0. 0. 0. 0. 0. 0. 2.32100010e+00 0. 0. 0.
    2.16100001e+00 2.37400007e+00 0. 2.96199989e+00 0. 0. 2.66300011e+00
    2.00799990e+00 2.00699997e+00 2. 2. 2. 2.00600004e+00 2.02399993e+00
    2.02999997e+00 2.02999997e+00 2.01999998e+00 2.30699992e+00 0. 0. 0.
    0. 0. 0. 0. 0. 0. 0. 0. 0. 0. 0. 0. 0. 0. 0. 0. 0. 0. 2.88400006e+00
    2.09100008e+00 2.47099996e+00 0. 0. 2.23000002e+00 2.23200011e+00 2.
    2. 2.00099993e+00 2. 2. 2. 2.00600004e+00 2.01600003e+00
    2.02699995e+00 2.02999997e+00 2.01500010e+00 2.02099991e+00 0. 0. 0.
    0. 0. 0. 0. 0. 0. 0. 0. 0. 0. 0. 0. 0. 0. 0. 0. 0. 0. 0. 0. 0. 0.
    2.07500005e+00 2.05299997e+00 2.01799989e+00 2.01699996e+00
    2.01200008e+00 2.00099993e+00 2. 2. 2. 2.00600004e+00 2.01500010e+00
    2.01500010e+00 2.01500010e+00 2.02800012e+00 2.02900004e+00
    2.02999997e+00 0. 0. 0. 0. 0. 0. 0. 0. 0. 0. 0. 0. 0. 0. 0. 0. 0. 0.
    0. 0. 0. 0. 0. 2.10500002e+00 2.07699990e+00 2.05999994e+00
    2.03600001e+00 2.03399992e+00 2.02500010e+00 2.00900006e+00
    2.00099993e+00 2. 2. 2.00600004e+00 2.01500010e+00 2.01500010e+00
    2.01500010e+00 2.01500010e+00 2.02099991e+00 2.03600001e+00 0. 0. 0.
    0. 0. 0. 0. 0. 0. 0. 0. 0. 0. 0. 0. 0. 0. 0. 0. 0. 0. 0.
    2.10700011e+00 2.10500002e+00 2.08599997e+00 2.07500005e+00
    2.05399990e+00 2.04299998e+00 2.02500010e+00 2.01500010e+00
    2.00399995e+00 2. 2. 2.00300002e+00 2.00699997e+00 2.01300001e+00
    2.01500010e+00 2.01500010e+00 2.01799989e+00 2.02999997e+00
    2.03600001e+00 0. 0. 0. 0. 0. 0. 0. 0. 0. 0. 0. 0. 0. 0. 0. 0. 0. 0.
    0. 2.94400001e+00 2.13899994e+00 2.11899996e+00 2.11500001e+00
    2.09599996e+00 2.08699989e+00 2.06100011e+00 2.04299998e+00
    2.02500010e+00 2.01500010e+00 2.00399995e+00 2. 2. 2. 2.
    2.00300002e+00 2.01500010e+00 2.01500010e+00 2.01500010e+00
    2.01500010e+00 2.01500010e+00 2.68799996e+00 0. 0. 0. 0. 0. 0. 0. 0.
    0. 0. 0. 0. 0. 0. 0. 0. 0. 0. 2.19099998e+00 2.13899994e+00
    2.12299991e+00 2.11800003e+00 2.10700011e+00 2.09500003e+00
    2.06200004e+00 2.04299998e+00 2.02500010e+00 2.01500010e+00
    2.00399995e+00 2. 2. 2. 2. 2. 2.00099993e+00 2.01500010e+00
    2.01500010e+00 2.01500010e+00 2.01500010e+00 2.01799989e+00
    2.65599990e+00 0. 0. 0. 0. 0. 0. 0. 0. 0. 0. 0. 0. 0. 0.
    2.18899989e+00 2.18400002e+00 2.17199993e+00 2.16000009e+00
    2.14000010e+00 2.12500000e+00 2.11800003e+00 2.10700011e+00
    2.09500003e+00 2.07599998e+00 2.05999994e+00 2.04099989e+00
    2.02200007e+00 2.01500010e+00 2.01500010e+00 2.00200009e+00
    1.99500000e+00 1.98599994e+00 1.98599994e+00 2. 2.00300002e+00
    2.01500010e+00 2.01500010e+00 2.01500010e+00 2.01500010e+00
    2.47199988e+00 0. 0. 0. 0. 0. 0. 0. 0. 0. 0. 0. 0. 0. 0.
    2.18899989e+00 2.18400002e+00 2.17199993e+00 2.16000009e+00
    2.14000010e+00 2.13700008e+00 2.11999989e+00 2.10999990e+00
    2.09500003e+00 2.07599998e+00 2.07299995e+00 2.05100012e+00
    2.02699995e+00 2.01999998e+00 2.01500010e+00 2.01200008e+00
    1.99500000e+00 1.98300004e+00 1.98099995e+00 2. 2.00200009e+00
    2.00999999e+00 2.00999999e+00 2.01399994e+00 2.01500010e+00
    2.01500010e+00 2.67899990e+00 0. 0. 0. 0. 0. 0. 0. 0. 0. 0. 0. 0. 0.
    2.18899989e+00 2.18700004e+00 2.17700005e+00 2.16000009e+00
    2.14899993e+00 2.12899995e+00 2.12299991e+00 2.11400008e+00
    2.09500003e+00 2.07599998e+00 2.07299995e+00 2.05500007e+00
    2.03699994e+00 2.02999997e+00 2.01500010e+00 2.01200008e+00
    1.99500000e+00 1.97800004e+00 1.97200000e+00 1.99199998e+00
    1.99199998e+00 1.99500000e+00 2. 2.00500011e+00 2.01500010e+00
    2.00699997e+00 2.00999999e+00 2.68400002e+00 0. 0. 0. 0. 0. 0. 0. 0.
    0. 0. 0. 0. 2.18899989e+00 2.18899989e+00 2.18000007e+00
    2.16899991e+00 2.15599990e+00 2.12299991e+00 2.12299991e+00
    2.11400008e+00 2.09500003e+00 2.07599998e+00 2.07399988e+00
    2.06599998e+00 2.05500007e+00 2.03500009e+00 2.01500010e+00
    2.01200008e+00 1.99899995e+00 1.98899996e+00 1.98300004e+00
    1.98599994e+00 1.98599994e+00 1.99199998e+00 2. 2. 2.00300002e+00 2.
    2.00600004e+00 2.01500010e+00 2.48799992e+00 0. 0. 0. 0. 0. 0. 0. 0.
    0. 0. 0. 0. 2.20000005e+00 2.18899989e+00 2.16499996e+00
    2.15499997e+00 2.13700008e+00 2.12299991e+00 2.12299991e+00
    2.09899998e+00 2.07599998e+00 2.07500005e+00 2.06999993e+00
    2.05999994e+00 2.04800010e+00 2.02999997e+00 2.01500010e+00
    2.00900006e+00 2. 1.98899996e+00 1.97200000e+00 1.97500002e+00
    1.99199998e+00 2. 2. 2. 2.00300002e+00 2.01500010e+00 2.01500010e+00
    2.02699995e+00 0. 0. 0. 0. 0. 0. 0. 0. 0. 0. 0. 0. 0. 2.17199993e+00
    2.16000009e+00 2.15499997e+00 2.13899994e+00 2.13400006e+00
    2.12100005e+00 2.09899998e+00 2.07900000e+00 2.07500005e+00
    2.07500005e+00 2.06699991e+00 2.05100012e+00 2.03299999e+00
    2.01699996e+00 2.00999999e+00 2.00099993e+00 1.98899996e+00
    1.95799994e+00 1.96399999e+00 1.99199998e+00 2. 2. 2. 2.00500011e+00
    2.01500010e+00 2.01500010e+00 2.01500010e+00 2.12500000e+00 0. 0. 0.
    0. 0. 0. 0. 0. 0. 0. 0. 0. 2.70799994e+00 2.16000009e+00
    2.15499997e+00 2.14400005e+00 2.13599992e+00 2.11700010e+00
    2.09999990e+00 2.09100008e+00 2.07500005e+00 2.07500005e+00
    2.06699991e+00 2.05999994e+00 2.04500008e+00 2.02699995e+00
    2.01500010e+00 2.00999999e+00 1.99000001e+00 1.96899998e+00
    1.97200000e+00 1.99000001e+00 1.99800003e+00 2. 2. 2.01099992e+00
    2.01500010e+00 2.01500010e+00 2.01500010e+00 2.09299994e+00 0. 0. 0.
    0. 0. 0. 0. 0. 0. 0. 0. 0. 0. 2.63199997e+00 2.14599991e+00
    2.15400004e+00 2.14499998e+00 2.12700009e+00 2.11599994e+00
    2.09200001e+00 2.07500005e+00 2.07500005e+00 2.07200003e+00
    2.06200004e+00 2.05399990e+00 2.03600001e+00 2.01999998e+00
    2.01500010e+00 1.99899995e+00 1.98599994e+00 1.98599994e+00
    1.98599994e+00 1.99000001e+00 1.99199998e+00 1.99199998e+00
    2.00099993e+00 2.00999999e+00 2.01500010e+00 2.01500010e+00
    2.01500010e+00 2.25999999e+00 0. 0. 0. 0. 0. 0. 0. 0. 0. 0. 0. 0.
    2.96700001e+00 2.13899994e+00 2.15499997e+00 2.15000010e+00
    2.13000011e+00 2.12299991e+00 2.11700010e+00 2.08800006e+00
    2.08299994e+00 2.07500005e+00 2.07299995e+00 2.07200003e+00
    2.05599999e+00 2.04299998e+00 2.01999998e+00 2.00300002e+00
    1.99699998e+00 1.99500000e+00 1.98599994e+00 1.98599994e+00
    1.98599994e+00 1.98599994e+00 2. 2.00099993e+00 2.01099992e+00
    2.01500010e+00 2.01399994e+00 2. 0. 0. 0. 0. 0. 0. 0. 0. 0. 0. 0. 0.
    0. 2.39000010e+00 2.17000008e+00 2.15000010e+00 2.13899994e+00
    2.12700009e+00 2.12299991e+00 2.10700011e+00 2.09599996e+00
    2.07500005e+00 2.07500005e+00 2.07500005e+00 2.05999994e+00
    2.05399990e+00 2.02699995e+00 2.00300002e+00 2. 1.99699998e+00
    1.98599994e+00 1.98599994e+00 1.97500002e+00 1.97200000e+00
    1.98899996e+00 2. 2. 2. 2. 2.00399995e+00 2.02099991e+00 0. 0. 0. 0.
    0. 0. 0. 0. 0. 0. 0. 0. 0. 2.64599991e+00 2.15000010e+00
    2.13899994e+00 2.13899994e+00 2.12400007e+00 2.12100005e+00
    2.10299993e+00 2.08200002e+00 2.07500005e+00 2.07500005e+00
    2.07200003e+00 2.05500007e+00 2.02900004e+00 2.00600004e+00 2.
    1.99800003e+00 1.98800004e+00 1.97700000e+00 1.97000003e+00
    1.96899998e+00 1.97200000e+00 1.98399997e+00 1.99300003e+00 2. 2. 2.
    2. 2. 0. 0. 0. 0. 0. 0. 0. 0. 0. 0. 0. 0. 0. 2.15599990e+00
    2.14199996e+00 2.13899994e+00 2.12400007e+00 2.12299991e+00
    2.11400008e+00 2.08500004e+00 2.07500005e+00 2.07500005e+00
    2.07200003e+00 2.05999994e+00 2.03699994e+00 2.02099991e+00
    2.00600004e+00 2.00500011e+00 1.99399996e+00 1.97399998e+00
    1.96000004e+00 1.95799994e+00 1.96000004e+00 1.97200000e+00
    1.98399997e+00 1.99300003e+00 1.99500000e+00 2. 2. 2. 0. 0. 0. 0. 0.
    0. 0. 0. 0. 0. 0. 0. 0. 0. 2.15599990e+00 2.14199996e+00
    2.13299990e+00 2.12299991e+00 2.11700010e+00 2.09500003e+00
    2.08500004e+00 2.07500005e+00 2.07399988e+00 2.06599998e+00
    2.04200006e+00 2.02999997e+00 2.02399993e+00 2.01399994e+00
    2.00300002e+00 1.97200000e+00 1.95799994e+00 1.95799994e+00
    1.95799994e+00 1.96399999e+00 1.97500002e+00 1.98500001e+00
    1.98699999e+00 2. 2. 1.99399996e+00 1.99100006e+00 0. 0. 0. 0. 0. 0.
    0. 0. 0. 0. 0. 0. 0. 2.16899991e+00 2.14299989e+00 2.13899994e+00
    2.12299991e+00 2.12199998e+00 2.11100006e+00 2.10400009e+00
    2.08800006e+00 2.07500005e+00 2.06900001e+00 2.04999995e+00
    2.03299999e+00 2.02999997e+00 2.00999999e+00 1.99000001e+00
    1.97700000e+00 1.96899998e+00 1.95799994e+00 1.95799994e+00
    1.95899999e+00 1.96800005e+00 1.97399998e+00 1.97500002e+00
    1.99100006e+00 2. 1.99100006e+00 1.98599994e+00 0. 0. 0. 0. 0. 0. 0.
    0. 0. 0. 0. 0. 0. 2.18000007e+00 2.16000009e+00 2.14000010e+00
    2.12299991e+00 2.12299991e+00 2.12299991e+00 2.11100006e+00
    2.09100008e+00 2.08800006e+00 2.06900001e+00 2.05100012e+00
    2.04500008e+00 2.02999997e+00 2.00900006e+00 1.98599994e+00
    1.98599994e+00 1.97500002e+00 1.95799994e+00 1.95799994e+00
    1.95799994e+00 1.95799994e+00 1.97000003e+00 1.97200000e+00
    1.97200000e+00 1.98399997e+00 1.99100006e+00 1.98599994e+00
    2.14700007e+00 0. 0. 0. 0. 0. 0. 0. 0. 0. 0. 0. 0. 2.19099998e+00
    2.17600012e+00 2.15599990e+00 2.14199996e+00 2.13499999e+00
    2.12500000e+00 2.11299992e+00 2.09500003e+00 2.08800006e+00
    2.06900001e+00 2.05100012e+00 2.04500008e+00 2.02999997e+00
    2.01200008e+00 2. 2. 1.98899996e+00 1.96099997e+00 1.95799994e+00
    1.95799994e+00 1.95799994e+00 1.95799994e+00 1.95799994e+00
    1.97000003e+00 1.97200000e+00 1.98099995e+00 1.98599994e+00
    1.98599994e+00 2.63299990e+00 0. 0. 0. 0. 0. 0. 0. 0. 0. 0. 0. 0.
    2.49499989e+00 2.14899993e+00 2.14700007e+00 2.13899994e+00
    2.13000011e+00 2.12299991e+00 2.11400008e+00 2.09400010e+00
    2.06900001e+00 2.05500007e+00 2.05100012e+00 2.02999997e+00
    2.01300001e+00 2.00600004e+00 2.00300002e+00 1.99300003e+00
    1.97800004e+00 1.95799994e+00 1.95799994e+00 1.95799994e+00
    1.95799994e+00 1.95799994e+00 1.96099997e+00 1.97200000e+00
    1.97700000e+00 1.98500001e+00 1.98699999e+00 2.36100006e+00 0. 0. 0.
    0. 0. 0. 0. 0. 0. 0. 0. 0. 0. 2.24000001e+00 2.13899994e+00
    2.13899994e+00 2.13000011e+00 2.12299991e+00 2.12299991e+00
    2.10299993e+00 2.07900000e+00 2.06399989e+00 2.05999994e+00
    2.03999996e+00 2.02300000e+00 2.01500010e+00 2.00600004e+00 2.
    1.98599994e+00 1.96700001e+00 1.96300006e+00 1.95799994e+00
    1.95799994e+00 1.95799994e+00 1.95899999e+00 1.96300006e+00
    1.96899998e+00 1.98399997e+00 1.98599994e+00 1.98599994e+00
    1.98599994e+00 0. 0. 0. 0. 0. 0. 0. 0. 0. 0. 0. 0. 2.28399992e+00
    2.12800002e+00 2.13899994e+00 2.13800001e+00 2.12599993e+00
    2.12299991e+00 2.10400009e+00 2.08500004e+00 2.07399988e+00
    2.06299996e+00 2.04500008e+00 2.02699995e+00 2.01500010e+00
    2.00600004e+00 2. 1.99699998e+00 1.98399997e+00 1.97300005e+00
    1.95799994e+00 1.95799994e+00 1.95799994e+00 1.95799994e+00
    1.95799994e+00 1.96700001e+00 1.97399998e+00 1.97500002e+00
    1.98599994e+00 1.98599994e+00 0. 0. 0. 0. 0. 0. 0. 0. 0. 0. 0. 0.
    2.39800000e+00 2.12500000e+00 2.13899994e+00 2.13899994e+00
    2.12700009e+00 2.12299991e+00 2.11999989e+00 2.09500003e+00
    2.07599998e+00 2.07500005e+00 2.05999994e+00 2.02999997e+00
    2.02399993e+00 2.01500010e+00 2.00300002e+00 2. 1.98599994e+00
    1.98000002e+00 1.96300006e+00 1.95799994e+00 1.95799994e+00
    1.95799994e+00 1.95799994e+00 1.95799994e+00 1.97000003e+00
    1.97300005e+00 1.98599994e+00 1.98599994e+00 0. 0. 0. 0. 0. 0. 0. 0.
    0. 0. 0. 0. 0. 2.12299991e+00 2.13400006e+00 2.14800000e+00
    2.13100004e+00 2.12299991e+00 2.11999989e+00 2.10700011e+00
    2.08800006e+00 2.07500005e+00 2.06399989e+00 2.03399992e+00
    2.02800012e+00 2.01900005e+00 2.01600003e+00 2. 1.99699998e+00
    1.98000002e+00 1.96500003e+00 1.95899999e+00 1.95799994e+00
    1.95799994e+00 1.95799994e+00 1.95799994e+00 1.95799994e+00
    1.96899998e+00 1.97599995e+00 1.98599994e+00 0. 0. 0. 0. 0. 0. 0. 0.
    0. 0. 0. 0. 0. 0. 2.97199988e+00 2.16300011e+00 2.14499998e+00
    2.13100004e+00 2.11999989e+00 2.10700011e+00 2.09299994e+00
    2.07699990e+00 2.07500005e+00 2.04999995e+00 2.04200006e+00
    2.03299999e+00 2.01799989e+00 2.00699997e+00 1.99699998e+00
    1.98300004e+00 1.97399998e+00 1.96000004e+00 1.95799994e+00
    1.95200002e+00 1.95500004e+00 1.95799994e+00 1.95799994e+00
    1.95899999e+00 2.27600002e+00 0. 0. 0. 0. 0. 0. 0. 0. 0. 0. 0. 0. 0.
    0. 0. 0. 2.17700005e+00 2.14700007e+00 2.13899994e+00 2.11999989e+00
    2.10700011e+00 2.09800005e+00 2.08699989e+00 2.07500005e+00
    2.05699992e+00 2.04500008e+00 2.03600001e+00 2.01799989e+00
    2.01500010e+00 1.99899995e+00 1.99100006e+00 1.97700000e+00
    1.96000004e+00 1.95700002e+00 1.94400001e+00 1.94599998e+00
    1.95500004e+00 1.95799994e+00 1.95799994e+00 2.63100004e+00 0. 0. 0.
    0. 0. 0. 0. 0. 0. 0. 0. 0. 0. 0. 0. 0. 0. 2.72600007e+00
    2.13899994e+00 2.12299991e+00 2.11599994e+00 2.09800005e+00
    2.09100008e+00 2.07500005e+00 2.05999994e+00 2.05299997e+00
    2.03600001e+00 2.01799989e+00 2.01500010e+00 2. 1.99899995e+00
    1.98899996e+00 1.96200001e+00 1.95700002e+00 1.94400001e+00
    1.94400001e+00 1.94500005e+00 1.95599997e+00 1.95799994e+00
    2.62800002e+00 0. 0. 0. 0. 0. 0. 0. 0. 0. 0. 0. 0. 0. 0. 0. 0. 0.
    2.96399999e+00 2.14400005e+00 2.13499999e+00 2.11700010e+00
    2.10700011e+00 2.09400010e+00 2.07500005e+00 2.06100011e+00
    2.05999994e+00 2.05100012e+00 2.02099991e+00 2.01600003e+00
    2.00099993e+00 2. 1.98199999e+00 1.94900000e+00 1.95200002e+00
    2.12299991e+00 2.11700010e+00 2.12400007e+00 2.12800002e+00
    2.28200006e+00 0. 0. 0. 0. 0. 0. 0. 0. 0. 0. 0. 0. 0. 0. 0. 0. 0. 0.
    0. 2.20799994e+00 2.12400007e+00 2.12599993e+00 2.11599994e+00
    2.09899998e+00 2.07500005e+00 2.07299995e+00 2.06200004e+00
    2.05100012e+00 2.03299999e+00 2.02999997e+00 2.00799990e+00 2.
    1.98199999e+00 1.95500004e+00 2.73699999e+00 0. 0. 0. 0. 0. 0. 0. 0.
    0. 0. 0. 0. 0. 0. 0. 0. 0. 0. 0. 0. 0. 0. 0. 0. 0. 2.13199997e+00
    2.13599992e+00 2.13100004e+00 2.11199999e+00 2.07500005e+00
    2.07500005e+00 2.06900001e+00 2.05500007e+00 2.04600000e+00
    2.04299998e+00 2. 2.53500009e+00 0. 0. 0. 0. 0. 0. 0. 0. 0. 0. 0. 0.
    0. 0. 0. 0. 0. 0. 0. 0. 0. 0. 0. 0. 0. 0. 0. 0. 0. 2.13899994e+00
    2.13899994e+00 2.11400008e+00 2.08599997e+00 2.07500005e+00
    2.07299995e+00 2.07699990e+00 0. 0. 0. 0. 0. 0. 0. 0. 0. 0. 0. 0. 0.
    0. 0. 0. 0. 0. 0. 0. 0. 0. 0. 0. 0. 0. 0. 0. 0. 0. 0. 0. 0.
    2.13899994e+00 2.13899994e+00 2.11400008e+00 2.09100008e+00
    2.56100011e+00 0. 0. 0. 0. 0. 0. 0. 0. 0. 0. 0. 0. 0. 0. 0. 0. 0. 0.
    0. 0. 0. 0. 0. 0. 0. 0. 0. 0. 0. 0. 0. 0. 0. 0. 0. 0. 0. 0. 0. 0. 0.
    0. 0. 0. 0. 0. 0. 0. 0. 0. 0. 0. 0. 0. 0. 0. 0. 0.</data></Depth>
</opencv_storage>
