<?xml version="1.0"?>
<opencv_storage>
<Depth type_id="opencv-matrix">
  <rows>40</rows>
  <cols>40</cols>
  <dt>f</dt>
  <data>
    0. 0. 0. 0. 0. 0. 0. 0. 0. 0. 0. 0. 0. 0. 0. 0. 0. 0. 0. 0. 0. 0. 0.
    0. 0. 0. 0. 0. 0. 0. 0. 0. 0. 0. 0. 0. 0. 0. 0. 0. 0. 0. 0. 0. 0. 0.
    0. 0. 0. 0. 0. 0. 0. 0. 0. 0. 0. 0. 0. 0. 0. 0. 0. 0. 0. 0. 0. 0. 0.
    0. 0. 0. 0. 0. 0. 0. 0. 0. 0. 0. 0. 0. 0. 0. 0. 0. 0. 0. 0. 0. 0. 0.
    0. 0. 0. 0. 0. 0. 0. 0. 0. 0. 0. 0. 0. 0. 0. 0. 0. 0. 0. 0. 0. 0. 0.
    0. 0. 0. 0. 0. 0. 0. 0. 0. 0. 0. 0. 0. 0. 0. 0. 0. 0. 0. 0. 0. 0. 0.
    0. 0. 0. 0. 0. 0. 0. 0. 0. 0. 0. 0. 0. 0. 0. 0. 0. 0. 0. 0. 0. 0. 0.
    0. 0. 0. 0. 0. 0. 0. 0. 0. 0. 0. 0. 0. 0. 0. 0. 0. 0. 0. 0. 0. 0. 0.
    0. 0. 0. 0. 0. 0. 0. 0. 0. 0. 0. 0. 0. 0. 0. 0. 0. 0. 0. 0. 0.
    1.67200005e+00 1.68400002e+00 1.68400002e+00 1.68499994e+00
    1.69000006e+00 1.69000006e+00 1.68499994e+00 1.69400001e+00
    1.69799995e+00 1.72399998e+00 1.72500002e+00 1.72399998e+00
    1.72399998e+00 1.72500002e+00 1.73199999e+00 1.73899996e+00
    1.73899996e+00 1.73899996e+00 1.73899996e+00 1.73899996e+00
    1.75199997e+00 1.75300002e+00 1.75300002e+00 1.75300002e+00
    1.75300002e+00 1.75300002e+00 1.74300003e+00 1.73899996e+00
    1.73899996e+00 1.72500002e+00 0. 0. 0. 0. 0. 0. 0. 0. 0. 0.
    1.67600000e+00 1.68599999e+00 1.68900001e+00 1.69700003e+00
    1.69700003e+00 1.70599997e+00 1.70700002e+00 1.70299995e+00
    1.72300005e+00 1.73800004e+00 1.73899996e+00 1.72800004e+00
    1.73199999e+00 1.74000001e+00 1.74699998e+00 1.75399995e+00
    1.75300002e+00 1.75199997e+00 1.75199997e+00 1.75399995e+00
    1.75500000e+00 1.76600003e+00 1.76800001e+00 1.76800001e+00
    1.76800001e+00 1.76800001e+00 1.76800001e+00 1.76800001e+00
    1.76600003e+00 1.75399995e+00 0. 0. 0. 0. 0. 0. 0. 0. 0. 0.
    1.70799994e+00 1.70799994e+00 1.70799994e+00 1.70799994e+00
    1.70799994e+00 1.71899998e+00 1.73500001e+00 1.74100006e+00
    1.74199998e+00 1.74199998e+00 1.75199997e+00 1.75600004e+00
    1.75600004e+00 1.75600004e+00 1.76100004e+00 1.76600003e+00
    1.75899994e+00 1.75300002e+00 1.75199997e+00 1.76600003e+00
    1.76999998e+00 1.77600002e+00 1.78699994e+00 1.78900003e+00
    1.78900003e+00 1.78699994e+00 1.78499997e+00 1.78100002e+00
    1.76999998e+00 1.76999998e+00 0. 0. 0. 0. 0. 0. 0. 0. 0. 0.
    1.74300003e+00 1.74300003e+00 1.74300003e+00 1.74300003e+00
    1.74300003e+00 1.74300003e+00 1.74600005e+00 1.75500000e+00
    1.75699997e+00 1.75699997e+00 1.76300001e+00 1.77199996e+00
    1.77499998e+00 1.77100003e+00 1.77400005e+00 1.77600002e+00
    1.77600002e+00 1.76499999e+00 1.76199996e+00 1.77600002e+00
    1.79200006e+00 1.80799997e+00 1.82000005e+00 1.82599998e+00
    1.82700002e+00 1.81599998e+00 1.80400002e+00 1.78799999e+00
    1.78499997e+00 1.78499997e+00 0. 0. 0. 0. 0. 0. 0. 0. 0. 0.
    1.75800002e+00 1.75800002e+00 1.75800002e+00 1.75800002e+00
    1.75800002e+00 1.75800002e+00 1.76800001e+00 1.77199996e+00
    1.77199996e+00 1.77199996e+00 1.78600001e+00 1.78799999e+00
    1.79400003e+00 1.79299998e+00 1.79700005e+00 1.80100000e+00
    1.80100000e+00 1.80599999e+00 1.80700004e+00 1.82200003e+00
    1.83099997e+00 1.84000003e+00 1.84599996e+00 1.84899998e+00
    1.85000002e+00 1.83700001e+00 1.82500005e+00 1.80999994e+00
    1.80100000e+00 1.80100000e+00 0. 0. 0. 0. 0. 0. 0. 0. 0. 0.
    1.44599998e+00 1.77400005e+00 1.77400005e+00 1.77400005e+00
    1.77400005e+00 1.77800000e+00 1.78600001e+00 1.78799999e+00
    1.78799999e+00 1.78799999e+00 1.79499996e+00 1.80200005e+00
    1.80700004e+00 1.82099998e+00 1.82599998e+00 1.83099997e+00
    1.83399999e+00 1.84500003e+00 1.85500002e+00 1.86199999e+00
    1.86199999e+00 1.86099994e+00 1.85399997e+00 1.85800004e+00
    1.86199999e+00 1.85800004e+00 1.85000002e+00 1.83500004e+00
    1.81900001e+00 1.81700003e+00 0. 0. 0. 0. 0. 0. 0. 0. 0. 0.
    1.20099998e+00 1.78900003e+00 1.78900003e+00 1.78900003e+00
    1.78900003e+00 1.79200006e+00 1.79400003e+00 1.79400003e+00
    1.80299997e+00 1.80400002e+00 1.80599999e+00 1.83099997e+00
    1.84000003e+00 1.84599996e+00 1.84899998e+00 1.85200000e+00
    1.85399997e+00 1.86199999e+00 1.87800002e+00 1.88000000e+00
    1.88000000e+00 1.87899995e+00 1.87500000e+00 1.88100004e+00
    1.87899995e+00 1.86899996e+00 1.86500001e+00 1.86000001e+00
    1.85399997e+00 1.84399998e+00 0. 0. 0. 0. 0. 0. 0. 0. 0. 0.
    1.65799999e+00 1.79400003e+00 1.79700005e+00 1.80599999e+00
    1.80599999e+00 1.80599999e+00 1.80599999e+00 1.80599999e+00
    1.82900000e+00 1.83200002e+00 1.83399999e+00 1.85099995e+00
    1.85399997e+00 1.85800004e+00 1.86600006e+00 1.86600006e+00
    1.86600006e+00 1.86800003e+00 1.88300002e+00 1.89699996e+00
    1.89900005e+00 1.90999997e+00 1.90999997e+00 1.91100001e+00
    1.90999997e+00 1.89800000e+00 1.88499999e+00 1.88100004e+00
    1.88100004e+00 1.86600006e+00 0. 0. 0. 0. 0. 0. 0. 0. 0. 0.
    1.80700004e+00 1.80700004e+00 1.80799997e+00 1.80900002e+00
    1.81500006e+00 1.82200003e+00 1.82200003e+00 1.83200002e+00
    1.85000002e+00 1.85200000e+00 1.86500001e+00 1.87000000e+00
    1.87699997e+00 1.86800003e+00 1.86899996e+00 1.87699997e+00
    1.90199995e+00 1.91100001e+00 1.92499995e+00 1.92900002e+00
    1.92900002e+00 1.93099999e+00 1.93099999e+00 1.93099999e+00
    1.93099999e+00 1.92100000e+00 1.91400003e+00 1.90100002e+00
    1.88600004e+00 1.86899996e+00 0. 0. 0. 0. 0. 0. 0. 0. 0. 0.
    1.25399995e+00 1.85300004e+00 1.85300004e+00 1.85300004e+00
    1.85300004e+00 1.85300004e+00 1.85300004e+00 1.86500001e+00
    1.86899996e+00 1.88399994e+00 1.88499999e+00 1.88499999e+00
    1.88499999e+00 1.88499999e+00 1.89199996e+00 1.90999997e+00
    1.92799997e+00 1.93299997e+00 1.94700003e+00 1.93299997e+00
    1.93499994e+00 1.94900000e+00 1.94900000e+00 1.94200003e+00
    1.93299997e+00 1.92299998e+00 1.91700006e+00 1.90400004e+00
    1.88600004e+00 1.86899996e+00 0. 0. 0. 0. 0. 0. 0. 0. 0. 0.
    1.21099997e+00 1.34399998e+00 1.86899996e+00 1.87100005e+00
    1.87800002e+00 1.87800002e+00 1.87199998e+00 1.88300002e+00
    1.88600004e+00 1.90199995e+00 1.90199995e+00 1.90499997e+00
    1.91799998e+00 1.91900003e+00 1.91999996e+00 1.92799997e+00
    1.94500005e+00 1.95000005e+00 1.96399999e+00 1.96599996e+00
    1.96899998e+00 1.98000002e+00 1.96700001e+00 1.95899999e+00
    1.94099998e+00 1.92299998e+00 1.90499997e+00 1.88800001e+00
    1.87000000e+00 1.85399997e+00 0. 0. 0. 0. 0. 0. 0. 0. 0. 0.
    1.23800004e+00 1.34899998e+00 1.88100004e+00 1.89600003e+00
    1.90400004e+00 1.90400004e+00 1.90400004e+00 1.90600002e+00
    1.90699995e+00 1.91999996e+00 1.91999996e+00 1.92299998e+00
    1.93900001e+00 1.94400001e+00 1.95200002e+00 1.95400000e+00
    1.96500003e+00 1.96899998e+00 1.96899998e+00 1.96599996e+00
    1.98000002e+00 1.97899997e+00 1.97200000e+00 1.95599997e+00
    1.93900001e+00 1.92299998e+00 1.90799999e+00 1.88800001e+00
    1.87000000e+00 1.85399997e+00 0. 0. 0. 0. 0. 0. 0. 0. 0. 0.
    1.27199996e+00 1.38100004e+00 1.92999995e+00 1.92600000e+00
    1.92600000e+00 1.92900002e+00 1.93099999e+00 1.94000006e+00
    1.94200003e+00 1.93799996e+00 1.93799996e+00 1.94799995e+00
    1.97099996e+00 1.97099996e+00 1.97300005e+00 1.98300004e+00
    1.98399997e+00 1.98300004e+00 1.97899997e+00 1.96599996e+00
    1.96099997e+00 1.95799994e+00 1.94400001e+00 1.94000006e+00
    1.93299997e+00 1.92299998e+00 1.91400003e+00 1.88999999e+00
    1.87000000e+00 1.85399997e+00 0. 0. 0. 0. 0. 0. 0. 0. 0. 0.
    1.28999996e+00 1.40300000e+00 1.96800005e+00 1.95599997e+00
    1.95899999e+00 1.96800005e+00 1.97300005e+00 1.97300005e+00
    1.97300005e+00 1.96200001e+00 1.97099996e+00 1.99500000e+00
    2.00099993e+00 1.99399996e+00 1.99500000e+00 2. 1.98800004e+00
    1.98300004e+00 1.96800005e+00 1.95899999e+00 1.94900000e+00
    1.94599998e+00 1.93299997e+00 1.93299997e+00 1.92999995e+00
    1.92100000e+00 1.90499997e+00 1.88800001e+00 1.87000000e+00
    1.85399997e+00 0. 0. 0. 0. 0. 0. 0. 0. 0. 0. 1.29499996e+00
    1.40600002e+00 1.98699999e+00 1.97399998e+00 1.98199999e+00
    1.99100006e+00 1.99100006e+00 1.99100006e+00 1.99100006e+00
    1.99100006e+00 2.01900005e+00 2.03299999e+00 2.02399993e+00
    2.01099992e+00 2. 1.99500000e+00 1.98599994e+00 1.97599995e+00
    1.96700001e+00 1.94900000e+00 1.94900000e+00 1.94700003e+00
    1.93799996e+00 1.93299997e+00 1.92499995e+00 1.91700006e+00
    1.90499997e+00 1.89400005e+00 1.87100005e+00 1.85399997e+00 0. 0. 0.
    0. 0. 0. 0. 0. 0. 0. 1.30400002e+00 1.41299999e+00 2.00600004e+00
    1.99300003e+00 2.00099993e+00 2.01600003e+00 2.01399994e+00
    2.01099992e+00 2.01099992e+00 2.01099992e+00 2.03399992e+00
    2.02200007e+00 2.00699997e+00 2.00399995e+00 2. 1.99000001e+00
    1.98300004e+00 1.96899998e+00 1.95700002e+00 1.94900000e+00
    1.94900000e+00 1.94900000e+00 1.94400001e+00 1.93299997e+00
    1.92499995e+00 1.91700006e+00 1.90499997e+00 1.90100002e+00
    1.87100005e+00 1.86300004e+00 0. 0. 0. 0. 0. 0. 0. 0. 0. 0.
    1.31299996e+00 1.41999996e+00 2.00699997e+00 2.01699996e+00
    2.02699995e+00 2.03999996e+00 2.04399991e+00 2.02399993e+00
    2.01799989e+00 2.00600004e+00 2.00999999e+00 2.00399995e+00 2.
    1.99500000e+00 1.98800004e+00 1.98500001e+00 1.97500002e+00
    1.96700001e+00 1.95099998e+00 1.94900000e+00 1.94900000e+00
    1.94900000e+00 1.94400001e+00 1.93299997e+00 1.92499995e+00
    1.91700006e+00 1.91299999e+00 1.90300000e+00 1.89199996e+00
    1.89100003e+00 0. 0. 0. 0. 0. 0. 0. 0. 0. 0. 1.37899995e+00
    1.88399994e+00 2.00500011e+00 2.02900004e+00 2.04900002e+00
    2.05100012e+00 2.05299997e+00 2.04800010e+00 2.03299999e+00
    2.00099993e+00 2. 2. 1.99600005e+00 1.98500001e+00 1.98300004e+00
    1.98300004e+00 1.97099996e+00 1.96599996e+00 1.96300006e+00
    1.96300006e+00 1.96099997e+00 1.94900000e+00 1.94400001e+00
    1.93299997e+00 1.93099999e+00 1.92999995e+00 1.92999995e+00
    1.92700005e+00 1.91499996e+00 1.91400003e+00 0. 0. 0. 0. 0. 0. 0. 0.
    0. 0. 1.37500000e+00 1.52800000e+00 2.00900006e+00 2.03999996e+00
    2.05299997e+00 2.05299997e+00 2.04200006e+00 2.02500010e+00
    2.01999998e+00 2. 1.99899995e+00 1.98500001e+00 1.98399997e+00
    1.98300004e+00 1.98300004e+00 1.98300004e+00 1.97099996e+00
    1.96599996e+00 1.96599996e+00 1.96599996e+00 1.96599996e+00
    1.96099997e+00 1.94900000e+00 1.94700003e+00 1.94700003e+00
    1.94700003e+00 1.95899999e+00 1.96300006e+00 1.93400002e+00
    1.93099999e+00 0. 0. 0. 0. 0. 0. 0. 0. 0. 0. 1.38100004e+00
    1.48500001e+00 2.05299997e+00 2.05299997e+00 2.04500008e+00
    2.03500009e+00 2.02399993e+00 2.01799989e+00 2.01799989e+00 2.
    1.99899995e+00 1.98300004e+00 1.98300004e+00 1.98300004e+00
    1.98300004e+00 1.98300004e+00 1.97099996e+00 1.96599996e+00
    1.96599996e+00 1.96599996e+00 1.96800005e+00 1.97899997e+00
    1.96599996e+00 1.95899999e+00 1.94900000e+00 1.94900000e+00
    1.96200001e+00 1.96599996e+00 1.93499994e+00 1.93299997e+00 0. 0. 0.
    0. 0. 0. 0. 0. 0. 0. 1.39400005e+00 1.49600005e+00 2.05299997e+00
    2.04600000e+00 2.02500010e+00 2.01600003e+00 2.00500011e+00 2. 2.
    2.01600003e+00 1.99899995e+00 1.98300004e+00 1.98800004e+00
    1.99399996e+00 1.98500001e+00 1.98399997e+00 1.98300004e+00
    1.97099996e+00 1.96800005e+00 1.98300004e+00 1.98300004e+00
    1.98500001e+00 1.98699999e+00 1.98699999e+00 1.98699999e+00
    1.98699999e+00 2.19099998e+00 2.06999993e+00 1.98399997e+00
    1.97899997e+00 0. 0. 0. 0. 0. 0. 0. 0. 0. 0. 1.42100000e+00
    1.52600002e+00 2.05299997e+00 2.03999996e+00 2.00999999e+00 2. 2. 2.
    2. 2. 1.99899995e+00 1.98699999e+00 1.99000001e+00 2. 2.
    1.99199998e+00 1.98899996e+00 1.98699999e+00 1.98699999e+00
    1.98699999e+00 1.99199998e+00 2.00999999e+00 2.02200007e+00
    2.01999998e+00 2.01799989e+00 2.05399990e+00 2.21900010e+00
    2.26999998e+00 2.24499989e+00 2.22700000e+00 0. 0. 0. 0. 0. 0. 0. 0.
    0. 0. 1.43499994e+00 1.55299997e+00 2.05299997e+00 2.03999996e+00
    2.01200008e+00 2.00200009e+00 2. 2. 2. 2. 2. 2. 2. 2. 2.00300002e+00
    2.00900006e+00 2.02300000e+00 2.01900005e+00 2.01699996e+00
    2.01699996e+00 2.02999997e+00 2.04099989e+00 2.04099989e+00
    2.03800011e+00 2.07399988e+00 2.22199988e+00 2.28600001e+00
    2.26600003e+00 2.22900009e+00 2.22099996e+00 0. 0. 0. 0. 0. 0. 0. 0.
    0. 0. 1.46599996e+00 1.52400005e+00 1.87699997e+00 2.03999996e+00
    2.01799989e+00 2.00799990e+00 2. 2. 2. 2. 2. 2. 2. 2. 2.00900006e+00
    2.03299999e+00 2.05500007e+00 2.05999994e+00 2.05999994e+00
    2.06100011e+00 2.18799996e+00 2.17899990e+00 2.17700005e+00
    2.17100000e+00 2.24399996e+00 2.29900002e+00 2.27500010e+00
    2.24399996e+00 2.22799993e+00 2.20700002e+00 0. 0. 0. 0. 0. 0. 0. 0.
    0. 0. 1.47800004e+00 1.48300004e+00 1.62699997e+00 2.03399992e+00
    2.01799989e+00 2.01300001e+00 2.00900006e+00 2.00200009e+00 2.
    2.00900006e+00 2.00900006e+00 2.01099992e+00 2.01799989e+00
    2.02200007e+00 2.03200006e+00 2.04600000e+00 2.06599998e+00
    2.07100010e+00 2.07999992e+00 2.22000003e+00 2.36599994e+00
    2.34299994e+00 2.32699990e+00 2.30800009e+00 2.30100012e+00
    2.29500008e+00 2.26699996e+00 2.23200011e+00 2.21700001e+00
    2.20700002e+00 0. 0. 0. 0. 0. 0. 0. 0. 0. 0. 1.49000001e+00
    1.49000001e+00 1.63000000e+00 2.02900004e+00 2.01799989e+00
    2.02399993e+00 2.02200007e+00 2.01300001e+00 2.01999998e+00
    2.02800012e+00 2.02900004e+00 2.04099989e+00 2.04600000e+00
    2.05299997e+00 2.05900002e+00 2.05299997e+00 2.20900011e+00
    2.27699995e+00 2.27099991e+00 2.34299994e+00 2.34100008e+00
    2.31900001e+00 2.30500007e+00 2.29099989e+00 2.29099989e+00
    2.28299999e+00 2.25600004e+00 2.23099995e+00 2.20799994e+00
    2.20700002e+00 0. 0. 0. 0. 0. 0. 0. 0. 0. 0. 1.50800002e+00
    1.49399996e+00 1.53199995e+00 1.78299999e+00 2.02999997e+00
    2.03299999e+00 2.04099989e+00 2.04299998e+00 2.04699993e+00
    2.04800010e+00 2.04900002e+00 2.06599998e+00 2.06599998e+00
    2.07299995e+00 2.16899991e+00 2.25699997e+00 2.34699988e+00
    2.38599992e+00 2.38100004e+00 2.33500004e+00 2.31800008e+00
    2.30900002e+00 2.28999996e+00 2.27500010e+00 2.28299999e+00
    2.26799989e+00 2.23900008e+00 2.22799993e+00 2.20799994e+00
    2.20700002e+00 0. 0. 0. 0. 0. 0. 0. 0. 0. 0. 1.52400005e+00
    1.50199997e+00 1.50199997e+00 1.69900000e+00 2.04999995e+00
    2.05800009e+00 2.06699991e+00 2.06800008e+00 2.06800008e+00
    2.06800008e+00 2.06800008e+00 2.12100005e+00 2.33999991e+00
    2.31999993e+00 2.32299995e+00 2.33500004e+00 2.33999991e+00
    2.32800007e+00 2.32399988e+00 2.31599998e+00 2.30999994e+00
    2.29399991e+00 2.28399992e+00 2.26900005e+00 2.27099991e+00
    2.25699997e+00 2.23300004e+00 2.22700000e+00 2.22399998e+00
    2.20700002e+00 0. 0. 0. 0. 0. 0. 0. 0. 0. 0. 1.54700005e+00
    1.53600001e+00 1.55200005e+00 1.79499996e+00 2.12400007e+00
    2.09599996e+00 2.07699990e+00 2.07100010e+00 2.07100010e+00
    2.07100010e+00 2.37800002e+00 2.36299992e+00 2.38100004e+00
    2.37100005e+00 2.34599996e+00 2.33500004e+00 2.31999993e+00
    2.31200004e+00 2.29399991e+00 2.29299998e+00 2.30999994e+00
    2.29099989e+00 2.29099989e+00 2.28099990e+00 2.26900005e+00
    2.25600004e+00 2.23300004e+00 2.22700000e+00 2.22700000e+00
    2.22600007e+00 0. 0. 0. 0. 0. 0. 0. 0. 0. 0. 0. 0. 0. 0. 0. 0. 0. 0.
    0. 0. 0. 0. 0. 0. 0. 0. 0. 0. 0. 0. 0. 0. 0. 0. 0. 0. 0. 0. 0. 0. 0.
    0. 0. 0. 0. 0. 0. 0. 0. 0. 0. 0. 0. 0. 0. 0. 0. 0. 0. 0. 0. 0. 0. 0.
    0. 0. 0. 0. 0. 0. 0. 0. 0. 0. 0. 0. 0. 0. 0. 0. 0. 0. 0. 0. 0. 0. 0.
    0. 0. 0. 0. 0. 0. 0. 0. 0. 0. 0. 0. 0. 0. 0. 0. 0. 0. 0. 0. 0. 0. 0.
    0. 0. 0. 0. 0. 0. 0. 0. 0. 0. 0. 0. 0. 0. 0. 0. 0. 0. 0. 0. 0. 0. 0.
    0. 0. 0. 0. 0. 0. 0. 0. 0. 0. 0. 0. 0. 0. 0. 0. 0. 0. 0. 0. 0. 0. 0.
    0. 0. 0. 0. 0. 0. 0. 0. 0. 0. 0. 0. 0. 0. 0. 0. 0. 0. 0. 0. 0. 0. 0.
    0. 0. 0. 0. 0. 0. 0. 0. 0. 0. 0. 0. 0. 0. 0. 0. 0. 0. 0. 0. 0. 0. 0.
    0. 0. 0. 0. 0. 0. 0. 0. 0. 0. 0. 0. 0. 0. 0. 0. 0. 0. 0. 0. 0. 0. 0.
    0. 0. 0. 0. 0. 0. 0. 0. 0. 0. 0. 0. 0. 0. 0. 0. 0. 0. 0. 0.</data></Depth>
</opencv_storage>
