<?xml version="1.0"?>
<opencv_storage>
<Depth type_id="opencv-matrix">
  <rows>40</rows>
  <cols>40</cols>
  <dt>f</dt>
  <data>
    0. 0. 0. 0. 0. 0. 0. 0. 0. 0. 0. 0. 0. 0. 0. 0. 0. 0. 0. 0. 0. 0. 0.
    0. 0. 0. 0. 0. 0. 0. 0. 0. 0. 0. 0. 0. 0. 0. 0. 0. 0. 0. 0. 0. 0. 0.
    0. 0. 0. 0. 0. 0. 0. 0. 0. 0. 0. 0. 0. 0. 0. 0. 0. 0. 0. 0. 0. 0. 0.
    0. 0. 0. 0. 0. 0. 0. 0. 0. 0. 0. 0. 0. 0. 0. 0. 0. 0. 0. 0. 0. 0. 0.
    0. 0. 0. 0. 0. 0. 0. 0. 0. 0. 0. 0. 0. 0. 0. 0. 0. 0. 0. 0. 0. 0. 0.
    0. 0. 0. 0. 0. 0. 0. 0. 0. 0. 0. 0. 0. 0. 0. 0. 0. 0. 0. 0. 0. 0. 0.
    0. 0. 0. 0. 0. 0. 0. 0. 0. 0. 0. 0. 0. 0. 0. 0. 0. 0. 0. 0. 0. 0.
    2.96000004e+00 2.96000004e+00 2.96000004e+00 2.96000004e+00
    2.96000004e+00 2.94600010e+00 2.89299989e+00 2.86599994e+00
    2.86599994e+00 2.86599994e+00 2.86599994e+00 2.81800008e+00
    2.77399993e+00 2.77399993e+00 2.77399993e+00 2.77399993e+00
    2.77399993e+00 2.77399993e+00 2.77399993e+00 2.77399993e+00
    2.77399993e+00 2.77399993e+00 2.77399993e+00 2.77399993e+00
    2.77399993e+00 2.77399993e+00 2.77399993e+00 2.72900009e+00
    2.68600011e+00 2.68600011e+00 2.68600011e+00 2.68600011e+00
    2.48799992e+00 2.14100003e+00 2.03800011e+00 2. 2. 2. 2. 2.
    2.96000004e+00 2.96000004e+00 2.94499993e+00 2.92799997e+00
    2.92799997e+00 2.91799998e+00 2.88400006e+00 2.86599994e+00
    2.86599994e+00 2.86599994e+00 2.86599994e+00 2.81800008e+00
    2.77399993e+00 2.77399993e+00 2.77399993e+00 2.77399993e+00
    2.77399993e+00 2.77399993e+00 2.77399993e+00 2.77399993e+00
    2.77399993e+00 2.77399993e+00 2.77399993e+00 2.77399993e+00
    2.77399993e+00 2.76200008e+00 2.74499989e+00 2.71399999e+00
    2.68400002e+00 2.66700006e+00 2.65700006e+00 2.65700006e+00
    2.45300007e+00 2.09699988e+00 2.00200009e+00 1.97700000e+00
    1.97700000e+00 1.97700000e+00 1.97700000e+00 1.97700000e+00
    2.96000004e+00 2.96000004e+00 2.92000008e+00 2.87500000e+00
    2.87500000e+00 2.87400007e+00 2.86899996e+00 2.86599994e+00
    2.86599994e+00 2.86599994e+00 2.86599994e+00 2.81800008e+00
    2.77399993e+00 2.77399993e+00 2.77399993e+00 2.77399993e+00
    2.77399993e+00 2.77399993e+00 2.77399993e+00 2.77399993e+00
    2.77399993e+00 2.77399993e+00 2.77399993e+00 2.77399993e+00
    2.77399993e+00 2.74300003e+00 2.69799995e+00 2.69000006e+00
    2.68000007e+00 2.63700008e+00 2.60800004e+00 2.60800004e+00
    2.39700007e+00 2.02500010e+00 1.94400001e+00 1.94000006e+00
    1.94000006e+00 1.94000006e+00 1.94000006e+00 1.94000006e+00
    2.96000004e+00 2.96000004e+00 2.91599989e+00 2.86599994e+00
    2.86599994e+00 2.86599994e+00 2.86599994e+00 2.86599994e+00
    2.86599994e+00 2.86599994e+00 2.86599994e+00 2.83999991e+00
    2.81299996e+00 2.78900003e+00 2.77399993e+00 2.77399993e+00
    2.77399993e+00 2.77399993e+00 2.77399993e+00 2.77399993e+00
    2.77399993e+00 2.77399993e+00 2.77399993e+00 2.77399993e+00
    2.77399993e+00 2.74000001e+00 2.69000006e+00 2.62599993e+00
    2.55599999e+00 2.45199990e+00 2.38400006e+00 2.38400006e+00
    2.24000001e+00 1.98699999e+00 1.93400002e+00 1.93400002e+00
    1.93400002e+00 1.93400002e+00 1.93400002e+00 1.93400002e+00
    2.96000004e+00 2.96000004e+00 2.91499996e+00 2.86299992e+00
    2.86299992e+00 2.86299992e+00 2.86299992e+00 2.86400008e+00
    2.86599994e+00 2.86599994e+00 2.86599994e+00 2.86599994e+00
    2.85800004e+00 2.80800009e+00 2.77699995e+00 2.77699995e+00
    2.77600002e+00 2.77399993e+00 2.77399993e+00 2.77399993e+00
    2.77399993e+00 2.77399993e+00 2.77399993e+00 2.77399993e+00
    2.77399993e+00 2.73399997e+00 2.67600012e+00 2.54600000e+00
    2.40599990e+00 2.24300003e+00 2.13700008e+00 2.13700008e+00
    2.07299995e+00 1.96000004e+00 1.93499994e+00 1.93400002e+00
    1.93400002e+00 1.93400002e+00 1.93400002e+00 1.93400002e+00
    2.96000004e+00 2.96000004e+00 2.89100003e+00 2.81200004e+00
    2.81200004e+00 2.81200004e+00 2.81200004e+00 2.82699990e+00
    2.85700011e+00 2.86599994e+00 2.86599994e+00 2.86599994e+00
    2.86299992e+00 2.84200001e+00 2.82800007e+00 2.82800007e+00
    2.80999994e+00 2.77999997e+00 2.77399993e+00 2.77399993e+00
    2.77399993e+00 2.77399993e+00 2.77399993e+00 2.77399993e+00
    2.77399993e+00 2.61400008e+00 2.38299990e+00 2.30999994e+00
    2.25099993e+00 2.18199992e+00 2.13700008e+00 2.13700008e+00
    2.08400011e+00 1.99199998e+00 1.95599997e+00 1.93400002e+00
    1.93400002e+00 1.93400002e+00 1.93400002e+00 1.93400002e+00
    2.95499992e+00 2.94700003e+00 2.86599994e+00 2.77399993e+00
    2.77399993e+00 2.77399993e+00 2.77399993e+00 2.79900002e+00
    2.85100007e+00 2.86599994e+00 2.86599994e+00 2.86599994e+00
    2.86599994e+00 2.86599994e+00 2.86599994e+00 2.86599994e+00
    2.83599997e+00 2.78399992e+00 2.76799989e+00 2.75900006e+00
    2.71900010e+00 2.68799996e+00 2.68799996e+00 2.68499994e+00
    2.67899990e+00 2.46399999e+00 2.15400004e+00 2.12700009e+00
    2.12700009e+00 2.12700009e+00 2.12700009e+00 2.12700009e+00
    2.08599997e+00 2.01500010e+00 1.97500002e+00 1.94400001e+00
    1.93799996e+00 1.93400002e+00 1.93400002e+00 1.93200004e+00
    2.93700004e+00 2.89899993e+00 2.83699989e+00 2.77399993e+00
    2.77399993e+00 2.77399993e+00 2.77399993e+00 2.79900002e+00
    2.85100007e+00 2.86599994e+00 2.86599994e+00 2.86599994e+00
    2.86599994e+00 2.86599994e+00 2.86599994e+00 2.86599994e+00
    2.83599997e+00 2.78399992e+00 2.74499989e+00 2.70600009e+00
    2.51399994e+00 2.37100005e+00 2.37100005e+00 2.35700011e+00
    2.32800007e+00 2.23000002e+00 2.09999990e+00 2.08800006e+00
    2.08800006e+00 2.08800006e+00 2.08800006e+00 2.08800006e+00
    2.05999994e+00 2.00999999e+00 1.99199998e+00 1.98099995e+00
    1.95400000e+00 1.93400002e+00 1.93400002e+00 1.92299998e+00
    2.92799997e+00 2.87500000e+00 2.82299995e+00 2.77399993e+00
    2.77399993e+00 2.77800012e+00 2.79200006e+00 2.81800008e+00
    2.85500002e+00 2.87599993e+00 2.89100003e+00 2.89199996e+00
    2.89199996e+00 2.89199996e+00 2.89199996e+00 2.89199996e+00
    2.80100012e+00 2.64800000e+00 2.58899999e+00 2.54900002e+00
    2.34299994e+00 2.18899989e+00 2.18899989e+00 2.17000008e+00
    2.13000011e+00 2.09899998e+00 2.07100010e+00 2.06800008e+00
    2.06699991e+00 2.05599999e+00 2.04900002e+00 2.04900002e+00
    2.03399992e+00 2.00600004e+00 2. 2. 1.97300005e+00 1.95000005e+00
    1.94000006e+00 1.91799998e+00 2.92799997e+00 2.87500000e+00
    2.82299995e+00 2.77399993e+00 2.77399993e+00 2.78600001e+00
    2.82900000e+00 2.85500002e+00 2.86400008e+00 2.89700007e+00
    2.94199991e+00 2.94499993e+00 2.94499993e+00 2.94499993e+00
    2.94499993e+00 2.94499993e+00 2.73099995e+00 2.36999989e+00
    2.29500008e+00 2.28399992e+00 2.20700002e+00 2.14899993e+00
    2.14899993e+00 2.13000011e+00 2.09100008e+00 2.07500005e+00
    2.06900001e+00 2.06800008e+00 2.06399989e+00 2.03200006e+00
    2.01099992e+00 2.01099992e+00 2.00799990e+00 2.00099993e+00 2. 2.
    1.99399996e+00 1.98199999e+00 1.95099998e+00 1.91799998e+00
    2.90300012e+00 2.87100005e+00 2.82299995e+00 2.77399993e+00
    2.77399993e+00 2.78800011e+00 2.83999991e+00 2.87599993e+00
    2.89700007e+00 2.92600012e+00 2.95799994e+00 2.96000004e+00
    2.96000004e+00 2.96000004e+00 2.87500000e+00 2.64499998e+00
    2.40100002e+00 2.14800000e+00 2.11100006e+00 2.12500000e+00
    2.11599994e+00 2.10899997e+00 2.10899997e+00 2.09899998e+00
    2.07500005e+00 2.05699992e+00 2.04200006e+00 2.04099989e+00
    2.03800011e+00 2.01500010e+00 2. 2. 2. 2. 2. 2. 2. 1.99500000e+00
    1.97300005e+00 1.94400001e+00 2.86800003e+00 2.86599994e+00
    2.82299995e+00 2.77399993e+00 2.77399993e+00 2.78800011e+00
    2.83999991e+00 2.89100003e+00 2.94199991e+00 2.95799994e+00
    2.96000004e+00 2.96000004e+00 2.96000004e+00 2.96000004e+00
    2.75500011e+00 2.20099998e+00 1.96500003e+00 1.94799995e+00
    1.97399998e+00 2.00900006e+00 2.04399991e+00 2.07100010e+00
    2.07100010e+00 2.06999993e+00 2.06800008e+00 2.04299998e+00
    2.00600004e+00 2.00300002e+00 2.00200009e+00 2.00099993e+00 2. 2. 2.
    2. 2. 2. 2. 2. 1.99800003e+00 1.98099995e+00 2.86599994e+00
    2.86599994e+00 2.84599996e+00 2.82200003e+00 2.82200003e+00
    2.82900000e+00 2.85299993e+00 2.89199996e+00 2.94499993e+00
    2.96000004e+00 2.96000004e+00 2.98699999e+00 2.97099996e+00
    2.70000005e+00 2.40599990e+00 2.07100010e+00 1.93400002e+00
    1.93400002e+00 1.96399999e+00 2.00099993e+00 2.03900003e+00
    2.06800008e+00 2.06800008e+00 2.06800008e+00 2.06800008e+00
    2.04200006e+00 2.00300002e+00 2. 2. 2. 2. 2. 2. 2. 2. 2.
    2.01999998e+00 2.03600001e+00 2.03600001e+00 2.02800012e+00
    2.87100005e+00 2.86700010e+00 2.86199999e+00 2.85800004e+00
    2.85800004e+00 2.85800004e+00 2.85800004e+00 2.88000011e+00
    2.92400002e+00 2.92100000e+00 2.89800000e+00 2.94000006e+00
    2.90899992e+00 2.43600011e+00 2.09699988e+00 1.98899996e+00
    1.94299996e+00 1.94000006e+00 1.96700001e+00 2.00099993e+00
    2.03900003e+00 2.06699991e+00 2.06399989e+00 2.06200004e+00
    2.06200004e+00 2.03800011e+00 2.00300002e+00 2. 2. 2.00399995e+00
    2.00500011e+00 2.00099993e+00 2. 2. 2. 1.99800003e+00 1.80700004e+00
    1.65999997e+00 1.65999997e+00 1.65999997e+00 2.90599990e+00
    2.87199998e+00 2.83800006e+00 2.80699992e+00 2.80699992e+00
    2.80699992e+00 2.80699992e+00 2.79999995e+00 2.78699994e+00
    2.66000009e+00 2.48699999e+00 2.46900010e+00 2.43600011e+00
    2.25200009e+00 2.11299992e+00 2.04699993e+00 2.00600004e+00
    1.98099995e+00 1.98699999e+00 2.00099993e+00 2.03900003e+00
    2.06200004e+00 2.03699994e+00 2.02399993e+00 2.02399993e+00
    2.01500010e+00 2.00099993e+00 2. 2.00300002e+00 2.02800012e+00
    2.03500009e+00 2.01099992e+00 2. 2. 2. 1.98300004e+00 0. 0. 0. 0.
    2.90199995e+00 2.83899999e+00 2.77800012e+00 2.72000003e+00
    2.71099997e+00 2.69899988e+00 2.68099999e+00 2.64800000e+00
    2.60100007e+00 2.43600011e+00 2.22399998e+00 2.17100000e+00
    2.13700008e+00 2.13700008e+00 2.12299991e+00 2.08400011e+00
    2.04500008e+00 2.00699997e+00 2. 2.00099993e+00 2.03099990e+00
    2.04399991e+00 2.00600004e+00 1.98599994e+00 1.98599994e+00
    1.98599994e+00 1.98599994e+00 1.98599994e+00 1.99199998e+00
    2.03800011e+00 2.05500007e+00 2.01600003e+00 2. 2. 1.55999994e+00 0.
    0. 0. 0. 0. 2.83299994e+00 2.74300003e+00 2.65700006e+00
    2.57399988e+00 2.53900003e+00 2.49600005e+00 2.42899990e+00
    2.37400007e+00 2.33100009e+00 2.27500010e+00 2.21300006e+00
    2.17100000e+00 2.13700008e+00 2.13700008e+00 2.12299991e+00
    2.08400011e+00 2.04500008e+00 2.00699997e+00 2. 2. 2.00900006e+00
    2.00600004e+00 1.96899998e+00 1.94900000e+00 1.94900000e+00
    1.94900000e+00 1.94900000e+00 1.94900000e+00 1.95799994e+00
    2.02500010e+00 2.05500007e+00 2.01600003e+00 2. 2. 0. 0. 0. 0. 0. 0.
    2.76699996e+00 2.60500002e+00 2.49000001e+00 2.39000010e+00
    2.35899997e+00 2.32500005e+00 2.27999997e+00 2.24399996e+00
    2.21700001e+00 2.20900011e+00 2.20900011e+00 2.17100000e+00
    2.13700008e+00 2.13700008e+00 2.12299991e+00 2.08400011e+00
    2.05299997e+00 2.02699995e+00 2.02300000e+00 2.02200007e+00
    1.99699998e+00 1.96899998e+00 1.93200004e+00 1.91299999e+00
    1.91299999e+00 1.92100000e+00 1.93299997e+00 1.93400002e+00
    1.94400001e+00 2.01900005e+00 1.74399996e+00 0. 0. 0. 0. 0. 0. 0. 0.
    0. 2.70400000e+00 2.43799996e+00 2.29299998e+00 2.17700005e+00
    2.17199993e+00 2.17600012e+00 2.20300007e+00 2.21499991e+00
    2.21000004e+00 2.20900011e+00 2.20900011e+00 2.17100000e+00
    2.13700008e+00 2.13700008e+00 2.12299991e+00 2.08400011e+00
    2.06599998e+00 2.06200004e+00 2.06100011e+00 2.05900002e+00
    1.99100006e+00 1.93200004e+00 1.89699996e+00 1.87800002e+00
    1.87800002e+00 1.89999998e+00 1.93099999e+00 1.93400002e+00
    1.94400001e+00 2.01900005e+00 1.21700001e+00 0. 0. 0. 0. 0. 0. 0. 0.
    0. 2.60100007e+00 2.36400008e+00 2.22199988e+00 2.10599995e+00
    2.10599995e+00 2.11599994e+00 2.15599990e+00 2.17600012e+00
    2.17600012e+00 2.17600012e+00 2.17600012e+00 2.15599990e+00
    2.13700008e+00 2.13700008e+00 2.12899995e+00 2.10800004e+00
    2.08899999e+00 2.07100010e+00 2.06800008e+00 2.06599998e+00
    1.99000001e+00 1.92499995e+00 1.88999999e+00 1.87100005e+00
    1.87100005e+00 1.90699995e+00 1.95899999e+00 0. 0. 0. 0. 0. 0. 0. 0.
    0. 0. 0. 0. 0. 2.48600006e+00 2.30999994e+00 2.18099999e+00
    2.06800008e+00 2.06800008e+00 2.07800007e+00 2.11700010e+00
    2.13700008e+00 2.13700008e+00 2.13700008e+00 2.13700008e+00
    2.13700008e+00 2.13700008e+00 2.13700008e+00 2.13700008e+00
    2.13700008e+00 2.11400008e+00 2.07500005e+00 2.06800008e+00
    2.06599998e+00 1.99100006e+00 1.92600000e+00 1.88999999e+00
    1.87100005e+00 1.87100005e+00 1.92100000e+00 1.99300003e+00 0. 0. 0.
    0. 0. 0. 0. 0. 0. 0. 0. 0. 0. 2.31399989e+00 2.21499991e+00
    2.13700008e+00 2.06800008e+00 2.06800008e+00 2.07800007e+00
    2.11700010e+00 2.13700008e+00 2.13700008e+00 2.13700008e+00
    2.13700008e+00 2.13700008e+00 2.13700008e+00 2.13700008e+00
    2.13700008e+00 2.13700008e+00 2.11400008e+00 2.07500005e+00
    2.06800008e+00 2.06599998e+00 2.01300001e+00 1.95799994e+00
    1.90100002e+00 1.87100005e+00 1.87100005e+00 1.92100000e+00
    1.99300003e+00 0. 0. 0. 0. 0. 0. 0. 0. 0. 0. 0. 0. 0. 2.17799997e+00
    2.14299989e+00 2.10899997e+00 2.07699990e+00 2.07200003e+00
    2.07699990e+00 2.10999990e+00 2.13000011e+00 2.13499999e+00
    2.13700008e+00 2.13700008e+00 2.13199997e+00 2.12700009e+00
    2.12700009e+00 2.12700009e+00 2.12700009e+00 2.10800004e+00
    2.07399988e+00 2.06800008e+00 2.06699991e+00 2.03399992e+00
    1.89900005e+00 1.45500004e+00 1.21899998e+00 1.21899998e+00
    1.26199996e+00 1.32400000e+00 0. 0. 0. 0. 0. 0. 0. 0. 0. 0. 0. 0. 0.
    2.15100002e+00 2.13899994e+00 2.12700009e+00 2.11500001e+00
    2.08800006e+00 2.07100010e+00 2.08299994e+00 2.10200000e+00
    2.12899995e+00 2.13700008e+00 2.13700008e+00 2.11199999e+00
    2.08899999e+00 2.08899999e+00 2.08899999e+00 2.08899999e+00
    2.08200002e+00 2.06999993e+00 2.06800008e+00 2.06800008e+00
    2.05599999e+00 1.56500006e+00 0. 0. 0. 0. 0. 0. 0. 0. 0. 0. 0. 0. 0.
    0. 0. 0. 0. 0. 2.13700008e+00 2.13700008e+00 2.13700008e+00
    2.13499999e+00 2.09599996e+00 2.06800008e+00 2.06800008e+00
    2.08699989e+00 2.12599993e+00 2.13700008e+00 2.13700008e+00
    2.10100007e+00 2.06599998e+00 2.05599999e+00 2.04999995e+00
    2.04999995e+00 2.05599999e+00 2.06599998e+00 1.48699999e+00 0. 0. 0.
    0. 0. 0. 0. 0. 0. 0. 0. 0. 0. 0. 0. 0. 0. 0. 0. 0. 0. 2.13700008e+00
    2.13700008e+00 2.13700008e+00 2.13499999e+00 2.09599996e+00
    2.06800008e+00 2.06800008e+00 2.08699989e+00 2.12599993e+00
    2.13700008e+00 2.13700008e+00 2.10100007e+00 2.06299996e+00
    2.03200006e+00 2.01200008e+00 2.01200008e+00 2.02999997e+00
    2.06200004e+00 0. 0. 0. 0. 0. 0. 0. 0. 0. 0. 0. 0. 0. 0. 0. 0. 0. 0.
    0. 0. 0. 0. 2.16499996e+00 2.16499996e+00 2.16499996e+00
    2.16300011e+00 2.12400007e+00 2.09500003e+00 2.09500003e+00
    2.10599995e+00 2.13000011e+00 2.13700008e+00 2.13700008e+00
    2.10100007e+00 2.06200004e+00 2.02399993e+00 2. 2. 2.01399994e+00
    2.03699994e+00 0. 0. 0. 0. 0. 0. 0. 0. 0. 0. 0. 0. 0. 0. 0. 0. 0. 0.
    0. 0. 0. 0. 2.20499992e+00 2.20499992e+00 2.20499992e+00
    2.20300007e+00 2.16300011e+00 2.13400006e+00 2.13400006e+00
    2.13400006e+00 2.13599992e+00 2.13700008e+00 2.13700008e+00
    2.10100007e+00 2.06200004e+00 2.02399993e+00 2. 2. 2.00099993e+00
    2.00300002e+00 1.89199996e+00 1.68200004e+00 0. 0. 0. 0. 0. 0. 0. 0.
    0. 0. 0. 0. 0. 0. 0. 0. 0. 0. 0. 0. 2.14899993e+00 2.16899991e+00
    2.17199993e+00 2.17100000e+00 2.15100002e+00 2.13700008e+00
    2.13700008e+00 2.14700007e+00 2.16799998e+00 2.15899992e+00
    2.13800001e+00 2.10100007e+00 2.06500006e+00 2.04699993e+00
    2.03500009e+00 2.03500009e+00 2.15400004e+00 2.35700011e+00
    2.39599991e+00 2.30900002e+00 0. 0. 0. 0. 0. 0. 0. 0. 0. 0. 0. 0. 0.
    0. 0. 0. 0. 0. 0. 0. 2.09200001e+00 2.13000011e+00 2.13700008e+00
    2.13700008e+00 2.13700008e+00 2.13700008e+00 2.13700008e+00
    2.15700006e+00 2.19700003e+00 2.18199992e+00 2.14499998e+00
    2.10899997e+00 2.08599997e+00 2.13800001e+00 2.17100000e+00
    2.17100000e+00 2.37100005e+00 2.71000004e+00 2.77399993e+00
    2.68799996e+00 0. 0. 0. 0. 0. 0. 0. 0. 0. 0. 0. 0. 0. 0. 0. 0. 0. 0.
    0. 0. 2.09200001e+00 2.13000011e+00 2.13700008e+00 2.13700008e+00
    2.13700008e+00 2.13700008e+00 2.13700008e+00 2.15700006e+00
    2.19700003e+00 2.19899988e+00 2.18400002e+00 2.17000008e+00
    2.22600007e+00 2.68099999e+00 2.96700001e+00 2.96700001e+00
    2.90300012e+00 2.79500008e+00 2.77399993e+00 2.74000001e+00
    1.60099995e+00 0. 0. 0. 0. 0. 0. 0. 0. 0. 0. 0. 0. 0. 0. 0. 0. 0. 0.
    0. 2.09200001e+00 2.13000011e+00 2.13700008e+00 2.13700008e+00
    2.13700008e+00 2.13700008e+00 2.13700008e+00 2.15700006e+00
    2.19700003e+00 2.20900011e+00 2.20900011e+00 2.20900011e+00
    2.31599998e+00 0. 0. 0. 0. 2.84999990e+00 2.77399993e+00
    2.77399993e+00 2.77399993e+00 2.77399993e+00 2.77399993e+00
    1.30999994e+00 0. 0. 0. 0. 0. 0. 0. 0. 0. 0. 0. 0. 0. 0. 0. 0. 0. 0.
    0. 0. 0. 0. 0. 0. 0. 0. 0. 0. 0. 0. 0. 0. 0. 0. 0. 0. 0. 0. 0. 0. 0.
    0. 0. 0. 0. 0. 0. 0. 0. 0. 0. 0. 0. 0. 0. 0. 0. 0. 0. 0. 0. 0. 0. 0.
    0. 0. 0. 0. 0. 0. 0. 0. 0. 0. 0. 0. 0. 0. 0. 0. 0. 0. 0. 0. 0. 0. 0.
    0. 0. 0. 0. 0. 0. 0. 0. 0. 0. 0. 0. 0. 0. 0. 0. 0. 0. 0. 0. 0. 0. 0.
    0. 0. 0. 0. 0. 0. 0. 0. 0. 0. 0. 0. 0. 0. 0. 0. 0. 0. 0. 0. 0. 0. 0.
    0. 0. 0. 0. 0. 0. 0. 0. 0. 0. 0. 0. 0. 0. 0. 0. 0. 0. 0. 0. 0. 0. 0.
    0. 0. 0. 0. 0. 0. 0. 0. 0. 0. 0. 0. 0. 0. 0. 0. 0. 0. 0. 0.</data></Depth>
</opencv_storage>
