<?xml version="1.0"?>
<opencv_storage>
<Depth type_id="opencv-matrix">
  <rows>40</rows>
  <cols>40</cols>
  <dt>f</dt>
  <data>
    0. 0. 0. 0. 0. 0. 0. 0. 0. 0. 0. 0. 0. 0. 0. 0. 0. 0. 0. 0. 0. 0. 0.
    0. 0. 0. 0. 0. 0. 0. 0. 0. 0. 0. 0. 0. 0. 0. 0. 0. 0. 0. 0. 0. 0. 0.
    0. 0. 0. 0. 0. 0. 0. 0. 0. 0. 0. 0. 0. 0. 0. 0. 0. 0. 0. 0. 0. 0. 0.
    0. 0. 0. 0. 0. 0. 0. 0. 0. 0. 0. 0. 0. 0. 0. 0. 0. 0. 1.39600003e+00
    0. 0. 2.01799989e+00 2.01300001e+00 2.04800010e+00 2.25699997e+00
    2.25000000e+00 0. 0. 2.25200009e+00 2.25799990e+00 0. 0. 0. 0. 0. 0.
    0. 2.24900007e+00 0. 0. 0. 0. 1.37100005e+00 0. 0. 0. 0. 0. 0. 0. 0.
    0. 0. 0. 0. 0. 0. 0. 1.05700004e+00 2.00799990e+00 2.00600004e+00
    2.00600004e+00 2.00500011e+00 2.00500011e+00 2. 1.99600005e+00 2. 2.
    1.99199998e+00 1.99300003e+00 1.99000001e+00 1.98800004e+00
    1.99000001e+00 1.99100006e+00 1.99000001e+00 1.98899996e+00
    1.98699999e+00 1.98800004e+00 1.99000001e+00 1.98899996e+00
    1.98599994e+00 1.98300004e+00 1.97700000e+00 0. 0. 0. 0. 0. 0. 0. 0.
    0. 0. 0. 0. 0. 0. 0. 1.05700004e+00 2.00799990e+00 2.00500011e+00
    2.00500011e+00 2.00399995e+00 2.00300002e+00 2.00200009e+00 2.
    1.99800003e+00 1.99500000e+00 1.99199998e+00 1.99199998e+00
    1.99000001e+00 1.98699999e+00 1.98699999e+00 1.98699999e+00
    1.98500001e+00 1.98500001e+00 1.98699999e+00 1.98500001e+00
    1.98500001e+00 1.98300004e+00 1.98000002e+00 1.98000002e+00
    1.98000002e+00 0. 0. 0. 0. 0. 0. 0. 0. 0. 0. 0. 0. 0. 0. 0.
    1.05700004e+00 2.01300001e+00 2.00799990e+00 2.00500011e+00
    2.00399995e+00 2.00300002e+00 2.00300002e+00 2. 1.99699998e+00
    1.99500000e+00 1.99500000e+00 1.99199998e+00 1.99100006e+00
    1.99000001e+00 1.98699999e+00 1.98599994e+00 1.98599994e+00
    1.98500001e+00 1.98699999e+00 1.98500001e+00 1.98500001e+00
    1.98300004e+00 1.98099995e+00 1.98000002e+00 1.97700000e+00 0. 0. 0.
    0. 0. 0. 0. 0. 0. 0. 0. 0. 0. 0. 0. 1.05700004e+00 2.00999999e+00
    2.00799990e+00 2.00699997e+00 2.00500011e+00 2.00300002e+00
    2.00300002e+00 2.00099993e+00 1.99800003e+00 1.99500000e+00
    1.99500000e+00 1.99300003e+00 1.99199998e+00 1.99199998e+00
    1.98699999e+00 1.98800004e+00 1.98699999e+00 1.98699999e+00
    1.98699999e+00 1.98500001e+00 1.98500001e+00 1.98300004e+00
    1.98399997e+00 1.98199999e+00 1.98000002e+00 0. 0. 0. 0. 0. 0. 0. 0.
    0. 0. 0. 0. 0. 0. 0. 1.05700004e+00 2.01200008e+00 2.00799990e+00
    2.00799990e+00 2.00500011e+00 2.00500011e+00 2.00300002e+00
    2.00300002e+00 1.99800003e+00 1.99699998e+00 1.99500000e+00
    1.99399996e+00 1.99199998e+00 1.99199998e+00 1.99000001e+00
    1.99000001e+00 1.98599994e+00 1.98500001e+00 1.98699999e+00
    1.98500001e+00 1.98500001e+00 1.98300004e+00 1.98199999e+00
    1.98199999e+00 1.98000002e+00 0. 0. 0. 0. 0. 0. 0. 0. 0. 0. 0. 0. 0.
    0. 0. 1.05700004e+00 2.01300001e+00 2.01099992e+00 2.00799990e+00
    2.00699997e+00 2.00500011e+00 2.00500011e+00 2.00300002e+00
    1.99800003e+00 1.99600005e+00 1.99500000e+00 1.99500000e+00
    1.99500000e+00 1.99199998e+00 1.99000001e+00 1.99199998e+00
    1.98899996e+00 1.98699999e+00 1.98699999e+00 1.98699999e+00
    1.98500001e+00 1.98500001e+00 1.98500001e+00 1.98199999e+00
    1.98000002e+00 0. 0. 0. 0. 0. 0. 0. 0. 0. 0. 0. 0. 0. 0. 0.
    1.05700004e+00 2.01300001e+00 2.01200008e+00 2.00999999e+00
    2.00699997e+00 2.00500011e+00 2.00500011e+00 2.00300002e+00 2.
    1.99800003e+00 1.99600005e+00 1.99500000e+00 1.99500000e+00
    1.99199998e+00 1.99199998e+00 1.99199998e+00 1.98899996e+00
    1.98699999e+00 1.98699999e+00 1.98699999e+00 1.98699999e+00
    1.98500001e+00 1.98500001e+00 1.98300004e+00 1.98199999e+00 0. 0. 0.
    0. 0. 0. 0. 0. 0. 0. 0. 0. 0. 0. 0. 1.05700004e+00 2.01300001e+00
    2.01300001e+00 2.01099992e+00 2.00799990e+00 2.00500011e+00
    2.00500011e+00 2.00300002e+00 2.00099993e+00 2.00099993e+00
    1.99899995e+00 1.99600005e+00 1.99500000e+00 1.99399996e+00
    1.99300003e+00 1.99199998e+00 1.99100006e+00 1.99000001e+00
    1.98699999e+00 1.98699999e+00 1.98699999e+00 1.98500001e+00
    1.98199999e+00 1.98199999e+00 1.98199999e+00 0. 0. 0. 0. 0. 0. 0. 0.
    0. 0. 0. 0. 0. 0. 0. 1.05700004e+00 2.01500010e+00 2.01300001e+00
    2.01099992e+00 2.00900006e+00 2.00500011e+00 2.00500011e+00
    2.00300002e+00 2.00300002e+00 2.00200009e+00 1.99899995e+00
    1.99699998e+00 1.99600005e+00 1.99500000e+00 1.99199998e+00
    1.99199998e+00 1.99199998e+00 1.99100006e+00 1.99000001e+00
    1.98800004e+00 1.98699999e+00 1.98599994e+00 1.98399997e+00
    1.98199999e+00 1.98199999e+00 0. 0. 0. 0. 0. 0. 0. 0. 0. 0. 0. 0. 0.
    0. 0. 1.05700004e+00 2.01300001e+00 2.01300001e+00 2.01200008e+00
    2.00999999e+00 2.00699997e+00 2.00500011e+00 2.00300002e+00
    2.00300002e+00 2.00099993e+00 2. 1.99800003e+00 1.99800003e+00
    1.99500000e+00 1.99199998e+00 1.99199998e+00 1.99199998e+00
    1.99000001e+00 1.99000001e+00 1.98699999e+00 1.98699999e+00
    1.98699999e+00 1.98500001e+00 1.98199999e+00 1.92100000e+00 0. 0. 0.
    0. 0. 0. 0. 0. 0. 0. 0. 0. 0. 0. 0. 1.24000001e+00 2.01300001e+00
    2.01300001e+00 2.01300001e+00 2.01099992e+00 2.00799990e+00
    2.00500011e+00 2.00300002e+00 2.00300002e+00 2.00300002e+00
    2.00200009e+00 2. 1.99699998e+00 1.99500000e+00 1.99500000e+00
    1.99300003e+00 1.99199998e+00 1.99000001e+00 1.99199998e+00
    1.99000001e+00 1.98699999e+00 1.98699999e+00 1.98500001e+00
    1.98399997e+00 1.81500006e+00 0. 0. 0. 0. 0. 0. 0. 0. 0. 0. 0. 0. 0.
    0. 0. 1.94099998e+00 2.01300001e+00 2.01300001e+00 2.01300001e+00
    2.01099992e+00 2.00799990e+00 2.00500011e+00 2.00500011e+00
    2.00300002e+00 2.00300002e+00 2.00300002e+00 1.99899995e+00
    1.99500000e+00 1.99500000e+00 1.99500000e+00 1.99500000e+00
    1.99199998e+00 1.99000001e+00 1.99199998e+00 1.99000001e+00
    1.98699999e+00 1.98699999e+00 1.98399997e+00 1.98199999e+00
    1.77800000e+00 0. 0. 0. 0. 0. 0. 0. 0. 0. 0. 0. 0. 0. 0. 0.
    1.93799996e+00 2.01399994e+00 2.01300001e+00 2.01300001e+00
    2.01099992e+00 2.00999999e+00 2.00799990e+00 2.00500011e+00
    2.00300002e+00 2.00300002e+00 2.00300002e+00 1.99899995e+00
    1.99500000e+00 1.99500000e+00 1.99500000e+00 1.99500000e+00
    1.99399996e+00 1.99199998e+00 1.99000001e+00 1.98699999e+00
    1.98699999e+00 1.98699999e+00 1.98500001e+00 1.98500001e+00
    1.80200005e+00 0. 0. 0. 0. 0. 0. 0. 0. 0. 0. 0. 0. 0. 0. 0.
    1.93900001e+00 2.01600003e+00 2.01300001e+00 2.01300001e+00
    2.01200008e+00 2.00799990e+00 2.00799990e+00 2.00500011e+00
    2.00399995e+00 2.00300002e+00 2.00300002e+00 2. 1.99699998e+00
    1.99600005e+00 1.99500000e+00 1.99500000e+00 1.99199998e+00
    1.99199998e+00 1.99100006e+00 1.98899996e+00 1.98699999e+00
    1.98500001e+00 1.98500001e+00 1.98599994e+00 1.81700003e+00 0. 0. 0.
    0. 0. 0. 0. 0. 0. 0. 0. 0. 0. 0. 0. 1.94299996e+00 2.01600003e+00
    2.01300001e+00 2.01300001e+00 2.01300001e+00 2.00999999e+00
    2.00500011e+00 2.00500011e+00 2.00300002e+00 2.00300002e+00
    2.00300002e+00 2.00300002e+00 1.99899995e+00 1.99699998e+00
    1.99500000e+00 1.99500000e+00 1.99399996e+00 1.99500000e+00
    1.99500000e+00 1.99199998e+00 1.98699999e+00 1.98699999e+00
    1.98599994e+00 1.98500001e+00 1.81799996e+00 0. 0. 0. 0. 0. 0. 0. 0.
    0. 0. 0. 0. 0. 0. 0. 1.05700004e+00 2.01600003e+00 2.01500010e+00
    2.01300001e+00 2.01300001e+00 2.01099992e+00 2.00799990e+00
    2.00600004e+00 2.00399995e+00 2.00500011e+00 2.00399995e+00
    2.00099993e+00 2. 1.99699998e+00 1.99500000e+00 1.99500000e+00
    1.99399996e+00 1.99199998e+00 1.99500000e+00 1.99100006e+00
    1.99000001e+00 1.98800004e+00 1.98500001e+00 1.98500001e+00
    1.81700003e+00 0. 0. 0. 0. 0. 0. 0. 0. 0. 0. 0. 0. 0. 0. 0.
    1.05700004e+00 2.01699996e+00 2.01399994e+00 2.01300001e+00
    2.01300001e+00 2.01300001e+00 2.00799990e+00 2.00799990e+00
    2.00500011e+00 2.00399995e+00 2.00300002e+00 2.00300002e+00 2.
    1.99699998e+00 1.99699998e+00 1.99600005e+00 1.99399996e+00
    1.99199998e+00 1.99500000e+00 1.99500000e+00 1.99000001e+00
    1.98899996e+00 1.98699999e+00 1.98500001e+00 1.98000002e+00 0. 0. 0.
    0. 0. 0. 0. 0. 0. 0. 0. 0. 0. 0. 0. 1.94599998e+00 2.01699996e+00
    2.01600003e+00 2.01300001e+00 2.01300001e+00 2.01300001e+00
    2.00799990e+00 2.00799990e+00 2.00500011e+00 2.00500011e+00
    2.00500011e+00 2.00300002e+00 2.00300002e+00 2. 1.99699998e+00
    1.99699998e+00 1.99500000e+00 1.99500000e+00 1.99500000e+00
    1.99199998e+00 1.99000001e+00 1.99000001e+00 1.98699999e+00
    1.98500001e+00 1.96300006e+00 0. 0. 0. 0. 0. 0. 0. 0. 0. 0. 0. 0. 0.
    0. 0. 2.01300001e+00 2.01900005e+00 2.01900005e+00 2.01600003e+00
    2.01300001e+00 2.01300001e+00 2.01099992e+00 2.00799990e+00
    2.00600004e+00 2.00500011e+00 2.00500011e+00 2.00500011e+00
    2.00300002e+00 2.00300002e+00 2. 1.99699998e+00 1.99500000e+00
    1.99500000e+00 1.99500000e+00 1.99199998e+00 1.99199998e+00
    1.99199998e+00 1.98699999e+00 1.98500001e+00 1.81900001e+00 0. 0. 0.
    0. 0. 0. 0. 0. 0. 0. 0. 0. 0. 0. 0. 1.94099998e+00 2.01600003e+00
    2.01799989e+00 2.01600003e+00 2.01300001e+00 2.01300001e+00
    2.01099992e+00 2.01099992e+00 2.00799990e+00 2.00500011e+00
    2.00500011e+00 2.00500011e+00 2.00300002e+00 2.00099993e+00 2.
    1.99899995e+00 1.99699998e+00 1.99500000e+00 1.99500000e+00
    1.99399996e+00 1.99300003e+00 1.99100006e+00 1.98699999e+00
    1.98699999e+00 1.81900001e+00 0. 0. 0. 0. 0. 0. 0. 0. 0. 0. 0. 0. 0.
    0. 0. 1.94400001e+00 2.01900005e+00 2.01900005e+00 2.01600003e+00
    2.01500010e+00 2.01300001e+00 2.01099992e+00 2.01099992e+00
    2.00900006e+00 2.00500011e+00 2.00500011e+00 2.00300002e+00
    2.00300002e+00 2.00300002e+00 2.00200009e+00 2. 1.99899995e+00
    1.99500000e+00 1.99600005e+00 1.99500000e+00 1.99199998e+00
    1.99199998e+00 1.98699999e+00 1.98699999e+00 1.05700004e+00 0. 0. 0.
    0. 0. 0. 0. 0. 0. 0. 0. 0. 0. 0. 0. 1.98099995e+00 2.02099991e+00
    2.01799989e+00 2.01699996e+00 2.01600003e+00 2.01300001e+00
    2.01300001e+00 2.01200008e+00 2.01099992e+00 2.00900006e+00
    2.00399995e+00 2.00300002e+00 2.00300002e+00 2.00300002e+00 2. 2.
    1.99800003e+00 1.99500000e+00 1.99699998e+00 1.99600005e+00
    1.99500000e+00 1.99300003e+00 1.99000001e+00 1.98699999e+00
    1.98500001e+00 0. 0. 0. 0. 0. 0. 0. 0. 0. 0. 0. 0. 0. 0. 0.
    2.01900005e+00 2.02399993e+00 2.02099991e+00 2.01900005e+00
    2.01600003e+00 2.01399994e+00 2.01300001e+00 2.01300001e+00
    2.01099992e+00 2.01099992e+00 2.00799990e+00 2.00500011e+00
    2.00500011e+00 2.00300002e+00 2.00099993e+00 2. 1.99699998e+00
    1.99500000e+00 1.99699998e+00 1.99699998e+00 1.99500000e+00
    1.99500000e+00 1.98899996e+00 1.98599994e+00 1.98500001e+00 0. 0. 0.
    0. 0. 0. 0. 0. 0. 0. 0. 0. 0. 0. 0. 2.00799990e+00 2.02399993e+00
    2.01900005e+00 2.01900005e+00 2.01600003e+00 2.01600003e+00
    2.01300001e+00 2.01300001e+00 2.01200008e+00 2.00799990e+00
    2.00999999e+00 2.00500011e+00 2.00500011e+00 2.00300002e+00
    2.00300002e+00 2.00300002e+00 2. 1.99699998e+00 1.99699998e+00
    1.99699998e+00 1.99500000e+00 1.99300003e+00 1.99100006e+00
    1.98899996e+00 1.81700003e+00 0. 0. 0. 0. 0. 0. 0. 0. 0. 0. 0. 0. 0.
    0. 0. 1.95000005e+00 2.02399993e+00 2.02099991e+00 2.02099991e+00
    2.01600003e+00 2.01600003e+00 2.01600003e+00 2.01300001e+00
    2.01300001e+00 2.00900006e+00 2.00999999e+00 2.00500011e+00
    2.00500011e+00 2.00300002e+00 2.00300002e+00 2.00300002e+00 2.
    1.99699998e+00 1.99699998e+00 1.99699998e+00 1.99500000e+00
    1.99199998e+00 1.99000001e+00 1.98899996e+00 1.07599998e+00 0. 0. 0.
    0. 0. 0. 0. 0. 0. 0. 0. 0. 0. 0. 0. 2.02099991e+00 2.02399993e+00
    2.02399993e+00 2.02099991e+00 2.01600003e+00 2.01600003e+00
    2.01600003e+00 2.01600003e+00 2.01300001e+00 2.00900006e+00
    2.00799990e+00 2.00500011e+00 2.00500011e+00 2.00500011e+00
    2.00300002e+00 2.00300002e+00 2. 2. 2. 1.99699998e+00 1.99500000e+00
    1.99300003e+00 1.99000001e+00 1.99000001e+00 1.81900001e+00 0. 0. 0.
    0. 0. 0. 0. 0. 0. 0. 0. 0. 0. 0. 0. 2.02099991e+00 2.02500010e+00
    2.02399993e+00 2.02099991e+00 2.01799989e+00 2.01600003e+00
    2.01600003e+00 2.01399994e+00 2.01300001e+00 2.01200008e+00
    2.00999999e+00 2.00799990e+00 2.00500011e+00 2.00500011e+00
    2.00300002e+00 2.00300002e+00 2. 2. 2. 1.99699998e+00 1.99500000e+00
    1.99500000e+00 1.99199998e+00 1.99000001e+00 1.81900001e+00 0. 0. 0.
    0. 0. 0. 0. 0. 0. 0. 0. 0. 0. 0. 0. 2.02699995e+00 2.02699995e+00
    2.02399993e+00 2.02099991e+00 2.01900005e+00 2.01600003e+00
    2.01600003e+00 2.01500010e+00 2.01300001e+00 2.01300001e+00
    2.01099992e+00 2.01099992e+00 2.00799990e+00 2.00500011e+00
    2.00399995e+00 2.00300002e+00 2. 1.99899995e+00 1.99899995e+00
    1.99699998e+00 1.99699998e+00 1.99500000e+00 1.99500000e+00
    1.99100006e+00 1.39800000e+00 0. 0. 0. 0. 0. 0. 0. 0. 0. 0. 0. 0. 0.
    0. 0. 2.02399993e+00 2.02699995e+00 2.02399993e+00 2.02099991e+00
    2.01600003e+00 2.01600003e+00 2.01600003e+00 2.01500010e+00
    2.01399994e+00 2.01300001e+00 2.01099992e+00 2.00799990e+00
    2.00699997e+00 2.00500011e+00 2.00300002e+00 2.00300002e+00
    2.00200009e+00 2. 2. 1.99800003e+00 1.99699998e+00 1.99500000e+00
    1.99500000e+00 1.99300003e+00 1.05700004e+00 0. 0. 0. 0. 0. 0. 0. 0.
    0. 0. 0. 0. 0. 0. 0. 2.02399993e+00 2.02399993e+00 2.02200007e+00
    2.02099991e+00 2.01900005e+00 2.01900005e+00 2.01600003e+00
    2.01500010e+00 2.01300001e+00 2.01200008e+00 2.00799990e+00
    2.00799990e+00 2.00600004e+00 2.00500011e+00 2.00300002e+00
    2.00300002e+00 2.00300002e+00 2.00200009e+00 2.00099993e+00
    1.99899995e+00 1.99699998e+00 1.99500000e+00 1.99300003e+00
    1.99399996e+00 1.82599998e+00 0. 0. 0. 0. 0. 0. 0. 0. 0. 0. 0. 0. 0.
    0. 0. 2.02399993e+00 2.02399993e+00 2.02200007e+00 2.01900005e+00
    2.02099991e+00 2.02099991e+00 2.01600003e+00 2.01399994e+00
    2.01300001e+00 2.01099992e+00 2.00799990e+00 2.01099992e+00
    2.01099992e+00 2.00500011e+00 2.00500011e+00 2.00500011e+00
    2.00200009e+00 2. 2. 1.99699998e+00 1.99699998e+00 1.99500000e+00
    1.99199998e+00 1.99100006e+00 1.05700004e+00 0. 0. 0. 0. 0. 0. 0. 0.
    0. 0. 0. 0. 0. 0. 0. 2.02399993e+00 2.02699995e+00 2.02399993e+00
    2.01799989e+00 2.01699996e+00 2.02099991e+00 2.01900005e+00
    2.01600003e+00 2.01399994e+00 2.01300001e+00 2.01300001e+00
    2.01099992e+00 2.00799990e+00 2.00500011e+00 2.00500011e+00
    2.00300002e+00 2.00300002e+00 2.00099993e+00 2.00300002e+00 2. 2.
    1.99699998e+00 1.99500000e+00 1.99000001e+00 1.05700004e+00 0. 0. 0.
    0. 0. 0. 0. 0. 0. 0. 0. 0. 0. 0. 0. 2.02399993e+00 2.02699995e+00
    2.02399993e+00 2.02200007e+00 2.01900005e+00 2.02099991e+00
    2.02099991e+00 2.01600003e+00 2.01399994e+00 2.01300001e+00
    2.00999999e+00 2.00900006e+00 2.00799990e+00 2.00500011e+00
    2.00500011e+00 2.00399995e+00 2.00300002e+00 2.00399995e+00
    2.00300002e+00 2. 1.99899995e+00 1.99699998e+00 1.99500000e+00
    1.99500000e+00 1.05700004e+00 0. 0. 0. 0. 0. 0. 0. 0. 0. 0. 0. 0. 0.
    0. 0. 1.42400002e+00 2.02699995e+00 2.02500010e+00 2.01999998e+00
    2.01900005e+00 2.01900005e+00 2.02099991e+00 2.01900005e+00
    2.01600003e+00 2.01300001e+00 2.01200008e+00 2.01099992e+00
    2.00799990e+00 2.00799990e+00 2.00500011e+00 2.00399995e+00
    2.00300002e+00 2.00099993e+00 2.00399995e+00 2.00300002e+00 2.
    1.99699998e+00 1.99699998e+00 1.99500000e+00 1.05700004e+00 0. 0. 0.
    0. 0. 0. 0. 0. 0. 0. 0. 0. 0. 0. 0. 1.05700004e+00 1.05700004e+00
    1.05700004e+00 1.05700004e+00 2.01799989e+00 2.01900005e+00
    2.02099991e+00 2.01600003e+00 2.01600003e+00 2.01300001e+00
    2.01300001e+00 2.01300001e+00 2.01099992e+00 2.00799990e+00
    2.00500011e+00 2.00500011e+00 2.00300002e+00 2.00399995e+00
    2.00500011e+00 2.00300002e+00 2. 1.99699998e+00 1.99699998e+00
    1.99500000e+00 1.05700004e+00 0. 0. 0. 0. 0. 0. 0. 0. 0. 0. 0. 0. 0.
    0. 0. 0. 0. 0. 0. 0. 0. 0. 0. 0. 0. 0. 0. 0. 0. 0. 0. 0. 0. 0. 0. 0.
    0. 0. 0. 0. 0. 0. 0. 0. 0. 0. 0. 0. 0. 0. 0. 0. 0. 0. 0. 0. 0. 0. 0.
    0. 0. 0. 0. 0. 0. 0. 0. 0. 0. 0. 0. 0. 0. 0. 0. 0. 0. 0. 0. 0. 0. 0.
    0. 0. 0. 0. 0. 0.</data></Depth>
</opencv_storage>
