<?xml version="1.0"?>
<opencv_storage>
<Depth type_id="opencv-matrix">
  <rows>40</rows>
  <cols>40</cols>
  <dt>f</dt>
  <data>
    0. 0. 0. 0. 0. 0. 0. 0. 0. 0. 0. 0. 0. 0. 0. 0. 0. 0. 0. 0. 0. 0. 0.
    0. 0. 0. 0. 0. 0. 0. 0. 0. 0. 0. 0. 0. 0. 0. 0. 0. 0. 0. 0. 0. 0. 0.
    0. 0. 0. 0. 0. 0. 0. 0. 0. 0. 0. 0. 0. 0. 0. 0. 0. 0. 0. 0. 0. 0. 0.
    0. 0. 0. 0. 0. 0. 0. 0. 0. 0. 0. 0. 0. 0. 0. 0. 0. 0. 1.24600005e+00
    1.24600005e+00 1.24600005e+00 1.24600005e+00 1.91799998e+00
    2.02099991e+00 2.01799989e+00 2.02300000e+00 2.03200006e+00
    1.97200000e+00 1.24600005e+00 1.45799994e+00 1.33000004e+00
    2.33699989e+00 0. 0. 0. 0. 0. 1.24600005e+00 0. 0. 0. 0.
    1.24600005e+00 0. 0. 0. 0. 0. 0. 0. 0. 0. 0. 0. 0. 0. 0. 0.
    1.24600005e+00 1.24600005e+00 1.84000003e+00 1.84000003e+00
    1.96000004e+00 1.95899999e+00 1.96300006e+00 1.96399999e+00
    1.96500003e+00 1.79900002e+00 1.97500002e+00 1.96899998e+00
    1.85699999e+00 1.53999996e+00 1.86300004e+00 1.85899997e+00
    1.88199997e+00 1.98800004e+00 1.98399997e+00 1.24600005e+00
    1.72800004e+00 2.33899999e+00 1.86300004e+00 1.24600005e+00
    1.24600005e+00 1.77600002e+00 0. 0. 0. 0. 0. 0. 0. 0. 0. 0. 0. 0. 0.
    0. 1.24600005e+00 1.24600005e+00 1.95700002e+00 1.95700002e+00
    1.95700002e+00 1.95700002e+00 1.95799994e+00 1.95700002e+00
    1.95700002e+00 1.95700002e+00 1.95700002e+00 1.95599997e+00
    1.95599997e+00 1.96000004e+00 1.96099997e+00 1.96300006e+00
    1.96500003e+00 1.96700001e+00 1.97000003e+00 1.97399998e+00
    1.97399998e+00 1.97500002e+00 1.97599995e+00 1.97700000e+00
    1.97899997e+00 1.62300003e+00 0. 0. 0. 0. 0. 0. 0. 0. 0. 0. 0. 0. 0.
    0. 1.24600005e+00 1.24600005e+00 1.96000004e+00 1.95899999e+00
    1.95899999e+00 1.95899999e+00 1.95899999e+00 1.95899999e+00
    1.95899999e+00 1.95899999e+00 1.95899999e+00 1.96000004e+00
    1.95700002e+00 1.95899999e+00 1.96000004e+00 1.96200001e+00
    1.96200001e+00 1.96099997e+00 1.96300006e+00 1.96300006e+00
    1.96500003e+00 1.96300006e+00 1.96399999e+00 1.96500003e+00
    1.96500003e+00 1.96599996e+00 0. 0. 0. 0. 0. 0. 0. 0. 0. 0. 0. 0. 0.
    0. 1.24600005e+00 1.24600005e+00 1.96200001e+00 1.96000004e+00
    1.96200001e+00 1.96200001e+00 1.96200001e+00 1.96200001e+00
    1.96200001e+00 1.96200001e+00 1.96200001e+00 1.96200001e+00
    1.96200001e+00 1.96300006e+00 1.96399999e+00 1.96399999e+00
    1.96300006e+00 1.96500003e+00 1.96500003e+00 1.96599996e+00
    1.96500003e+00 1.96599996e+00 1.96800005e+00 1.96800005e+00
    1.96800005e+00 1.97000003e+00 0. 0. 0. 0. 0. 0. 0. 0. 0. 0. 0. 0. 0.
    0. 1.24600005e+00 1.28400004e+00 1.96599996e+00 1.96599996e+00
    1.96500003e+00 1.96500003e+00 1.96399999e+00 1.96300006e+00
    1.96500003e+00 1.96300006e+00 1.96300006e+00 1.96300006e+00
    1.96300006e+00 1.96399999e+00 1.96599996e+00 1.96599996e+00
    1.96599996e+00 1.96800005e+00 1.96899998e+00 1.96899998e+00
    1.96899998e+00 1.96899998e+00 1.96899998e+00 1.97099996e+00
    1.97000003e+00 1.97300005e+00 0. 0. 0. 0. 0. 0. 0. 0. 0. 0. 0. 0. 0.
    0. 1.24600005e+00 1.84800005e+00 1.96800005e+00 1.96800005e+00
    1.96800005e+00 1.96800005e+00 1.96800005e+00 1.96700001e+00
    1.96800005e+00 1.96700001e+00 1.96700001e+00 1.96700001e+00
    1.96599996e+00 1.96800005e+00 1.96899998e+00 1.96899998e+00
    1.96899998e+00 1.97000003e+00 1.97000003e+00 1.97099996e+00
    1.97099996e+00 1.97099996e+00 1.97399998e+00 1.97399998e+00
    1.97500002e+00 1.97599995e+00 0. 0. 0. 0. 0. 0. 0. 0. 0. 0. 0. 0. 0.
    0. 1.24600005e+00 1.85000002e+00 1.96899998e+00 1.96899998e+00
    1.96899998e+00 1.96899998e+00 1.96899998e+00 1.96899998e+00
    1.96899998e+00 1.96899998e+00 1.96899998e+00 1.96899998e+00
    1.96899998e+00 1.97200000e+00 1.97300005e+00 1.97300005e+00
    1.97300005e+00 1.97300005e+00 1.97300005e+00 1.97300005e+00
    1.97399998e+00 1.97399998e+00 1.97500002e+00 1.97599995e+00
    1.97500002e+00 1.97700000e+00 0. 0. 0. 0. 0. 0. 0. 0. 0. 0. 0. 0. 0.
    0. 1.24600005e+00 1.97399998e+00 1.97300005e+00 1.97200000e+00
    1.97200000e+00 1.97399998e+00 1.97300005e+00 1.97200000e+00
    1.97399998e+00 1.97300005e+00 1.97200000e+00 1.97300005e+00
    1.97399998e+00 1.97500002e+00 1.97599995e+00 1.97599995e+00
    1.97599995e+00 1.97700000e+00 1.97700000e+00 1.97700000e+00
    1.97700000e+00 1.97700000e+00 1.97700000e+00 1.97700000e+00
    1.97700000e+00 1.98000002e+00 0. 0. 0. 0. 0. 0. 0. 0. 0. 0. 0. 0. 0.
    0. 1.24600005e+00 1.76199996e+00 1.97599995e+00 1.97599995e+00
    1.97500002e+00 1.97599995e+00 1.97500002e+00 1.97599995e+00
    1.97500002e+00 1.97500002e+00 1.97500002e+00 1.97500002e+00
    1.97599995e+00 1.97700000e+00 1.97700000e+00 1.97800004e+00
    1.97800004e+00 1.97899997e+00 1.97899997e+00 1.98000002e+00
    1.98000002e+00 1.98099995e+00 1.98199999e+00 1.98199999e+00
    1.98199999e+00 1.93700004e+00 0. 0. 0. 0. 0. 0. 0. 0. 0. 0. 0. 0. 0.
    0. 1.24600005e+00 1.98500001e+00 1.97899997e+00 1.97899997e+00
    1.97899997e+00 1.97700000e+00 1.97700000e+00 1.97700000e+00
    1.97899997e+00 1.97700000e+00 1.97700000e+00 1.97800004e+00
    1.97899997e+00 1.97899997e+00 1.98000002e+00 1.97899997e+00
    1.98199999e+00 1.98199999e+00 1.98199999e+00 1.98199999e+00
    1.98199999e+00 1.98399997e+00 1.98399997e+00 1.98399997e+00
    1.98399997e+00 1.83399999e+00 0. 0. 0. 0. 0. 0. 0. 0. 0. 0. 0. 0. 0.
    0. 1.24600005e+00 1.86300004e+00 1.98099995e+00 1.98000002e+00
    1.98000002e+00 1.98000002e+00 1.98000002e+00 1.98099995e+00
    1.98199999e+00 1.98099995e+00 1.98000002e+00 1.98199999e+00
    1.98099995e+00 1.98199999e+00 1.98399997e+00 1.98199999e+00
    1.98399997e+00 1.98399997e+00 1.98399997e+00 1.98500001e+00
    1.98599994e+00 1.98500001e+00 1.98699999e+00 1.98699999e+00
    1.98800004e+00 1.83500004e+00 0. 0. 0. 0. 0. 0. 0. 0. 0. 0. 0. 0. 0.
    0. 1.24600005e+00 1.86300004e+00 1.98399997e+00 1.98199999e+00
    1.98199999e+00 1.98199999e+00 1.98399997e+00 1.98399997e+00
    1.98199999e+00 1.98199999e+00 1.98199999e+00 1.98399997e+00
    1.98399997e+00 1.98699999e+00 1.98699999e+00 1.98800004e+00
    1.98699999e+00 1.98699999e+00 1.98699999e+00 1.98699999e+00
    1.98800004e+00 1.98800004e+00 1.98800004e+00 1.98800004e+00
    1.99000001e+00 1.24600005e+00 0. 0. 0. 0. 0. 0. 0. 0. 0. 0. 0. 0. 0.
    0. 1.24600005e+00 1.86300004e+00 1.98599994e+00 1.98500001e+00
    1.98500001e+00 1.98699999e+00 1.98599994e+00 1.98800004e+00
    1.98699999e+00 1.98699999e+00 1.98800004e+00 1.98699999e+00
    1.98699999e+00 1.98899996e+00 1.98800004e+00 1.98800004e+00
    1.99000001e+00 1.99000001e+00 1.99000001e+00 1.99000001e+00
    1.99000001e+00 1.99199998e+00 1.99100006e+00 1.99300003e+00
    1.99100006e+00 1.24600005e+00 0. 0. 0. 0. 0. 0. 0. 0. 0. 0. 0. 0. 0.
    0. 1.24600005e+00 1.98800004e+00 1.98800004e+00 1.98800004e+00
    1.98800004e+00 1.98800004e+00 1.98800004e+00 1.98800004e+00
    1.98800004e+00 1.98800004e+00 1.98800004e+00 1.98800004e+00
    1.98800004e+00 1.98899996e+00 1.99199998e+00 1.99199998e+00
    1.99199998e+00 1.99199998e+00 1.99300003e+00 1.99300003e+00
    1.99399996e+00 1.99199998e+00 1.99500000e+00 1.99500000e+00
    1.99600005e+00 1.24600005e+00 0. 0. 0. 0. 0. 0. 0. 0. 0. 0. 0. 0. 0.
    0. 1.24600005e+00 1.99100006e+00 1.99199998e+00 1.99100006e+00
    1.99100006e+00 1.99100006e+00 1.99199998e+00 1.99300003e+00
    1.99300003e+00 1.99199998e+00 1.99100006e+00 1.99100006e+00
    1.99199998e+00 1.99300003e+00 1.99399996e+00 1.99399996e+00
    1.99600005e+00 1.99600005e+00 1.99600005e+00 1.99600005e+00
    1.99600005e+00 1.99500000e+00 1.99699998e+00 1.99699998e+00
    1.99800003e+00 1.24600005e+00 0. 0. 0. 0. 0. 0. 0. 0. 0. 0. 0. 0. 0.
    0. 1.24600005e+00 1.99300003e+00 1.99399996e+00 1.99500000e+00
    1.99300003e+00 1.99500000e+00 1.99300003e+00 1.99500000e+00
    1.99500000e+00 1.99500000e+00 1.99500000e+00 1.99500000e+00
    1.99500000e+00 1.99600005e+00 1.99600005e+00 1.99600005e+00
    1.99600005e+00 1.99800003e+00 1.99800003e+00 1.99800003e+00
    1.99800003e+00 1.99600005e+00 1.99800003e+00 1.99800003e+00 2.
    1.24600005e+00 0. 0. 0. 0. 0. 0. 0. 0. 0. 0. 0. 0. 0. 0.
    1.24600005e+00 1.99600005e+00 1.99500000e+00 1.99500000e+00
    1.99500000e+00 1.99600005e+00 1.99699998e+00 1.99600005e+00
    1.99699998e+00 1.99699998e+00 1.99899995e+00 1.99800003e+00
    1.99899995e+00 2. 2.00099993e+00 2.00099993e+00 2.00099993e+00
    2.00099993e+00 2.00099993e+00 2.00099993e+00 2.00099993e+00
    2.00099993e+00 2.00200009e+00 2.00300002e+00 2.00300002e+00
    1.24600005e+00 0. 0. 0. 0. 0. 0. 0. 0. 0. 0. 0. 0. 0. 0.
    1.24600005e+00 1.99800003e+00 1.99800003e+00 2. 1.99899995e+00 2. 2.
    2. 2. 2. 2. 2.00099993e+00 2.00099993e+00 2.00099993e+00
    2.00300002e+00 2.00300002e+00 2.00500011e+00 2.00399995e+00
    2.00399995e+00 2.00600004e+00 2.00399995e+00 2.00600004e+00
    2.00500011e+00 2.00600004e+00 1.43200004e+00 1.24600005e+00 0. 0. 0.
    0. 0. 0. 0. 0. 0. 0. 0. 0. 0. 0. 1.42799997e+00 2.00099993e+00
    2.00200009e+00 2.00099993e+00 2.00099993e+00 2. 2.00099993e+00
    2.00099993e+00 2.00300002e+00 2.00099993e+00 2.00200009e+00
    2.00500011e+00 2.00500011e+00 2.00600004e+00 2.00699997e+00
    2.00500011e+00 2.00699997e+00 2.00799990e+00 2.00799990e+00
    2.00799990e+00 2.00799990e+00 2.00799990e+00 2.00799990e+00
    2.00799990e+00 1.24600005e+00 1.82500005e+00 0. 0. 0. 0. 0. 0. 0. 0.
    0. 0. 0. 0. 0. 0. 1.36800003e+00 2.00300002e+00 2.00699997e+00
    2.00600004e+00 2.00500011e+00 2.00600004e+00 2.00600004e+00
    2.00699997e+00 2.00600004e+00 2.00600004e+00 2.00699997e+00
    2.00699997e+00 2.00699997e+00 2.00799990e+00 2.00799990e+00
    2.00900006e+00 2.00900006e+00 2.00999999e+00 2.00999999e+00
    2.00999999e+00 2.00999999e+00 2.00900006e+00 2.00999999e+00
    2.01099992e+00 1.24600005e+00 1.81400001e+00 0. 0. 0. 0. 0. 0. 0. 0.
    0. 0. 0. 0. 0. 0. 1.45400000e+00 2.00500011e+00 2.00699997e+00
    2.00799990e+00 2.00799990e+00 2.00799990e+00 2.00799990e+00
    2.00799990e+00 2.00799990e+00 2.00799990e+00 2.00799990e+00
    2.00799990e+00 2.00999999e+00 2.00999999e+00 2.01200008e+00
    2.01200008e+00 2.01200008e+00 2.01300001e+00 2.01300001e+00
    2.01300001e+00 2.01200008e+00 2.01200008e+00 2.01399994e+00
    2.01500010e+00 1.24600005e+00 0. 0. 0. 0. 0. 0. 0. 0. 0. 0. 0. 0. 0.
    0. 0. 2.01300001e+00 2.00799990e+00 2.00900006e+00 2.00900006e+00
    2.00999999e+00 2.01099992e+00 2.01099992e+00 2.01099992e+00
    2.01099992e+00 2.01099992e+00 2.01300001e+00 2.01300001e+00
    2.01300001e+00 2.01300001e+00 2.01500010e+00 2.01500010e+00
    2.01600003e+00 2.01500010e+00 2.01500010e+00 2.01500010e+00
    2.01600003e+00 2.01600003e+00 2.01600003e+00 2.01300001e+00
    1.24600005e+00 2.91700006e+00 0. 0. 0. 0. 0. 0. 0. 0. 0. 0. 0. 0. 0.
    0. 2.01399994e+00 2.00999999e+00 2.01200008e+00 2.01300001e+00
    2.01300001e+00 2.01300001e+00 2.01300001e+00 2.01300001e+00
    2.01300001e+00 2.01399994e+00 2.01500010e+00 2.01500010e+00
    2.01500010e+00 2.01600003e+00 2.01699996e+00 2.01900005e+00
    2.01900005e+00 2.01699996e+00 2.01699996e+00 2.01999998e+00
    2.01999998e+00 2.01900005e+00 2.01900005e+00 1.95000005e+00
    1.24600005e+00 0. 0. 0. 0. 0. 0. 0. 0. 0. 0. 0. 0. 0. 0. 0.
    1.46000004e+00 2.01300001e+00 2.01500010e+00 2.01500010e+00
    2.01500010e+00 2.01500010e+00 2.01500010e+00 2.01600003e+00
    2.01799989e+00 2.01600003e+00 2.01799989e+00 2.01900005e+00
    2.01699996e+00 2.01999998e+00 2.02099991e+00 2.02099991e+00
    2.02200007e+00 2.02099991e+00 2.02099991e+00 2.02200007e+00
    2.02200007e+00 2.02200007e+00 2.02200007e+00 1.95200002e+00
    1.24600005e+00 0. 0. 0. 0. 0. 0. 0. 0. 0. 0. 0. 0. 0. 0. 0.
    2.01900005e+00 2.01900005e+00 2.01999998e+00 2.01900005e+00
    2.01999998e+00 2.01999998e+00 2.01999998e+00 2.01999998e+00
    2.01999998e+00 2.02099991e+00 2.02200007e+00 2.01999998e+00
    2.02200007e+00 2.02099991e+00 2.02399993e+00 2.02399993e+00
    2.02399993e+00 2.02399993e+00 2.02399993e+00 2.02500010e+00
    2.02600002e+00 2.02399993e+00 2.02600002e+00 1.24600005e+00
    1.24600005e+00 0. 0. 0. 0. 0. 0. 0. 0. 0. 0. 0. 0. 0. 0. 0.
    2.01999998e+00 2.01999998e+00 2.02099991e+00 2.02200007e+00
    2.02200007e+00 2.02399993e+00 2.02200007e+00 2.02399993e+00
    2.02399993e+00 2.02399993e+00 2.02600002e+00 2.02500010e+00
    2.02399993e+00 2.02600002e+00 2.02699995e+00 2.02699995e+00
    2.02699995e+00 2.02900004e+00 2.02900004e+00 2.02900004e+00
    2.02900004e+00 2.02699995e+00 2.02900004e+00 1.24600005e+00
    1.24600005e+00 0. 0. 0. 0. 0. 0. 0. 0. 0. 0. 0. 0. 0. 0. 0.
    2.02500010e+00 2.01999998e+00 2.02300000e+00 2.02500010e+00
    2.02600002e+00 2.02600002e+00 2.02600002e+00 2.02600002e+00
    2.02699995e+00 2.02800012e+00 2.02699995e+00 2.02699995e+00
    2.02800012e+00 2.02800012e+00 2.02999997e+00 2.03200006e+00
    2.03099990e+00 2.02999997e+00 2.03099990e+00 2.03099990e+00
    2.03099990e+00 2.02999997e+00 2.02999997e+00 1.24600005e+00
    2.77699995e+00 0. 0. 0. 0. 0. 0. 0. 0. 0. 0. 0. 0. 0. 0. 0.
    2.02699995e+00 2.02600002e+00 2.02699995e+00 2.02699995e+00
    2.02800012e+00 2.02900004e+00 2.02900004e+00 2.02900004e+00
    2.02900004e+00 2.03099990e+00 2.03099990e+00 2.03099990e+00
    2.03099990e+00 2.03200006e+00 2.03299999e+00 2.03500009e+00
    2.03099990e+00 2.03399992e+00 2.03500009e+00 2.03500009e+00
    2.03500009e+00 2.03500009e+00 2.03500009e+00 1.24600005e+00 0. 0. 0.
    0. 0. 0. 0. 0. 0. 0. 0. 0. 0. 0. 0. 0. 2.02800012e+00 2.02900004e+00
    2.02999997e+00 2.02999997e+00 2.02999997e+00 2.03200006e+00
    2.02999997e+00 2.03200006e+00 2.03399992e+00 2.03500009e+00
    2.03299999e+00 2.03399992e+00 2.03500009e+00 2.03399992e+00
    2.03600001e+00 2.03600001e+00 2.03699994e+00 2.03699994e+00
    2.03800011e+00 2.03699994e+00 2.03699994e+00 2.03699994e+00
    2.03800011e+00 1.31500006e+00 0. 0. 0. 0. 0. 0. 0. 0. 0. 0. 0. 0. 0.
    0. 0. 0. 2.03399992e+00 2.03299999e+00 2.03399992e+00 2.03500009e+00
    2.03600001e+00 2.03600001e+00 2.03500009e+00 2.03500009e+00
    2.03600001e+00 2.03600001e+00 2.03500009e+00 2.03600001e+00
    2.03600001e+00 2.03800011e+00 2.03999996e+00 2.03800011e+00
    2.03999996e+00 2.03999996e+00 2.03999996e+00 2.03999996e+00
    2.03999996e+00 2.03999996e+00 2.04200006e+00 1.40199995e+00
    2.98200011e+00 2.99399996e+00 0. 0. 0. 0. 0. 0. 0. 0. 0. 0. 0. 0. 0.
    0. 2.03500009e+00 2.03299999e+00 2.03500009e+00 2.03600001e+00
    2.03699994e+00 2.03699994e+00 2.03699994e+00 2.03600001e+00
    2.03699994e+00 2.03800011e+00 2.03699994e+00 2.03800011e+00
    2.03800011e+00 2.04099989e+00 2.04299998e+00 2.04299998e+00
    2.04399991e+00 2.04299998e+00 2.04299998e+00 2.04299998e+00
    2.04399991e+00 2.04399991e+00 2.04099989e+00 2.23699999e+00
    2.93000007e+00 2.94700003e+00 0. 0. 0. 0. 0. 0. 0. 0. 0. 0. 0. 0. 0.
    0. 2.03800011e+00 2.03600001e+00 2.03900003e+00 2.03999996e+00
    2.03999996e+00 2.03999996e+00 2.04200006e+00 2.04200006e+00
    2.04200006e+00 2.03999996e+00 2.04200006e+00 2.04200006e+00
    2.04399991e+00 2.04500008e+00 2.04600000e+00 2.04600000e+00
    2.04600000e+00 2.04600000e+00 2.04399991e+00 2.04399991e+00
    2.04600000e+00 2.04600000e+00 2.04900002e+00 2.93600011e+00
    2.92600012e+00 2.91499996e+00 0. 0. 0. 0. 0. 0. 0. 0. 0. 0. 0. 0. 0.
    0. 2.04099989e+00 2.03999996e+00 2.04299998e+00 2.04299998e+00
    2.04200006e+00 2.04200006e+00 2.04299998e+00 2.04399991e+00
    2.04500008e+00 2.04500008e+00 2.04399991e+00 2.04800010e+00
    2.04699993e+00 2.04699993e+00 2.04699993e+00 2.04800010e+00
    2.04900002e+00 2.04999995e+00 2.04900002e+00 2.04900002e+00
    2.04900002e+00 2.04800010e+00 1.51800001e+00 2.96399999e+00
    2.94099998e+00 2.91599989e+00 0. 0. 0. 0. 0. 0. 0. 0. 0. 0. 0. 0. 0.
    0. 2.33200002e+00 2.43000007e+00 2.30399990e+00 2.41400003e+00
    2.12199998e+00 2.14000010e+00 2.13899994e+00 2.15300012e+00
    2.14299989e+00 2.14599991e+00 2.14400005e+00 2.14400005e+00
    1.27900004e+00 1.24600005e+00 1.87399995e+00 1.87899995e+00
    2.19899988e+00 2.38299990e+00 2.36899996e+00 2.11800003e+00
    2.11800003e+00 2.04999995e+00 1.75000000e+00 2.78999996e+00
    2.36899996e+00 2.36999989e+00 0. 0. 0. 0. 0. 0. 0. 0. 0. 0. 0. 0. 0.
    0. 2.41100001e+00 2.43899989e+00 2.38199997e+00 2.37899995e+00
    1.78699994e+00 2.11899996e+00 2.12599993e+00 2.01600003e+00
    2.13400006e+00 2.12800002e+00 2.12800002e+00 2.12800002e+00
    1.27900004e+00 1.24600005e+00 1.24600005e+00 1.24600005e+00
    1.24600005e+00 2.36999989e+00 2.35400009e+00 2.34400010e+00
    2.34100008e+00 2.36999989e+00 2.36999989e+00 2.36800003e+00
    2.36899996e+00 2.80500007e+00 0. 0. 0. 0. 0. 0. 0. 0. 0. 0. 0. 0. 0.
    0. 0. 0. 0. 0. 0. 0. 0. 0. 0. 0. 0. 0. 0. 0. 0. 0. 0. 0. 0. 0. 0. 0.
    0. 0. 0. 0. 0. 0. 0. 0. 0. 0. 0. 0. 0. 0. 0. 0. 0. 0. 0. 0. 0. 0. 0.
    0. 0. 0. 0. 0. 0. 0. 0. 0. 0. 0. 0. 0. 0. 0. 0. 0. 0. 0. 0. 0. 0. 0.
    0. 0. 0. 0. 0.</data></Depth>
</opencv_storage>
