<?xml version="1.0"?>
<opencv_storage>
<Depth type_id="opencv-matrix">
  <rows>40</rows>
  <cols>40</cols>
  <dt>f</dt>
  <data>
    0. 0. 0. 0. 0. 0. 0. 0. 0. 0. 0. 0. 0. 0. 0. 0. 0. 0. 0. 0. 0. 0. 0.
    0. 0. 0. 0. 0. 0. 0. 0. 0. 0. 0. 0. 0. 0. 0. 0. 0. 0. 0. 0. 0. 0. 0.
    0. 0. 1.27900004e+00 1.27900004e+00 1.75199997e+00 2.16799998e+00
    2.16199994e+00 2.13400006e+00 2.13299990e+00 1.57900000e+00
    1.20299995e+00 1.20299995e+00 1.20299995e+00 1.20299995e+00
    1.19099998e+00 1.18499994e+00 1.43499994e+00 1.85300004e+00 0. 0. 0.
    0. 0. 0. 0. 0. 0. 0. 0. 0. 0. 0. 0. 0. 0. 0. 0. 0. 0. 0. 0. 0.
    1.27900004e+00 1.72099996e+00 2.02600002e+00 2.15199995e+00
    2.16199994e+00 2.13400006e+00 2.13299990e+00 1.58700001e+00
    1.21700001e+00 1.21700001e+00 1.21700001e+00 1.21700001e+00
    1.21300006e+00 1.49800003e+00 1.88800001e+00 2.00600004e+00
    1.50899994e+00 1.45299995e+00 0. 0. 0. 0. 0. 0. 0. 0. 0. 0. 0. 0. 0.
    0. 0. 0. 0. 0. 0. 0. 0. 0. 1.27900004e+00 1.89300001e+00
    2.13299990e+00 2.14499998e+00 2.16499996e+00 2.15199995e+00
    2.15199995e+00 1.60399997e+00 1.22800004e+00 1.22200000e+00
    1.22200000e+00 1.22200000e+00 1.22200000e+00 1.62000000e+00
    2.05999994e+00 2.04800010e+00 2.04800010e+00 2.05999994e+00
    1.51699996e+00 0. 0. 0. 0. 0. 0. 0. 0. 0. 0. 0. 0. 0. 0. 0. 0. 0. 0.
    0. 0. 0. 1.27900004e+00 1.89300001e+00 2.13299990e+00 2.14100003e+00
    2.15599990e+00 2.15599990e+00 2.16499996e+00 1.61600006e+00
    1.23599994e+00 1.22899997e+00 1.23800004e+00 1.46000004e+00
    1.50899994e+00 1.77300000e+00 2.05599999e+00 2.03299999e+00
    2.03299999e+00 2.05599999e+00 2.06500006e+00 1.55599999e+00 0. 0. 0.
    0. 0. 0. 0. 0. 0. 0. 0. 0. 0. 0. 0. 0. 0. 0. 0. 0. 1.27900004e+00
    1.89300001e+00 2.13299990e+00 2.13299990e+00 2.13299990e+00
    2.13299990e+00 2.15599990e+00 1.61600006e+00 1.24399996e+00
    1.27100003e+00 1.38800001e+00 1.92999995e+00 2.05399990e+00
    2.06500006e+00 2.05699992e+00 2.03800011e+00 2.03299999e+00
    2.05200005e+00 2.05999994e+00 2.03900003e+00 2. 2. 0. 0. 0. 0. 0. 0.
    0. 0. 0. 0. 0. 0. 0. 0. 0. 0. 0. 0. 1.27900004e+00 1.89300001e+00
    2.13299990e+00 2.13299990e+00 2.13299990e+00 2.13299990e+00
    2.13400006e+00 1.61300004e+00 1.25899994e+00 1.42499995e+00
    2.00999999e+00 2.02900004e+00 2.05399990e+00 2.06500006e+00
    2.06500006e+00 2.06100011e+00 2.03600001e+00 2.03399992e+00
    2.03399992e+00 2.02200007e+00 2. 2. 0. 0. 0. 0. 0. 0. 0. 0. 0. 0. 0.
    0. 0. 0. 0. 0. 0. 0. 1.27900004e+00 1.89300001e+00 2.13299990e+00
    2.13299990e+00 2.13299990e+00 2.13299990e+00 2.11199999e+00
    1.99300003e+00 1.90600002e+00 1.92700005e+00 2.05800009e+00
    2.05800009e+00 2.06299996e+00 2.06500006e+00 2.05100012e+00
    2.01300001e+00 2.00799990e+00 2.00699997e+00 2.02099991e+00
    2.02200007e+00 2. 2. 0. 0. 0. 0. 0. 0. 0. 0. 0. 0. 0. 0. 0. 0. 0. 0.
    0. 0. 1.27900004e+00 1.89300001e+00 2.13299990e+00 2.13299990e+00
    2.13299990e+00 2.13299990e+00 2.10599995e+00 2.09899998e+00
    2.08500004e+00 2.06500006e+00 2.06500006e+00 2.06500006e+00
    2.06500006e+00 2.06500006e+00 2.04699993e+00 2. 2. 2. 2.00699997e+00
    2.00900006e+00 1.68400002e+00 0. 0. 0. 0. 0. 0. 0. 0. 0. 0. 0. 0. 0.
    0. 0. 0. 0. 0. 0. 1.27100003e+00 1.88100004e+00 2.11899996e+00
    2.11899996e+00 2.11899996e+00 2.11899996e+00 2.10299993e+00
    2.09899998e+00 2.09100008e+00 2.07599998e+00 2.06500006e+00
    2.06500006e+00 2.06500006e+00 2.05900002e+00 2.03699994e+00 2. 2. 2.
    2. 2. 1.68599999e+00 0. 0. 0. 0. 0. 0. 0. 0. 0. 0. 0. 0. 0. 0. 0. 0.
    0. 0. 0. 1.25600004e+00 1.86199999e+00 2.09899998e+00 2.09899998e+00
    2.09899998e+00 2.09899998e+00 2.09899998e+00 2.09899998e+00
    2.09899998e+00 2.09100008e+00 2.06500006e+00 2.06500006e+00
    2.06500006e+00 2.04999995e+00 2.02399993e+00 2. 2. 2. 2. 2. 2. 2. 0.
    0. 0. 0. 0. 0. 0. 0. 0. 0. 0. 0. 0. 0. 0. 0. 0. 0. 1.24100006e+00
    1.85899997e+00 2.09999990e+00 2.09999990e+00 2.09999990e+00
    2.09999990e+00 2.09899998e+00 2.09899998e+00 2.09899998e+00
    2.09100008e+00 2.06500006e+00 2.06500006e+00 2.06500006e+00
    2.04999995e+00 2.02399993e+00 2.00099993e+00 2. 2. 2. 2. 2.
    2.00099993e+00 0. 0. 0. 0. 0. 0. 0. 0. 0. 0. 0. 0. 0. 0. 0. 0. 0. 0.
    1.24100006e+00 1.87899995e+00 2.12800002e+00 2.12800002e+00
    2.12800002e+00 2.12800002e+00 2.10500002e+00 2.09899998e+00
    2.09899998e+00 2.09100008e+00 2.06500006e+00 2.06500006e+00
    2.06500006e+00 2.04999995e+00 2.03200006e+00 2.02500010e+00
    2.00300002e+00 2. 2. 2. 2.00399995e+00 2.02699995e+00 0. 0. 0. 0. 0.
    0. 0. 0. 0. 0. 0. 0. 0. 0. 0. 0. 0. 0. 1.24100006e+00 1.89900005e+00
    2.14400005e+00 2.13299990e+00 2.12899995e+00 2.11100006e+00
    2.10200000e+00 2.08599997e+00 2.06800008e+00 2.05299997e+00
    2.04399991e+00 2.04399991e+00 2.04399991e+00 2.03900003e+00
    2.02699995e+00 2.00999999e+00 2.00099993e+00 2. 2. 2. 2.00500011e+00
    2.03200006e+00 0. 0. 0. 0. 0. 0. 0. 0. 0. 0. 0. 0. 0. 0. 0. 0. 0. 0.
    1.24100006e+00 1.90799999e+00 2.14899993e+00 2.12700009e+00
    2.11400008e+00 2.09999990e+00 2.09899998e+00 2.07900000e+00
    2.05200005e+00 2.03299999e+00 2.03299999e+00 2.03299999e+00
    2.03299999e+00 2.03299999e+00 2.02399993e+00 2. 2. 2. 2. 2.
    2.00300002e+00 2.01699996e+00 0. 0. 0. 0. 0. 0. 0. 0. 0. 0. 0. 0. 0.
    0. 0. 0. 0. 0. 1.51499999e+00 1.98399997e+00 2.14899993e+00
    2.12100005e+00 2.09899998e+00 2.09899998e+00 2.09100008e+00
    2.07500005e+00 2.05200005e+00 2.03299999e+00 2.03299999e+00
    2.03299999e+00 2.03299999e+00 2.03299999e+00 2.02399993e+00 2. 2. 2.
    2. 2. 2. 2. 0. 0. 0. 0. 0. 0. 0. 0. 0. 0. 0. 0. 0. 0. 0. 0. 0. 0.
    2.20000005e+00 2.17400002e+00 2.14800000e+00 2.12100005e+00
    2.09800005e+00 2.09599996e+00 2.07200003e+00 2.06500006e+00
    2.05200005e+00 2.03299999e+00 2.03299999e+00 2.03299999e+00
    2.03099990e+00 2.02999997e+00 2.02099991e+00 2. 2. 2. 2. 2. 2. 2. 0.
    0. 0. 0. 0. 0. 0. 0. 0. 0. 0. 0. 0. 0. 0. 0. 0. 0. 2.17100000e+00
    2.14599991e+00 2.13400006e+00 2.12100005e+00 2.09400010e+00
    2.06900001e+00 2.06599998e+00 2.06500006e+00 2.05200005e+00
    2.03299999e+00 2.03299999e+00 2.03299999e+00 2.01300001e+00
    2.00300002e+00 2.00200009e+00 2. 2. 2. 2. 2. 2. 2. 1.76600003e+00 0.
    0. 0. 0. 0. 0. 0. 0. 0. 0. 0. 0. 0. 0. 0. 0. 0. 2.14299989e+00
    2.13599992e+00 2.11999989e+00 2.10500002e+00 2.09400010e+00
    2.06599998e+00 2.06500006e+00 2.06500006e+00 2.05200005e+00
    2.03299999e+00 2.03200006e+00 2.01300001e+00 2.00300002e+00 2. 2. 2.
    2. 2. 2. 2. 2. 2. 2. 0. 0. 0. 0. 0. 0. 0. 0. 0. 0. 0. 0. 0. 0. 0. 0.
    0. 2.11500001e+00 2.11500001e+00 2.10599995e+00 2.09899998e+00
    2.09400010e+00 2.06599998e+00 2.06500006e+00 2.06500006e+00
    2.04500008e+00 2.01500010e+00 2.01500010e+00 2.00200009e+00 2. 2. 2.
    2. 2. 2. 2. 2. 2. 2. 2. 0. 0. 0. 0. 0. 0. 0. 0. 0. 0. 0. 0. 0. 0. 0.
    0. 0. 2.08699989e+00 2.08699989e+00 2.09299994e+00 2.09899998e+00
    2.09400010e+00 2.06599998e+00 2.06500006e+00 2.05800009e+00
    2.03200006e+00 2. 2. 2. 2. 2. 2. 2. 2. 2. 2. 2. 2. 2. 2. 0. 0. 0. 0.
    0. 0. 0. 0. 0. 0. 0. 0. 0. 0. 0. 0. 0. 2.05999994e+00 2.05999994e+00
    2.07800007e+00 2.09400010e+00 2.08899999e+00 2.06599998e+00
    2.06100011e+00 2.04099989e+00 2.01600003e+00 2. 2. 2. 2. 2. 2. 2. 2.
    2. 2. 2. 2. 2. 2. 0. 0. 0. 0. 0. 0. 0. 0. 0. 0. 0. 0. 0. 0. 0. 0. 0.
    2.03399992e+00 2.03399992e+00 2.05100012e+00 2.06599998e+00
    2.06599998e+00 2.06500006e+00 2.04099989e+00 2.01399994e+00
    2.00099993e+00 2. 2. 2. 2. 2. 2. 2. 2. 2. 2. 2. 2. 2. 2. 0. 0. 0. 0.
    0. 0. 0. 0. 0. 0. 0. 0. 0. 0. 0. 0. 0. 2.00699997e+00 2.00699997e+00
    2.03800011e+00 2.06500006e+00 2.06500006e+00 2.06500006e+00
    2.03999996e+00 2.01300001e+00 2. 2. 2. 2. 2. 2. 2. 2. 2. 2. 2. 2.
    1.99600005e+00 1.97599995e+00 1.97599995e+00 0. 0. 0. 0. 0. 0. 0. 0.
    0. 0. 0. 0. 0. 0. 0. 0. 0. 1.98099995e+00 1.98099995e+00
    2.01600003e+00 2.04600000e+00 2.04900002e+00 2.06399989e+00
    2.03999996e+00 2.01300001e+00 2. 2. 2. 2. 1.98800004e+00
    1.98099995e+00 1.98099995e+00 1.98099995e+00 1.98099995e+00
    1.98099995e+00 1.98099995e+00 1.98099995e+00 1.97899997e+00
    1.96899998e+00 1.96899998e+00 0. 0. 0. 0. 0. 0. 0. 0. 0. 0. 0. 0. 0.
    0. 0. 0. 0. 1.96899998e+00 1.96899998e+00 1.99600005e+00
    2.02399993e+00 2.03600001e+00 2.05100012e+00 2.03699994e+00
    2.01300001e+00 2. 2. 2. 2. 1.98000002e+00 1.96899998e+00
    1.96899998e+00 1.96899998e+00 1.96899998e+00 1.96899998e+00
    1.96899998e+00 1.96899998e+00 1.96899998e+00 1.96899998e+00
    1.96899998e+00 0. 0. 0. 0. 0. 0. 0. 0. 0. 0. 0. 0. 0. 0. 0. 0. 0.
    1.99100006e+00 1.98000002e+00 1.98899996e+00 2.00900006e+00
    2.02600002e+00 2.02600002e+00 2.02600002e+00 2.00999999e+00 2. 2. 2.
    2. 1.98000002e+00 1.96899998e+00 1.96899998e+00 1.96899998e+00
    1.96899998e+00 1.96899998e+00 1.96899998e+00 1.96899998e+00
    1.96899998e+00 1.96899998e+00 1.96899998e+00 0. 0. 0. 0. 0. 0. 0. 0.
    0. 0. 0. 0. 0. 0. 0. 0. 0. 2.06500006e+00 2.01900005e+00
    2.00099993e+00 2. 2. 1.99899995e+00 1.99899995e+00 1.99899995e+00
    1.99899995e+00 1.99899995e+00 1.99899995e+00 1.99899995e+00
    1.97899997e+00 1.96899998e+00 1.96899998e+00 1.96800005e+00
    1.96800005e+00 1.96899998e+00 1.97000003e+00 1.97099996e+00
    1.97099996e+00 1.97099996e+00 1.87399995e+00 0. 0. 0. 0. 0. 0. 0. 0.
    0. 0. 0. 0. 0. 0. 0. 0. 0. 2.06500006e+00 2.03800011e+00
    2.01300001e+00 2. 1.99600005e+00 1.97399998e+00 1.97399998e+00
    1.97399998e+00 1.97399998e+00 1.97399998e+00 1.97399998e+00
    1.97399998e+00 1.97099996e+00 1.96899998e+00 1.96200001e+00
    1.94299996e+00 1.94299996e+00 1.96200001e+00 1.98300004e+00
    2.00500011e+00 2.02300000e+00 2.02300000e+00 0. 0. 0. 0. 0. 0. 0. 0.
    0. 0. 0. 0. 0. 0. 0. 0. 0. 0. 2.08800006e+00 2.06399989e+00
    2.04800010e+00 2.02800012e+00 1.99500000e+00 1.97000003e+00
    1.96899998e+00 1.96899998e+00 1.96899998e+00 1.96899998e+00
    1.96899998e+00 1.96899998e+00 1.96899998e+00 1.96899998e+00
    1.96000004e+00 1.93799996e+00 1.93799996e+00 1.90300000e+00
    1.89499998e+00 1.93900001e+00 2.01099992e+00 2.01099992e+00 0. 0. 0.
    0. 0. 0. 0. 0. 0. 0. 0. 0. 0. 0. 0. 0. 0. 0. 2.08299994e+00
    2.05900002e+00 2.04999995e+00 2.03299999e+00 1.99500000e+00
    1.97000003e+00 1.96899998e+00 1.96899998e+00 1.96899998e+00
    1.96899998e+00 1.96899998e+00 1.96899998e+00 1.95899999e+00
    1.95400000e+00 1.95000005e+00 1.93499994e+00 1.91199994e+00
    1.86600006e+00 1.84899998e+00 1.89600003e+00 1.98500001e+00
    1.98500001e+00 0. 0. 0. 0. 0. 0. 0. 0. 0. 0. 0. 0. 0. 0. 0. 0. 0. 0.
    2.06500006e+00 2.04200006e+00 2.03299999e+00 2.02500010e+00
    2.00300002e+00 1.97000003e+00 1.96899998e+00 1.96899998e+00
    1.96899998e+00 1.96899998e+00 1.96899998e+00 1.96899998e+00
    1.94900000e+00 1.93799996e+00 1.93599999e+00 1.92400002e+00
    1.88300002e+00 1.86300004e+00 1.85699999e+00 1.89600003e+00
    1.96899998e+00 1.96899998e+00 1.96899998e+00 0. 0. 0. 0. 0. 0. 0. 0.
    0. 0. 0. 0. 0. 0. 0. 0. 0. 2.06200004e+00 2.04099989e+00
    2.03299999e+00 2.03200006e+00 2.01999998e+00 1.97099996e+00
    1.96899998e+00 1.96899998e+00 1.96899998e+00 1.96899998e+00
    1.96899998e+00 1.96899998e+00 1.95099998e+00 1.94000006e+00
    1.92900002e+00 1.90499997e+00 1.88100004e+00 1.87800002e+00
    1.88000000e+00 1.91199994e+00 1.96899998e+00 1.96899998e+00
    1.96899998e+00 0. 0. 0. 0. 0. 0. 0. 0. 0. 0. 0. 0. 0. 0. 0. 0. 0.
    2.03600001e+00 2.03399992e+00 2.03299999e+00 2.02300000e+00
    1.99800003e+00 1.97000003e+00 1.96899998e+00 1.96899998e+00
    1.96899998e+00 1.96899998e+00 1.96899998e+00 1.96899998e+00
    1.96700001e+00 1.95299995e+00 1.92900002e+00 1.90499997e+00
    1.88100004e+00 1.87800002e+00 1.89300001e+00 1.92799997e+00
    1.96899998e+00 1.96899998e+00 1.96899998e+00 0. 0. 0. 0. 0. 0. 0. 0.
    0. 0. 0. 0. 0. 0. 0. 0. 0. 2.00900006e+00 2.00900006e+00
    2.00900006e+00 2.00600004e+00 1.99500000e+00 1.97000003e+00
    1.96899998e+00 1.96899998e+00 1.96899998e+00 1.96899998e+00
    1.96899998e+00 1.96899998e+00 1.95400000e+00 1.94200003e+00
    1.93599999e+00 1.93099999e+00 1.94299996e+00 1.92799997e+00
    1.92600000e+00 1.93599999e+00 1.95000005e+00 1.96800005e+00
    1.96899998e+00 0. 0. 0. 0. 0. 0. 0. 0. 0. 0. 0. 0. 0. 0. 0. 0. 0.
    1.98300004e+00 1.99500000e+00 2. 2. 1.99500000e+00 1.97000003e+00
    1.96899998e+00 1.96899998e+00 1.96899998e+00 1.96899998e+00
    1.96800005e+00 1.95500004e+00 1.94299996e+00 1.93799996e+00
    1.93799996e+00 1.94099998e+00 1.96599996e+00 1.94700003e+00
    1.93799996e+00 1.93799996e+00 1.94299996e+00 1.96800005e+00
    1.96899998e+00 0. 0. 0. 0. 0. 0. 0. 0. 0. 0. 0. 0. 0. 0. 0. 0. 0.
    1.96899998e+00 1.98300004e+00 1.99500000e+00 2. 1.99699998e+00
    1.98099995e+00 1.97099996e+00 1.96899998e+00 1.96899998e+00
    1.96899998e+00 1.96800005e+00 1.94299996e+00 1.93799996e+00
    1.93799996e+00 1.94099998e+00 1.95099998e+00 1.96700001e+00
    1.94700003e+00 1.93200004e+00 1.92700005e+00 1.93400002e+00
    1.96800005e+00 1.96899998e+00 0. 0. 0. 0. 0. 0. 0. 0. 0. 0. 0. 0. 0.
    0. 0. 0. 0. 1.96899998e+00 1.96899998e+00 1.98500001e+00 2. 2. 2.
    1.97599995e+00 1.96899998e+00 1.96899998e+00 1.96899998e+00
    1.96800005e+00 1.94299996e+00 1.93799996e+00 1.93799996e+00
    1.94700003e+00 1.96899998e+00 1.96899998e+00 1.94700003e+00
    1.92200005e+00 1.90799999e+00 1.91799998e+00 1.96700001e+00
    1.96899998e+00 0. 0. 0. 0. 0. 0. 0. 0. 0. 0. 0. 0. 0. 0. 0. 0. 0. 0.
    0. 0. 0. 0. 0. 0. 0. 0. 0. 0. 0. 0. 0. 0. 0. 0. 0. 0. 0. 0. 0. 0. 0.
    0. 0. 0. 0. 0. 0. 0. 0. 0. 0. 0. 0. 0. 0. 0. 0. 0. 0. 0. 0. 0. 0. 0.
    0. 0. 0. 0. 0. 0. 0. 0. 0. 0. 0. 0. 0. 0. 0. 0. 0. 0. 0. 0. 0. 0. 0.
    0. 0.</data></Depth>
</opencv_storage>
