<?xml version="1.0"?>
<opencv_storage>
<Depth type_id="opencv-matrix">
  <rows>40</rows>
  <cols>40</cols>
  <dt>f</dt>
  <data>
    0. 0. 0. 0. 0. 0. 0. 0. 0. 0. 0. 0. 0. 0. 0. 0. 0. 0. 0. 0. 0. 0. 0.
    0. 0. 0. 0. 0. 0. 0. 0. 0. 0. 0. 0. 0. 0. 0. 0. 0. 0. 0. 0. 0. 0. 0.
    0. 0. 0. 0. 0. 0. 0. 0. 0. 0. 0. 0. 0. 0. 0. 0. 0. 0. 0. 0. 0. 0. 0.
    0. 0. 0. 0. 0. 0. 0. 0. 0. 0. 0. 0. 0. 0. 0. 0. 0. 0. 0. 0. 0. 0. 0.
    0. 0. 0. 0. 0. 0. 0. 0. 0. 0. 0. 0. 0. 0. 0. 0. 0. 0. 0. 0. 0. 0. 0.
    0. 0. 0. 0. 0. 0. 0. 0. 0. 0. 0. 0. 0. 0. 0. 0. 0. 0. 0. 0. 0. 0. 0.
    0. 0. 0. 0. 0. 0. 0. 0. 0. 0. 0. 0. 0. 0. 0. 0. 0. 0. 0. 0. 0. 0. 0.
    0. 0. 0. 0. 0. 0. 0. 0. 0. 0. 0. 0. 0. 0. 0. 0. 0. 0. 0. 0. 0. 0. 0.
    0. 0. 0. 0. 0. 0. 0. 0. 0. 0. 0. 0. 0. 0. 0. 0. 0. 0. 0. 0. 0. 0. 0.
    0. 0. 0. 0. 0. 0. 0. 0. 0. 0. 0. 0. 0. 0. 0. 0. 0. 0. 0. 0. 0. 0. 0.
    0. 0. 0. 0. 0. 0. 0. 0. 0. 0. 0. 0. 0. 0. 0. 0. 0. 0. 0. 0. 0. 0. 0.
    0. 0. 0. 0. 0. 0. 0. 0. 0. 0. 0. 0. 0. 0. 0. 0. 0. 0. 0. 0. 0. 0. 0.
    0. 0. 0. 0. 0. 0. 0. 0. 0. 0. 0. 0. 0. 0. 0. 0. 0. 0. 0. 0. 0. 0. 0.
    0. 0. 0. 0. 0. 0. 0. 0. 0. 0. 0. 0. 0. 0. 0. 0. 0. 0. 0. 0. 0. 0. 0.
    0. 0. 0. 0. 0. 0. 0. 0. 0. 0. 0. 0. 0. 0. 0. 0. 0. 0. 0. 0. 0. 0. 0.
    0. 0. 0. 0. 0. 0. 0. 0. 0. 0. 0. 0. 0. 0. 0. 0. 0. 2.97099996e+00
    2.56900001e+00 2.56900001e+00 2.56999993e+00 2.56999993e+00
    2.58800006e+00 2.59500003e+00 2.59500003e+00 2.59500003e+00
    2.59899998e+00 2.61500001e+00 2.59599996e+00 2.59599996e+00
    2.59500003e+00 2.84599996e+00 2.94799995e+00 2.92000008e+00
    2.91799998e+00 2.91799998e+00 2.91799998e+00 2.91799998e+00
    2.91799998e+00 2.89199996e+00 2.87500000e+00 2.87500000e+00
    2.19499993e+00 2.12500000e+00 2.10800004e+00 2.10800004e+00
    2.12100005e+00 2.14299989e+00 2.14199996e+00 2.14199996e+00
    2.14199996e+00 1.13600004e+00 1.05400002e+00 1.04900002e+00 0. 0.
    2.97499990e+00 2.93899989e+00 2.62700009e+00 2.60599995e+00
    2.58400011e+00 2.59500003e+00 2.59500003e+00 2.59500003e+00
    2.59500003e+00 2.59899998e+00 2.60299993e+00 2.62199998e+00
    2.62199998e+00 2.61100006e+00 2.60200000e+00 2.80500007e+00
    2.91199994e+00 2.91799998e+00 2.91799998e+00 2.89700007e+00
    2.78299999e+00 2.77999997e+00 2.78200006e+00 2.40000010e+00
    2.14199996e+00 2.14199996e+00 2.12400007e+00 2.12299991e+00
    2.12299991e+00 2.12299991e+00 2.11599994e+00 2.10400009e+00
    2.09299994e+00 2.08500004e+00 2.08500004e+00 1.12699997e+00
    1.04900002e+00 1.04299998e+00 0. 0. 2.91799998e+00 2.91799998e+00
    2.91499996e+00 2.81500006e+00 2.63499999e+00 2.59800005e+00
    2.59500003e+00 2.59500003e+00 2.59500003e+00 2.61500001e+00
    2.62199998e+00 2.62199998e+00 2.62199998e+00 2.62899995e+00
    2.65400004e+00 2.66799998e+00 2.69000006e+00 2.69400001e+00
    2.69400001e+00 2.60200000e+00 2.10200000e+00 2.08800006e+00
    2.09699988e+00 2.11500001e+00 2.12100005e+00 2.11599994e+00
    2.10299993e+00 2.09699988e+00 2.09699988e+00 2.09800005e+00
    2.09500003e+00 2.08299994e+00 2.07500005e+00 2.06999993e+00
    2.06999993e+00 1.12600005e+00 1.04900002e+00 1.04499996e+00 0. 0.
    2.90499997e+00 2.90499997e+00 2.90000010e+00 2.86800003e+00
    2.75999999e+00 2.64000010e+00 2.60800004e+00 2.59699988e+00
    2.59500003e+00 2.59599996e+00 2.62199998e+00 2.62199998e+00
    2.62599993e+00 2.54600000e+00 2.46199989e+00 2.20499992e+00
    2.09999990e+00 2.09999990e+00 2.10700011e+00 2.10599995e+00
    2.09500003e+00 2.08100009e+00 2.08699989e+00 2.09299994e+00
    2.09299994e+00 2.07699990e+00 2.07399988e+00 2.06299996e+00
    2.06299996e+00 2.06800008e+00 2.07699990e+00 2.06999993e+00
    2.06999993e+00 2.06999993e+00 2.06999993e+00 1.49100006e+00
    1.04900002e+00 1.04900002e+00 0. 0. 2.86999989e+00 2.86999989e+00
    2.86500001e+00 2.84200001e+00 2.80100012e+00 2.72499990e+00
    2.64100003e+00 2.59999990e+00 2.59500003e+00 2.59599996e+00
    2.61100006e+00 2.54699993e+00 2.35299993e+00 2.23099995e+00
    2.09200001e+00 2.08200002e+00 2.07900000e+00 2.07900000e+00
    2.08899999e+00 2.08699989e+00 2.07699990e+00 2.06699991e+00
    2.06100011e+00 2.06100011e+00 2.06100011e+00 2.05399990e+00
    2.05200005e+00 2.05200005e+00 2.05200005e+00 2.05399990e+00
    2.06399989e+00 2.06999993e+00 2.06999993e+00 2.06999993e+00
    2.06999993e+00 2.07800007e+00 1.04900002e+00 1.04299998e+00 0. 0.
    2.79699993e+00 2.76099992e+00 2.73799992e+00 2.71099997e+00
    2.69499993e+00 2.68499994e+00 2.62700009e+00 2.58400011e+00
    2.57900000e+00 2.57900000e+00 2.27699995e+00 2.22499990e+00
    2.05900002e+00 2.06800008e+00 2.07699990e+00 2.07200003e+00
    2.06100011e+00 2.05900002e+00 2.05900002e+00 2.05900002e+00
    2.05900002e+00 2.05599999e+00 2.04699993e+00 2.04200006e+00
    2.04200006e+00 2.04200006e+00 2.05100012e+00 2.04200006e+00
    2.04299998e+00 2.05200005e+00 2.05900002e+00 2.06999993e+00
    2.06999993e+00 2.06999993e+00 2.06999993e+00 2.08699989e+00
    1.65799999e+00 1.03699994e+00 0. 0. 2.66100001e+00 2.64100003e+00
    2.61599994e+00 2.60700011e+00 2.60299993e+00 2.60700011e+00
    2.59899998e+00 2.26500010e+00 2.19700003e+00 2.21000004e+00
    2.05699992e+00 2.05599999e+00 2.05200005e+00 2.04800010e+00
    2.04500008e+00 2.04500008e+00 2.04099989e+00 2.03999996e+00
    2.03999996e+00 2.03999996e+00 2.03600001e+00 2.02699995e+00
    2.02500010e+00 2.02200007e+00 2.03099990e+00 2.03500009e+00
    2.05100012e+00 2.03500009e+00 2.03800011e+00 2.05200005e+00
    2.05900002e+00 2.06999993e+00 2.06999993e+00 2.06999993e+00
    2.06999993e+00 2.08699989e+00 2.07800007e+00 1.79200006e+00 0. 0.
    2.59999990e+00 2.59899998e+00 2.59500003e+00 2.59500003e+00
    2.59500003e+00 2.31299996e+00 2.13100004e+00 2.05399990e+00
    2.05100012e+00 2.05399990e+00 2.03800011e+00 2.03800011e+00
    2.03200006e+00 2.02200007e+00 2.01999998e+00 2.01999998e+00
    2.01999998e+00 2.01999998e+00 2.01999998e+00 2.01999998e+00
    2.01500010e+00 2.00300002e+00 2.00999999e+00 2.01699996e+00
    2.02999997e+00 2.03500009e+00 2.05100012e+00 2.04900002e+00
    2.04999995e+00 2.05599999e+00 2.06800008e+00 2.06999993e+00
    2.06999993e+00 2.06999993e+00 2.06999993e+00 2.08699989e+00
    2.08800006e+00 2.08800006e+00 0. 0. 2.57100010e+00 2.57100010e+00
    2.57100010e+00 2.36400008e+00 2.03600001e+00 2.02500010e+00
    2.01799989e+00 2.03200006e+00 2.03600001e+00 2.01799989e+00
    2.00200009e+00 2.00200009e+00 2.00200009e+00 2.00099993e+00
    2.00099993e+00 1.99000001e+00 1.98500001e+00 1.98500001e+00
    2.00099993e+00 2.00099993e+00 2.00099993e+00 2. 2.00799990e+00
    2.01699996e+00 2.04099989e+00 2.05100012e+00 2.05200005e+00
    2.05200005e+00 2.05200005e+00 2.05699992e+00 2.06999993e+00
    2.06999993e+00 2.06999993e+00 2.06999993e+00 2.06999993e+00
    2.08699989e+00 2.10599995e+00 2.10599995e+00 0. 0. 2.53999996e+00
    2.45099998e+00 1.99899995e+00 1.99899995e+00 1.99899995e+00
    1.99800003e+00 2.00999999e+00 2.01399994e+00 1.99899995e+00
    1.99699998e+00 1.98199999e+00 1.98199999e+00 1.98199999e+00
    1.97399998e+00 1.96599996e+00 1.97800004e+00 1.98300004e+00
    1.98300004e+00 2. 2. 2.00500011e+00 2.01699996e+00 2.01699996e+00
    2.01699996e+00 2.04200006e+00 2.05200005e+00 2.05200005e+00
    2.05200005e+00 2.05200005e+00 2.05699992e+00 2.06999993e+00
    2.06999993e+00 2.06900001e+00 2.06999993e+00 2.06999993e+00
    2.10400009e+00 2.10700011e+00 2.10700011e+00 0. 0. 2. 1.99399996e+00
    1.98000002e+00 1.98000002e+00 1.97200000e+00 1.96300006e+00
    1.96300006e+00 1.96300006e+00 1.96300006e+00 1.96399999e+00
    1.96599996e+00 1.96599996e+00 1.96599996e+00 1.96599996e+00
    1.96599996e+00 1.97800004e+00 1.98300004e+00 1.98300004e+00 2. 2.
    2.00500011e+00 2.01699996e+00 2.01699996e+00 2.01900005e+00
    2.04099989e+00 2.04900002e+00 2.05200005e+00 2.05200005e+00
    2.05200005e+00 2.05599999e+00 2.06699991e+00 2.05999994e+00
    2.05200005e+00 2.06299996e+00 2.06900001e+00 2.10100007e+00
    2.10700011e+00 2.10700011e+00 0. 0. 1.99399996e+00 1.97099996e+00
    1.95299995e+00 1.95299995e+00 1.94700003e+00 1.94099998e+00
    1.94400001e+00 1.94599998e+00 1.95000005e+00 1.95099998e+00
    1.96599996e+00 1.96599996e+00 1.96800005e+00 1.97099996e+00
    1.97099996e+00 1.97899997e+00 1.98300004e+00 1.98300004e+00 2. 2.
    2.00300002e+00 2.01200008e+00 2.01500010e+00 2.02800012e+00
    2.03500009e+00 2.03500009e+00 2.05100012e+00 2.05200005e+00
    2.05200005e+00 2.05200005e+00 2.05200005e+00 2.04999995e+00
    2.04699993e+00 2.04699993e+00 2.05800009e+00 2.08100009e+00
    2.10700011e+00 2.11199999e+00 0. 0. 1.65799999e+00 1.94500005e+00
    1.91799998e+00 1.91799998e+00 1.91799998e+00 1.91799998e+00
    1.92900002e+00 1.93400002e+00 1.94900000e+00 1.95700002e+00
    1.96700001e+00 1.97200000e+00 1.97700000e+00 1.98300004e+00
    1.98300004e+00 1.98300004e+00 1.98300004e+00 1.98899996e+00 2. 2. 2.
    2. 2.00799990e+00 2.02399993e+00 2.03299999e+00 2.03500009e+00
    2.04500008e+00 2.04600000e+00 2.04600000e+00 2.04600000e+00
    2.04299998e+00 2.02999997e+00 2.02200007e+00 2.02200007e+00
    2.02699995e+00 2.06699991e+00 2.08400011e+00 1.84800005e+00 0. 0.
    1.11199999e+00 1.59099996e+00 1.91799998e+00 1.91799998e+00
    1.91799998e+00 1.91799998e+00 1.92900002e+00 1.94099998e+00
    1.95000005e+00 1.96599996e+00 1.96899998e+00 1.98300004e+00
    1.98300004e+00 1.98300004e+00 1.98300004e+00 1.98300004e+00
    1.98300004e+00 1.99899995e+00 2. 2. 2. 2. 2.00799990e+00
    2.01699996e+00 2.02999997e+00 2.03500009e+00 2.03500009e+00
    2.03500009e+00 2.03399992e+00 2.02600002e+00 2.01999998e+00
    2.00399995e+00 2. 2. 2.00699997e+00 1.75899994e+00 1.72700000e+00
    1.39800000e+00 0. 0. 1.09200001e+00 1.22899997e+00 1.91799998e+00
    1.91799998e+00 1.92299998e+00 1.92799997e+00 1.93200004e+00
    1.94700003e+00 1.95899999e+00 1.96599996e+00 1.96700001e+00
    1.97599995e+00 1.98300004e+00 1.98300004e+00 1.98300004e+00
    1.98300004e+00 1.98300004e+00 1.98899996e+00 1.99000001e+00 2. 2.
    2.00399995e+00 2.01399994e+00 2.02300000e+00 2.03299999e+00
    2.03500009e+00 2.03500009e+00 2.03500009e+00 2.02200007e+00
    2.00699997e+00 2.00399995e+00 2. 2. 1.74100006e+00 1.63199997e+00
    1.41100001e+00 1.39300001e+00 1.39800000e+00 0. 0. 1.08000004e+00
    1.22099996e+00 1.92900002e+00 1.92900002e+00 1.93200004e+00
    1.93400002e+00 1.93400002e+00 1.94700003e+00 1.95400000e+00
    1.96599996e+00 1.96599996e+00 1.96700001e+00 1.97599995e+00
    1.98300004e+00 1.98300004e+00 1.98300004e+00 1.98300004e+00
    1.98300004e+00 1.50100005e+00 1.50600004e+00 1.51300001e+00
    1.70599997e+00 2.02300000e+00 2.03299999e+00 2.03500009e+00
    2.04500008e+00 2.04699993e+00 2.03399992e+00 2.01399994e+00 2. 2. 2.
    1.73300004e+00 1.42700005e+00 1.37500000e+00 1.37500000e+00
    1.38199997e+00 1.39199996e+00 0. 0. 1.07400000e+00 1.09899998e+00
    1.42499995e+00 1.94700003e+00 1.94099998e+00 1.93400002e+00
    1.93400002e+00 1.94700003e+00 1.95000005e+00 1.96599996e+00
    1.96599996e+00 1.96599996e+00 1.97200000e+00 1.98300004e+00
    1.98300004e+00 1.98300004e+00 1.98300004e+00 1.98300004e+00
    1.30700004e+00 1.30799997e+00 1.31599998e+00 1.36300004e+00
    1.44099998e+00 1.44200003e+00 1.44200003e+00 1.45000005e+00
    2.00999999e+00 2.03500009e+00 2.03099990e+00 1.88399994e+00
    1.47300005e+00 1.47300005e+00 1.40799999e+00 1.36300004e+00
    1.36300004e+00 1.36300004e+00 1.36399996e+00 1.37300003e+00 0. 0.
    1.06799996e+00 1.06799996e+00 1.31200004e+00 1.95000005e+00
    1.94200003e+00 1.93400002e+00 1.93400002e+00 1.93499994e+00
    1.94900000e+00 1.96599996e+00 1.96599996e+00 1.97000003e+00
    1.98199999e+00 1.98300004e+00 1.98300004e+00 1.98300004e+00
    1.99600005e+00 1.99899995e+00 1.30700004e+00 1.30799997e+00
    1.31599998e+00 1.31599998e+00 1.31599998e+00 1.31599998e+00
    1.31599998e+00 1.32299995e+00 1.37600005e+00 1.37899995e+00
    1.38699996e+00 1.37600005e+00 1.34599996e+00 1.35200000e+00
    1.35200000e+00 1.35200000e+00 1.35899997e+00 1.36099994e+00
    1.36099994e+00 1.36199999e+00 0. 0. 1.06799996e+00 1.06799996e+00
    1.06799996e+00 1.39400005e+00 1.92200005e+00 1.93400002e+00
    1.93400002e+00 1.93400002e+00 1.93400002e+00 1.95099998e+00
    1.96500003e+00 1.96500003e+00 1.96500003e+00 1.97300005e+00
    1.98199999e+00 1.98300004e+00 1.99699998e+00 1.36000001e+00
    1.30700004e+00 1.30799997e+00 1.31599998e+00 1.31599998e+00
    1.31599998e+00 1.31599998e+00 1.31599998e+00 1.32200003e+00
    1.33200002e+00 1.33299994e+00 1.33299994e+00 1.33299994e+00
    1.33299994e+00 1.33299994e+00 1.33299994e+00 1.33899999e+00
    1.34899998e+00 1.36000001e+00 1.36099994e+00 1.36099994e+00 0. 0.
    1.06799996e+00 1.06799996e+00 1.06799996e+00 1.07000005e+00
    1.50100005e+00 1.93400002e+00 1.93400002e+00 1.93400002e+00
    1.93400002e+00 1.94799995e+00 1.94700003e+00 1.94500005e+00
    1.94500005e+00 1.94700003e+00 1.96000004e+00 1.97599995e+00
    1.90699995e+00 1.34500003e+00 1.30700004e+00 1.30700004e+00
    1.30900002e+00 1.31500006e+00 1.31500006e+00 1.30799997e+00
    1.30400002e+00 1.31099999e+00 1.32900000e+00 1.33000004e+00
    1.33299994e+00 1.33299994e+00 1.33399999e+00 1.33399999e+00
    1.33500004e+00 1.14699996e+00 1.29999995e+00 1.36000001e+00
    1.36099994e+00 1.36099994e+00 0. 0. 1.06799996e+00 1.06799996e+00
    1.06599998e+00 1.06599998e+00 1.38100004e+00 1.84200001e+00
    1.93099999e+00 1.92999995e+00 1.93400002e+00 1.93400002e+00
    1.93099999e+00 1.91700006e+00 1.91400003e+00 1.62100005e+00
    1.32700002e+00 1.33200002e+00 1.31099999e+00 1.30700004e+00
    1.30700004e+00 1.30700004e+00 1.30700004e+00 1.30599999e+00
    1.30499995e+00 1.29400003e+00 1.28799999e+00 1.28799999e+00
    1.30499995e+00 1.31200004e+00 1.32900000e+00 1.33099997e+00
    1.16199994e+00 0. 0. 0. 0. 0. 0. 0. 0. 0. 1.06799996e+00
    1.06700003e+00 1.06200004e+00 1.05900002e+00 1.05499995e+00
    1.58899999e+00 1.92299998e+00 1.91799998e+00 1.93299997e+00
    1.93400002e+00 1.93099999e+00 1.91400003e+00 1.90199995e+00 0. 0. 0.
    1.00399995e+00 1.30700004e+00 1.30700004e+00 1.30700004e+00
    1.30700004e+00 1.30400002e+00 1.29799998e+00 1.28799999e+00
    1.28100002e+00 1.28100002e+00 1.28100002e+00 1.29900002e+00
    1.31700003e+00 1.32599998e+00 0. 0. 0. 0. 0. 0. 0. 0. 0. 0. 0. 0. 0.
    0. 0. 0. 0. 0. 0. 0. 0. 0. 0. 0. 0. 0. 0. 0. 0. 0. 0. 0. 0. 0. 0. 0.
    0. 0. 0. 0. 0. 0. 0. 0. 0. 0. 0. 0. 0. 0. 0. 0. 0. 0. 0. 0. 0. 0. 0.
    0. 0. 0. 0. 0. 0. 0. 0. 0. 0. 0. 0. 0. 0. 0. 0. 0. 0. 0. 0. 0. 0. 0.
    0. 0. 0. 0. 0. 0. 0. 0. 0. 0. 0. 0. 0. 0. 0. 0. 0. 0. 0. 0. 0. 0. 0.
    0. 0. 0. 0. 0. 0. 0. 0. 0. 0. 0. 0. 0. 0. 0. 0. 0. 0. 0. 0. 0. 0. 0.
    0. 0. 0. 0. 0. 0. 0. 0. 0. 0. 0. 0. 0. 0. 0. 0. 0. 0. 0. 0. 0. 0. 0.
    0. 0. 0. 0. 0. 0. 0. 0. 0. 0. 0. 0. 0. 0. 0. 0. 0. 0. 0. 0. 0. 0. 0.
    0. 0. 0. 0. 0. 0. 0. 0. 0. 0. 0. 0. 0. 0. 0. 0. 0. 0. 0. 0. 0. 0. 0.
    0. 0. 0. 0. 0. 0. 0. 0. 0. 0. 0. 0. 0. 0. 0. 0. 0. 0. 0. 0. 0. 0. 0.
    0. 0. 0. 0. 0. 0. 0. 0. 0. 0. 0. 0. 0. 0. 0. 0. 0. 0. 0. 0. 0. 0. 0.
    0. 0. 0. 0. 0. 0. 0. 0. 0. 0. 0. 0. 0. 0. 0. 0. 0. 0. 0. 0. 0. 0. 0.
    0. 0. 0. 0. 0. 0. 0. 0. 0. 0. 0. 0. 0. 0. 0. 0. 0. 0. 0. 0. 0. 0. 0.
    0. 0. 0. 0. 0. 0. 0. 0. 0. 0. 0. 0. 0. 0. 0. 0. 0. 0. 0. 0. 0. 0. 0.
    0. 0. 0. 0. 0. 0. 0. 0. 0. 0. 0. 0. 0. 0. 0. 0. 0. 0. 0. 0. 0. 0. 0.
    0. 0. 0. 0. 0. 0. 0. 0. 0. 0. 0. 0. 0. 0. 0. 0. 0. 0. 0. 0. 0. 0. 0.
    0. 0. 0. 0. 0. 0. 0. 0. 0. 0. 0.</data></Depth>
</opencv_storage>
