<?xml version="1.0"?>
<opencv_storage>
<Depth type_id="opencv-matrix">
  <rows>40</rows>
  <cols>40</cols>
  <dt>f</dt>
  <data>
    0. 0. 0. 0. 0. 0. 0. 0. 0. 0. 0. 0. 0. 0. 0. 0. 0. 0. 0. 0. 0. 0. 0.
    0. 0. 0. 0. 0. 0. 0. 0. 0. 0. 0. 0. 0. 0. 0. 0. 0. 0. 0. 0. 0. 0. 0.
    0. 0. 0. 0. 0. 0. 0. 0. 0. 0. 0. 0. 0. 0. 0. 0. 0. 0. 0. 0. 0. 0. 0.
    0. 0. 0. 0. 0. 0. 0. 0. 0. 0. 0. 0. 0. 0. 0. 0. 0. 0. 0. 0. 0. 0. 0.
    0. 0. 0. 0. 0. 0. 0. 0. 0. 0. 0. 0. 0. 0. 0. 0. 0. 0. 0. 0. 0. 0. 0.
    0. 0. 0. 0. 0. 0. 0. 0. 0. 0. 0. 0. 0. 0. 0. 0. 0. 0. 0. 0. 0. 0. 0.
    0. 0. 0. 0. 0. 0. 0. 0. 0. 0. 0. 0. 0. 0. 0. 0. 0. 0. 0. 0. 0. 0. 0.
    0. 0. 0. 0. 0. 0. 0. 0. 0. 0. 0. 0. 0. 0. 0. 0. 0. 0. 0. 0. 0. 0. 0.
    0. 0. 0. 0. 0. 0. 0. 0. 0. 0. 0. 0. 0. 0. 0. 0. 0. 0. 0. 0. 0. 0. 0.
    0. 0. 0. 0. 0. 0. 0. 0. 0. 0. 0. 0. 0. 0. 0. 0. 0. 0. 0. 0. 0. 0. 0.
    0. 0. 0. 0. 0. 0. 0. 0. 0. 0. 0. 0. 0. 0. 0. 0. 0. 0. 0. 0. 0. 0. 0.
    0. 0. 0. 0. 0. 0. 0. 0. 0. 0. 0. 0. 0. 0. 0. 0. 0. 0. 0. 0. 0. 0. 0.
    0. 0. 0. 0. 0. 0. 0. 0. 0. 0. 0. 0. 0. 0. 0. 0. 0. 0. 0. 0. 0. 0. 0.
    0. 0. 0. 0. 0. 0. 0. 0. 0. 0. 0. 0. 0. 0. 0. 0. 0. 0. 0. 0. 0. 2.
    1.97800004e+00 1.97200000e+00 2.00099993e+00 2.02900004e+00
    2.02900004e+00 2.02600002e+00 2.00200009e+00 2. 2. 2. 2.01099992e+00
    2.02900004e+00 2.02900004e+00 2.02900004e+00 2.02900004e+00
    2.04900002e+00 2.05800009e+00 2.05800009e+00 2.06599998e+00
    2.08800006e+00 2.08800006e+00 2.08800006e+00 2.08800006e+00
    2.08800006e+00 2.06299996e+00 2.02900004e+00 1.81099999e+00 0. 0. 0.
    0. 0. 0. 0. 0. 0. 0. 0. 0. 2.02300000e+00 2. 1.99399996e+00
    2.01200008e+00 2.02900004e+00 2.02900004e+00 2.02800012e+00
    2.02300000e+00 2.02300000e+00 2.02300000e+00 2.02300000e+00
    2.02500010e+00 2.02900004e+00 2.02900004e+00 2.02900004e+00
    2.02900004e+00 2.04900002e+00 2.05800009e+00 2.06800008e+00
    2.08299994e+00 2.08800006e+00 2.08800006e+00 2.08800006e+00
    2.10500002e+00 2.09800005e+00 2.07299995e+00 2.04500008e+00
    1.98300004e+00 1.70000005e+00 1.69900000e+00 0. 0. 0. 0. 0. 0. 0. 0.
    0. 0. 2.02900004e+00 2.02099991e+00 2.01900005e+00 2.02399993e+00
    2.02900004e+00 2.02900004e+00 2.02900004e+00 2.02900004e+00
    2.02900004e+00 2.04200006e+00 2.04800010e+00 2.04800010e+00
    2.04800010e+00 2.04800010e+00 2.04800010e+00 2.04800010e+00
    2.05500007e+00 2.05800009e+00 2.06200004e+00 2.07399988e+00
    2.08800006e+00 2.08800006e+00 2.08800006e+00 2.10899997e+00
    2.10100007e+00 2.08400011e+00 2.06399989e+00 2.02900004e+00
    2.02900004e+00 2.02900004e+00 0. 0. 0. 0. 0. 0. 0. 0. 0. 0.
    2.02900004e+00 2.04099989e+00 2.04399991e+00 2.04399991e+00
    2.04399991e+00 2.04399991e+00 2.04399991e+00 2.04399991e+00
    2.03200006e+00 2.03800011e+00 2.04299998e+00 2.04900002e+00
    2.05800009e+00 2.05800009e+00 2.05800009e+00 2.05800009e+00
    2.05800009e+00 2.05800009e+00 2.05800009e+00 2.06599998e+00
    2.08800006e+00 2.08800006e+00 2.08800006e+00 2.09800005e+00
    2.10299993e+00 2.10299993e+00 2.08699989e+00 2.04399991e+00
    2.04399991e+00 2.05699992e+00 1.50699997e+00 0. 0. 0. 0. 0. 0. 0. 0.
    0. 2.02900004e+00 2.05200005e+00 2.05800009e+00 2.05800009e+00
    2.05800009e+00 2.05800009e+00 2.05800009e+00 2.05800009e+00
    2.03500009e+00 2.02900004e+00 2.02900004e+00 2.03999996e+00
    2.05800009e+00 2.05800009e+00 2.05800009e+00 2.05800009e+00
    2.05800009e+00 2.05800009e+00 2.05800009e+00 2.06599998e+00
    2.08800006e+00 2.08800006e+00 2.08800006e+00 2.08800006e+00
    2.10500002e+00 2.11800003e+00 2.10700011e+00 2.07900000e+00
    2.06900001e+00 2.08500004e+00 2.08800006e+00 1.14100003e+00 0. 0. 0.
    0. 0. 0. 0. 0. 2.02900004e+00 2.05200005e+00 2.05800009e+00
    2.05800009e+00 2.05800009e+00 2.05800009e+00 2.05800009e+00
    2.05800009e+00 2.03999996e+00 2.03600001e+00 2.03600001e+00
    2.04399991e+00 2.05800009e+00 2.05800009e+00 2.05800009e+00
    2.05800009e+00 2.05800009e+00 2.05800009e+00 2.06100011e+00
    2.07100010e+00 2.08800006e+00 2.08800006e+00 2.08800006e+00
    2.09299994e+00 2.10800004e+00 2.12100005e+00 2.12299991e+00
    2.11500001e+00 2.09500003e+00 2.10100007e+00 2.10200000e+00
    1.14400005e+00 0. 0. 0. 0. 0. 0. 0. 0. 2.03200006e+00 2.05200005e+00
    2.05800009e+00 2.05800009e+00 2.05800009e+00 2.05800009e+00
    2.05800009e+00 2.05800009e+00 2.05800009e+00 2.05599999e+00
    2.05500007e+00 2.05599999e+00 2.05800009e+00 2.05800009e+00
    2.05800009e+00 2.05800009e+00 2.05800009e+00 2.05800009e+00
    2.06999993e+00 2.08800006e+00 2.08800006e+00 2.08800006e+00
    2.08800006e+00 2.10899997e+00 2.11800003e+00 2.13000011e+00
    2.13800001e+00 2.11800003e+00 2.11800003e+00 2.14199996e+00
    2.14599991e+00 1.24699998e+00 0. 0. 0. 0. 0. 0. 0. 0. 2.05599999e+00
    2.05800009e+00 2.05800009e+00 2.05800009e+00 2.05800009e+00
    2.05800009e+00 2.05800009e+00 2.05800009e+00 2.05800009e+00
    2.03999996e+00 2.03099990e+00 2.04099989e+00 2.05800009e+00
    2.05800009e+00 2.05800009e+00 2.05800009e+00 2.05800009e+00
    2.05800009e+00 2.06999993e+00 2.08800006e+00 2.08800006e+00
    2.08800006e+00 2.08800006e+00 2.10899997e+00 2.11800003e+00
    2.11899996e+00 2.11899996e+00 2.11800003e+00 2.11800003e+00
    2.11899996e+00 2.11999989e+00 2.06800008e+00 1.33299994e+00 0. 0. 0.
    0. 0. 0. 0. 2.05800009e+00 2.05800009e+00 2.05800009e+00
    2.05800009e+00 2.05800009e+00 2.05800009e+00 2.05800009e+00
    2.05800009e+00 2.07800007e+00 2.04699993e+00 2.02900004e+00
    2.03099990e+00 2.03500009e+00 2.03500009e+00 2.03500009e+00
    2.03500009e+00 2.03500009e+00 2.03500009e+00 2.05599999e+00
    2.08800006e+00 2.08800006e+00 2.08800006e+00 2.08800006e+00
    2.10899997e+00 2.11800003e+00 2.11800003e+00 2.11100006e+00
    2.09400010e+00 2.09400010e+00 2.09400010e+00 2.09400010e+00
    2.09400010e+00 1.95200002e+00 1.37500000e+00 0. 0. 0. 0. 0. 0.
    2.05800009e+00 2.04299998e+00 2.03900003e+00 2.03900003e+00
    2.03900003e+00 2.03900003e+00 2.03399992e+00 1.98500001e+00
    1.99000001e+00 1.97899997e+00 1.97200000e+00 1.98000002e+00
    1.99100006e+00 1.99100006e+00 1.99100006e+00 2.00600004e+00
    2.00999999e+00 2.01999998e+00 2.05299997e+00 2.08299994e+00
    2.06800008e+00 2.06800008e+00 2.06800008e+00 2.07500005e+00
    2.08899999e+00 2.08999991e+00 2.07500005e+00 2.06800008e+00
    2.06800008e+00 2.06800008e+00 2.06800008e+00 2.04600000e+00
    2.02900004e+00 1.86600006e+00 1.47800004e+00 1.44500005e+00 0. 0. 0.
    0. 2.02699995e+00 2.01699996e+00 2.01399994e+00 2.00600004e+00
    1.99899995e+00 1.99899995e+00 1.99399996e+00 1.94700003e+00
    1.94400001e+00 1.94400001e+00 1.94400001e+00 1.94900000e+00
    1.95700002e+00 1.95700002e+00 1.95700002e+00 1.96800005e+00
    1.97099996e+00 1.98599994e+00 2.02200007e+00 2.05299997e+00
    2.04099989e+00 2.02800012e+00 2.02699995e+00 2.02699995e+00
    2.03500009e+00 2.03600001e+00 2.02699995e+00 2.02699995e+00
    2.02699995e+00 2.02699995e+00 2.03800011e+00 2.01799989e+00
    1.99399996e+00 1.98500001e+00 1.98300004e+00 1.96000004e+00
    1.32200003e+00 0. 0. 0. 1.97800004e+00 1.98699999e+00 1.98899996e+00
    1.97500002e+00 1.96099997e+00 1.96099997e+00 1.96000004e+00
    1.94500005e+00 1.94400001e+00 1.94400001e+00 1.94400001e+00
    1.94000006e+00 1.93400002e+00 1.93400002e+00 1.93400002e+00
    1.94200003e+00 1.94400001e+00 1.95299995e+00 1.98000002e+00
    2.00999999e+00 2.01399994e+00 1.99000001e+00 1.98899996e+00
    1.98199999e+00 1.97800004e+00 1.97800004e+00 1.98099995e+00
    1.98899996e+00 1.98899996e+00 1.99800003e+00 2.01300001e+00
    2.00099993e+00 1.97700000e+00 1.96099997e+00 1.96099997e+00
    1.96099997e+00 1.94599998e+00 0. 0. 0. 1.93700004e+00 1.95400000e+00
    1.95899999e+00 1.94799995e+00 1.93700004e+00 1.93700004e+00
    1.93700004e+00 1.93700004e+00 1.93700004e+00 1.93700004e+00
    1.93700004e+00 1.92999995e+00 1.91499996e+00 1.90999997e+00
    1.90999997e+00 1.92700005e+00 1.93499994e+00 1.94099998e+00
    1.95500004e+00 1.97800004e+00 1.99000001e+00 1.96599996e+00
    1.96500003e+00 1.95000005e+00 1.94400001e+00 1.94400001e+00
    1.95000005e+00 1.96599996e+00 1.97200000e+00 1.99000001e+00
    1.99300003e+00 1.98099995e+00 1.96000004e+00 1.94400001e+00
    1.94400001e+00 1.94400001e+00 1.94400001e+00 0. 0. 0. 1.91400003e+00
    1.91600001e+00 1.91700006e+00 1.91600001e+00 1.91400003e+00
    1.91400003e+00 1.91400003e+00 1.91400003e+00 1.91400003e+00
    1.91600001e+00 1.91700006e+00 1.91600001e+00 1.90799999e+00
    1.88999999e+00 1.88999999e+00 1.88999999e+00 1.90799999e+00
    1.92999995e+00 1.95200002e+00 1.96899998e+00 1.96599996e+00
    1.94400001e+00 1.94400001e+00 1.94400001e+00 1.94400001e+00
    1.94400001e+00 1.94400001e+00 1.94799995e+00 1.97200000e+00
    1.97200000e+00 1.97200000e+00 1.97200000e+00 1.96099997e+00
    1.94599998e+00 1.94400001e+00 1.94400001e+00 1.94400001e+00 0. 0. 0.
    1.89100003e+00 1.91199994e+00 1.91700006e+00 1.90400004e+00
    1.89100003e+00 1.89100003e+00 1.89100003e+00 1.89100003e+00
    1.89100003e+00 1.90799999e+00 1.91700006e+00 1.90699995e+00
    1.89100003e+00 1.88999999e+00 1.88999999e+00 1.88999999e+00
    1.90799999e+00 1.91799998e+00 1.92900002e+00 1.94500005e+00
    1.94500005e+00 1.94400001e+00 1.94400001e+00 1.94400001e+00
    1.94400001e+00 1.94400001e+00 1.94400001e+00 1.94799995e+00
    1.97200000e+00 1.97200000e+00 1.97200000e+00 1.97200000e+00
    1.97200000e+00 1.96300006e+00 1.94400001e+00 1.94400001e+00
    1.94400001e+00 1.90400004e+00 1.01300001e+00 0. 1.84700000e+00
    1.85099995e+00 1.85200000e+00 1.86000001e+00 1.86099994e+00
    1.84700000e+00 1.84899998e+00 1.86699998e+00 1.86899996e+00
    1.88600004e+00 1.88300002e+00 1.87100005e+00 1.86899996e+00
    1.86899996e+00 1.86899996e+00 1.86899996e+00 1.88600004e+00
    1.90699995e+00 1.91900003e+00 1.92200005e+00 1.92400002e+00
    1.94400001e+00 1.94400001e+00 1.94400001e+00 1.94400001e+00
    1.94400001e+00 1.94400001e+00 1.94799995e+00 1.97200000e+00
    1.97200000e+00 1.97200000e+00 1.97200000e+00 1.97200000e+00
    1.97099996e+00 1.96300006e+00 1.94400001e+00 1.94400001e+00
    1.94400001e+00 1.03499997e+00 0. 1.83800006e+00 1.83800006e+00
    1.83800006e+00 1.84200001e+00 1.84300005e+00 1.83800006e+00
    1.83899999e+00 1.84599996e+00 1.84599996e+00 1.85200000e+00
    1.85000002e+00 1.85300004e+00 1.86399996e+00 1.86399996e+00
    1.86399996e+00 1.86399996e+00 1.87000000e+00 1.87699997e+00
    1.88100004e+00 1.88100004e+00 1.88800001e+00 1.94299996e+00
    1.94400001e+00 1.94400001e+00 1.94400001e+00 1.94400001e+00
    1.94400001e+00 1.94500005e+00 1.95299995e+00 1.96899998e+00
    1.97200000e+00 1.97200000e+00 1.97200000e+00 1.97200000e+00
    1.97099996e+00 1.96300006e+00 1.96300006e+00 1.96300006e+00
    1.67499995e+00 1.48000002e+00 1.82400000e+00 1.82400000e+00
    1.83299994e+00 1.83800006e+00 1.83800006e+00 1.83800006e+00
    1.83800006e+00 1.83800006e+00 1.82700002e+00 1.82400000e+00
    1.83200002e+00 1.84800005e+00 1.86399996e+00 1.86399996e+00
    1.86399996e+00 1.86399996e+00 1.86399996e+00 1.86399996e+00
    1.86399996e+00 1.86399996e+00 1.87399995e+00 1.94299996e+00
    1.94400001e+00 1.94400001e+00 1.94400001e+00 1.94400001e+00
    1.94400001e+00 1.94400001e+00 1.94400001e+00 1.96800005e+00
    1.97200000e+00 1.97200000e+00 1.97200000e+00 1.97200000e+00
    1.97200000e+00 1.97200000e+00 1.97200000e+00 1.97200000e+00
    1.97200000e+00 1.97200000e+00 1.81299996e+00 1.81299996e+00
    1.82900000e+00 1.83800006e+00 1.83800006e+00 1.83800006e+00
    1.83800006e+00 1.83800006e+00 1.81799996e+00 1.81299996e+00
    1.82599998e+00 1.84800005e+00 1.86399996e+00 1.86500001e+00
    1.87399995e+00 1.86600006e+00 1.86399996e+00 1.87000000e+00
    1.87899995e+00 1.88499999e+00 1.89300001e+00 1.94299996e+00
    1.95299995e+00 1.95500004e+00 1.94900000e+00 1.94400001e+00
    1.94400001e+00 1.94599998e+00 1.95500004e+00 1.97000003e+00
    1.97200000e+00 1.97200000e+00 1.97200000e+00 1.97500002e+00
    1.98199999e+00 1.97200000e+00 1.97200000e+00 1.97200000e+00
    1.97200000e+00 1.97200000e+00 1.82000005e+00 1.82000005e+00
    1.83200002e+00 1.83800006e+00 1.83800006e+00 1.83800006e+00
    1.83800006e+00 1.83800006e+00 1.82299995e+00 1.82400000e+00
    1.83599997e+00 1.85500002e+00 1.87300003e+00 1.88100004e+00
    1.90300000e+00 1.88300002e+00 1.87800002e+00 1.88800001e+00
    1.90799999e+00 1.92400002e+00 1.92700005e+00 1.95099998e+00
    1.96899998e+00 1.97200000e+00 1.95599997e+00 1.94400001e+00
    1.94400001e+00 1.94799995e+00 1.97200000e+00 1.97200000e+00
    1.97200000e+00 1.97200000e+00 1.97200000e+00 1.97800004e+00
    1.98899996e+00 1.97200000e+00 1.97200000e+00 1.96700001e+00
    1.96500003e+00 1.96500003e+00 1.83800006e+00 1.84099996e+00
    1.84099996e+00 1.84099996e+00 1.84099996e+00 1.84099996e+00
    1.84099996e+00 1.84099996e+00 1.84399998e+00 1.86000001e+00
    1.86699998e+00 1.87699997e+00 1.89900005e+00 1.91999996e+00
    1.94299996e+00 1.92400002e+00 1.91999996e+00 1.92200005e+00
    1.93299997e+00 1.94700003e+00 1.95000005e+00 1.97200000e+00
    1.97200000e+00 1.97000003e+00 1.95299995e+00 1.93900001e+00
    1.93700004e+00 1.94099998e+00 1.96500003e+00 1.96500003e+00
    1.96500003e+00 1.96500003e+00 1.96700001e+00 1.96899998e+00
    1.96899998e+00 1.96899998e+00 1.96599996e+00 1.94200003e+00
    1.92900002e+00 1.92499995e+00 1.83800006e+00 1.85800004e+00
    1.86399996e+00 1.86399996e+00 1.86399996e+00 1.86399996e+00
    1.86399996e+00 1.86399996e+00 1.88399994e+00 1.88900006e+00
    1.88999999e+00 1.89999998e+00 1.91700006e+00 1.91999996e+00
    1.94299996e+00 1.94400001e+00 1.94400001e+00 1.95799994e+00
    1.97099996e+00 1.97099996e+00 1.97200000e+00 1.97200000e+00
    1.97200000e+00 1.95299995e+00 1.92900002e+00 1.90600002e+00
    1.89100003e+00 1.89499998e+00 1.91799998e+00 1.91799998e+00
    1.91799998e+00 1.91799998e+00 1.92999995e+00 1.94500005e+00
    1.94500005e+00 1.94400001e+00 1.92100000e+00 1.87899995e+00
    1.82099998e+00 1.79100001e+00 1.86000001e+00 1.86300004e+00
    1.86399996e+00 1.86399996e+00 1.87199998e+00 1.88600004e+00
    1.88800001e+00 1.90699995e+00 1.91199994e+00 1.91299999e+00
    1.91299999e+00 1.91400003e+00 1.91700006e+00 1.91999996e+00
    1.94299996e+00 1.94400001e+00 1.94400001e+00 1.94599998e+00
    1.94799995e+00 1.94799995e+00 1.94799995e+00 1.94799995e+00
    1.94799995e+00 1.92900002e+00 1.90600002e+00 1.84800005e+00
    1.78299999e+00 1.78400004e+00 1.78699994e+00 1.78699994e+00
    1.78699994e+00 1.84899998e+00 1.89600003e+00 1.91199994e+00
    1.91999996e+00 1.79200006e+00 1.78799999e+00 1.79700005e+00
    1.77999997e+00 1.76699996e+00 1.86399996e+00 1.86399996e+00
    1.87600005e+00 1.88199997e+00 1.88499999e+00 1.89400005e+00
    1.90999997e+00 1.91700006e+00 1.91700006e+00 1.91700006e+00
    1.90699995e+00 1.89800000e+00 1.78199995e+00 1.42299998e+00
    1.41999996e+00 1.41999996e+00 1.64699996e+00 1.75100005e+00
    1.75100005e+00 1.75100005e+00 1.75100005e+00 1.75100005e+00
    1.75100005e+00 1.74600005e+00 1.82500005e+00 1.83700001e+00
    1.65499997e+00 1.37600005e+00 1.36600006e+00 1.36600006e+00
    1.35800004e+00 1.37699997e+00 1.54299998e+00 1.74000001e+00
    1.75000000e+00 1.74600005e+00 1.74600005e+00 1.75199997e+00
    1.74899995e+00 1.74600005e+00 0. 0. 0. 0. 0. 0. 0. 0. 0. 0. 0. 0. 0.
    0. 0. 0. 0. 0. 0. 0. 0. 0. 0. 0. 0. 0. 0. 0. 0. 0. 0. 0. 0. 0. 0. 0.
    0. 0. 0. 0. 0. 0. 0. 0. 0. 0. 0. 0. 0. 0. 0. 0. 0. 0. 0. 0. 0. 0. 0.
    0. 0. 0. 0. 0. 0. 0. 0. 0. 0. 0. 0. 0. 0. 0. 0. 0. 0. 0. 0. 0. 0. 0.
    0. 0. 0. 0. 0. 0. 0. 0. 0. 0. 0. 0. 0. 0. 0. 0. 0. 0. 0. 0. 0. 0. 0.
    0. 0. 0. 0. 0. 0. 0. 0. 0. 0. 0. 0. 0. 0. 0. 0. 0. 0. 0. 0. 0. 0. 0.
    0. 0. 0. 0. 0. 0. 0. 0. 0. 0. 0. 0. 0. 0. 0. 0. 0. 0. 0. 0. 0. 0. 0.
    0. 0. 0. 0. 0. 0. 0. 0. 0. 0. 0. 0. 0. 0. 0. 0. 0. 0. 0. 0. 0. 0. 0.
    0. 0. 0. 0. 0. 0. 0. 0. 0. 0. 0. 0. 0. 0. 0. 0. 0. 0. 0. 0. 0. 0. 0.
    0. 0. 0. 0. 0. 0. 0. 0. 0. 0. 0. 0. 0. 0. 0. 0. 0. 0. 0. 0. 0. 0. 0.
    0. 0. 0. 0. 0. 0. 0. 0. 0. 0. 0. 0. 0. 0. 0. 0. 0. 0. 0. 0. 0. 0. 0.
    0. 0. 0. 0. 0. 0. 0. 0. 0. 0. 0. 0. 0. 0. 0. 0. 0. 0. 0. 0. 0. 0. 0.
    0. 0. 0. 0. 0. 0. 0. 0. 0. 0. 0. 0. 0. 0. 0. 0. 0. 0. 0. 0. 0. 0. 0.
    0. 0. 0. 0. 0. 0. 0. 0. 0. 0. 0. 0. 0. 0. 0. 0. 0. 0. 0. 0. 0. 0. 0.
    0. 0. 0. 0. 0. 0. 0. 0.</data></Depth>
</opencv_storage>
