<?xml version="1.0"?>
<opencv_storage>
<Depth type_id="opencv-matrix">
  <rows>40</rows>
  <cols>40</cols>
  <dt>f</dt>
  <data>
    0. 0. 0. 0. 0. 0. 0. 0. 0. 0. 0. 0. 0. 0. 0. 0. 0. 0. 0. 0. 0. 0. 0.
    0. 0. 0. 0. 0. 0. 0. 0. 0. 0. 0. 0. 0. 0. 0. 0. 0. 0. 0. 0. 0. 0. 0.
    0. 0. 0. 0. 0. 0. 0. 0. 0. 0. 0. 0. 0. 0. 0. 0. 0. 0. 0. 0. 0. 0. 0.
    0. 0. 0. 0. 0. 0. 0. 0. 0. 0. 0. 0. 0. 0. 0. 0. 0. 0. 0.
    2.01799989e+00 2.01799989e+00 2.38400006e+00 2.44300008e+00 0.
    2.74000001e+00 2.43199992e+00 2.42400002e+00 2.42400002e+00
    2.41100001e+00 2.00600004e+00 2.00300002e+00 2.22399998e+00
    2.39800000e+00 2. 2.00300002e+00 1.99699998e+00 1.99699998e+00
    1.99699998e+00 1.99699998e+00 1.99399996e+00 1.99600005e+00
    1.99800003e+00 1.52999997e+00 0. 0. 0. 0. 0. 0. 0. 0. 0. 0. 0. 0. 0.
    0. 0. 2.00799990e+00 2.00399995e+00 2.00600004e+00 2.00600004e+00
    2.00699997e+00 2.00399995e+00 2.00600004e+00 2.00699997e+00
    2.00699997e+00 2.00600004e+00 2.00399995e+00 2.00300002e+00
    2.00399995e+00 2.00399995e+00 2.00200009e+00 2. 2.00099993e+00
    1.99699998e+00 1.99699998e+00 1.99699998e+00 1.99699998e+00
    1.99699998e+00 1.99699998e+00 1.99600005e+00 1.04900002e+00 0. 0. 0.
    0. 0. 0. 0. 0. 0. 0. 0. 0. 0. 0. 0. 2.00600004e+00 2.00600004e+00
    2.00699997e+00 2.00600004e+00 2.00799990e+00 2.00799990e+00
    2.00600004e+00 2.00399995e+00 2.00500011e+00 2.00300002e+00
    2.00300002e+00 2.00300002e+00 2.00500011e+00 2.00300002e+00
    2.00200009e+00 2. 1.99899995e+00 1.99699998e+00 1.99699998e+00
    1.99699998e+00 1.99399996e+00 1.99399996e+00 1.99600005e+00
    1.98500001e+00 1.04799998e+00 0. 0. 0. 0. 0. 0. 0. 0. 0. 0. 0. 0. 0.
    0. 0. 2.00900006e+00 2.00900006e+00 2.00900006e+00 2.00600004e+00
    2.00600004e+00 2.00900006e+00 2.00600004e+00 2.00399995e+00
    2.00300002e+00 2.00300002e+00 2.00300002e+00 2.00300002e+00
    2.00300002e+00 2. 2.00300002e+00 2. 1.99800003e+00 1.99699998e+00
    1.99399996e+00 1.99699998e+00 1.99399996e+00 1.99399996e+00
    1.99600005e+00 1.98899996e+00 1.18900001e+00 0. 0. 0. 0. 0. 0. 0. 0.
    0. 0. 0. 0. 0. 0. 0. 1.92100000e+00 2.00600004e+00 2.00799990e+00
    2.00799990e+00 2.00500011e+00 2.00699997e+00 2.00900006e+00
    2.00699997e+00 2.00300002e+00 2.00600004e+00 2.00300002e+00
    2.00300002e+00 2.00099993e+00 2. 2. 2. 1.99800003e+00 1.99699998e+00
    1.99699998e+00 1.99699998e+00 1.99399996e+00 1.99399996e+00
    1.99399996e+00 1.99100006e+00 1.04900002e+00 0. 0. 0. 0. 0. 0. 0. 0.
    0. 0. 0. 0. 0. 0. 0. 2.00600004e+00 2.00399995e+00 2.00900006e+00
    2.00900006e+00 2.00699997e+00 2.00900006e+00 2.00600004e+00
    2.00600004e+00 2.00300002e+00 2.00600004e+00 2.00600004e+00
    2.00200009e+00 2. 2.00099993e+00 2. 2. 1.99800003e+00 1.99699998e+00
    1.99699998e+00 1.99699998e+00 1.99399996e+00 1.99399996e+00
    1.99399996e+00 1.99199998e+00 0. 0. 0. 0. 0. 0. 0. 0. 0. 0. 0. 0. 0.
    0. 0. 0. 2.00600004e+00 2.00600004e+00 2.00900006e+00 2.00600004e+00
    2.00600004e+00 2.00799990e+00 2.00300002e+00 2.00500011e+00
    2.00300002e+00 2.00600004e+00 2. 2.00300002e+00 2.00300002e+00 2. 2.
    2. 1.99800003e+00 1.99699998e+00 1.99699998e+00 1.99399996e+00
    1.99399996e+00 1.99399996e+00 1.99399996e+00 1.99399996e+00 0. 0. 0.
    0. 0. 0. 0. 0. 0. 0. 0. 0. 0. 0. 0. 0. 2.00900006e+00 2.00600004e+00
    2.00600004e+00 2.00799990e+00 2.00600004e+00 2.00600004e+00
    2.00600004e+00 2.00600004e+00 2.00600004e+00 2.00600004e+00
    2.00300002e+00 2.00200009e+00 2.00300002e+00 2. 2. 2. 1.99800003e+00
    1.99699998e+00 1.99399996e+00 1.99399996e+00 1.99399996e+00
    1.99399996e+00 1.99399996e+00 1.99100006e+00 0. 0. 0. 0. 0. 0. 0. 0.
    0. 0. 0. 0. 0. 0. 0. 0. 2.00799990e+00 2.00900006e+00 2.00600004e+00
    2.00600004e+00 2.00600004e+00 2.00600004e+00 2.00600004e+00
    2.00600004e+00 2.00600004e+00 2.00300002e+00 2.00300002e+00
    2.00300002e+00 2. 2. 2. 2. 1.99800003e+00 1.99699998e+00
    1.99699998e+00 1.99399996e+00 1.99399996e+00 1.99399996e+00
    1.99399996e+00 1.99399996e+00 0. 0. 0. 0. 0. 0. 0. 0. 0. 0. 0. 0. 0.
    0. 0. 0. 2.00600004e+00 2.00799990e+00 2.00900006e+00 2.00600004e+00
    2.00600004e+00 2.00600004e+00 2.00300002e+00 2.00500011e+00
    2.00300002e+00 2.00300002e+00 2.00300002e+00 2.00300002e+00 2. 2. 2.
    2. 1.99800003e+00 1.99600005e+00 1.99399996e+00 1.99399996e+00
    1.99399996e+00 1.99399996e+00 1.99399996e+00 1.99100006e+00 0. 0. 0.
    0. 0. 0. 0. 0. 0. 0. 0. 0. 0. 0. 0. 0. 2.00600004e+00 2.00500011e+00
    2.00600004e+00 2.00600004e+00 2.00600004e+00 2.00699997e+00
    2.00500011e+00 2.00500011e+00 2.00300002e+00 2.00300002e+00
    2.00300002e+00 2.00300002e+00 2.00099993e+00 2. 2. 2. 1.99800003e+00
    1.99399996e+00 1.99399996e+00 1.99399996e+00 1.99399996e+00
    1.99399996e+00 1.99199998e+00 1.98800004e+00 0. 0. 0. 0. 0. 0. 0. 0.
    0. 0. 0. 0. 0. 0. 0. 0. 2.00600004e+00 2.00600004e+00 2.00600004e+00
    2.00500011e+00 2.00500011e+00 2.00300002e+00 2.00600004e+00
    2.00399995e+00 2.00200009e+00 2.00300002e+00 2.00300002e+00 2. 2. 2.
    1.99899995e+00 2. 1.99800003e+00 1.99399996e+00 1.99399996e+00
    1.99399996e+00 1.99100006e+00 1.98800004e+00 1.99100006e+00
    1.98800004e+00 1.04900002e+00 0. 0. 0. 0. 0. 0. 0. 0. 0. 0. 0. 0. 0.
    0. 0. 2.00900006e+00 2.00600004e+00 2.00500011e+00 2.00300002e+00
    2.00300002e+00 2.00300002e+00 2.00300002e+00 2.00600004e+00
    2.00300002e+00 2. 2.00300002e+00 2. 2. 1.99800003e+00 1.99699998e+00
    2. 1.99800003e+00 1.99399996e+00 1.99399996e+00 1.99399996e+00
    1.99100006e+00 1.99100006e+00 1.99000001e+00 1.98699999e+00
    1.04799998e+00 0. 0. 0. 0. 0. 0. 0. 0. 0. 0. 0. 0. 0. 0. 0.
    2.00900006e+00 2.00600004e+00 2.00300002e+00 2.00300002e+00
    2.00500011e+00 2.00600004e+00 2.00300002e+00 2.00300002e+00
    2.00300002e+00 2. 2.00099993e+00 2. 2. 2. 2. 1.99699998e+00
    1.99500000e+00 1.99399996e+00 1.99399996e+00 1.99399996e+00
    1.99100006e+00 1.99000001e+00 1.99000001e+00 1.98800004e+00
    1.04799998e+00 0. 0. 0. 0. 0. 0. 0. 0. 0. 0. 0. 0. 0. 0. 0.
    1.96800005e+00 2.00600004e+00 2.00500011e+00 2.00300002e+00
    2.00600004e+00 2.00600004e+00 2.00600004e+00 2.00300002e+00
    2.00200009e+00 2. 2. 2. 2. 2. 1.99899995e+00 1.99699998e+00
    1.99500000e+00 1.99399996e+00 1.99100006e+00 1.99300003e+00
    1.99100006e+00 1.99100006e+00 1.99000001e+00 1.98899996e+00
    1.04900002e+00 0. 0. 0. 0. 0. 0. 0. 0. 0. 0. 0. 0. 0. 0. 0.
    1.84300005e+00 2.00399995e+00 2.00200009e+00 2. 2.00300002e+00
    2.00300002e+00 2. 2.00399995e+00 2. 2. 2. 2. 2. 1.99800003e+00
    1.99699998e+00 1.99699998e+00 1.99500000e+00 1.99399996e+00
    1.99100006e+00 1.99100006e+00 1.99100006e+00 1.99100006e+00
    1.98800004e+00 1.98899996e+00 1.04900002e+00 0. 0. 0. 0. 0. 0. 0. 0.
    0. 0. 0. 0. 0. 0. 0. 1.93700004e+00 2.00600004e+00 2.00600004e+00
    2.00200009e+00 2.00300002e+00 2.00200009e+00 2. 2.00500011e+00 2. 2.
    2. 2. 2. 1.99699998e+00 1.99699998e+00 1.99699998e+00 1.99500000e+00
    1.99399996e+00 1.99100006e+00 1.98800004e+00 1.99100006e+00
    1.98800004e+00 1.98699999e+00 1.82700002e+00 0. 0. 0. 0. 0. 0. 0. 0.
    0. 0. 0. 0. 0. 0. 0. 0. 2.00699997e+00 2.00600004e+00 2.00500011e+00
    2.00300002e+00 2.00300002e+00 2.00300002e+00 2. 2.00300002e+00 2. 2.
    2. 2. 2. 1.99699998e+00 1.99699998e+00 1.99699998e+00 1.99500000e+00
    1.99399996e+00 1.99100006e+00 1.98899996e+00 1.98800004e+00
    1.98800004e+00 1.98500001e+00 1.71200001e+00 0. 0. 0. 0. 0. 0. 0. 0.
    0. 0. 0. 0. 0. 0. 0. 0. 2.00600004e+00 2.00600004e+00 2.00500011e+00
    2.00300002e+00 2.00300002e+00 2.00300002e+00 2.00300002e+00
    2.00300002e+00 2. 2. 2. 2. 2. 1.99800003e+00 1.99699998e+00
    1.99699998e+00 1.99399996e+00 1.99199998e+00 1.99399996e+00
    1.99100006e+00 1.98699999e+00 1.98500001e+00 1.98699999e+00
    1.05400002e+00 0. 0. 0. 0. 0. 0. 0. 0. 0. 0. 0. 0. 0. 0. 0. 0.
    2.00500011e+00 2.00099993e+00 2. 2. 2.00099993e+00 2. 2.00300002e+00
    2.00099993e+00 2.00099993e+00 2.00200009e+00 2. 2. 1.99800003e+00
    1.99699998e+00 1.99699998e+00 1.99699998e+00 1.99100006e+00
    1.99100006e+00 1.99199998e+00 1.98899996e+00 1.98800004e+00
    1.98500001e+00 1.98500001e+00 0. 0. 0. 0. 0. 0. 0. 0. 0. 0. 0. 0. 0.
    0. 0. 0. 0. 1.83800006e+00 2.00200009e+00 2.00099993e+00
    2.00200009e+00 2. 2. 2. 2. 2. 2. 2. 2. 1.99699998e+00 1.99699998e+00
    1.99699998e+00 1.99699998e+00 1.99300003e+00 1.99100006e+00
    1.99100006e+00 1.98800004e+00 1.98800004e+00 1.98800004e+00
    1.98800004e+00 0. 0. 0. 0. 0. 0. 0. 0. 0. 0. 0. 0. 0. 0. 0. 0. 0.
    1.84200001e+00 2.00500011e+00 2.00300002e+00 2. 2. 2. 2. 2. 2. 2.
    1.99800003e+00 1.99699998e+00 1.99699998e+00 1.99699998e+00
    1.99600005e+00 1.99699998e+00 1.99100006e+00 1.98800004e+00
    1.99100006e+00 1.99100006e+00 1.98699999e+00 1.98500001e+00
    1.98699999e+00 0. 0. 0. 0. 0. 0. 0. 0. 0. 0. 0. 0. 0. 0. 0. 0. 0.
    2.00699997e+00 2.00200009e+00 2. 2.00300002e+00 2. 2. 2. 2. 2. 2.
    1.99899995e+00 2. 1.99699998e+00 1.99800003e+00 1.99699998e+00
    1.99699998e+00 1.99100006e+00 1.99000001e+00 1.99100006e+00
    1.99000001e+00 1.98599994e+00 1.98500001e+00 1.98500001e+00 0. 0. 0.
    0. 0. 0. 0. 0. 0. 0. 0. 0. 0. 0. 0. 0. 0. 1.99699998e+00 2. 2. 2. 2.
    2. 2. 2. 2. 2. 2. 1.99699998e+00 1.99699998e+00 1.99699998e+00
    1.99699998e+00 1.99699998e+00 1.99399996e+00 1.99100006e+00
    1.99000001e+00 1.99100006e+00 1.98800004e+00 1.98699999e+00
    1.98699999e+00 0. 0. 0. 0. 0. 0. 0. 0. 0. 0. 0. 0. 0. 0. 0. 0. 0.
    1.99199998e+00 2. 2. 2. 2. 2. 2. 2. 2. 2. 2. 1.99699998e+00
    1.99699998e+00 1.99699998e+00 1.99699998e+00 1.99699998e+00
    1.99399996e+00 1.99100006e+00 1.99100006e+00 1.99100006e+00
    1.98500001e+00 1.98500001e+00 1.98500001e+00 0. 0. 0. 0. 0. 0. 0. 0.
    0. 0. 0. 0. 0. 0. 0. 0. 0. 2.00200009e+00 2.00300002e+00
    2.00200009e+00 2. 2. 2. 2. 2. 1.99699998e+00 1.99699998e+00 2.
    1.99699998e+00 1.99699998e+00 1.99699998e+00 1.99699998e+00
    1.99399996e+00 1.99100006e+00 1.99100006e+00 1.98899996e+00
    1.98800004e+00 1.98699999e+00 1.98500001e+00 1.98500001e+00 0. 0. 0.
    0. 0. 0. 0. 0. 0. 0. 0. 0. 0. 0. 0. 0. 0. 1.59200001e+00
    2.00300002e+00 2. 2. 2. 2. 2. 2. 1.99899995e+00 1.99699998e+00
    1.99699998e+00 1.99699998e+00 1.99699998e+00 1.99699998e+00
    1.99699998e+00 1.99399996e+00 1.99100006e+00 1.99100006e+00
    1.98899996e+00 1.98800004e+00 1.98500001e+00 1.98500001e+00
    1.98500001e+00 0. 0. 0. 0. 0. 0. 0. 0. 0. 0. 0. 0. 0. 0. 0. 0. 0.
    1.80499995e+00 2. 2. 2. 2. 2. 2. 2. 1.99699998e+00 1.99699998e+00
    1.99699998e+00 1.99699998e+00 1.99699998e+00 1.99699998e+00
    1.99699998e+00 1.99399996e+00 1.99100006e+00 1.99100006e+00
    1.99100006e+00 1.98899996e+00 1.98500001e+00 1.98500001e+00
    1.98500001e+00 0. 0. 0. 0. 0. 0. 0. 0. 0. 0. 0. 0. 0. 0. 0. 0. 0. 0.
    2. 2. 2. 2. 2. 2. 2. 1.99899995e+00 1.99699998e+00 1.99699998e+00
    1.99699998e+00 1.99699998e+00 1.99699998e+00 1.99699998e+00
    1.99500000e+00 1.99100006e+00 1.99199998e+00 1.99100006e+00
    1.98899996e+00 1.98599994e+00 1.98500001e+00 1.98399997e+00 0. 0. 0.
    0. 0. 0. 0. 0. 0. 0. 0. 0. 0. 0. 0. 0. 0. 1.84300005e+00
    2.00099993e+00 2. 2. 2. 2. 2. 1.99899995e+00 1.99699998e+00
    1.99699998e+00 1.99699998e+00 1.99699998e+00 1.99699998e+00
    1.99699998e+00 1.99600005e+00 1.99399996e+00 1.99100006e+00
    1.99100006e+00 1.98800004e+00 1.98500001e+00 1.98699999e+00
    1.98500001e+00 1.98500001e+00 1.71399999e+00 0. 0. 0. 0. 0. 0. 0. 0.
    0. 0. 0. 0. 0. 0. 0. 0. 1.84000003e+00 2. 2. 2. 2. 2. 2.
    1.99699998e+00 1.99699998e+00 1.99699998e+00 1.99699998e+00
    1.99699998e+00 1.99699998e+00 1.99399996e+00 1.99399996e+00
    1.99399996e+00 1.99100006e+00 1.98800004e+00 1.98800004e+00
    1.98500001e+00 1.98500001e+00 1.98500001e+00 1.98500001e+00
    1.98399997e+00 1.95700002e+00 0. 0. 0. 0. 0. 0. 0. 0. 0. 0. 0. 0. 0.
    0. 0. 0. 2.00200009e+00 2. 2. 2. 2. 2. 1.99800003e+00 1.99699998e+00
    1.99699998e+00 1.99699998e+00 1.99699998e+00 1.99699998e+00
    1.99399996e+00 1.99399996e+00 1.99399996e+00 1.98899996e+00
    1.98800004e+00 1.98800004e+00 1.98699999e+00 1.98800004e+00
    1.98800004e+00 1.98599994e+00 1.98500001e+00 1.98300004e+00 0. 0. 0.
    0. 0. 0. 0. 0. 0. 0. 0. 0. 0. 0. 0. 0. 2.00099993e+00 2. 2. 2.
    1.99899995e+00 1.99800003e+00 1.99899995e+00 1.99699998e+00
    1.99699998e+00 1.99699998e+00 1.99699998e+00 1.99699998e+00
    1.99399996e+00 1.99399996e+00 1.99399996e+00 1.99100006e+00
    1.98800004e+00 1.98800004e+00 1.98899996e+00 1.98800004e+00
    1.98500001e+00 1.98800004e+00 1.98500001e+00 1.98300004e+00 0. 0. 0.
    0. 0. 0. 0. 0. 0. 0. 0. 0. 0. 0. 0. 0. 2. 2. 2. 2. 1.99899995e+00
    1.99699998e+00 1.99699998e+00 1.99699998e+00 1.99699998e+00
    1.99699998e+00 1.99699998e+00 1.99699998e+00 1.99399996e+00
    1.99500000e+00 1.99399996e+00 1.99100006e+00 1.98800004e+00
    1.98800004e+00 1.98800004e+00 1.98800004e+00 1.98500001e+00
    1.98500001e+00 1.98399997e+00 1.98300004e+00 0. 0. 0. 0. 0. 0. 0. 0.
    0. 0. 0. 0. 0. 0. 0. 1.83500004e+00 1.99800003e+00 1.99699998e+00
    1.99699998e+00 2. 2. 1.99699998e+00 1.99699998e+00 1.99699998e+00
    1.99699998e+00 1.99699998e+00 1.99699998e+00 1.99699998e+00
    1.99199998e+00 1.99399996e+00 1.99500000e+00 1.99100006e+00
    1.99100006e+00 1.98800004e+00 1.98800004e+00 1.98800004e+00
    1.98500001e+00 1.98500001e+00 1.98500001e+00 1.98300004e+00 0. 0. 0.
    0. 0. 0. 0. 0. 0. 0. 0. 0. 0. 0. 0. 2.47199988e+00 2. 1.99699998e+00
    1.99699998e+00 1.99699998e+00 2. 1.99699998e+00 1.99399996e+00
    1.99399996e+00 1.99699998e+00 1.99800003e+00 1.99399996e+00
    1.99399996e+00 0. 0. 1.99399996e+00 1.99199998e+00 1.98699999e+00
    1.98800004e+00 2.90899992e+00 1.99000001e+00 0. 1.98399997e+00
    1.98500001e+00 0. 0. 0. 0. 0. 0. 0. 0. 0. 0. 0. 0. 0. 0. 0. 0. 0. 0.
    0. 0. 0. 0. 0. 0. 0. 0. 0. 0. 0. 0. 0. 0. 0. 0. 0. 0. 0. 0. 0. 0. 0.
    0. 0. 0. 0. 0. 0. 0. 0. 0. 0. 0. 0. 0. 0. 0. 0. 0. 0. 0. 0. 0. 0. 0.
    0. 0. 0. 0. 0. 0. 0. 0. 0. 0. 0. 0. 0. 0. 0. 0. 0. 0. 0. 0. 0. 0. 0.
    0. 0.</data></Depth>
</opencv_storage>
