<?xml version="1.0"?>
<opencv_storage>
<Depth type_id="opencv-matrix">
  <rows>40</rows>
  <cols>40</cols>
  <dt>f</dt>
  <data>
    0. 0. 0. 0. 0. 0. 0. 1.89999998e+00 1.97700000e+00 1.97300005e+00
    1.96800005e+00 1.67100000e+00 1.49899995e+00 1.97200000e+00
    1.97700000e+00 1.98000002e+00 1.97200000e+00 0. 0. 0. 2.59999990e+00
    1.98000002e+00 2.82100010e+00 0. 0. 0. 1.98599994e+00 1.98300004e+00
    1.96500003e+00 0. 0. 1.87300003e+00 0. 0. 0. 0. 0. 0. 0. 0. 0. 0. 0.
    0. 0. 0. 0. 1.97000003e+00 1.97000003e+00 1.97000003e+00
    1.97000003e+00 1.97200000e+00 1.97500002e+00 1.97500002e+00
    1.97500002e+00 1.98000002e+00 1.97300005e+00 1.97300005e+00
    1.97800004e+00 1.98000002e+00 1.98000002e+00 1.97899997e+00
    1.98199999e+00 1.98000002e+00 1.98000002e+00 1.98000002e+00
    1.98199999e+00 1.98399997e+00 1.98500001e+00 1.98800004e+00
    1.98599994e+00 1.98300004e+00 0. 0. 0. 0. 0. 0. 0. 0. 0. 0. 0. 0. 0.
    0. 0. 1.97000003e+00 1.97099996e+00 1.97000003e+00 1.97000003e+00
    1.97200000e+00 1.97500002e+00 1.97599995e+00 1.97800004e+00
    1.98000002e+00 1.97500002e+00 1.97800004e+00 1.97800004e+00
    1.98000002e+00 1.97899997e+00 1.97800004e+00 1.98000002e+00
    1.98000002e+00 1.98000002e+00 1.98000002e+00 1.98000002e+00
    1.98000002e+00 1.98000002e+00 1.98300004e+00 1.98599994e+00
    1.98599994e+00 0. 0. 0. 0. 0. 0. 0. 0. 0. 0. 0. 0. 0. 0. 0.
    1.87399995e+00 1.97200000e+00 1.97200000e+00 1.97200000e+00
    1.97399998e+00 1.97599995e+00 1.97800004e+00 1.98000002e+00
    1.97800004e+00 1.98000002e+00 1.98000002e+00 1.98000002e+00
    1.98000002e+00 1.98000002e+00 1.98000002e+00 1.98000002e+00
    1.98099995e+00 1.98300004e+00 1.98300004e+00 1.98300004e+00
    1.98300004e+00 1.98300004e+00 1.98599994e+00 1.98599994e+00
    1.98599994e+00 0. 0. 0. 0. 0. 0. 0. 0. 0. 0. 0. 0. 0. 0. 0.
    1.97399998e+00 1.97399998e+00 1.97300005e+00 1.97200000e+00
    1.97599995e+00 1.97800004e+00 1.97800004e+00 1.98000002e+00
    1.98000002e+00 1.98000002e+00 1.98000002e+00 1.98000002e+00
    1.98099995e+00 1.98000002e+00 1.98000002e+00 1.98199999e+00
    1.98300004e+00 1.98300004e+00 1.98300004e+00 1.98300004e+00
    1.98300004e+00 1.98300004e+00 1.98599994e+00 1.98599994e+00
    1.98599994e+00 0. 0. 0. 0. 0. 0. 0. 0. 0. 0. 0. 0. 0. 0. 0.
    1.97500002e+00 1.97300005e+00 1.97399998e+00 1.97200000e+00
    1.97700000e+00 1.97800004e+00 1.97800004e+00 1.98000002e+00
    1.98000002e+00 1.98000002e+00 1.98099995e+00 1.98300004e+00
    1.98300004e+00 1.98300004e+00 1.98300004e+00 1.98300004e+00
    1.98300004e+00 1.98300004e+00 1.98300004e+00 1.98300004e+00
    1.98300004e+00 1.98300004e+00 1.98699999e+00 1.98899996e+00
    1.98599994e+00 0. 0. 0. 0. 0. 0. 0. 0. 0. 0. 0. 0. 0. 0. 0.
    1.84300005e+00 1.97500002e+00 1.97500002e+00 1.97200000e+00
    1.97800004e+00 1.97800004e+00 1.97800004e+00 1.98000002e+00
    1.98199999e+00 1.98300004e+00 1.98300004e+00 1.98300004e+00
    1.98300004e+00 1.98300004e+00 1.98000002e+00 1.98300004e+00
    1.98300004e+00 1.98599994e+00 1.98599994e+00 1.98300004e+00
    1.98300004e+00 1.98599994e+00 1.98699999e+00 1.99000001e+00
    1.98599994e+00 0. 0. 0. 0. 0. 0. 0. 0. 0. 0. 0. 0. 0. 0. 0.
    1.84599996e+00 1.97800004e+00 1.97800004e+00 1.97599995e+00
    1.97700000e+00 1.97800004e+00 1.97899997e+00 1.98300004e+00
    1.98199999e+00 1.98399997e+00 1.98599994e+00 1.98500001e+00
    1.98599994e+00 1.98300004e+00 1.98300004e+00 1.98300004e+00
    1.98599994e+00 1.98599994e+00 1.98599994e+00 1.98599994e+00
    1.99000001e+00 1.98800004e+00 1.98899996e+00 1.99100006e+00
    1.98800004e+00 0. 0. 0. 0. 0. 0. 0. 0. 0. 0. 0. 0. 0. 0. 0.
    1.97899997e+00 1.97800004e+00 1.97800004e+00 1.97800004e+00
    1.97800004e+00 1.97899997e+00 1.98099995e+00 1.98399997e+00
    1.98300004e+00 1.98399997e+00 1.98599994e+00 1.98599994e+00
    1.98399997e+00 1.98300004e+00 1.98399997e+00 1.98399997e+00
    1.98899996e+00 1.98899996e+00 1.98800004e+00 1.98899996e+00
    1.98899996e+00 1.98899996e+00 1.98899996e+00 1.99100006e+00
    1.98899996e+00 0. 0. 0. 0. 0. 0. 0. 0. 0. 0. 0. 0. 0. 0. 0.
    1.98000002e+00 1.97800004e+00 1.97800004e+00 1.97800004e+00
    1.97800004e+00 1.98000002e+00 1.98099995e+00 1.98899996e+00
    1.98599994e+00 1.98399997e+00 1.98599994e+00 1.98899996e+00
    1.98599994e+00 1.98599994e+00 1.98899996e+00 1.98899996e+00
    1.98899996e+00 1.98899996e+00 1.98899996e+00 1.98899996e+00
    1.99100006e+00 1.98899996e+00 1.99100006e+00 1.99100006e+00
    1.99399996e+00 0. 0. 0. 0. 0. 0. 0. 0. 0. 0. 0. 0. 0. 0. 0.
    1.86800003e+00 1.97800004e+00 1.97800004e+00 1.97800004e+00
    1.98000002e+00 1.98000002e+00 1.98099995e+00 1.98599994e+00
    1.98699999e+00 1.98500001e+00 1.98599994e+00 1.99000001e+00
    1.98899996e+00 1.98599994e+00 1.98899996e+00 1.99000001e+00
    1.99100006e+00 1.98899996e+00 1.98899996e+00 1.99100006e+00
    1.99100006e+00 1.99100006e+00 1.99399996e+00 1.99399996e+00
    1.99399996e+00 0. 0. 0. 0. 0. 0. 0. 0. 0. 0. 0. 0. 0. 0. 0.
    1.97500002e+00 1.98000002e+00 1.98000002e+00 1.97899997e+00
    1.98000002e+00 1.98000002e+00 1.98300004e+00 1.98599994e+00
    1.98599994e+00 1.98599994e+00 1.98899996e+00 1.99100006e+00
    1.98899996e+00 1.98899996e+00 1.98899996e+00 1.99100006e+00
    1.99100006e+00 1.99100006e+00 1.99100006e+00 1.99100006e+00
    1.99100006e+00 1.99100006e+00 1.99399996e+00 1.99600005e+00
    1.99399996e+00 0. 0. 0. 0. 0. 0. 0. 0. 0. 0. 0. 0. 0. 0. 0.
    1.84800005e+00 1.98000002e+00 1.98000002e+00 1.98000002e+00
    1.98000002e+00 1.98099995e+00 1.98399997e+00 1.98899996e+00
    1.98399997e+00 1.98800004e+00 1.98899996e+00 1.99100006e+00
    1.99100006e+00 1.99100006e+00 1.99100006e+00 1.99100006e+00
    1.99199998e+00 1.99300003e+00 1.99100006e+00 1.99100006e+00
    1.99399996e+00 1.99399996e+00 1.99399996e+00 1.99699998e+00
    1.91400003e+00 0. 0. 0. 0. 0. 0. 0. 0. 0. 0. 0. 0. 0. 0. 0.
    1.98399997e+00 1.98000002e+00 1.98099995e+00 1.98000002e+00
    1.98000002e+00 1.98300004e+00 1.98399997e+00 1.98899996e+00
    1.98899996e+00 1.99000001e+00 1.99100006e+00 1.99100006e+00
    1.99100006e+00 1.99100006e+00 1.99100006e+00 1.99100006e+00
    1.99399996e+00 1.99399996e+00 1.99399996e+00 1.99399996e+00
    1.99399996e+00 1.99399996e+00 1.99699998e+00 2. 1.03100002e+00 0. 0.
    0. 0. 0. 0. 0. 0. 0. 0. 0. 0. 0. 0. 0. 1.98599994e+00 1.98300004e+00
    1.98199999e+00 1.98500001e+00 1.98500001e+00 1.98300004e+00
    1.98699999e+00 1.98899996e+00 1.99100006e+00 1.99100006e+00
    1.99100006e+00 1.99100006e+00 1.99199998e+00 1.99300003e+00
    1.99100006e+00 1.99399996e+00 1.99399996e+00 1.99399996e+00
    1.99399996e+00 1.99399996e+00 1.99399996e+00 1.99399996e+00
    1.99699998e+00 2.00099993e+00 1.72899997e+00 0. 0. 0. 0. 0. 0. 0. 0.
    0. 0. 0. 0. 0. 0. 0. 1.85000002e+00 1.98199999e+00 1.98500001e+00
    1.98599994e+00 1.98599994e+00 1.98699999e+00 1.98800004e+00
    1.99000001e+00 1.99100006e+00 1.99000001e+00 1.99100006e+00
    1.99199998e+00 1.99500000e+00 1.99399996e+00 1.99399996e+00
    1.99399996e+00 1.99699998e+00 1.99399996e+00 1.99699998e+00
    1.99399996e+00 1.99500000e+00 1.99399996e+00 1.99699998e+00 2.
    1.39300001e+00 0. 0. 0. 0. 0. 0. 0. 0. 0. 0. 0. 0. 0. 0. 0.
    1.85300004e+00 1.98399997e+00 1.98399997e+00 1.98699999e+00
    1.98599994e+00 1.98699999e+00 1.99000001e+00 1.99100006e+00
    1.99100006e+00 1.99100006e+00 1.99100006e+00 1.99399996e+00
    1.99399996e+00 1.99399996e+00 1.99399996e+00 1.99600005e+00
    1.99699998e+00 1.99699998e+00 1.99699998e+00 1.99699998e+00
    1.99699998e+00 1.99699998e+00 2. 2.00099993e+00 1.01600003e+00 0. 0.
    0. 0. 0. 0. 0. 0. 0. 0. 0. 0. 0. 0. 0. 1.97899997e+00 1.98599994e+00
    1.98599994e+00 1.98599994e+00 1.98800004e+00 1.98899996e+00
    1.98899996e+00 1.99100006e+00 1.99100006e+00 1.99100006e+00
    1.99100006e+00 1.99399996e+00 1.99399996e+00 1.99399996e+00
    1.99399996e+00 1.99699998e+00 1.99699998e+00 1.99699998e+00
    1.99399996e+00 1.99899995e+00 2. 1.99699998e+00 2. 2.00300002e+00
    1.73099995e+00 0. 0. 0. 0. 0. 0. 0. 0. 0. 0. 0. 0. 0. 0. 0.
    1.98599994e+00 1.98599994e+00 1.98599994e+00 1.98599994e+00
    1.98800004e+00 1.98899996e+00 1.98899996e+00 1.99100006e+00
    1.99100006e+00 1.99100006e+00 1.99399996e+00 1.99699998e+00
    1.99500000e+00 1.99399996e+00 1.99899995e+00 2. 1.99899995e+00
    1.99899995e+00 1.99699998e+00 2.00300002e+00 2.00099993e+00 2.
    2.00300002e+00 2.00399995e+00 1.01600003e+00 0. 0. 0. 0. 0. 0. 0. 0.
    0. 0. 0. 0. 0. 0. 0. 1.98899996e+00 1.98599994e+00 1.98699999e+00
    1.98899996e+00 1.98899996e+00 1.98899996e+00 1.98899996e+00
    1.99199998e+00 1.99399996e+00 1.99199998e+00 1.99399996e+00
    1.99800003e+00 2. 1.99899995e+00 1.99699998e+00 2.00099993e+00
    2.00300002e+00 2.00200009e+00 2. 2. 2. 2.00300002e+00 2.00399995e+00
    2.00399995e+00 1.01600003e+00 0. 0. 0. 0. 0. 0. 0. 0. 0. 0. 0. 0. 0.
    0. 0. 1.85300004e+00 1.98599994e+00 1.98899996e+00 1.98899996e+00
    1.98899996e+00 1.98899996e+00 1.99000001e+00 1.99399996e+00
    1.99399996e+00 1.99500000e+00 1.99699998e+00 1.99699998e+00
    1.99699998e+00 1.99899995e+00 1.99699998e+00 2.00200009e+00 2.
    2.00099993e+00 2.00300002e+00 2.00300002e+00 2.00300002e+00
    2.00300002e+00 2.00500011e+00 2.00500011e+00 1.01600003e+00 0. 0. 0.
    0. 0. 0. 0. 0. 0. 0. 0. 0. 0. 0. 0. 1.96800005e+00 1.98899996e+00
    1.98899996e+00 1.98899996e+00 1.98899996e+00 1.98899996e+00
    1.99100006e+00 1.99399996e+00 1.99399996e+00 1.99699998e+00
    1.99500000e+00 1.99699998e+00 1.99899995e+00 2. 2.00200009e+00
    2.00300002e+00 2. 2.00300002e+00 2.00300002e+00 2.00300002e+00
    2.00300002e+00 2.00300002e+00 2.00500011e+00 2.00799990e+00
    1.01600003e+00 0. 0. 0. 0. 0. 0. 0. 0. 0. 0. 0. 0. 0. 0. 0.
    1.99100006e+00 1.98899996e+00 1.98899996e+00 1.99100006e+00
    1.99100006e+00 1.99100006e+00 1.99199998e+00 1.99600005e+00
    1.99600005e+00 1.99600005e+00 1.99899995e+00 2. 2.00200009e+00
    2.00300002e+00 2.00300002e+00 2.00399995e+00 2.00300002e+00
    2.00300002e+00 2.00300002e+00 2.00399995e+00 2.00300002e+00
    2.00300002e+00 2.00500011e+00 2.00500011e+00 1.73099995e+00 0. 0. 0.
    0. 0. 0. 0. 0. 0. 0. 0. 0. 0. 0. 0. 1.85899997e+00 1.99100006e+00
    1.99100006e+00 1.99100006e+00 1.99100006e+00 1.99100006e+00
    1.99399996e+00 1.99699998e+00 1.99800003e+00 2. 2. 2.00300002e+00
    2.00300002e+00 2.00300002e+00 2.00300002e+00 2.00300002e+00
    2.00300002e+00 2.00300002e+00 2.00500011e+00 2.00500011e+00
    2.00300002e+00 2.00300002e+00 2.00500011e+00 2.00799990e+00
    1.01600003e+00 0. 0. 0. 0. 0. 0. 0. 0. 0. 0. 0. 0. 0. 0. 0.
    1.86000001e+00 1.99100006e+00 1.99300003e+00 1.99100006e+00
    1.99100006e+00 1.99199998e+00 1.99500000e+00 2. 2.00300002e+00
    2.00300002e+00 2.00300002e+00 2. 2.00300002e+00 2.00300002e+00
    2.00300002e+00 2.00300002e+00 2.00300002e+00 2.00500011e+00
    2.00500011e+00 2.00500011e+00 2.00500011e+00 2.00500011e+00
    2.00799990e+00 2.00999999e+00 1.01600003e+00 0. 0. 0. 0. 0. 0. 0. 0.
    0. 0. 0. 0. 0. 0. 0. 1.99800003e+00 1.99399996e+00 1.99300003e+00
    1.99100006e+00 1.99500000e+00 1.99300003e+00 1.99500000e+00
    2.00200009e+00 2. 2.00099993e+00 2.00300002e+00 2.00300002e+00
    2.00300002e+00 2.00399995e+00 2.00500011e+00 2.00500011e+00
    2.00500011e+00 2.00500011e+00 2.00300002e+00 2.00300002e+00
    2.00500011e+00 2.00500011e+00 2.00999999e+00 2.00900006e+00
    1.01600003e+00 0. 0. 0. 0. 0. 0. 0. 0. 0. 0. 0. 0. 0. 0. 0.
    1.86500001e+00 1.99500000e+00 1.99399996e+00 1.99399996e+00
    1.99399996e+00 1.99500000e+00 1.99800003e+00 2. 2. 2.00200009e+00
    2.00300002e+00 2.00500011e+00 2.00300002e+00 2.00399995e+00
    2.00500011e+00 2.00699997e+00 2.00500011e+00 2.00500011e+00
    2.00500011e+00 2.00500011e+00 2.00799990e+00 2.00600004e+00
    2.01099992e+00 2.01200008e+00 1.01600003e+00 0. 0. 0. 0. 0. 0. 0. 0.
    0. 0. 0. 0. 0. 0. 0. 1.86699998e+00 2.00099993e+00 1.99600005e+00
    1.99399996e+00 1.99800003e+00 1.99800003e+00 1.99899995e+00
    2.00300002e+00 2.00300002e+00 2.00300002e+00 2.00300002e+00
    2.00500011e+00 2.00300002e+00 2.00500011e+00 2.00500011e+00
    2.00500011e+00 2.00500011e+00 2.00500011e+00 2.00799990e+00
    2.00799990e+00 2.00999999e+00 2.00799990e+00 2.01099992e+00
    2.01500010e+00 1.01600003e+00 0. 0. 0. 0. 0. 0. 0. 0. 0. 0. 0. 0. 0.
    0. 0. 1.99699998e+00 1.99699998e+00 2. 2. 2. 2. 2.00099993e+00
    2.00300002e+00 2.00300002e+00 2.00300002e+00 2.00500011e+00
    2.00500011e+00 2.00500011e+00 2.00500011e+00 2.00500011e+00
    2.00500011e+00 2.00500011e+00 2.00600004e+00 2.01099992e+00
    2.01099992e+00 2.01099992e+00 2.00500011e+00 2.01300001e+00
    2.01399994e+00 1.08800006e+00 0. 0. 0. 0. 0. 0. 0. 0. 0. 0. 0. 0. 0.
    0. 0. 2.00300002e+00 2. 2. 2. 2. 2. 2.00200009e+00 2.00300002e+00
    2.00300002e+00 2.00500011e+00 2.00500011e+00 2.00799990e+00
    2.00699997e+00 2.00699997e+00 2.00799990e+00 2.00799990e+00
    2.00799990e+00 2.01099992e+00 2.01200008e+00 2.01099992e+00
    2.01099992e+00 2.00999999e+00 2.01500010e+00 2.01399994e+00
    1.01600003e+00 0. 0. 0. 0. 0. 0. 0. 0. 0. 0. 0. 0. 0. 0. 0. 2. 2.
    2.00099993e+00 2.00099993e+00 2. 2. 2.00300002e+00 2.00500011e+00
    2.00300002e+00 2.00600004e+00 2.00500011e+00 2.00600004e+00
    2.00500011e+00 2.00699997e+00 2.00999999e+00 2.01099992e+00
    2.00999999e+00 2.01099992e+00 2.01099992e+00 2.01099992e+00
    2.01300001e+00 2.01399994e+00 2.01699996e+00 2.00799990e+00
    1.01600003e+00 0. 0. 0. 0. 0. 0. 0. 0. 0. 0. 0. 0. 0. 0. 0. 2. 2. 2.
    2.00300002e+00 2.00300002e+00 2.00300002e+00 2.00300002e+00
    2.00500011e+00 2.00500011e+00 2.00600004e+00 2.00799990e+00
    2.00799990e+00 2.00799990e+00 2.01099992e+00 2.01099992e+00
    2.01099992e+00 2.00999999e+00 2.01099992e+00 2.01399994e+00
    2.01399994e+00 2.01399994e+00 2.01399994e+00 2.01699996e+00
    2.01699996e+00 1.01600003e+00 0. 0. 0. 0. 0. 0. 0. 0. 0. 0. 0. 0. 0.
    0. 0. 1.89300001e+00 2.00300002e+00 2.00300002e+00 2.00300002e+00
    2.00300002e+00 2.00300002e+00 2.00399995e+00 2.00799990e+00
    2.00500011e+00 2.00600004e+00 2.00799990e+00 2.00600004e+00
    2.00799990e+00 2.00799990e+00 2.01099992e+00 2.01399994e+00
    2.01399994e+00 2.01399994e+00 2.01399994e+00 2.01500010e+00
    2.01399994e+00 2.01399994e+00 2.01900005e+00 2.01999998e+00
    1.01600003e+00 0. 0. 0. 0. 0. 0. 0. 0. 0. 0. 0. 0. 0. 0. 0.
    2.00300002e+00 2.00099993e+00 2.00300002e+00 2.00399995e+00
    2.00300002e+00 2.00300002e+00 2.00699997e+00 2.00799990e+00
    2.00500011e+00 2.00500011e+00 2.01200008e+00 2.01099992e+00
    2.01099992e+00 2.00999999e+00 2.01399994e+00 2.01399994e+00
    2.01399994e+00 2.01500010e+00 2.01699996e+00 2.01699996e+00
    2.01699996e+00 2.01699996e+00 2.02200007e+00 2.01699996e+00
    1.01600003e+00 0. 0. 0. 0. 0. 0. 0. 0. 0. 0. 0. 0. 0. 0. 0.
    2.17899990e+00 2.00300002e+00 2.00300002e+00 2.00399995e+00
    2.00300002e+00 2.00600004e+00 2.00799990e+00 2.00799990e+00
    2.00799990e+00 2.00900006e+00 2.01099992e+00 2.00799990e+00
    2.01399994e+00 2.01399994e+00 2.01399994e+00 2.01200008e+00
    2.01399994e+00 2.01600003e+00 2.01699996e+00 2.01699996e+00
    2.01699996e+00 2.01699996e+00 2.02099991e+00 1.46599996e+00
    1.01600003e+00 0. 0. 0. 0. 0. 0. 0. 0. 0. 0. 0. 0. 0. 0. 0.
    2.17300010e+00 2.00399995e+00 2.00300002e+00 2. 2.00500011e+00
    2.00600004e+00 2.00600004e+00 2.00799990e+00 2.01399994e+00
    2.01399994e+00 2.01300001e+00 2.00300002e+00 2.01699996e+00
    2.01399994e+00 2.01699996e+00 2.01399994e+00 2.01399994e+00
    2.01200008e+00 2.00500011e+00 2.01900005e+00 2.01999998e+00
    2.02600002e+00 2.02399993e+00 1.46500003e+00 1.01600003e+00 0. 0. 0.
    0. 0. 0. 0. 0. 0. 0. 0. 0. 0. 0. 0. 0. 0. 0. 0. 0. 1.01600003e+00
    1.18499994e+00 2.11299992e+00 2.03800011e+00 2.03800011e+00
    2.12100005e+00 2.12100005e+00 2.11700010e+00 1.33399999e+00
    2.10100007e+00 2.09899998e+00 2.02500010e+00 2.12400007e+00 0. 0. 0.
    2.42000008e+00 1.01600003e+00 1.01600003e+00 1.01600003e+00 0. 0. 0.
    0. 0. 0. 0. 0. 0. 0. 0. 0. 0. 0. 0. 0. 0. 0. 0. 1.01600003e+00
    1.01600003e+00 2.10299993e+00 2.09699988e+00 2.04099989e+00
    2.06299996e+00 2.09699988e+00 2.09699988e+00 2.09999990e+00
    2.09999990e+00 1.02900004e+00 2.11299992e+00 2.10800004e+00
    2.11199999e+00 0. 0. 0. 0. 1.80799997e+00 1.43700004e+00
    1.28699994e+00 0. 0. 0. 0. 0. 0. 0. 0. 0. 0. 0. 0. 0. 0. 0. 0. 0. 0.
    0. 1.01600003e+00 1.01600003e+00 2.07399988e+00 2.07399988e+00
    2.03200006e+00 2.05699992e+00 2.07500005e+00 2.07800007e+00
    2.07699990e+00 2.08999991e+00 1.20400000e+00 2.08299994e+00
    2.07500005e+00 2.08800006e+00 0. 0. 0. 0. 0. 0. 0. 0. 0. 0. 0. 0. 0.
    0. 0. 0. 0. 0. 0. 0. 0. 0. 0. 1.01600003e+00 1.26199996e+00
    1.25600004e+00 1.01600003e+00 1.01600003e+00 2.04399991e+00
    2.05699992e+00 2.02900004e+00 2.04399991e+00 2.05699992e+00
    2.05500007e+00 2.05599999e+00 2.05699992e+00 2.05699992e+00
    2.05100012e+00 2.05900002e+00 2.05500007e+00 1.20400000e+00 0. 0. 0.
    0. 0. 0. 0. 0. 0. 0. 0. 0. 0. 0.</data></Depth>
</opencv_storage>
