<?xml version="1.0"?>
<opencv_storage>
<Depth type_id="opencv-matrix">
  <rows>40</rows>
  <cols>40</cols>
  <dt>f</dt>
  <data>
    0. 0. 0. 0. 0. 0. 0. 0. 0. 2.02500010e+00 2.03600001e+00
    2.04099989e+00 2.04600000e+00 1.99800003e+00 0. 0. 0. 0. 0. 0. 0. 0.
    0. 0. 0. 0. 0. 0. 0. 0. 0. 0. 0. 0. 0. 0. 0. 0. 0. 0. 0. 0. 0. 0. 0.
    0. 0. 0. 2.01799989e+00 2.03200006e+00 2.02999997e+00 2.02999997e+00
    2.02999997e+00 2.03200006e+00 2.02900004e+00 2.02699995e+00
    2.01699996e+00 2.00600004e+00 2.00699997e+00 2.01999998e+00 0. 0.
    2.29800010e+00 2.89800000e+00 0. 0. 0. 0. 0. 0. 0. 0. 0. 0. 0. 0. 0.
    0. 0. 0. 0. 0. 0. 0. 0. 0. 0. 2.00900006e+00 2.01200008e+00
    2.03500009e+00 2.02999997e+00 2.02999997e+00 2.03200006e+00
    2.02999997e+00 2.02500010e+00 2.02099991e+00 2.01999998e+00
    2.01500010e+00 2.01500010e+00 2.01500010e+00 2.01200008e+00
    2.01200008e+00 2.00399995e+00 2.00200009e+00 2. 2. 1.99600005e+00
    1.99600005e+00 1.99500000e+00 1.98899996e+00 1.98599994e+00
    1.98500001e+00 1.98199999e+00 0. 0. 0. 0. 0. 0. 0. 0. 0. 0. 0. 0. 0.
    2.01399994e+00 2.02300000e+00 2.03500009e+00 2.03600001e+00
    2.02999997e+00 2.02999997e+00 2.02999997e+00 2.02999997e+00
    2.02399993e+00 2.01999998e+00 2.01900005e+00 2.01500010e+00
    2.01500010e+00 2.00999999e+00 2.00799990e+00 2.00300002e+00 2. 2. 2.
    2. 1.99600005e+00 1.99500000e+00 1.99100006e+00 1.98599994e+00
    1.98599994e+00 1.98399997e+00 1.97599995e+00 0. 0. 0. 0. 0. 0. 0. 0.
    0. 0. 0. 0. 0. 0. 0. 2.03699994e+00 2.02999997e+00 2.02999997e+00
    2.02999997e+00 2.02999997e+00 2.02600002e+00 2.02399993e+00
    2.01999998e+00 2.01900005e+00 2.01500010e+00 2.00999999e+00
    2.00699997e+00 2.00200009e+00 2. 2. 2. 2. 1.99699998e+00
    1.99600005e+00 1.99100006e+00 1.99100006e+00 1.98599994e+00
    1.98199999e+00 1.98099995e+00 1.97599995e+00 0. 0. 0. 0. 0. 0. 0. 0.
    0. 0. 0. 0. 0. 0. 0. 2.03600001e+00 2.03200006e+00 2.02999997e+00
    2.02999997e+00 2.02999997e+00 2.02500010e+00 2.01999998e+00
    2.01900005e+00 2.01500010e+00 2.01500010e+00 2.01500010e+00
    2.01200008e+00 2.00399995e+00 2. 2. 2. 2. 1.99600005e+00
    1.99600005e+00 1.99000001e+00 1.98599994e+00 1.98099995e+00
    1.98099995e+00 1.98099995e+00 1.98099995e+00 0. 0. 0. 0. 0. 0. 0. 0.
    0. 0. 0. 0. 0. 0. 0. 2.03200006e+00 2.02999997e+00 2.02999997e+00
    2.02999997e+00 2.02999997e+00 2.02500010e+00 2.01999998e+00
    2.01500010e+00 2.01500010e+00 2.01500010e+00 2.01500010e+00
    2.00999999e+00 2.00999999e+00 2. 2. 2. 1.99600005e+00 1.99600005e+00
    1.99600005e+00 1.99000001e+00 1.98099995e+00 1.98099995e+00
    1.98099995e+00 1.98099995e+00 1.98099995e+00 0. 0. 0. 0. 0. 0. 0. 0.
    0. 0. 0. 0. 0. 0. 0. 2.03200006e+00 2.02999997e+00 2.02999997e+00
    2.02999997e+00 2.02999997e+00 2.01999998e+00 2.01999998e+00
    2.01900005e+00 2.01500010e+00 2.01500010e+00 2.01500010e+00
    2.00999999e+00 2.00999999e+00 2. 2. 2. 1.99699998e+00 1.99600005e+00
    1.99600005e+00 1.99100006e+00 1.98500001e+00 1.98099995e+00
    1.98099995e+00 1.97599995e+00 1.32900000e+00 0. 0. 0. 0. 0. 0. 0. 0.
    0. 0. 0. 0. 0. 0. 2.34599996e+00 2.03200006e+00 2.02999997e+00
    2.02999997e+00 2.02999997e+00 2.02999997e+00 2.01999998e+00
    2.01999998e+00 2.01999998e+00 2.01500010e+00 2.01500010e+00
    2.01300001e+00 2.00699997e+00 2.00500011e+00 2. 2. 2. 1.99600005e+00
    1.99600005e+00 1.99600005e+00 1.99000001e+00 1.98599994e+00
    1.98199999e+00 1.98099995e+00 1.97599995e+00 1.97599995e+00 0. 0. 0.
    0. 0. 0. 0. 0. 0. 0. 0. 0. 0. 0. 1.98500001e+00 2.03500009e+00
    2.02999997e+00 2.02999997e+00 2.02900004e+00 2.02900004e+00
    2.02399993e+00 2.01999998e+00 2.01900005e+00 2.01500010e+00
    2.01500010e+00 2.01500010e+00 2.00699997e+00 2. 2. 2. 2.
    1.99600005e+00 1.99600005e+00 1.99100006e+00 1.99000001e+00
    1.98599994e+00 1.98099995e+00 1.98099995e+00 1.97899997e+00
    1.97599995e+00 0. 0. 0. 0. 0. 0. 0. 0. 0. 0. 0. 0. 0. 2.05399990e+00
    0. 2.02999997e+00 2.02999997e+00 2.02900004e+00 2.02500010e+00
    2.02500010e+00 2.01999998e+00 2.01999998e+00 2.01799989e+00
    2.01500010e+00 2.00999999e+00 2.01399994e+00 2.00500011e+00 2. 2. 2.
    2. 1.99600005e+00 1.99600005e+00 1.99600005e+00 1.99000001e+00
    1.98500001e+00 1.98099995e+00 1.98099995e+00 1.98099995e+00
    1.78900003e+00 0. 0. 0. 0. 0. 0. 0. 0. 0. 0. 0. 0. 0. 0. 0.
    2.02999997e+00 2.02999997e+00 2.02500010e+00 2.02500010e+00
    2.01999998e+00 2.01999998e+00 2.01999998e+00 2.01500010e+00
    2.01500010e+00 2.00999999e+00 2.00999999e+00 2.00699997e+00 2. 2. 2.
    2. 1.99600005e+00 1.99600005e+00 1.99399996e+00 1.99000001e+00
    1.98099995e+00 1.98099995e+00 1.98099995e+00 1.97899997e+00
    1.33099997e+00 0. 0. 0. 0. 0. 0. 0. 0. 0. 0. 0. 0. 0. 0.
    1.52300000e+00 2.02999997e+00 2.02999997e+00 2.02500010e+00
    2.02300000e+00 2.01999998e+00 2.01999998e+00 2.01999998e+00
    2.01500010e+00 2.01500010e+00 2.00999999e+00 2.01200008e+00
    2.01099992e+00 2. 2. 2. 1.99899995e+00 1.99600005e+00 1.99600005e+00
    1.99100006e+00 1.98599994e+00 1.98099995e+00 1.98099995e+00
    1.98099995e+00 1.97399998e+00 0. 0. 0. 0. 0. 0. 0. 0. 0. 0. 0. 0. 0.
    0. 0. 1.52300000e+00 2.02999997e+00 2.02600002e+00 2.02500010e+00
    2.01999998e+00 2.01999998e+00 2.01500010e+00 2.01500010e+00
    2.01500010e+00 2.01500010e+00 2.01399994e+00 2.00999999e+00
    2.00900006e+00 2. 2. 2. 1.99600005e+00 1.99600005e+00 1.99600005e+00
    1.99100006e+00 1.98599994e+00 1.98099995e+00 1.98099995e+00
    1.98099995e+00 1.97200000e+00 1.32700002e+00 0. 0. 0. 0. 0. 0. 0. 0.
    0. 0. 0. 0. 0. 0. 0. 2.02999997e+00 2.02500010e+00 2.02099991e+00
    2.01999998e+00 2.01999998e+00 2.01999998e+00 2.01500010e+00
    2.01500010e+00 2.01500010e+00 2.01099992e+00 2.00999999e+00
    2.00699997e+00 1.99800003e+00 1.99600005e+00 1.99600005e+00
    1.99600005e+00 1.99100006e+00 1.99100006e+00 1.99100006e+00
    1.98599994e+00 1.98099995e+00 1.98099995e+00 1.98099995e+00
    1.97599995e+00 0. 0. 0. 0. 0. 0. 0. 0. 0. 0. 0. 0. 0. 0. 0.
    1.25600004e+00 2.02999997e+00 2.02600002e+00 2.02099991e+00
    2.01999998e+00 2.01999998e+00 2.01500010e+00 2.01500010e+00
    2.01500010e+00 2.01399994e+00 2.00999999e+00 2.00699997e+00
    2.00200009e+00 2. 2. 2. 1.99600005e+00 1.99500000e+00 1.99100006e+00
    1.99100006e+00 1.99000001e+00 1.98099995e+00 1.98000002e+00
    1.97599995e+00 1.98099995e+00 2.97900009e+00 0. 0. 0. 0. 0. 0. 0. 0.
    0. 0. 0. 0. 0. 0. 1.51699996e+00 2.02500010e+00 2.02500010e+00
    2.02099991e+00 2.01999998e+00 2.01999998e+00 2.01500010e+00
    2.01500010e+00 2.01500010e+00 2.01500010e+00 2.01200008e+00
    2.00500011e+00 2. 2. 2. 2. 1.99699998e+00 1.99600005e+00
    1.99100006e+00 1.98599994e+00 1.98599994e+00 1.98500001e+00
    1.98099995e+00 1.98000002e+00 1.98099995e+00 2.78800011e+00 0. 0. 0.
    0. 0. 0. 0. 0. 0. 0. 0. 0. 0. 1.29600000e+00 2.02399993e+00
    2.02099991e+00 2.01999998e+00 2.01999998e+00 2.01999998e+00
    2.01999998e+00 2.01999998e+00 2.01500010e+00 2.01500010e+00
    2.01399994e+00 2.00999999e+00 2.00799990e+00 2.00200009e+00 2. 2. 2.
    1.99699998e+00 1.99600005e+00 1.99100006e+00 1.98599994e+00
    1.98500001e+00 1.98199999e+00 1.98099995e+00 1.98099995e+00
    1.42799997e+00 0. 0. 0. 0. 0. 0. 0. 0. 0. 0. 0. 0. 0. 0.
    1.41600001e+00 2.02500010e+00 2.01999998e+00 2.01999998e+00
    2.01999998e+00 2.01500010e+00 2.01999998e+00 2.01500010e+00
    2.01500010e+00 2.00999999e+00 2.00999999e+00 2.00999999e+00
    2.00799990e+00 2.00200009e+00 2. 2. 2. 1.99600005e+00 1.99100006e+00
    1.99600005e+00 1.99100006e+00 1.99000001e+00 1.98500001e+00
    1.98099995e+00 1.98099995e+00 1.42799997e+00 0. 0. 0. 0. 0. 0. 0. 0.
    0. 0. 0. 0. 0. 0. 2.45199990e+00 2.02500010e+00 2.01999998e+00
    2.01999998e+00 2.01600003e+00 2.01500010e+00 2.01999998e+00
    2.01999998e+00 2.01900005e+00 2.01500010e+00 2.00999999e+00
    2.00799990e+00 2.00500011e+00 2.00200009e+00 2. 2. 1.99699998e+00
    1.99600005e+00 1.99100006e+00 1.99100006e+00 1.99100006e+00
    1.99100006e+00 1.98599994e+00 1.98500001e+00 1.98099995e+00
    1.42799997e+00 0. 0. 0. 0. 0. 0. 0. 0. 0. 0. 0. 0. 0. 0.
    2.47799993e+00 2.02500010e+00 2.02500010e+00 2.01999998e+00
    2.01500010e+00 2.01500010e+00 2.01999998e+00 2.01999998e+00
    2.01500010e+00 2.01500010e+00 2.01399994e+00 2.00799990e+00
    2.00500011e+00 2.00200009e+00 2. 2. 1.99699998e+00 1.99600005e+00
    1.99600005e+00 1.99100006e+00 1.99100006e+00 1.98500001e+00
    1.98099995e+00 1.98099995e+00 1.97599995e+00 1.42499995e+00 0. 0. 0.
    0. 0. 0. 0. 0. 0. 0. 0. 0. 0. 0. 1.41900003e+00 2.02699995e+00
    2.02500010e+00 2.01999998e+00 2.01500010e+00 2.01500010e+00
    2.01999998e+00 2.01900005e+00 2.01500010e+00 2.01500010e+00
    2.01500010e+00 2.01099992e+00 2.00399995e+00 2.00200009e+00 2. 2. 2.
    1.99600005e+00 1.99500000e+00 1.99100006e+00 1.98599994e+00
    1.98099995e+00 1.98099995e+00 1.97599995e+00 1.97599995e+00
    1.49699998e+00 0. 0. 0. 0. 0. 0. 0. 0. 0. 0. 0. 0. 0. 0.
    1.26999998e+00 2.02500010e+00 2.02500010e+00 2.02099991e+00
    2.01600003e+00 2.01999998e+00 2.01999998e+00 2.01500010e+00
    2.01500010e+00 2.01500010e+00 2.01399994e+00 2.01099992e+00
    2.00099993e+00 2. 2. 2. 1.99600005e+00 1.99199998e+00 1.99100006e+00
    1.98599994e+00 1.98599994e+00 1.98199999e+00 1.98099995e+00
    1.98099995e+00 1.97899997e+00 1.97599995e+00 2.76900005e+00 0. 0. 0.
    0. 0. 0. 0. 0. 0. 0. 0. 0. 0. 0. 2.02600002e+00 2.02500010e+00
    2.02399993e+00 2.01900005e+00 2.01999998e+00 2.01999998e+00
    2.01500010e+00 2.01500010e+00 2.00999999e+00 2.00999999e+00
    2.00999999e+00 2.00500011e+00 2.00200009e+00 2. 2. 1.99600005e+00
    1.99199998e+00 1.99100006e+00 1.98099995e+00 1.98099995e+00
    1.98399997e+00 1.98099995e+00 1.98099995e+00 1.97500002e+00
    1.97200000e+00 0. 0. 0. 0. 0. 0. 0. 0. 0. 0. 0. 0. 0. 0. 0.
    2.02600002e+00 2.02500010e+00 2.02099991e+00 2.01600003e+00
    2.01999998e+00 2.01999998e+00 2.01500010e+00 2.01500010e+00
    2.01200008e+00 2.01399994e+00 2.00999999e+00 2.00999999e+00
    2.00200009e+00 2. 2. 2. 1.99600005e+00 1.99100006e+00 1.98099995e+00
    1.98099995e+00 1.98099995e+00 1.98099995e+00 1.98099995e+00
    1.97500002e+00 1.77800000e+00 0. 0. 0. 0. 0. 0. 0. 0. 0. 0. 0. 0. 0.
    0. 1.01699996e+00 2.02300000e+00 2.01799989e+00 2.01699996e+00
    2.01500010e+00 2.01999998e+00 2.01999998e+00 2.01500010e+00
    2.01500010e+00 2.00999999e+00 2.00999999e+00 2.00999999e+00
    2.00900006e+00 2.00200009e+00 2. 2. 1.99699998e+00 1.99600005e+00
    1.99399996e+00 1.98599994e+00 1.98099995e+00 1.98099995e+00
    1.98099995e+00 1.98000002e+00 1.97500002e+00 1.42499995e+00 0. 0. 0.
    0. 0. 0. 0. 0. 0. 0. 0. 0. 0. 0. 1.41900003e+00 2.02300000e+00
    2.01999998e+00 2.01600003e+00 2.01500010e+00 2.01999998e+00
    2.01500010e+00 2.01500010e+00 2.00999999e+00 2.00500011e+00
    2.00999999e+00 2.00900006e+00 2.00399995e+00 2.00099993e+00 2. 2.
    1.99600005e+00 1.99399996e+00 1.99100006e+00 1.98599994e+00
    1.98099995e+00 1.98099995e+00 1.98099995e+00 1.98000002e+00
    1.97800004e+00 0. 2.83200002e+00 0. 0. 0. 0. 0. 0. 0. 0. 0. 0. 0. 0.
    0. 1.77400005e+00 2.02600002e+00 2.01999998e+00 2.01799989e+00
    2.01500010e+00 2.01999998e+00 2.01500010e+00 2.00999999e+00
    2.00500011e+00 2.00999999e+00 2.00900006e+00 2.00500011e+00 2. 2. 2.
    2. 1.99600005e+00 1.99199998e+00 1.99100006e+00 1.98599994e+00
    1.98599994e+00 1.98099995e+00 1.97800004e+00 1.97599995e+00
    1.97800004e+00 0. 2.84500003e+00 0. 0. 0. 0. 0. 0. 0. 0. 0. 0. 0. 0.
    0. 2.02500010e+00 2.02800012e+00 2.02800012e+00 2.02099991e+00
    2.01500010e+00 2.01999998e+00 2.01500010e+00 2.00999999e+00
    2.00999999e+00 2.00699997e+00 2.00600004e+00 2.00200009e+00
    2.00099993e+00 1.99800003e+00 1.99600005e+00 1.99600005e+00
    1.99600005e+00 1.99199998e+00 1.98599994e+00 1.98599994e+00
    1.98599994e+00 1.98000002e+00 1.97599995e+00 1.97599995e+00
    1.97700000e+00 0. 2.79399991e+00 0. 0. 0. 0. 0. 0. 0. 0. 0. 0. 0. 0.
    0. 2.01500010e+00 2.02800012e+00 2.02500010e+00 2.02099991e+00
    2.01500010e+00 2.01600003e+00 2.01500010e+00 2.01099992e+00
    2.00999999e+00 2.00799990e+00 2.00399995e+00 2. 2. 1.99800003e+00
    1.99600005e+00 1.99600005e+00 1.99600005e+00 1.99199998e+00
    1.99000001e+00 1.98599994e+00 1.98599994e+00 1.97599995e+00
    1.97599995e+00 1.97599995e+00 1.97599995e+00 0. 0. 0. 0. 0. 0. 0. 0.
    0. 0. 0. 0. 0. 0. 0. 2.02600002e+00 2.02800012e+00 2.02200007e+00
    2.01999998e+00 2.01500010e+00 2.01500010e+00 2.01099992e+00
    2.00999999e+00 2.00500011e+00 2.00399995e+00 2.00099993e+00 2. 2.
    1.99600005e+00 1.99600005e+00 1.99600005e+00 1.99199998e+00
    1.99100006e+00 1.98599994e+00 1.98300004e+00 1.98199999e+00
    1.98000002e+00 1.97599995e+00 1.97700000e+00 1.98000002e+00 0. 0. 0.
    0. 0. 0. 0. 0. 0. 0. 0. 0. 0. 0. 0. 2.02300000e+00 2.02500010e+00
    2.02500010e+00 2.01500010e+00 2.01500010e+00 2.01500010e+00
    2.00999999e+00 2.00600004e+00 2.00500011e+00 2.00500011e+00 2. 2. 2.
    1.99600005e+00 1.99600005e+00 1.99600005e+00 1.99100006e+00
    1.99100006e+00 1.98599994e+00 1.98099995e+00 1.98099995e+00
    1.97599995e+00 1.97599995e+00 1.97599995e+00 1.98000002e+00
    2.77300000e+00 0. 0. 0. 0. 0. 0. 0. 0. 0. 0. 0. 0. 0. 0.
    2.01999998e+00 2.01999998e+00 2.01999998e+00 2.01500010e+00
    2.01500010e+00 2.01500010e+00 2.01500010e+00 2.00900006e+00
    2.00600004e+00 2.00900006e+00 2. 2. 2. 1.99600005e+00 1.99600005e+00
    1.99300003e+00 1.99100006e+00 1.98699999e+00 1.98599994e+00
    1.98099995e+00 1.98099995e+00 1.97599995e+00 1.97599995e+00
    1.97700000e+00 1.98099995e+00 0. 0. 0. 0. 0. 0. 0. 0. 0. 0. 0. 0. 0.
    0. 0. 2.02500010e+00 2.01999998e+00 2.01699996e+00 2.01500010e+00
    2.01099992e+00 2.01500010e+00 2.00999999e+00 2.00999999e+00
    2.00900006e+00 2. 2.00500011e+00 2. 1.99800003e+00 1.99600005e+00
    1.99300003e+00 1.99100006e+00 1.98599994e+00 1.99100006e+00
    1.98599994e+00 1.98599994e+00 1.98099995e+00 1.97599995e+00
    1.97599995e+00 1.97599995e+00 1.98099995e+00 0. 0. 0. 0. 0. 0. 0. 0.
    0. 0. 0. 0. 0. 0. 0. 1.33399999e+00 2.02099991e+00 2.01699996e+00
    2.01500010e+00 2.00999999e+00 2.01399994e+00 2.00500011e+00
    2.00900006e+00 2.00500011e+00 2.00500011e+00 2.00399995e+00 2.
    1.99600005e+00 1.99399996e+00 1.99399996e+00 1.99600005e+00
    1.99600005e+00 1.99100006e+00 1.98500001e+00 1.98099995e+00
    1.98099995e+00 1.97599995e+00 1.97599995e+00 1.97599995e+00
    1.97599995e+00 0. 0. 0. 0. 0. 0. 0. 0. 0. 0. 0. 0. 0. 0. 0. 0.
    1.36600006e+00 1.94000006e+00 2.01099992e+00 2.00399995e+00
    2.00999999e+00 2.00999999e+00 2.00500011e+00 2.00900006e+00
    2.00600004e+00 2.00999999e+00 2. 1.99600005e+00 1.99600005e+00
    1.99600005e+00 1.99600005e+00 1.99100006e+00 1.98199999e+00
    1.98099995e+00 1.98099995e+00 1.97599995e+00 1.97599995e+00
    1.97599995e+00 1.97599995e+00 1.97700000e+00 2.59400010e+00 0. 0. 0.
    0. 0. 0. 0. 0. 0. 0. 0. 0. 0. 0. 0. 0. 0. 0. 1.65400004e+00
    1.65999997e+00 1.65999997e+00 1.68099999e+00 2.00699997e+00
    2.00999999e+00 2.00900006e+00 2. 1.99699998e+00 1.99899995e+00
    1.99800003e+00 1.99600005e+00 1.98800004e+00 1.98199999e+00
    1.98099995e+00 1.98099995e+00 1.98099995e+00 1.97599995e+00
    1.97200000e+00 1.97599995e+00 1.52300000e+00 0. 2.91000009e+00 0. 0.
    0. 0. 0. 0. 0. 0. 0. 0. 0. 0. 0. 0. 0. 0. 0. 0. 0. 0. 0. 0.
    1.73099995e+00 0. 1.72099996e+00 2. 1.99600005e+00 2. 1.99600005e+00
    1.98500001e+00 1.98599994e+00 1.98099995e+00 1.97899997e+00
    1.98099995e+00 1.97599995e+00 1.97000003e+00 1.97000003e+00
    1.95799994e+00 0. 0. 0. 0. 0. 0. 0. 0. 0. 0. 0. 0. 0. 0. 0. 0. 0. 0.
    0. 0. 0. 0. 0. 0. 0. 0. 0. 0. 1.38600004e+00 2.00099993e+00
    2.00099993e+00 1.58200002e+00 1.44900000e+00 1.44599998e+00
    1.97599995e+00 1.97599995e+00 1.97500002e+00 1.96800005e+00
    1.96300006e+00 0. 0. 0. 0. 0. 0. 0. 0. 0. 0. 0. 0. 0. 0. 0. 0. 0. 0.
    0. 0. 0. 0. 0. 0. 0. 0. 0. 0. 0. 0. 0. 0. 0. 0. 0. 0. 0. 0. 0. 0. 0.
    0. 0. 0. 0. 0. 0. 0. 0. 0.</data></Depth>
</opencv_storage>
