<?xml version="1.0"?>
<opencv_storage>
<Depth type_id="opencv-matrix">
  <rows>40</rows>
  <cols>40</cols>
  <dt>f</dt>
  <data>
    0. 0. 0. 0. 0. 0. 0. 0. 0. 0. 0. 0. 0. 0. 0. 0. 0. 0. 0. 0. 0. 0. 0.
    0. 0. 0. 0. 0. 0. 0. 0. 0. 0. 0. 0. 0. 0. 0. 0. 0. 0. 0. 0. 0. 0. 0.
    0. 0. 0. 0. 0. 0. 0. 0. 0. 0. 0. 0. 0. 0. 0. 0. 0. 0. 0. 0. 0. 0. 0.
    0. 0. 0. 0. 0. 0. 0. 0. 0. 0. 0. 0. 0. 0. 0. 0. 0. 0. 0. 0. 0. 0. 0.
    0. 0. 0. 0. 0. 0. 0. 0. 0. 0. 0. 0. 0. 0. 0. 0. 0. 0. 0. 0. 0. 0. 0.
    0. 0. 0. 0. 0. 0. 0. 0. 0. 0. 0. 0. 0. 0. 0. 0. 0. 0. 0. 0. 0. 0. 0.
    0. 0. 0. 0. 0. 0. 0. 0. 0. 0. 0. 0. 0. 0. 0. 0. 0. 0. 0. 0. 0. 0. 0.
    0. 0. 2.06800008e+00 2.06500006e+00 2.05500007e+00 2.05100012e+00
    2.04999995e+00 2.04500008e+00 2.04200006e+00 2.02800012e+00
    2.02800012e+00 0. 0. 0. 0. 0. 0. 0. 0. 0. 0. 0. 0. 0. 0. 0. 0. 0. 0.
    0. 0. 0. 0. 0. 0. 0. 0. 0. 0. 0. 0. 0. 2.06800008e+00 2.06500006e+00
    2.05900002e+00 2.05900002e+00 2.05200005e+00 2.04500008e+00
    2.03900003e+00 2.03299999e+00 2.02999997e+00 2.03299999e+00
    2.02800012e+00 2.02800012e+00 2.02200007e+00 0. 0. 0. 0. 0. 0. 0. 0.
    0. 0. 0. 0. 0. 0. 0. 0. 0. 0. 0. 0. 0. 0. 0. 0. 0. 2.13000011e+00
    2.07500005e+00 2.06800008e+00 2.06200004e+00 2.05599999e+00
    2.05599999e+00 2.04999995e+00 2.04500008e+00 2.04500008e+00
    2.04399991e+00 2.03900003e+00 2.03099990e+00 2.02800012e+00
    2.02800012e+00 2.02800012e+00 2.02200007e+00 2.02200007e+00
    2.01699996e+00 2.00600004e+00 0. 0. 0. 0. 0. 0. 0. 0. 0. 0. 0. 0. 0.
    0. 0. 0. 0. 0. 0. 0. 2.13199997e+00 2.07800007e+00 2.06800008e+00
    2.06399989e+00 2.06200004e+00 2.05500007e+00 2.05100012e+00
    2.04999995e+00 2.04500008e+00 2.04200006e+00 2.03900003e+00
    2.03900003e+00 2.02999997e+00 2.02800012e+00 2.02800012e+00
    2.02800012e+00 2.02200007e+00 2.02200007e+00 2.01699996e+00
    2.01099992e+00 2.01099992e+00 2.00099993e+00 2. 0. 0. 0. 0. 0. 0. 0.
    0. 0. 0. 2.21300006e+00 0. 0. 0. 0. 0. 0. 0. 2.06800008e+00
    2.06599998e+00 2.06200004e+00 2.05900002e+00 2.05500007e+00
    2.04999995e+00 2.04900002e+00 2.04399991e+00 2.03900003e+00
    2.03900003e+00 2.03299999e+00 2.02800012e+00 2.02800012e+00
    2.02800012e+00 2.02800012e+00 2.02800012e+00 2.02200007e+00
    2.01699996e+00 2.01699996e+00 2.01200008e+00 2.00600004e+00 2. 2. 2.
    1.99500000e+00 1.99199998e+00 1.98800004e+00 1.98800004e+00
    1.98399997e+00 0. 0. 0. 0. 0. 0. 0. 0. 0. 0. 2.06599998e+00
    2.06900001e+00 2.06500006e+00 2.05999994e+00 2.05599999e+00
    2.05500007e+00 2.04800010e+00 2.04299998e+00 2.03900003e+00
    2.03900003e+00 2.03800011e+00 2.03299999e+00 2.02600002e+00
    2.02200007e+00 2.02600002e+00 2.02200007e+00 2.02200007e+00
    2.02200007e+00 2.01200008e+00 2.01099992e+00 2.00600004e+00
    2.00600004e+00 2. 2. 2. 1.99899995e+00 1.98399997e+00 1.98399997e+00
    1.98399997e+00 1.97899997e+00 1.97599995e+00 1.97399998e+00
    1.96899998e+00 1.96599996e+00 1.55400002e+00 0. 0. 0. 0. 0.
    2.07500005e+00 2.06699991e+00 2.06200004e+00 2.05999994e+00
    2.05500007e+00 2.04500008e+00 2.04500008e+00 2.03900003e+00
    2.03900003e+00 2.03900003e+00 2.03699994e+00 2.02699995e+00
    2.02200007e+00 2.02200007e+00 2.02399993e+00 2.02399993e+00
    2.02200007e+00 2.01999998e+00 2.01200008e+00 2.00999999e+00
    2.00600004e+00 2.00600004e+00 2. 2. 2. 1.99399996e+00 1.98599994e+00
    1.98899996e+00 1.98399997e+00 1.98199999e+00 1.98000002e+00
    1.97899997e+00 1.97599995e+00 1.97099996e+00 1.96500003e+00
    1.96300006e+00 1.96300006e+00 1.95799994e+00 0. 0. 2.06599998e+00
    2.06599998e+00 2.06200004e+00 2.05999994e+00 2.05200005e+00
    2.04500008e+00 2.04500008e+00 2.04399991e+00 2.03900003e+00
    2.03800011e+00 2.03299999e+00 2.03200006e+00 2.02200007e+00
    2.02200007e+00 2.02800012e+00 2.02200007e+00 2.01999998e+00
    2.01699996e+00 2.01699996e+00 2.00600004e+00 2.00600004e+00
    2.00600004e+00 2.00600004e+00 2.00099993e+00 1.99899995e+00
    1.99100006e+00 1.99000001e+00 1.98599994e+00 1.98399997e+00
    1.98099995e+00 1.97899997e+00 1.97899997e+00 1.97599995e+00
    1.97099996e+00 1.96300006e+00 1.96300006e+00 1.96399999e+00
    1.96399999e+00 1.96200001e+00 1.95299995e+00 2.06200004e+00
    2.06200004e+00 2.05999994e+00 2.05900002e+00 2.04900002e+00
    2.04500008e+00 2.04500008e+00 2.03900003e+00 2.03900003e+00
    2.03800011e+00 2.03299999e+00 2.03299999e+00 2.02200007e+00
    2.02200007e+00 2.02800012e+00 2.02200007e+00 2.01699996e+00
    2.01699996e+00 2.01699996e+00 2.00999999e+00 2.00600004e+00
    2.00600004e+00 2.00600004e+00 2.00099993e+00 1.99600005e+00
    1.99000001e+00 1.99000001e+00 1.98399997e+00 1.98399997e+00
    1.98399997e+00 1.97899997e+00 1.97899997e+00 1.97599995e+00
    1.97099996e+00 1.96300006e+00 1.96300006e+00 1.96700001e+00
    1.96599996e+00 1.96099997e+00 1.95400000e+00 2.06200004e+00
    2.05999994e+00 2.05399990e+00 2.05100012e+00 2.04500008e+00
    2.04500008e+00 2.04299998e+00 2.03900003e+00 2.03900003e+00
    2.03800011e+00 2.03299999e+00 2.02699995e+00 2.02200007e+00
    2.02200007e+00 2.02600002e+00 2.02200007e+00 2.02200007e+00
    2.01699996e+00 2.01699996e+00 2.01099992e+00 2.00600004e+00
    2.00099993e+00 2.00399995e+00 2.00099993e+00 1.99600005e+00
    1.99000001e+00 1.98599994e+00 1.98399997e+00 1.98399997e+00
    1.98000002e+00 1.97899997e+00 1.97399998e+00 1.97399998e+00
    1.97099996e+00 1.96300006e+00 1.96300006e+00 1.96599996e+00
    1.96300006e+00 1.96099997e+00 1.95299995e+00 2.06500006e+00
    2.05399990e+00 2.04800010e+00 2.04500008e+00 2.04500008e+00
    2.04399991e+00 2.03900003e+00 2.03900003e+00 2.03900003e+00
    2.03900003e+00 2.02699995e+00 2.02200007e+00 2.02200007e+00
    2.02200007e+00 2.02200007e+00 2.02200007e+00 2.02200007e+00
    2.01699996e+00 2.01600003e+00 2.00699997e+00 2.00600004e+00 2.
    1.99899995e+00 1.99600005e+00 1.99500000e+00 1.99100006e+00
    1.98599994e+00 1.98399997e+00 1.98099995e+00 1.97899997e+00
    1.97899997e+00 1.97800004e+00 1.97399998e+00 1.97000003e+00
    1.96300006e+00 1.96300006e+00 1.96300006e+00 1.95799994e+00
    1.95500004e+00 1.95200002e+00 2.06100011e+00 2.05399990e+00
    2.04500008e+00 2.04500008e+00 2.04500008e+00 2.04399991e+00
    2.03900003e+00 2.03900003e+00 2.03900003e+00 2.03699994e+00
    2.03200006e+00 2.02200007e+00 2.02099991e+00 2.01699996e+00
    2.02200007e+00 2.01999998e+00 2.01999998e+00 2.01600003e+00
    2.01099992e+00 2.00600004e+00 2.00500011e+00 2. 1.99600005e+00
    1.99500000e+00 1.99500000e+00 1.99100006e+00 1.98599994e+00
    1.98399997e+00 1.98099995e+00 1.97899997e+00 1.97899997e+00
    1.97599995e+00 1.97099996e+00 1.96300006e+00 1.96300006e+00
    1.96300006e+00 1.96300006e+00 1.95799994e+00 1.95299995e+00
    1.94799995e+00 2.05699992e+00 2.05500007e+00 2.05100012e+00
    2.04600000e+00 2.04500008e+00 2.04500008e+00 2.03900003e+00
    2.03800011e+00 2.03299999e+00 2.03299999e+00 2.02800012e+00
    2.02200007e+00 2.01699996e+00 2.01699996e+00 2.02200007e+00
    2.01099992e+00 2.01099992e+00 2.01099992e+00 2.00999999e+00
    2.00600004e+00 2.00099993e+00 1.99600005e+00 1.99500000e+00
    1.99500000e+00 1.99500000e+00 1.99100006e+00 1.98399997e+00
    1.98399997e+00 1.98099995e+00 1.97899997e+00 1.97800004e+00
    1.97399998e+00 1.96899998e+00 1.96300006e+00 1.96300006e+00
    1.96200001e+00 1.96099997e+00 1.95599997e+00 1.95099998e+00
    1.94799995e+00 2.05999994e+00 2.05599999e+00 2.05399990e+00
    2.04900002e+00 2.04500008e+00 2.04299998e+00 2.03900003e+00
    2.03699994e+00 2.03200006e+00 2.02600002e+00 2.02200007e+00
    2.02200007e+00 2.01699996e+00 2.01699996e+00 2.01699996e+00
    2.01099992e+00 2.00600004e+00 2.01099992e+00 2.00600004e+00 2. 2.
    1.99600005e+00 1.99500000e+00 1.99500000e+00 1.99500000e+00
    1.99000001e+00 1.98399997e+00 1.98399997e+00 1.98099995e+00
    1.97599995e+00 1.97099996e+00 1.96899998e+00 1.96500003e+00
    1.96300006e+00 1.96300006e+00 1.95799994e+00 1.96099997e+00
    1.95099998e+00 1.94799995e+00 1.94799995e+00 2.05900002e+00
    2.05100012e+00 2.04999995e+00 2.04800010e+00 2.04399991e+00
    2.03900003e+00 2.03900003e+00 2.03299999e+00 2.02699995e+00
    2.02200007e+00 2.02200007e+00 2.02200007e+00 2.01699996e+00
    2.01699996e+00 2.01699996e+00 2.01699996e+00 2.00600004e+00
    2.01099992e+00 2.00600004e+00 2. 2. 2. 1.99500000e+00 1.99100006e+00
    1.98899996e+00 1.98399997e+00 1.98399997e+00 1.97899997e+00
    1.97899997e+00 1.97599995e+00 1.97099996e+00 1.96899998e+00
    1.96300006e+00 1.96300006e+00 1.96300006e+00 1.95799994e+00
    1.96300006e+00 1.95599997e+00 1.95099998e+00 1.94599998e+00
    2.05599999e+00 2.04500008e+00 2.04500008e+00 2.03900003e+00
    2.03900003e+00 2.03900003e+00 2.03900003e+00 2.03299999e+00
    2.02699995e+00 2.02200007e+00 2.02200007e+00 2.02099991e+00
    2.01699996e+00 2.01699996e+00 2.02200007e+00 2.01099992e+00
    2.01099992e+00 2.01099992e+00 2.00600004e+00 2. 2. 1.99600005e+00
    1.99000001e+00 1.98899996e+00 1.98500001e+00 1.98399997e+00
    1.97899997e+00 1.97899997e+00 1.97599995e+00 1.97399998e+00
    1.97399998e+00 1.97099996e+00 1.96300006e+00 1.96300006e+00
    1.96099997e+00 1.95799994e+00 1.96300006e+00 1.95899999e+00
    1.95299995e+00 1.94799995e+00 2.05100012e+00 2.04500008e+00
    2.04299998e+00 2.03900003e+00 2.03900003e+00 2.03900003e+00
    2.03900003e+00 2.03800011e+00 2.02800012e+00 2.02200007e+00
    2.02099991e+00 2.01699996e+00 2.01600003e+00 2.01099992e+00
    2.01699996e+00 2.01099992e+00 2.01099992e+00 2.01099992e+00
    2.00600004e+00 2. 1.99600005e+00 1.99100006e+00 1.98500001e+00
    1.98399997e+00 1.98399997e+00 1.98399997e+00 1.97899997e+00
    1.97899997e+00 1.97399998e+00 1.97099996e+00 1.97200000e+00
    1.96599996e+00 1.96300006e+00 1.96000004e+00 1.95799994e+00
    1.95799994e+00 1.95799994e+00 1.95799994e+00 1.95799994e+00
    1.95799994e+00 2.04900002e+00 2.04500008e+00 2.04299998e+00
    2.03900003e+00 2.03900003e+00 2.03299999e+00 2.03299999e+00
    2.03200006e+00 2.02699995e+00 2.02200007e+00 2.01699996e+00
    2.01699996e+00 2.01099992e+00 2.01099992e+00 2.01099992e+00
    2.01099992e+00 2.01099992e+00 2.00600004e+00 2.00600004e+00 2. 2.
    1.99600005e+00 1.99000001e+00 1.98399997e+00 1.98399997e+00
    1.98000002e+00 1.97899997e+00 1.97899997e+00 1.97599995e+00
    1.97399998e+00 1.97099996e+00 1.96300006e+00 1.96300006e+00
    1.96300006e+00 1.95799994e+00 1.95799994e+00 1.95799994e+00
    1.95599997e+00 1.95299995e+00 1.95599997e+00 2.04900002e+00
    2.04500008e+00 2.04299998e+00 2.03900003e+00 2.03900003e+00
    2.03699994e+00 2.03200006e+00 2.02699995e+00 2.02200007e+00
    2.02200007e+00 2.02099991e+00 2.01699996e+00 2.01099992e+00
    2.01099992e+00 2.01099992e+00 2.00600004e+00 2.00600004e+00
    2.00600004e+00 2. 2. 1.99600005e+00 1.99100006e+00 1.99000001e+00
    1.98500001e+00 1.98399997e+00 1.98000002e+00 1.97899997e+00
    1.97899997e+00 1.97399998e+00 1.97399998e+00 1.96500003e+00
    1.96300006e+00 1.96000004e+00 1.95799994e+00 1.95799994e+00
    1.95799994e+00 1.95799994e+00 1.95299995e+00 1.94799995e+00
    1.96399999e+00 2.04900002e+00 2.04500008e+00 2.03900003e+00
    2.03900003e+00 2.03299999e+00 2.03299999e+00 2.02800012e+00
    2.02699995e+00 2.02200007e+00 2.01699996e+00 2.01699996e+00
    2.01699996e+00 2.01099992e+00 2.01099992e+00 2.01099992e+00
    2.00600004e+00 2.00600004e+00 2. 2. 2. 1.99600005e+00 1.99100006e+00
    1.98500001e+00 1.98399997e+00 1.98399997e+00 1.97899997e+00
    1.97399998e+00 1.97899997e+00 1.97399998e+00 1.97099996e+00
    1.96500003e+00 1.96300006e+00 1.95799994e+00 1.95799994e+00
    1.95799994e+00 1.95799994e+00 1.95299995e+00 1.94799995e+00
    1.94599998e+00 1.94299996e+00 2.04500008e+00 2.04299998e+00
    2.03900003e+00 2.03900003e+00 2.03299999e+00 2.03299999e+00
    2.02800012e+00 2.02200007e+00 2.02200007e+00 2.01699996e+00
    2.01699996e+00 2.01699996e+00 2.01099992e+00 2.01099992e+00
    2.00600004e+00 2.00600004e+00 2.00600004e+00 2. 2. 2. 1.99500000e+00
    1.99100006e+00 1.98500001e+00 1.98399997e+00 1.98000002e+00
    1.97599995e+00 1.97399998e+00 1.97399998e+00 1.97399998e+00
    1.97099996e+00 1.96500003e+00 1.96300006e+00 1.96300006e+00
    1.95799994e+00 1.95599997e+00 1.95299995e+00 1.95099998e+00
    1.94799995e+00 1.94799995e+00 1.97099996e+00 2.04500008e+00
    2.04299998e+00 2.03900003e+00 2.03699994e+00 2.03299999e+00
    2.03200006e+00 2.02200007e+00 2.02200007e+00 2.02200007e+00
    2.02099991e+00 2.01699996e+00 2.01699996e+00 2.01099992e+00
    2.01099992e+00 2.00600004e+00 2.00600004e+00 2.00600004e+00 2.
    1.99600005e+00 1.99500000e+00 1.98399997e+00 1.98500001e+00
    1.98399997e+00 1.98399997e+00 1.98000002e+00 1.97899997e+00
    1.97399998e+00 1.97099996e+00 1.96899998e+00 1.96899998e+00
    1.96500003e+00 1.96300006e+00 1.96300006e+00 1.95799994e+00
    1.95599997e+00 1.95500004e+00 1.95099998e+00 1.94799995e+00
    1.96099997e+00 1.98599994e+00 2.04500008e+00 2.04299998e+00
    2.03699994e+00 2.03299999e+00 2.03299999e+00 2.03200006e+00
    2.02200007e+00 2.02200007e+00 2.01699996e+00 2.01699996e+00
    2.01699996e+00 2.01699996e+00 2.01099992e+00 2.00600004e+00
    2.00600004e+00 2.00600004e+00 2. 1.99600005e+00 1.99500000e+00
    1.99100006e+00 1.98500001e+00 1.98399997e+00 1.98399997e+00
    1.98000002e+00 1.97899997e+00 1.97899997e+00 1.97399998e+00
    1.97099996e+00 1.96899998e+00 1.96399999e+00 1.96300006e+00
    1.96000004e+00 1.95799994e+00 1.95799994e+00 1.95599997e+00
    1.95500004e+00 1.95299995e+00 1.95500004e+00 1.96500003e+00
    1.97500002e+00 2.04500008e+00 2.03900003e+00 2.03699994e+00
    2.03299999e+00 2.03299999e+00 2.02800012e+00 2.02699995e+00
    2.02200007e+00 2.01699996e+00 2.01699996e+00 2.01600003e+00
    2.01099992e+00 2.00600004e+00 2. 2.00600004e+00 2.00600004e+00 2.
    1.99899995e+00 1.99500000e+00 1.99100006e+00 1.98899996e+00
    1.98399997e+00 1.97899997e+00 1.97899997e+00 1.97899997e+00
    1.97500002e+00 1.97399998e+00 1.97099996e+00 1.96500003e+00
    1.96300006e+00 1.96000004e+00 1.95799994e+00 1.95799994e+00
    1.95400000e+00 1.94799995e+00 1.95299995e+00 1.95799994e+00
    1.95799994e+00 1.96500003e+00 1.96899998e+00 2.04299998e+00
    2.03900003e+00 2.03699994e+00 2.03299999e+00 2.02900004e+00
    2.02699995e+00 2.02200007e+00 2.02099991e+00 2.01699996e+00
    2.01699996e+00 2.01600003e+00 2.01099992e+00 2. 2. 2.00600004e+00
    2.00099993e+00 2. 2. 1.99100006e+00 1.99000001e+00 1.98500001e+00
    1.98399997e+00 1.97899997e+00 1.97899997e+00 1.97899997e+00
    1.97399998e+00 1.97399998e+00 1.96899998e+00 1.96899998e+00
    1.96500003e+00 1.96000004e+00 1.95799994e+00 1.95799994e+00
    1.95099998e+00 1.94799995e+00 1.95500004e+00 1.95599997e+00
    1.95400000e+00 1.96099997e+00 1.96899998e+00 2.04299998e+00
    2.03900003e+00 2.03299999e+00 2.03299999e+00 2.03099990e+00
    2.02300000e+00 2.02200007e+00 2.02099991e+00 2.01699996e+00
    2.01699996e+00 2.01600003e+00 2.01099992e+00 2.00500011e+00 2.
    2.00600004e+00 2. 2. 1.99600005e+00 1.99000001e+00 1.98399997e+00
    1.98399997e+00 1.98399997e+00 1.97899997e+00 1.97899997e+00
    1.97500002e+00 1.97399998e+00 1.96899998e+00 1.96899998e+00
    1.96899998e+00 1.96500003e+00 1.96300006e+00 1.95799994e+00
    1.95799994e+00 1.95000005e+00 1.94400001e+00 1.94900000e+00
    1.94900000e+00 1.94500005e+00 1.55200005e+00 1.96899998e+00
    2.03900003e+00 2.03900003e+00 2.03299999e+00 2.03299999e+00
    2.03200006e+00 2.02699995e+00 2.02200007e+00 2.02099991e+00
    2.01699996e+00 2.01699996e+00 2.01699996e+00 2.01099992e+00
    2.00600004e+00 2.00500011e+00 2. 2. 2. 1.99500000e+00 1.99000001e+00
    1.98399997e+00 1.98399997e+00 1.98399997e+00 1.98399997e+00
    1.97899997e+00 1.97599995e+00 1.97099996e+00 1.96899998e+00
    1.96899998e+00 1.96899998e+00 1.96300006e+00 1.96099997e+00
    1.95799994e+00 1.95500004e+00 1.95000005e+00 1.94299996e+00
    1.94799995e+00 1.94799995e+00 1.94700003e+00 0. 0. 0. 0. 0. 0. 0. 0.
    2.02699995e+00 2.02099991e+00 2.01600003e+00 2.01200008e+00
    2.01200008e+00 2.00699997e+00 2.00600004e+00 2.00600004e+00
    2.00099993e+00 2. 2. 1.99500000e+00 1.99000001e+00 1.98399997e+00
    1.98000002e+00 1.98000002e+00 1.98300004e+00 1.97899997e+00
    1.97399998e+00 1.96899998e+00 1.96300006e+00 1.96300006e+00
    1.96399999e+00 1.96300006e+00 1.96000004e+00 1.95799994e+00
    1.95500004e+00 1.95000005e+00 1.94599998e+00 1.94299996e+00
    1.94099998e+00 1.41900003e+00 0. 0. 0. 0. 0. 0. 0. 0. 0. 0. 0. 0.
    2.00600004e+00 2. 2. 2. 2. 2. 1.99600005e+00 1.99500000e+00
    1.99500000e+00 1.98500001e+00 1.98300004e+00 1.98000002e+00
    1.98000002e+00 1.97899997e+00 1.97399998e+00 1.96899998e+00
    1.96500003e+00 1.96300006e+00 1.96300006e+00 1.96300006e+00
    1.96300006e+00 1.95799994e+00 1.95299995e+00 1.95000005e+00
    1.94599998e+00 1.94299996e+00 1.93499994e+00 1.41400003e+00 0. 0. 0.
    0. 0. 0. 0. 0. 0. 0. 0. 0. 0. 0. 0. 0. 0. 0. 2.16199994e+00
    1.99199998e+00 1.99000001e+00 1.98500001e+00 1.98399997e+00
    1.98300004e+00 1.98000002e+00 1.97899997e+00 1.97399998e+00
    1.97000003e+00 1.96899998e+00 1.96300006e+00 1.96300006e+00
    1.96300006e+00 1.96000004e+00 1.95799994e+00 1.95700002e+00
    1.95000005e+00 1.94599998e+00 1.94099998e+00 1.93700004e+00 0. 0. 0.
    0. 0. 0. 0. 0. 0. 0. 0. 0. 0. 0. 0. 0. 0. 0. 0. 0. 0. 0.
    2.45000005e+00 1.98800004e+00 1.98800004e+00 1.98500001e+00
    1.97899997e+00 1.96899998e+00 1.96899998e+00 1.96899998e+00
    1.96300006e+00 1.96300006e+00 1.96300006e+00 1.96200001e+00
    1.95799994e+00 1.95799994e+00 1.95299995e+00 1.94400001e+00
    1.93299997e+00 1.38000000e+00 0. 0. 0. 0. 0. 0. 0. 0. 0. 0. 0. 0. 0.
    0. 0. 0. 0. 0. 0. 0. 0. 0. 0. 0. 0. 0. 0. 1.95000005e+00
    1.96300006e+00 1.97099996e+00 1.96899998e+00 1.96300006e+00
    1.96000004e+00 1.96000004e+00 1.95799994e+00 1.95799994e+00
    1.95299995e+00 1.94599998e+00 1.07200003e+00 0. 0. 0. 0. 0. 0. 0. 0.
    0. 0. 0. 0. 0. 0. 0. 0. 0. 0. 0. 0. 0. 0. 0. 0. 0. 0. 0. 0. 0. 0. 0.
    0. 0. 0. 0. 0. 0. 0. 0. 0. 0. 0. 0. 0. 0. 0. 0. 0. 0. 0. 0. 0. 0. 0.
    0. 0. 0. 0. 0. 0. 0. 0. 0. 0. 0. 0. 0. 0. 0. 0. 0. 0. 0. 0. 0. 0. 0.
    0. 0. 0. 0. 0. 0. 0. 0. 0. 0. 0. 0. 0. 0. 0. 0. 0. 0. 0. 0. 0. 0. 0.
    0. 0. 0. 0. 0. 0. 0. 0. 0. 0. 0. 0. 0. 0. 0. 0. 0. 0. 0. 0. 0. 0. 0.
    0. 0. 0. 0. 0. 0. 0. 0. 0. 0. 0. 0. 0. 0. 0. 0. 0. 0. 0. 0. 0. 0. 0.
    0. 0. 0. 0. 0. 0. 0. 0. 0. 0. 0. 0. 0. 0. 0. 0. 0. 0.</data></Depth>
</opencv_storage>
