<?xml version="1.0"?>
<opencv_storage>
<Depth type_id="opencv-matrix">
  <rows>40</rows>
  <cols>40</cols>
  <dt>f</dt>
  <data>
    0. 0. 0. 0. 0. 0. 0. 0. 0. 0. 0. 2.05800009e+00 2.04600000e+00
    2.04800010e+00 2.79999995e+00 0. 0. 0. 0. 0. 0. 0. 0. 0. 0. 0. 0. 0.
    0. 0. 0. 0. 0. 0. 0. 0. 0. 0. 0. 0. 0. 0. 0. 0. 0. 0. 0. 0. 0. 0.
    2.06399989e+00 2.05900002e+00 2.05100012e+00 2.04800010e+00
    2.04099989e+00 2.49900007e+00 0. 0. 0. 0. 0. 0. 0. 0. 0. 0. 0. 0. 0.
    0. 0. 0. 0. 0. 0. 0. 0. 0. 0. 0. 0. 0. 0. 0. 0. 0. 0. 0.
    2.46300006e+00 2.06399989e+00 2.06100011e+00 2.05399990e+00
    2.05100012e+00 2.04699993e+00 2.04299998e+00 2.04200006e+00
    2.04099989e+00 2.48300004e+00 0. 0. 0. 0. 0. 0. 0. 0. 0. 0. 0. 0. 0.
    0. 0. 0. 0. 0. 0. 0. 0. 0. 0. 0. 0. 0. 0. 0. 0. 0. 2.06500006e+00
    2.06200004e+00 2.05800009e+00 2.05399990e+00 2.04900002e+00
    2.04299998e+00 2.04099989e+00 2.04099989e+00 2.04099989e+00
    2.04099989e+00 2.04099989e+00 0. 0. 0. 0. 0. 0. 0. 0. 0. 0. 0. 0. 0.
    0. 0. 0. 0. 0. 0. 0. 0. 0. 0. 0. 0. 0. 0. 0. 2.29099989e+00
    2.06599998e+00 2.05800009e+00 2.05699992e+00 2.05200005e+00
    2.04800010e+00 2.04299998e+00 2.04099989e+00 2.04099989e+00
    2.04099989e+00 2.03600001e+00 2.03600001e+00 2.03099990e+00
    2.45000005e+00 0. 0. 0. 0. 0. 0. 0. 0. 0. 0. 0. 0. 0. 0. 0. 0. 0. 0.
    0. 0. 0. 0. 0. 0. 0. 0. 2.05800009e+00 2.05699992e+00 2.05500007e+00
    2.05100012e+00 2.05100012e+00 2.05100012e+00 2.04600000e+00
    2.04099989e+00 2.04099989e+00 2.03699994e+00 2.03600001e+00
    2.02999997e+00 2.02999997e+00 2.02500010e+00 2.05100012e+00 0. 0. 0.
    0. 0. 0. 0. 0. 0. 0. 0. 0. 0. 0. 0. 0. 0. 0. 0. 0. 0. 0. 0. 0.
    2.05699992e+00 2.05100012e+00 2.05100012e+00 2.05100012e+00
    2.04600000e+00 2.04600000e+00 2.04900002e+00 2.04600000e+00
    2.04299998e+00 2.04099989e+00 2.03699994e+00 2.03600001e+00
    2.02999997e+00 2.02999997e+00 2.02500010e+00 2.01999998e+00
    2.02800012e+00 0. 0. 0. 0. 0. 0. 0. 0. 0. 0. 0. 0. 0. 0. 0. 0. 0. 0.
    0. 0. 0. 0. 0. 2.05100012e+00 2.05100012e+00 2.05100012e+00
    2.04600000e+00 2.04600000e+00 2.04600000e+00 2.04600000e+00
    2.04299998e+00 2.04099989e+00 2.04099989e+00 2.03699994e+00
    2.03099990e+00 2.02500010e+00 2.02500010e+00 2.02500010e+00
    2.01999998e+00 2.01999998e+00 2.01999998e+00 2.64499998e+00 0. 0. 0.
    0. 0. 0. 0. 0. 0. 0. 0. 0. 0. 0. 0. 0. 0. 0. 0. 0. 2.06100011e+00
    2.05100012e+00 2.05100012e+00 2.04900002e+00 2.04600000e+00
    2.04600000e+00 2.04600000e+00 2.04299998e+00 2.03600001e+00
    2.03800011e+00 2.03600001e+00 2.02999997e+00 2.02500010e+00
    2.02500010e+00 2.02500010e+00 2.01999998e+00 2.01500010e+00
    2.01500010e+00 2.01900005e+00 2.01600003e+00 2.00999999e+00
    2.77699995e+00 0. 0. 0. 0. 0. 0. 0. 0. 0. 0. 0. 0. 0. 0. 0. 0. 0.
    2.06100011e+00 2.05599999e+00 2.05100012e+00 2.04999995e+00
    2.04600000e+00 2.04600000e+00 2.04600000e+00 2.04399991e+00
    2.03800011e+00 2.03800011e+00 2.03600001e+00 2.02999997e+00
    2.02500010e+00 2.02500010e+00 2.02500010e+00 2.02500010e+00
    2.01900005e+00 2.01500010e+00 2.01500010e+00 2.01399994e+00
    2.01200008e+00 2.00699997e+00 2.00500011e+00 2.01300001e+00 0. 0. 0.
    0. 0. 0. 0. 0. 0. 0. 0. 0. 0. 0. 1.47399998e+00 1.98300004e+00
    2.04600000e+00 2.04600000e+00 2.04600000e+00 2.04600000e+00
    2.04600000e+00 2.04600000e+00 2.04099989e+00 2.04099989e+00
    2.03600001e+00 2.03399992e+00 2.03600001e+00 2.02999997e+00
    2.02500010e+00 2.02500010e+00 2.02500010e+00 2.01999998e+00
    2.01900005e+00 2.01500010e+00 2.01500010e+00 2.00999999e+00
    2.00900006e+00 2.00500011e+00 2.00399995e+00 2.00399995e+00
    2.00900006e+00 2.91499996e+00 0. 0. 0. 0. 0. 0. 0. 0. 0. 0. 0.
    2.83400011e+00 0. 1.83500004e+00 2.04600000e+00 2.04600000e+00
    2.04600000e+00 2.04600000e+00 2.04600000e+00 2.04299998e+00
    2.04099989e+00 2.04099989e+00 2.03299999e+00 2.02999997e+00
    2.03399992e+00 2.02900004e+00 2.02300000e+00 2.02300000e+00
    2.02300000e+00 2.01999998e+00 2.01500010e+00 2.01300001e+00
    2.01300001e+00 2.00799990e+00 2.00500011e+00 2.00500011e+00
    2.00099993e+00 2.00200009e+00 2.00500011e+00 2.00500011e+00
    1.99699998e+00 1.99399996e+00 2.05299997e+00 0. 0. 0. 0. 0. 0. 0.
    1.71099997e+00 0. 1.16700006e+00 2.04600000e+00 2.04600000e+00
    2.04600000e+00 2.04600000e+00 2.04600000e+00 2.04099989e+00
    2.04099989e+00 2.03999996e+00 2.03500009e+00 2.02999997e+00
    2.02800012e+00 2.02500010e+00 2.02600002e+00 2.02300000e+00
    2.01999998e+00 2.01799989e+00 2.01500010e+00 2.01399994e+00
    2.00999999e+00 2.00999999e+00 2.00500011e+00 2.00500011e+00
    2.00500011e+00 2. 2. 2.00099993e+00 2. 1.99399996e+00 1.99300003e+00
    1.99100006e+00 2.91599989e+00 0. 0. 0. 0. 0. 0. 0. 1.19200003e+00
    1.89699996e+00 2.04600000e+00 2.04600000e+00 2.04099989e+00
    2.04600000e+00 2.04299998e+00 2.04099989e+00 2.03999996e+00
    2.03600001e+00 2.02699995e+00 2.02699995e+00 2.02500010e+00
    2.02500010e+00 2.02500010e+00 2.02500010e+00 2.01999998e+00
    2.01799989e+00 2.01699996e+00 2.01099992e+00 2.00500011e+00
    2.00699997e+00 2.00500011e+00 2.00500011e+00 2.00200009e+00 2. 2. 2.
    1.99800003e+00 1.99399996e+00 1.99600005e+00 1.99100006e+00
    1.99100006e+00 2.13400006e+00 2.95300007e+00 0. 0. 0. 0.
    1.96399999e+00 2.04800010e+00 2.04600000e+00 2.04600000e+00
    2.04600000e+00 2.04099989e+00 2.04299998e+00 2.04399991e+00
    2.03800011e+00 2.03600001e+00 2.03200006e+00 2.02500010e+00
    2.02500010e+00 2.02500010e+00 2.02500010e+00 2.02300000e+00
    2.01999998e+00 2.01500010e+00 2.01200008e+00 2.00999999e+00
    2.00500011e+00 2.00500011e+00 2.00500011e+00 2.00500011e+00
    2.00099993e+00 2. 2. 2. 1.99800003e+00 1.99600005e+00 1.99300003e+00
    1.99100006e+00 1.99100006e+00 1.99100006e+00 1.98800004e+00
    1.98899996e+00 2.62500000e+00 0. 0. 0. 1.78400004e+00 2.04800010e+00
    2.04600000e+00 2.04299998e+00 2.04299998e+00 2.04099989e+00
    2.04099989e+00 2.03699994e+00 2.03500009e+00 2.03099990e+00
    2.02999997e+00 2.02500010e+00 2.02500010e+00 2.02500010e+00
    2.02300000e+00 2.01999998e+00 2.01999998e+00 2.01500010e+00
    2.00999999e+00 2.00500011e+00 2.00600004e+00 2.00500011e+00
    2.00399995e+00 2.00300002e+00 2. 2. 2. 1.99699998e+00 1.99199998e+00
    1.99100006e+00 1.99100006e+00 1.99100006e+00 1.99100006e+00
    1.98800004e+00 1.98599994e+00 1.98599994e+00 1.98800004e+00
    1.98399997e+00 2.46700001e+00 0. 2.04299998e+00 2.04200006e+00
    2.04500008e+00 2.04099989e+00 2.04099989e+00 2.04099989e+00
    2.03099990e+00 2.03099990e+00 2.02999997e+00 2.02900004e+00
    2.02600002e+00 2.02500010e+00 2.02099991e+00 2.02500010e+00
    2.01999998e+00 2.01999998e+00 2.01999998e+00 2.00999999e+00
    2.00999999e+00 2.00999999e+00 2.00500011e+00 2.00500011e+00
    2.00099993e+00 2. 2. 1.99800003e+00 1.99600005e+00 1.99600005e+00
    1.99100006e+00 1.99100006e+00 1.99100006e+00 1.99100006e+00
    1.98599994e+00 1.98599994e+00 1.98599994e+00 1.98599994e+00
    1.97700000e+00 1.97500002e+00 1.97300005e+00 2.19199991e+00
    2.04099989e+00 2.04099989e+00 2.04099989e+00 2.04099989e+00
    2.03699994e+00 2.03600001e+00 2.02999997e+00 2.02500010e+00
    2.02500010e+00 2.02500010e+00 2.02500010e+00 2.02300000e+00
    2.01999998e+00 2.01999998e+00 2.01699996e+00 2.01200008e+00
    2.00999999e+00 2.00999999e+00 2.00500011e+00 2.00500011e+00
    2.00399995e+00 2.00099993e+00 2. 2. 1.99899995e+00 1.99100006e+00
    1.98699999e+00 1.99300003e+00 1.99500000e+00 1.99100006e+00
    1.98699999e+00 1.98599994e+00 1.98599994e+00 1.98599994e+00
    1.98599994e+00 1.98199999e+00 1.97300005e+00 1.97599995e+00
    1.97599995e+00 1.97200000e+00 2.04099989e+00 2.04099989e+00
    2.04099989e+00 2.03600001e+00 2.03600001e+00 2.03600001e+00
    2.02999997e+00 2.02999997e+00 2.02500010e+00 2.02500010e+00
    2.02500010e+00 2.01999998e+00 2.01999998e+00 2.01999998e+00
    2.01699996e+00 2.01099992e+00 2.00600004e+00 2.00500011e+00
    2.00500011e+00 2. 2. 2. 1.99600005e+00 1.99500000e+00 1.99100006e+00
    1.99100006e+00 1.98599994e+00 1.99000001e+00 1.98800004e+00
    1.98599994e+00 1.98599994e+00 1.98599994e+00 1.98599994e+00
    1.98599994e+00 1.98099995e+00 1.97599995e+00 1.97399998e+00
    1.96700001e+00 1.97000003e+00 1.97200000e+00 2.03600001e+00
    2.04099989e+00 2.03600001e+00 2.04099989e+00 2.03600001e+00
    2.03600001e+00 2.03600001e+00 2.02999997e+00 2.02900004e+00
    2.02500010e+00 2.01999998e+00 2.01999998e+00 2.01999998e+00
    2.01500010e+00 2.01200008e+00 2.00600004e+00 2.00500011e+00
    2.00500011e+00 2. 2. 2. 1.99899995e+00 1.99600005e+00 1.99600005e+00
    1.99100006e+00 1.98599994e+00 1.98599994e+00 1.98899996e+00
    1.98699999e+00 1.98599994e+00 1.98599994e+00 1.98599994e+00
    1.98099995e+00 1.97599995e+00 1.97599995e+00 1.97500002e+00
    1.97200000e+00 1.97000003e+00 1.96899998e+00 1.96899998e+00 0.
    1.96800005e+00 2.03699994e+00 2.03600001e+00 2.03600001e+00
    2.02999997e+00 2.02999997e+00 2.02900004e+00 2.02500010e+00
    2.02300000e+00 2.01999998e+00 2.01999998e+00 2.01699996e+00
    2.01200008e+00 2.00699997e+00 2.00500011e+00 2.00500011e+00 2. 2. 2.
    2. 1.99899995e+00 1.99600005e+00 1.99600005e+00 1.98599994e+00
    1.98599994e+00 1.98599994e+00 1.98899996e+00 1.99100006e+00
    1.98599994e+00 1.98099995e+00 1.98099995e+00 1.97599995e+00
    1.97599995e+00 1.97500002e+00 1.97200000e+00 1.97200000e+00
    1.97200000e+00 1.97000003e+00 1.96700001e+00 0. 0. 0. 2.10599995e+00
    2.02900004e+00 2.02500010e+00 2.02500010e+00 2.01999998e+00
    2.02099991e+00 2.01999998e+00 2.01799989e+00 2.01500010e+00
    2.01500010e+00 2.00999999e+00 2.00500011e+00 2.00099993e+00 2. 2.
    1.99899995e+00 1.99600005e+00 2. 1.99899995e+00 1.99500000e+00
    1.99100006e+00 1.98599994e+00 1.98599994e+00 1.98500001e+00
    1.98899996e+00 1.98699999e+00 1.98500001e+00 1.97599995e+00
    1.97500002e+00 1.97500002e+00 1.97599995e+00 1.97500002e+00
    1.97200000e+00 1.97200000e+00 1.97200000e+00 1.96700001e+00
    1.96700001e+00 0. 0. 0. 0. 2.79800010e+00 2.02500010e+00
    2.02500010e+00 2.01999998e+00 2.02099991e+00 2.01999998e+00
    2.01500010e+00 2.01500010e+00 2.01500010e+00 2.00699997e+00
    2.00500011e+00 2.00099993e+00 2. 2. 1.99600005e+00 1.99600005e+00
    1.99699998e+00 1.99500000e+00 1.99100006e+00 1.98899996e+00
    1.98599994e+00 1.98300004e+00 1.98099995e+00 1.98399997e+00
    1.98599994e+00 1.98000002e+00 1.97200000e+00 1.97200000e+00
    1.97300005e+00 1.97500002e+00 1.97200000e+00 1.97200000e+00
    1.97200000e+00 1.97099996e+00 1.96700001e+00 1.96599996e+00 0. 0. 0.
    0. 0. 0. 1.67799997e+00 2.01999998e+00 2.01900005e+00 2.00999999e+00
    2.00999999e+00 2.00999999e+00 2.00999999e+00 2.00699997e+00
    2.00500011e+00 2.00200009e+00 2. 2. 1.99600005e+00 1.99600005e+00
    1.99600005e+00 1.99199998e+00 1.98599994e+00 1.98599994e+00
    1.98599994e+00 1.98300004e+00 1.98099995e+00 1.98099995e+00
    1.98099995e+00 1.97700000e+00 1.97599995e+00 1.97200000e+00
    1.97599995e+00 1.97200000e+00 1.97200000e+00 1.97099996e+00
    1.97200000e+00 1.96700001e+00 1.96399999e+00 1.95500004e+00 0. 0. 0.
    0. 0. 0. 0. 0. 1.64999998e+00 2.01500010e+00 2.00999999e+00
    2.00500011e+00 2.00500011e+00 2.00500011e+00 2.00500011e+00
    2.00399995e+00 2. 1.99600005e+00 1.99100006e+00 1.98599994e+00
    1.98899996e+00 1.98599994e+00 1.98599994e+00 1.98399997e+00
    1.98099995e+00 1.98099995e+00 1.98000002e+00 1.98000002e+00
    1.97899997e+00 1.97700000e+00 1.97599995e+00 1.97200000e+00
    1.97200000e+00 1.97200000e+00 1.97000003e+00 1.96700001e+00
    1.96700001e+00 1.96500003e+00 1.96300006e+00 1.96000004e+00 0. 0. 0.
    0. 0. 0. 0. 0. 1.41100001e+00 1.61500001e+00 2.00500011e+00
    2.00500011e+00 2.00399995e+00 2.00300002e+00 2. 2. 2. 1.99600005e+00
    1.98599994e+00 1.98599994e+00 1.98599994e+00 1.98599994e+00
    1.98500001e+00 1.98099995e+00 1.98099995e+00 1.97599995e+00
    1.97599995e+00 1.97800004e+00 1.97300005e+00 1.97200000e+00
    1.97200000e+00 1.97200000e+00 1.97200000e+00 1.96700001e+00
    1.96700001e+00 1.96700001e+00 1.96700001e+00 1.96500003e+00
    1.96300006e+00 1.96899998e+00 0. 0. 0. 0. 0. 0. 0. 0. 0.
    1.34599996e+00 2.00699997e+00 2.00500011e+00 2.00399995e+00 2. 2. 2.
    1.99600005e+00 1.99399996e+00 1.98899996e+00 1.98599994e+00
    1.98599994e+00 1.98399997e+00 1.98099995e+00 1.98099995e+00
    1.98099995e+00 1.97399998e+00 1.97399998e+00 1.97599995e+00
    1.97200000e+00 1.97200000e+00 1.97200000e+00 1.97200000e+00
    1.97200000e+00 1.96700001e+00 1.96700001e+00 1.96700001e+00
    1.96700001e+00 1.96300006e+00 1.95899999e+00 1.96200001e+00 0. 0. 0.
    0. 0. 0. 0. 0. 0. 0. 0. 1.04900002e+00 1.64300001e+00 1.99899995e+00
    1.99699998e+00 1.99699998e+00 1.99199998e+00 1.99100006e+00
    1.99100006e+00 1.98599994e+00 1.98099995e+00 1.98099995e+00
    1.98099995e+00 1.97899997e+00 1.97599995e+00 1.97300005e+00
    1.96899998e+00 1.97000003e+00 1.97200000e+00 1.97200000e+00
    1.96899998e+00 1.96700001e+00 1.96700001e+00 1.96700001e+00
    1.96300006e+00 1.96300006e+00 1.96500003e+00 1.95500004e+00
    1.95400000e+00 1.95500004e+00 0. 0. 0. 0. 0. 0. 0. 0. 0. 0. 0. 0. 0.
    1.14400005e+00 1.99699998e+00 1.99600005e+00 1.98800004e+00
    1.98599994e+00 1.98599994e+00 1.98300004e+00 1.98099995e+00
    1.98099995e+00 1.98000002e+00 1.97700000e+00 1.97399998e+00
    1.96899998e+00 1.96700001e+00 1.97000003e+00 1.97200000e+00
    1.96899998e+00 1.96700001e+00 1.96700001e+00 1.96700001e+00
    1.96700001e+00 1.96300006e+00 1.96300006e+00 1.96300006e+00
    1.94900000e+00 1.94900000e+00 1.94900000e+00 0. 0. 0. 0. 0. 0. 0. 0.
    0. 0. 0. 0. 0. 0. 0. 1.99300003e+00 1.98599994e+00 1.98300004e+00
    1.98099995e+00 1.98099995e+00 1.98099995e+00 1.98099995e+00
    1.97700000e+00 1.97300005e+00 1.97000003e+00 1.96700001e+00
    1.96700001e+00 1.97000003e+00 1.97200000e+00 1.96700001e+00
    1.96700001e+00 1.96300006e+00 1.96300006e+00 1.96399999e+00
    1.96300006e+00 1.95400000e+00 1.95599997e+00 0. 0. 0. 0. 0. 0. 0. 0.
    0. 0. 0. 0. 0. 0. 0. 0. 2.28399992e+00 0. 0. 1.98099995e+00
    1.98099995e+00 1.98099995e+00 1.98099995e+00 1.98099995e+00
    1.97700000e+00 1.96800005e+00 1.96800005e+00 1.96800005e+00
    1.96700001e+00 1.96700001e+00 1.96800005e+00 1.96800005e+00
    1.96700001e+00 1.96399999e+00 1.96300006e+00 1.96300006e+00
    1.96300006e+00 1.96300006e+00 1.95299995e+00 0. 0. 0. 0. 0. 0. 0. 0.
    0. 0. 0. 0. 0. 0. 0. 0. 0. 0. 0. 1.74800003e+00 2.47799993e+00
    1.98599994e+00 1.98500001e+00 1.98199999e+00 1.97599995e+00
    1.97200000e+00 1.96700001e+00 1.96700001e+00 1.96700001e+00
    1.96700001e+00 1.96700001e+00 1.96700001e+00 1.96700001e+00
    1.96700001e+00 1.96300006e+00 1.96300006e+00 1.96300006e+00
    1.96300006e+00 1.96700001e+00 1.96300006e+00 1.44200003e+00 0. 0. 0.
    0. 0. 0. 0. 0. 0. 0. 0. 0. 0. 0. 0. 0. 0. 0. 0. 0. 0. 2.04900002e+00
    1.98099995e+00 1.98000002e+00 1.97500002e+00 1.96700001e+00
    1.96700001e+00 1.96700001e+00 1.96700001e+00 1.96300006e+00
    1.96599996e+00 1.96300006e+00 1.95799994e+00 1.95899999e+00
    1.95799994e+00 1.95799994e+00 1.95799994e+00 1.97200000e+00
    1.97099996e+00 1.96700001e+00 1.41199994e+00 1.34099996e+00
    2.02999997e+00 0. 0. 0. 0. 0. 0. 0. 0. 0. 0. 0. 0. 0. 0. 0. 0. 0. 0.
    0. 0. 0. 1.97200000e+00 1.96700001e+00 1.96599996e+00 1.96300006e+00
    1.96500003e+00 1.96300006e+00 1.96300006e+00 1.95899999e+00
    1.95799994e+00 1.95899999e+00 1.95799994e+00 1.95799994e+00
    1.95799994e+00 0. 0. 1.97000003e+00 1.95799994e+00 1.36099994e+00
    2.01699996e+00 0. 0. 0. 0. 0. 0. 0. 0. 0. 0. 0. 0. 0. 0. 0. 0. 0. 0.
    0. 1.22099996e+00 0. 0. 1.86500001e+00 1.96300006e+00 1.96300006e+00
    1.96300006e+00 1.95799994e+00 1.95799994e+00 1.95799994e+00
    1.96200001e+00 1.96200001e+00 1.95799994e+00 1.95799994e+00
    1.96000004e+00 0. 0. 0. 0. 1.28299999e+00 2.00699997e+00 0. 0. 0. 0.
    0. 0. 0. 0. 0. 0. 0. 0. 0. 0. 0. 0. 0. 0. 0. 0. 0. 0. 0.
    1.15999997e+00 1.96700001e+00 1.96000004e+00 1.95799994e+00
    1.95799994e+00 1.95799994e+00 1.95299995e+00 1.95299995e+00
    1.95299995e+00 1.95299995e+00 0. 0. 0. 0. 0. 0. 0. 0. 0. 0. 0. 0. 0.
    0. 0. 0. 0. 0. 0. 0. 0. 0. 0. 0. 0. 0. 0. 0. 0. 1.05100000e+00
    2.82999992e+00 1.96800005e+00 1.96399999e+00 1.95899999e+00
    1.95799994e+00 1.95299995e+00 1.95700002e+00 1.94900000e+00
    1.94900000e+00 1.58800006e+00 0. 0. 0. 0. 0. 0. 1.96099997e+00 0. 0.
    0. 0. 0. 0. 0. 0. 0. 0. 0. 0. 0. 0. 0. 0. 0. 0. 0. 0. 0. 0. 0.
    1.25899994e+00 0. 0. 0. 1.94400001e+00 1.94900000e+00 1.95299995e+00
    1.94900000e+00 0. 0. 0. 0. 0. 0. 0. 1.54999995e+00 1.95099998e+00 0.
    0. 0. 0. 0. 0. 0. 0. 0. 0. 0. 0. 0. 0. 0. 0. 0. 0. 0. 0. 0. 0. 0. 0.
    0. 0. 0. 2.98200011e+00 1.94900000e+00 1.95000005e+00 1.94900000e+00
    0. 0. 0. 0. 0. 0. 0. 1.96500003e+00 1.94099998e+00 0. 0. 0. 0. 0. 0.
    0. 0. 0. 0. 0. 0. 0. 0. 0. 0. 0. 0. 0. 0. 0. 0. 0. 0. 0. 0. 0. 0. 0.
    0. 0. 0. 0. 0. 0. 0. 0. 0. 0. 0.</data></Depth>
</opencv_storage>
