<?xml version="1.0"?>
<opencv_storage>
<Depth type_id="opencv-matrix">
  <rows>40</rows>
  <cols>40</cols>
  <dt>f</dt>
  <data>
    0. 0. 0. 0. 0. 0. 0. 0. 0. 0. 0. 0. 0. 0. 0. 0. 0. 0. 0. 0. 0. 0. 0.
    0. 0. 0. 0. 0. 0. 0. 0. 0. 0. 0. 0. 0. 0. 0. 0. 0. 0. 0. 0. 0. 0. 0.
    0. 1.23800004e+00 1.23800004e+00 1.23800004e+00 2.00999999e+00
    2.00799990e+00 2.00600004e+00 2.00799990e+00 2.01200008e+00
    2.01200008e+00 1.47500002e+00 1.43900001e+00 2.02600002e+00
    1.23800004e+00 1.24100006e+00 1.74399996e+00 1.23800004e+00
    1.23800004e+00 1.23800004e+00 1.23800004e+00 1.23800004e+00
    1.23800004e+00 1.23800004e+00 1.23800004e+00 1.23800004e+00
    1.23800004e+00 1.23800004e+00 0. 0. 0. 0. 0. 0. 0. 0. 0. 0. 0. 0. 0.
    0. 1.23800004e+00 1.23800004e+00 1.23800004e+00 2.00900006e+00
    2.00900006e+00 2.00900006e+00 2.01099992e+00 2.01099992e+00
    2.01200008e+00 2.01099992e+00 2.01099992e+00 2.01099992e+00
    2.00900006e+00 2.01099992e+00 2.00999999e+00 1.84099996e+00
    1.83899999e+00 1.84500003e+00 1.23800004e+00 1.23800004e+00
    1.23800004e+00 1.23800004e+00 1.23800004e+00 1.23800004e+00
    1.23800004e+00 1.23800004e+00 0. 0. 0. 0. 0. 0. 0. 0. 0. 0. 0. 0. 0.
    0. 1.23800004e+00 1.23800004e+00 1.23800004e+00 2.00699997e+00
    2.00699997e+00 2.00900006e+00 2.00900006e+00 2.00699997e+00
    2.01099992e+00 2.01099992e+00 2.01099992e+00 2.01099992e+00
    2.01099992e+00 2.00999999e+00 2.01099992e+00 2.01200008e+00
    2.01200008e+00 2.01399994e+00 2.01200008e+00 2.01399994e+00
    2.01399994e+00 2.01200008e+00 2.01500010e+00 2.01399994e+00
    2.01500010e+00 2.01399994e+00 0. 0. 0. 0. 0. 0. 0. 0. 0. 0. 0. 0. 0.
    0. 1.23800004e+00 1.23800004e+00 1.23800004e+00 2.00699997e+00
    2.00600004e+00 2.00699997e+00 2.00999999e+00 2.01099992e+00
    2.00999999e+00 2.00900006e+00 2.00699997e+00 2.00900006e+00
    2.01099992e+00 2.00900006e+00 2.01099992e+00 2.01200008e+00
    2.01200008e+00 2.01200008e+00 2.01200008e+00 2.01399994e+00
    2.01399994e+00 2.01399994e+00 2.01399994e+00 2.01399994e+00
    2.01399994e+00 2.01399994e+00 0. 0. 0. 0. 0. 0. 0. 0. 0. 0. 0. 0. 0.
    0. 1.23800004e+00 1.23800004e+00 1.46700001e+00 2.00500011e+00
    2.00500011e+00 2.00500011e+00 2.00699997e+00 2.00799990e+00
    2.00799990e+00 2.00900006e+00 2.00699997e+00 2.00699997e+00
    2.00999999e+00 2.00900006e+00 2.01099992e+00 2.01099992e+00
    2.01099992e+00 2.01200008e+00 2.01200008e+00 2.01399994e+00
    2.01399994e+00 2.01500010e+00 2.01200008e+00 2.01300001e+00
    2.01399994e+00 2.01399994e+00 0. 0. 0. 0. 0. 0. 0. 0. 0. 0. 0. 0. 0.
    0. 1.23800004e+00 1.23800004e+00 1.46899998e+00 2.00500011e+00
    2.00500011e+00 2.00500011e+00 2.00699997e+00 2.00699997e+00
    2.00699997e+00 2.00699997e+00 2.00699997e+00 2.00699997e+00
    2.00900006e+00 2.01099992e+00 2.00900006e+00 2.01099992e+00
    2.01200008e+00 2.01099992e+00 2.01399994e+00 2.01399994e+00
    2.01200008e+00 2.01200008e+00 2.01200008e+00 2.01200008e+00
    2.01200008e+00 2.01200008e+00 0. 0. 0. 0. 0. 0. 0. 0. 0. 0. 0. 0. 0.
    0. 1.23800004e+00 1.23800004e+00 1.46800005e+00 2.00500011e+00
    2.00500011e+00 2.00500011e+00 2.00699997e+00 2.00699997e+00
    2.00699997e+00 2.00699997e+00 2.00699997e+00 2.00699997e+00
    2.00799990e+00 2.00799990e+00 2.00699997e+00 2.01099992e+00
    2.00699997e+00 2.01200008e+00 2.01200008e+00 2.00999999e+00
    2.00999999e+00 2.01099992e+00 2.01200008e+00 2.01300001e+00
    2.01300001e+00 2.01200008e+00 0. 0. 0. 0. 0. 0. 0. 0. 0. 0. 0. 0. 0.
    0. 1.23800004e+00 1.23800004e+00 2.00500011e+00 2.00500011e+00
    2.00500011e+00 2.00399995e+00 2.00500011e+00 2.00699997e+00
    2.00699997e+00 2.00699997e+00 2.00500011e+00 2.00699997e+00
    2.00699997e+00 2.00699997e+00 2.00699997e+00 2.00699997e+00
    2.00500011e+00 2.01099992e+00 2.01099992e+00 2.00900006e+00
    2.00900006e+00 2.01200008e+00 2.01200008e+00 2.01099992e+00
    2.01200008e+00 1.98899996e+00 0. 0. 0. 0. 0. 0. 0. 0. 0. 0. 0. 0. 0.
    0. 1.23800004e+00 1.23800004e+00 2.00399995e+00 2.00399995e+00
    2.00399995e+00 2.00399995e+00 2.00500011e+00 2.00500011e+00
    2.00699997e+00 2.00699997e+00 2.00500011e+00 2.00600004e+00
    2.00699997e+00 2.00699997e+00 2.00699997e+00 2.00699997e+00
    2.00600004e+00 2.00900006e+00 2.00900006e+00 2.00900006e+00
    2.00900006e+00 2.00900006e+00 2.00999999e+00 2.00900006e+00
    2.00999999e+00 2.00900006e+00 0. 0. 0. 0. 0. 0. 0. 0. 0. 0. 0. 0. 0.
    0. 1.23800004e+00 1.23800004e+00 2.00399995e+00 2.00399995e+00
    2.00399995e+00 2.00399995e+00 2.00500011e+00 2.00699997e+00
    2.00699997e+00 2.00699997e+00 2.00500011e+00 2.00500011e+00
    2.00699997e+00 2.00699997e+00 2.00699997e+00 2.00500011e+00
    2.00500011e+00 2.00900006e+00 2.00900006e+00 2.00900006e+00
    2.00900006e+00 2.00900006e+00 2.00900006e+00 2.00900006e+00
    2.00900006e+00 1.78100002e+00 0. 0. 0. 0. 0. 0. 0. 0. 0. 0. 0. 0. 0.
    0. 1.23800004e+00 1.23800004e+00 2.00399995e+00 2.00399995e+00
    2.00399995e+00 2.00399995e+00 2.00500011e+00 2.00500011e+00
    2.00600004e+00 2.00500011e+00 2.00500011e+00 2.00500011e+00
    2.00600004e+00 2.00500011e+00 2.00500011e+00 2.00500011e+00
    2.00500011e+00 2.00699997e+00 2.00699997e+00 2.00699997e+00
    2.00900006e+00 2.00900006e+00 2.00900006e+00 2.00900006e+00
    2.00799990e+00 1.95599997e+00 0. 0. 0. 0. 0. 0. 0. 0. 0. 0. 0. 0. 0.
    0. 1.23800004e+00 1.23800004e+00 2.00200009e+00 2.00399995e+00
    2.00200009e+00 2.00200009e+00 2.00399995e+00 2.00500011e+00
    2.00500011e+00 2.00500011e+00 2.00399995e+00 2.00500011e+00
    2.00500011e+00 2.00699997e+00 2.00600004e+00 2.00399995e+00
    2.00500011e+00 2.00900006e+00 2.00699997e+00 2.00699997e+00
    2.00799990e+00 2.00900006e+00 2.00699997e+00 2.00699997e+00
    2.00699997e+00 1.99600005e+00 0. 0. 0. 0. 0. 0. 0. 0. 0. 0. 0. 0. 0.
    0. 1.23800004e+00 1.23800004e+00 2.00200009e+00 2.00200009e+00
    2.00200009e+00 2.00200009e+00 2.00399995e+00 2.00399995e+00
    2.00500011e+00 2.00399995e+00 2.00399995e+00 2.00500011e+00
    2.00500011e+00 2.00500011e+00 2.00500011e+00 2.00500011e+00
    2.00500011e+00 2.00799990e+00 2.00699997e+00 2.00699997e+00
    2.00699997e+00 2.00699997e+00 2.00600004e+00 2.00500011e+00
    2.00799990e+00 1.23800004e+00 0. 0. 0. 0. 0. 0. 0. 0. 0. 0. 0. 0. 0.
    0. 1.23800004e+00 1.23800004e+00 2.00200009e+00 2.00200009e+00
    2.00200009e+00 2.00200009e+00 2.00500011e+00 2.00399995e+00
    2.00399995e+00 2.00399995e+00 2.00200009e+00 2.00500011e+00
    2.00500011e+00 2.00500011e+00 2.00500011e+00 2.00399995e+00
    2.00500011e+00 2.00699997e+00 2.00699997e+00 2.00699997e+00
    2.00699997e+00 2.00699997e+00 2.00699997e+00 2.00500011e+00
    2.00900006e+00 1.23800004e+00 0. 0. 0. 0. 0. 0. 0. 0. 0. 0. 0. 0. 0.
    0. 1.23800004e+00 1.23800004e+00 2.00099993e+00 2.00300002e+00
    2.00099993e+00 2.00200009e+00 2.00399995e+00 2.00399995e+00
    2.00300002e+00 2.00399995e+00 2.00300002e+00 2.00500011e+00
    2.00399995e+00 2.00399995e+00 2.00500011e+00 2.00399995e+00
    2.00500011e+00 2.00699997e+00 2.00699997e+00 2.00699997e+00
    2.00699997e+00 2.00500011e+00 2.00699997e+00 2.00500011e+00
    2.00699997e+00 1.23800004e+00 0. 0. 0. 0. 0. 0. 0. 0. 0. 0. 0. 0. 0.
    0. 1.23800004e+00 1.83399999e+00 2. 2. 2. 2. 2.00200009e+00
    2.00399995e+00 2.00300002e+00 2.00200009e+00 2.00399995e+00
    2.00399995e+00 2.00399995e+00 2.00399995e+00 2.00500011e+00
    2.00399995e+00 2.00500011e+00 2.00699997e+00 2.00699997e+00
    2.00699997e+00 2.00699997e+00 2.00500011e+00 2.00500011e+00
    2.00500011e+00 2.00500011e+00 1.23800004e+00 0. 0. 0. 0. 0. 0. 0. 0.
    0. 0. 0. 0. 0. 0. 1.23800004e+00 1.93099999e+00 1.99899995e+00 2.
    1.99899995e+00 2. 2.00200009e+00 2.00399995e+00 2.00200009e+00 2.
    2.00099993e+00 2.00200009e+00 2.00200009e+00 2.00200009e+00
    2.00399995e+00 2.00200009e+00 2.00399995e+00 2.00500011e+00
    2.00500011e+00 2.00699997e+00 2.00600004e+00 2.00500011e+00
    2.00500011e+00 2.00500011e+00 2.00500011e+00 1.23800004e+00 0. 0. 0.
    0. 0. 0. 0. 0. 0. 0. 0. 0. 0. 0. 1.23800004e+00 2.00099993e+00
    1.99899995e+00 1.99899995e+00 1.99899995e+00 2. 2.00099993e+00
    2.00200009e+00 2.00200009e+00 2. 2.00099993e+00 2.00200009e+00
    2.00200009e+00 2.00200009e+00 2.00200009e+00 2.00200009e+00
    2.00500011e+00 2.00399995e+00 2.00500011e+00 2.00500011e+00
    2.00399995e+00 2.00500011e+00 2.00200009e+00 2.00399995e+00
    2.00699997e+00 1.23800004e+00 0. 0. 0. 0. 0. 0. 0. 0. 0. 0. 0. 0. 0.
    0. 1.23800004e+00 1.99899995e+00 1.99899995e+00 1.99899995e+00
    1.99899995e+00 1.99899995e+00 2. 2. 2.00099993e+00 2.00099993e+00 2.
    2. 2. 2. 2. 2.00099993e+00 2.00399995e+00 2.00200009e+00
    2.00399995e+00 2.00300002e+00 2.00399995e+00 2.00500011e+00
    2.00300002e+00 2.00500011e+00 2.00200009e+00 1.23800004e+00 0. 0. 0.
    0. 0. 0. 0. 0. 0. 0. 0. 0. 0. 0. 1.23800004e+00 1.99699998e+00
    1.99899995e+00 1.99899995e+00 1.99899995e+00 1.99899995e+00 2.
    2.00200009e+00 2. 2. 2.00099993e+00 2. 2. 1.99899995e+00 2. 2.
    2.00200009e+00 2.00399995e+00 2.00399995e+00 2.00200009e+00
    2.00399995e+00 2.00399995e+00 2.00200009e+00 2.00399995e+00
    2.00399995e+00 1.23800004e+00 0. 0. 0. 0. 0. 0. 0. 0. 0. 0. 0. 0. 0.
    0. 1.43599999e+00 1.99899995e+00 1.99800003e+00 1.99899995e+00
    1.99899995e+00 1.99899995e+00 2. 1.99899995e+00 1.99899995e+00 2. 2.
    1.99899995e+00 1.99899995e+00 2. 2. 2. 2.00200009e+00 2.00200009e+00
    2.00200009e+00 2.00200009e+00 2.00200009e+00 2.00399995e+00
    2.00200009e+00 2.00200009e+00 1.44200003e+00 1.23800004e+00 0. 0. 0.
    0. 0. 0. 0. 0. 0. 0. 0. 0. 0. 0. 1.43599999e+00 1.99899995e+00
    1.99699998e+00 1.99899995e+00 1.99699998e+00 1.99899995e+00 2. 2.
    1.99899995e+00 1.99899995e+00 1.99899995e+00 1.99899995e+00
    1.99899995e+00 1.99899995e+00 1.99899995e+00 2. 2.00099993e+00
    2.00200009e+00 2. 2. 2.00200009e+00 2.00200009e+00 2.00200009e+00
    2.00399995e+00 1.44200003e+00 1.23800004e+00 0. 0. 0. 0. 0. 0. 0. 0.
    0. 0. 0. 0. 0. 0. 1.43599999e+00 1.99899995e+00 1.99899995e+00
    1.99699998e+00 1.99800003e+00 1.99699998e+00 1.99899995e+00
    1.99899995e+00 1.99899995e+00 1.99899995e+00 1.99899995e+00
    1.99899995e+00 1.99899995e+00 1.99899995e+00 1.99899995e+00
    1.99899995e+00 2. 2. 2. 2.00200009e+00 2.00200009e+00 2.00200009e+00
    2. 2.00200009e+00 1.44299996e+00 1.23800004e+00 0. 0. 0. 0. 0. 0. 0.
    0. 0. 0. 0. 0. 0. 0. 1.43599999e+00 1.99699998e+00 1.99699998e+00
    1.99699998e+00 1.99800003e+00 1.99699998e+00 1.99899995e+00
    1.99899995e+00 1.99899995e+00 1.99899995e+00 1.99899995e+00
    1.99899995e+00 1.99899995e+00 1.99899995e+00 1.99699998e+00
    1.99899995e+00 2. 2. 2. 2.00200009e+00 2.00200009e+00 2.00200009e+00
    2. 2.00200009e+00 1.23800004e+00 1.23800004e+00 0. 0. 0. 0. 0. 0. 0.
    0. 0. 0. 0. 0. 0. 0. 1.99699998e+00 1.99699998e+00 1.99699998e+00
    1.99699998e+00 1.99699998e+00 1.99600005e+00 1.99899995e+00
    1.99899995e+00 1.99800003e+00 1.99899995e+00 1.99899995e+00
    1.99899995e+00 1.99800003e+00 1.99899995e+00 1.99800003e+00
    1.99699998e+00 2. 2. 2. 2.00099993e+00 2. 2. 2. 2. 1.23800004e+00
    1.23800004e+00 0. 0. 0. 0. 0. 0. 0. 0. 0. 0. 0. 0. 0. 0.
    1.57700002e+00 1.99600005e+00 1.99699998e+00 1.99699998e+00
    1.99600005e+00 1.99699998e+00 1.99699998e+00 1.99800003e+00
    1.99600005e+00 1.99699998e+00 1.99800003e+00 1.99699998e+00
    1.99800003e+00 1.99800003e+00 1.99699998e+00 1.99899995e+00
    1.99899995e+00 2. 2. 2. 2. 2. 2. 2. 1.23800004e+00 1.23800004e+00 0.
    0. 0. 0. 0. 0. 0. 0. 0. 0. 0. 0. 0. 0. 1.99699998e+00 1.99500000e+00
    1.99699998e+00 1.99600005e+00 1.99500000e+00 1.99500000e+00
    1.99699998e+00 1.99500000e+00 1.99500000e+00 1.99699998e+00
    1.99600005e+00 1.99500000e+00 1.99699998e+00 1.99500000e+00
    1.99699998e+00 1.99899995e+00 1.99800003e+00 1.99699998e+00
    1.99800003e+00 2. 2. 1.99899995e+00 1.99899995e+00 2. 1.23800004e+00
    1.23800004e+00 0. 0. 0. 0. 0. 0. 0. 0. 0. 0. 0. 0. 0. 0.
    1.99600005e+00 1.99600005e+00 1.99500000e+00 1.99500000e+00
    1.99399996e+00 1.99300003e+00 1.99600005e+00 1.99399996e+00
    1.99500000e+00 1.99699998e+00 1.99500000e+00 1.99500000e+00
    1.99600005e+00 1.99699998e+00 1.99500000e+00 1.99600005e+00
    1.99800003e+00 1.99800003e+00 1.99899995e+00 1.99899995e+00 2. 2. 2.
    1.99800003e+00 1.23800004e+00 1.23800004e+00 0. 0. 0. 0. 0. 0. 0. 0.
    0. 0. 0. 0. 0. 0. 1.99600005e+00 1.99500000e+00 1.99300003e+00
    1.99300003e+00 1.99300003e+00 1.99199998e+00 1.99500000e+00
    1.99500000e+00 1.99500000e+00 1.99500000e+00 1.99500000e+00
    1.99500000e+00 1.99500000e+00 1.99300003e+00 1.99500000e+00
    1.99500000e+00 1.99800003e+00 1.99699998e+00 1.99899995e+00
    1.99899995e+00 1.99899995e+00 1.99899995e+00 1.99899995e+00
    1.86800003e+00 1.23800004e+00 1.23800004e+00 0. 0. 0. 0. 0. 0. 0. 0.
    0. 0. 0. 0. 0. 0. 1.99399996e+00 1.99300003e+00 1.99300003e+00
    1.99199998e+00 1.99199998e+00 1.99300003e+00 1.99300003e+00
    1.99300003e+00 1.99300003e+00 1.99300003e+00 1.99300003e+00
    1.99300003e+00 1.99300003e+00 1.99399996e+00 1.99500000e+00
    1.99600005e+00 1.99600005e+00 1.99699998e+00 1.99699998e+00
    1.99899995e+00 1.99699998e+00 1.99899995e+00 2. 1.94599998e+00
    1.23800004e+00 1.23800004e+00 0. 0. 0. 0. 0. 0. 0. 0. 0. 0. 0. 0. 0.
    0. 1.99300003e+00 1.99199998e+00 1.99300003e+00 1.99199998e+00
    1.99199998e+00 1.99199998e+00 1.99500000e+00 1.99300003e+00
    1.99399996e+00 1.99500000e+00 1.99300003e+00 1.99300003e+00
    1.99300003e+00 1.99300003e+00 1.99300003e+00 1.99500000e+00
    1.99600005e+00 1.99699998e+00 1.99600005e+00 1.99899995e+00
    1.99800003e+00 1.99899995e+00 2. 1.83700001e+00 1.23800004e+00
    1.23800004e+00 0. 0. 0. 0. 0. 0. 0. 0. 0. 0. 0. 0. 0. 0.
    1.99399996e+00 1.99199998e+00 1.99199998e+00 1.99300003e+00
    1.99199998e+00 1.99199998e+00 1.99500000e+00 1.99300003e+00
    1.99300003e+00 1.99500000e+00 1.99300003e+00 1.99300003e+00
    1.99300003e+00 1.99500000e+00 1.99399996e+00 1.99300003e+00
    1.99500000e+00 1.99600005e+00 1.99699998e+00 1.99899995e+00
    1.99699998e+00 1.99899995e+00 1.99899995e+00 1.83599997e+00
    1.23800004e+00 1.23800004e+00 0. 0. 0. 0. 0. 0. 0. 0. 0. 0. 0. 0. 0.
    0. 1.99199998e+00 1.99199998e+00 1.99000001e+00 1.99199998e+00
    1.99199998e+00 1.99000001e+00 1.99000001e+00 1.99199998e+00
    1.99300003e+00 1.99500000e+00 1.99300003e+00 1.99300003e+00
    1.99300003e+00 1.99300003e+00 1.99399996e+00 1.99500000e+00
    1.99500000e+00 1.99699998e+00 1.99600005e+00 1.99500000e+00
    1.99899995e+00 1.99699998e+00 1.99699998e+00 1.23800004e+00
    1.23800004e+00 2.44099998e+00 0. 0. 0. 0. 0. 0. 0. 0. 0. 0. 0. 0. 0.
    0. 1.99000001e+00 1.99000001e+00 1.99199998e+00 1.99199998e+00
    1.99199998e+00 1.99199998e+00 1.99199998e+00 1.99199998e+00
    1.99399996e+00 1.99300003e+00 1.99300003e+00 1.99300003e+00
    1.99300003e+00 1.99300003e+00 1.99300003e+00 1.99399996e+00
    1.99500000e+00 1.99500000e+00 1.99699998e+00 1.99600005e+00
    1.99800003e+00 1.99699998e+00 1.99899995e+00 1.23800004e+00
    1.23800004e+00 2.47499990e+00 0. 0. 0. 0. 0. 0. 0. 0. 0. 0. 0. 0. 0.
    0. 0. 1.99000001e+00 1.99500000e+00 1.99500000e+00 1.99199998e+00
    1.99199998e+00 1.99300003e+00 1.99199998e+00 1.99300003e+00
    1.99300003e+00 1.99300003e+00 1.99300003e+00 1.99300003e+00
    1.99199998e+00 1.99300003e+00 1.99300003e+00 1.99500000e+00
    1.99500000e+00 1.99600005e+00 1.99699998e+00 1.99500000e+00
    1.99500000e+00 1.99899995e+00 1.23800004e+00 1.23800004e+00 0. 0. 0.
    0. 0. 0. 0. 0. 0. 0. 0. 0. 0. 0. 0. 0. 0. 0. 0. 0. 0. 0. 0. 0. 0. 0.
    1.99399996e+00 1.99000001e+00 1.99199998e+00 1.99199998e+00
    1.99300003e+00 1.99399996e+00 1.99500000e+00 1.99500000e+00
    1.99600005e+00 1.99699998e+00 1.99699998e+00 1.99600005e+00
    1.23800004e+00 1.23800004e+00 0. 0. 0. 0. 0. 0. 0. 0. 0. 0. 0. 0. 0.
    0. 0. 0. 0. 0. 0. 0. 0. 0. 0. 0. 0. 0. 0. 0. 0. 0. 0. 1.99199998e+00
    0. 2. 1.99699998e+00 2.00200009e+00 2. 1.99800003e+00 1.23800004e+00
    1.23800004e+00 0. 0. 0. 0. 0. 0. 0. 0. 0. 0. 0. 0. 0. 0. 0. 0. 0. 0.
    0. 0. 0. 0. 0. 0. 0. 0. 0. 0. 0. 0. 0. 0. 0. 0. 0. 0. 0. 0. 0. 0. 0.
    0. 0. 0. 0. 0. 0. 0. 0. 0. 0. 0. 0. 0. 0. 0. 0. 0. 0. 0. 0. 0. 0. 0.
    0. 0. 0. 0. 0. 0. 0. 0. 0. 0. 0. 0. 0. 0. 0. 0. 0. 0. 0. 0. 0. 0. 0.
    0.</data></Depth>
</opencv_storage>
