<?xml version="1.0"?>
<opencv_storage>
<Depth type_id="opencv-matrix">
  <rows>40</rows>
  <cols>40</cols>
  <dt>f</dt>
  <data>
    0. 0. 0. 0. 0. 0. 0. 0. 0. 0. 0. 0. 0. 0. 0. 0. 0. 0. 0. 0. 0. 0. 0.
    0. 0. 0. 0. 0. 0. 0. 0. 0. 0. 0. 0. 0. 0. 0. 0. 0. 0. 0. 0. 0. 0. 0.
    0. 0. 0. 0. 0. 0. 0. 0. 0. 0. 0. 0. 0. 0. 0. 0. 0. 0. 0. 0. 0. 0. 0.
    0. 0. 0. 0. 0. 0. 0. 0. 0. 0. 0. 0. 0. 0. 0. 0. 0. 0. 0. 0. 0. 0. 0.
    0. 0. 0. 0. 0. 0. 0. 0. 0. 0. 0. 0. 0. 0. 0. 0. 0. 0. 0. 0. 0. 0. 0.
    0. 0. 0. 0. 0. 0. 0. 0. 0. 0. 0. 0. 0. 0. 0. 0. 0. 0. 0. 0. 0. 0. 0.
    0. 0. 0. 0. 0. 0. 0. 0. 0. 0. 0. 0. 0. 0. 0. 0. 0. 0. 0. 0. 0. 0. 0.
    0. 0. 0. 0. 0. 0. 0. 0. 0. 0. 0. 0. 0. 0. 0. 0. 0. 0. 0. 0. 0. 0. 0.
    0. 0. 0. 0. 0. 0. 0. 0. 0. 0. 0. 0. 0. 0. 0. 0. 0. 0. 0. 0. 0. 0. 0.
    0. 0. 0. 0. 0. 0. 0. 0. 0. 0. 0. 0. 0. 0. 0. 0. 0. 0. 0. 0. 0. 0. 0.
    0. 0. 0. 0. 0. 0. 0. 0. 0. 0. 1.86399996e+00 1.86399996e+00
    1.86399996e+00 1.86399996e+00 1.89800000e+00 1.95099998e+00 2. 2. 2.
    2. 2. 2. 1.95000005e+00 1.89699996e+00 1.84500003e+00 1.79400003e+00
    1.74300003e+00 1.73300004e+00 1.73300004e+00 1.72200000e+00
    1.67299998e+00 1.62399995e+00 1.57599998e+00 1.52900004e+00
    1.47700000e+00 1.38800001e+00 1.29900002e+00 1.25699997e+00
    1.25699997e+00 1.25699997e+00 1.25699997e+00 1.25699997e+00
    1.24000001e+00 1.19799995e+00 1.15600002e+00 1.14900005e+00
    1.14900005e+00 1.15999997e+00 1.20200002e+00 1.24399996e+00
    1.86399996e+00 1.86399996e+00 1.86399996e+00 1.86399996e+00
    1.89800000e+00 1.95099998e+00 2. 1.99500000e+00 1.99100006e+00
    1.98899996e+00 1.98899996e+00 1.98899996e+00 1.94700003e+00
    1.90300000e+00 1.85800004e+00 1.81099999e+00 1.76499999e+00
    1.75500000e+00 1.75500000e+00 1.74399996e+00 1.69500005e+00
    1.64600003e+00 1.59800005e+00 1.54999995e+00 1.49800003e+00
    1.41299999e+00 1.32700002e+00 1.28400004e+00 1.27999997e+00
    1.27600002e+00 1.27300000e+00 1.26900005e+00 1.25000000e+00
    1.20799994e+00 1.16600001e+00 1.15799999e+00 1.15799999e+00
    1.16799998e+00 1.20599997e+00 1.24500000e+00 1.86399996e+00
    1.86399996e+00 1.86399996e+00 1.86399996e+00 1.89800000e+00
    1.95099998e+00 1.99800003e+00 1.97300005e+00 1.94799995e+00
    1.93599999e+00 1.93599999e+00 1.93599999e+00 1.93299997e+00
    1.92999995e+00 1.91799998e+00 1.89100003e+00 1.86500001e+00
    1.85899997e+00 1.85899997e+00 1.84700000e+00 1.79700005e+00
    1.74600005e+00 1.69599998e+00 1.64699996e+00 1.59599996e+00
    1.52600002e+00 1.45599997e+00 1.41100001e+00 1.38900006e+00
    1.36600006e+00 1.34500003e+00 1.32299995e+00 1.29400003e+00
    1.25100005e+00 1.20799994e+00 1.20000005e+00 1.20000005e+00
    1.20599997e+00 1.22800004e+00 1.25000000e+00 1.86399996e+00
    1.86399996e+00 1.86399996e+00 1.86399996e+00 1.89800000e+00
    1.95099998e+00 1.99600005e+00 1.95099998e+00 1.90499997e+00
    1.88300002e+00 1.88300002e+00 1.88300002e+00 1.91900003e+00
    1.95700002e+00 1.97899997e+00 1.97200000e+00 1.96500003e+00
    1.96300006e+00 1.96300006e+00 1.95099998e+00 1.89900005e+00
    1.84599996e+00 1.79499996e+00 1.74500000e+00 1.69400001e+00
    1.63999999e+00 1.58500004e+00 1.53799999e+00 1.49699998e+00
    1.45599997e+00 1.41700006e+00 1.37800002e+00 1.33700001e+00
    1.29400003e+00 1.25000000e+00 1.24199998e+00 1.24199998e+00
    1.24399996e+00 1.24899995e+00 1.25500000e+00 1.86399996e+00
    1.86399996e+00 1.86399996e+00 1.86399996e+00 1.88999999e+00
    1.92900002e+00 1.96200001e+00 1.90900004e+00 1.85699999e+00
    1.83099997e+00 1.83099997e+00 1.83099997e+00 1.88000000e+00
    1.93299997e+00 1.96599996e+00 1.96599996e+00 1.96599996e+00
    1.97599995e+00 1.99000001e+00 1.99100006e+00 1.95099998e+00
    1.91100001e+00 1.85500002e+00 1.79100001e+00 1.72899997e+00
    1.69299996e+00 1.65699995e+00 1.63499999e+00 1.62500000e+00
    1.61600006e+00 1.54600000e+00 1.47399998e+00 1.41700006e+00
    1.38399994e+00 1.35099995e+00 1.33599997e+00 1.32400000e+00
    1.31500006e+00 1.31500006e+00 1.31500006e+00 1.86399996e+00
    1.86399996e+00 1.86399996e+00 1.86399996e+00 1.87600005e+00
    1.89499998e+00 1.90900004e+00 1.85699999e+00 1.80499995e+00
    1.77999997e+00 1.77999997e+00 1.77999997e+00 1.82900000e+00
    1.88000000e+00 1.91299999e+00 1.91299999e+00 1.91299999e+00
    1.94000006e+00 1.97399998e+00 1.99600005e+00 1.97700000e+00
    1.95799994e+00 1.89499998e+00 1.80999994e+00 1.73099995e+00
    1.71399999e+00 1.69599998e+00 1.71399999e+00 1.76400006e+00
    1.81400001e+00 1.70599997e+00 1.59200001e+00 1.51600003e+00
    1.50100005e+00 1.48500001e+00 1.45700002e+00 1.42700005e+00
    1.40400004e+00 1.40400004e+00 1.40400004e+00 1.86399996e+00
    1.86399996e+00 1.86399996e+00 1.86399996e+00 1.86399996e+00
    1.86399996e+00 1.86000001e+00 1.80900002e+00 1.75800002e+00
    1.73300004e+00 1.73300004e+00 1.73300004e+00 1.78100002e+00
    1.83200002e+00 1.86399996e+00 1.86399996e+00 1.86399996e+00
    1.90499997e+00 1.95700002e+00 1.99600005e+00 1.99600005e+00
    1.99600005e+00 1.92999995e+00 1.83099997e+00 1.74100006e+00
    1.74100006e+00 1.74100006e+00 1.79499996e+00 1.89499998e+00
    1.99600005e+00 1.85300004e+00 1.70099998e+00 1.60800004e+00
    1.60800004e+00 1.60800004e+00 1.57000005e+00 1.52400005e+00
    1.49000001e+00 1.49000001e+00 1.49000001e+00 1.86399996e+00
    1.86399996e+00 1.86399996e+00 1.86399996e+00 1.86399996e+00
    1.86399996e+00 1.86000001e+00 1.80900002e+00 1.75800002e+00
    1.73300004e+00 1.73300004e+00 1.73300004e+00 1.78100002e+00
    1.83200002e+00 1.86399996e+00 1.86399996e+00 1.86399996e+00
    1.88900006e+00 1.91900003e+00 1.94299996e+00 1.94299996e+00
    1.94299996e+00 1.91799998e+00 1.87899995e+00 1.84500003e+00
    1.84500003e+00 1.84500003e+00 1.87699997e+00 1.93700004e+00
    1.99800003e+00 1.85300004e+00 1.70099998e+00 1.60800004e+00
    1.60800004e+00 1.60800004e+00 1.58500004e+00 1.55799997e+00
    1.53699994e+00 1.53699994e+00 1.53699994e+00 1.86399996e+00
    1.86399996e+00 1.86399996e+00 1.86399996e+00 1.86399996e+00
    1.86399996e+00 1.86000001e+00 1.80900002e+00 1.75800002e+00
    1.73300004e+00 1.73300004e+00 1.73300004e+00 1.78100002e+00
    1.83200002e+00 1.86399996e+00 1.86399996e+00 1.86399996e+00
    1.87199998e+00 1.88199997e+00 1.88999999e+00 1.88999999e+00
    1.88999999e+00 1.90499997e+00 1.92799997e+00 1.94900000e+00
    1.94900000e+00 1.94900000e+00 1.96000004e+00 1.97899997e+00
    1.99899995e+00 1.85300004e+00 1.70099998e+00 1.60800004e+00
    1.60800004e+00 1.60800004e+00 1.60099995e+00 1.59099996e+00
    1.58500004e+00 1.58500004e+00 1.58500004e+00 1.91900003e+00
    1.91900003e+00 1.91900003e+00 1.91900003e+00 1.91199994e+00
    1.90100002e+00 1.88600004e+00 1.82500005e+00 1.76300001e+00
    1.73300004e+00 1.73300004e+00 1.73300004e+00 1.77100003e+00
    1.81200004e+00 1.83800006e+00 1.83800006e+00 1.83800006e+00
    1.84599996e+00 1.85599995e+00 1.86399996e+00 1.86399996e+00
    1.86399996e+00 1.89900005e+00 1.95200002e+00 2. 2. 2. 2. 2. 2.
    1.88199997e+00 1.75999999e+00 1.69000006e+00 1.70099998e+00
    1.71200001e+00 1.70500004e+00 1.69400001e+00 1.68599999e+00
    1.68599999e+00 1.68599999e+00 2.02699995e+00 2.02699995e+00
    2.02699995e+00 2.02699995e+00 2.00600004e+00 1.97399998e+00
    1.93700004e+00 1.85500002e+00 1.77300000e+00 1.73300004e+00
    1.73300004e+00 1.73300004e+00 1.75300002e+00 1.77400005e+00
    1.78699994e+00 1.78699994e+00 1.78699994e+00 1.81099999e+00
    1.84099996e+00 1.86399996e+00 1.86399996e+00 1.86399996e+00
    1.89900005e+00 1.95200002e+00 2. 2. 2. 2. 2. 2. 1.94000006e+00
    1.87699997e+00 1.85099995e+00 1.88300002e+00 1.91600001e+00
    1.89499998e+00 1.86199999e+00 1.83800006e+00 1.83800006e+00
    1.83800006e+00 2.13499999e+00 2.13499999e+00 2.13499999e+00
    2.13499999e+00 2.09999990e+00 2.04600000e+00 1.98899996e+00
    1.88600004e+00 1.78299999e+00 1.73300004e+00 1.73300004e+00
    1.73300004e+00 1.73399997e+00 1.73500001e+00 1.73599994e+00
    1.73599994e+00 1.73599994e+00 1.77600002e+00 1.82599998e+00
    1.86399996e+00 1.86399996e+00 1.86399996e+00 1.89900005e+00
    1.95200002e+00 2. 2. 2. 2. 2. 2. 1.99699998e+00 1.99300003e+00
    2.01200008e+00 2.06599998e+00 2.11899996e+00 2.08500004e+00
    2.03099990e+00 1.99100006e+00 1.99100006e+00 1.99100006e+00
    2.14100003e+00 2.14100003e+00 2.14100003e+00 2.14100003e+00
    2.10500002e+00 2.05100012e+00 1.99199998e+00 1.88800001e+00
    1.78400004e+00 1.73300004e+00 1.73300004e+00 1.73300004e+00
    1.73300004e+00 1.73300004e+00 1.73300004e+00 1.73300004e+00
    1.73300004e+00 1.78999996e+00 1.86000001e+00 1.91400003e+00
    1.91400003e+00 1.91400003e+00 1.92299998e+00 1.93700004e+00
    1.95000005e+00 1.95000005e+00 1.95000005e+00 1.96000004e+00
    1.98000002e+00 1.99899995e+00 2. 2. 2.02200007e+00 2.07599998e+00
    2.13100004e+00 2.11199999e+00 2.07800007e+00 2.05200005e+00
    2.05200005e+00 2.05200005e+00 2.14100003e+00 2.14100003e+00
    2.14100003e+00 2.14100003e+00 2.10500002e+00 2.05100012e+00
    1.99199998e+00 1.88800001e+00 1.78400004e+00 1.73300004e+00
    1.73300004e+00 1.73300004e+00 1.73300004e+00 1.73300004e+00
    1.73300004e+00 1.73300004e+00 1.73300004e+00 1.80599999e+00
    1.89699996e+00 1.96700001e+00 1.96700001e+00 1.96700001e+00
    1.94900000e+00 1.92200005e+00 1.89699996e+00 1.89699996e+00
    1.89699996e+00 1.91799998e+00 1.95799994e+00 1.99800003e+00 2. 2.
    2.02200007e+00 2.07599998e+00 2.13100004e+00 2.13000011e+00
    2.11700010e+00 2.10700011e+00 2.10700011e+00 2.10700011e+00
    2.16199994e+00 2.16199994e+00 2.16199994e+00 2.16199994e+00
    2.13199997e+00 2.08500004e+00 2.03399992e+00 1.93700004e+00
    1.84000003e+00 1.79200006e+00 1.79200006e+00 1.79200006e+00
    1.79200006e+00 1.79200006e+00 1.78900003e+00 1.78100002e+00
    1.77300000e+00 1.84300005e+00 1.93200004e+00 1.99800003e+00
    1.99100006e+00 1.98300004e+00 1.95000005e+00 1.90499997e+00
    1.86399996e+00 1.86399996e+00 1.86399996e+00 1.88800001e+00
    1.93299997e+00 1.97899997e+00 1.98800004e+00 1.99500000e+00
    2.02200007e+00 2.07599998e+00 2.13100004e+00 2.14100003e+00
    2.14100003e+00 2.14100003e+00 2.14100003e+00 2.14100003e+00
    2.22000003e+00 2.22000003e+00 2.22000003e+00 2.22000003e+00
    2.20400000e+00 2.17799997e+00 2.14800000e+00 2.06900001e+00
    1.99000001e+00 1.95099998e+00 1.95099998e+00 1.95099998e+00
    1.95099998e+00 1.95099998e+00 1.94000006e+00 1.91100001e+00
    1.88100004e+00 1.91499996e+00 1.96300006e+00 1.99300003e+00
    1.96500003e+00 1.93700004e+00 1.91100001e+00 1.88600004e+00
    1.86399996e+00 1.86399996e+00 1.86399996e+00 1.87699997e+00
    1.90199995e+00 1.92600000e+00 1.95500004e+00 1.98300004e+00
    2.02200007e+00 2.07599998e+00 2.13100004e+00 2.14100003e+00
    2.14100003e+00 2.14100003e+00 2.14100003e+00 2.14100003e+00
    2.27800012e+00 2.27800012e+00 2.27800012e+00 2.27800012e+00
    2.27500010e+00 2.27099991e+00 2.26200008e+00 2.20099998e+00
    2.14000010e+00 2.10999990e+00 2.10999990e+00 2.10999990e+00
    2.10999990e+00 2.10999990e+00 2.09100008e+00 2.03999996e+00
    1.99000001e+00 1.98599994e+00 1.99399996e+00 1.98800004e+00
    1.94000006e+00 1.89100003e+00 1.87199998e+00 1.86800003e+00
    1.86399996e+00 1.86399996e+00 1.86399996e+00 1.86600006e+00
    1.87000000e+00 1.87399995e+00 1.92100000e+00 1.97000003e+00
    2.02200007e+00 2.07599998e+00 2.13100004e+00 2.14100003e+00
    2.14100003e+00 2.14100003e+00 2.14100003e+00 2.14100003e+00
    2.67600012e+00 2.65100002e+00 2.53900003e+00 2.42700005e+00
    2.38700008e+00 2.38700008e+00 2.38100004e+00 2.30299997e+00
    2.22499990e+00 2.17799997e+00 2.16000009e+00 2.14199996e+00
    2.14100003e+00 2.14100003e+00 2.12100005e+00 2.06599998e+00
    2.01099992e+00 2. 2. 1.98800004e+00 1.93499994e+00 1.88199997e+00
    1.86399996e+00 1.86399996e+00 1.86399996e+00 1.86399996e+00
    1.86399996e+00 1.86399996e+00 1.86399996e+00 1.86399996e+00
    1.91499996e+00 1.96800005e+00 2.01500010e+00 2.05299997e+00
    2.08999991e+00 2.09699988e+00 2.09699988e+00 2.10100007e+00
    2.11800003e+00 2.13599992e+00 0. 0. 2.84999990e+00 2.59800005e+00
    2.50999999e+00 2.50999999e+00 2.50099993e+00 2.39800000e+00
    2.29500008e+00 2.22399998e+00 2.18400002e+00 2.14299989e+00
    2.14100003e+00 2.14100003e+00 2.12100005e+00 2.06599998e+00
    2.01099992e+00 2. 2. 1.98800004e+00 1.93499994e+00 1.88199997e+00
    1.86399996e+00 1.86399996e+00 1.86399996e+00 1.86399996e+00
    1.86399996e+00 1.86399996e+00 1.86399996e+00 1.86399996e+00
    1.91499996e+00 1.96800005e+00 2.00600004e+00 2.02300000e+00
    2.03900003e+00 2.04200006e+00 2.04200006e+00 2.05200005e+00
    2.08999991e+00 2.12899995e+00 0. 0. 0. 2.75699997e+00 2.63000011e+00
    2.62400007e+00 2.60899997e+00 2.49200010e+00 2.37500000e+00
    2.29099989e+00 2.23900008e+00 2.18600011e+00 2.17799997e+00
    2.17199993e+00 2.14599991e+00 2.08500004e+00 2.02500010e+00
    2.01300001e+00 2.01300001e+00 2. 1.94700003e+00 1.89400005e+00
    1.87300003e+00 1.86800003e+00 1.86399996e+00 1.86399996e+00
    1.86399996e+00 1.86399996e+00 1.86399996e+00 1.86399996e+00
    1.91499996e+00 1.96800005e+00 2. 2. 2. 2. 2. 2.01399994e+00
    2.06900001e+00 2.12400007e+00 0. 0. 0. 2.87199998e+00 2.74699998e+00
    2.71399999e+00 2.67600012e+00 2.58100009e+00 2.48699999e+00
    2.42499995e+00 2.39499998e+00 2.36500001e+00 2.33500004e+00
    2.30500007e+00 2.25500011e+00 2.17000008e+00 2.08400011e+00
    2.06800008e+00 2.06800008e+00 2.05500007e+00 2.00099993e+00
    1.94700003e+00 1.91199994e+00 1.88699996e+00 1.86399996e+00
    1.86399996e+00 1.86399996e+00 1.86399996e+00 1.86399996e+00
    1.86399996e+00 1.91499996e+00 1.96800005e+00 2. 2. 2. 2. 2.
    2.01399994e+00 2.06900001e+00 2.12400007e+00 0. 0. 0. 2.98699999e+00
    2.86299992e+00 2.80399990e+00 2.74300003e+00 2.67100000e+00
    2.59800005e+00 2.55800009e+00 2.55100012e+00 2.54399991e+00
    2.49200010e+00 2.43799996e+00 2.36299992e+00 2.25399995e+00
    2.14400005e+00 2.12299991e+00 2.12299991e+00 2.10999990e+00
    2.05500007e+00 2.00099993e+00 1.95200002e+00 1.90600002e+00
    1.86399996e+00 1.86399996e+00 1.86399996e+00 1.86399996e+00
    1.86399996e+00 1.86399996e+00 1.91499996e+00 1.96800005e+00 2. 2. 2.
    2. 2. 2.01399994e+00 2.06900001e+00 2.12400007e+00 0. 0. 0. 0.
    2.91300011e+00 2.86299992e+00 2.81100011e+00 2.74499989e+00
    2.67899990e+00 2.64700007e+00 2.64700007e+00 2.64700007e+00
    2.58699989e+00 2.52399993e+00 2.44600010e+00 2.34299994e+00
    2.24000001e+00 2.20700002e+00 2.19099998e+00 2.16599989e+00
    2.11100006e+00 2.05500007e+00 2.00999999e+00 1.97099996e+00
    1.93499994e+00 1.91999996e+00 1.90600002e+00 1.89900005e+00
    1.89900005e+00 1.89900005e+00 1.93700004e+00 1.97599995e+00 2. 2. 2.
    2. 2. 2.01399994e+00 2.06900001e+00 2.12400007e+00 0. 0. 0. 0.
    2.93099999e+00 2.90700006e+00 2.87899995e+00 2.81200004e+00
    2.74499989e+00 2.71199989e+00 2.71199989e+00 2.71199989e+00
    2.65100002e+00 2.58699989e+00 2.51600003e+00 2.43499994e+00
    2.35299993e+00 2.30599999e+00 2.26699996e+00 2.22399998e+00
    2.16700006e+00 2.10999990e+00 2.07900000e+00 2.06100011e+00
    2.03999996e+00 2.00500011e+00 1.96899998e+00 1.95200002e+00
    1.95200002e+00 1.95200002e+00 1.97000003e+00 1.98899996e+00 2. 2. 2.
    2. 2. 2.01399994e+00 2.06900001e+00 2.12400007e+00 0. 0. 0. 0.
    2.96000004e+00 2.96000004e+00 2.95499992e+00 2.88100004e+00
    2.80699992e+00 2.77099991e+00 2.77099991e+00 2.77099991e+00
    2.71199989e+00 2.64899993e+00 2.58699989e+00 2.52699995e+00
    2.46700001e+00 2.40700006e+00 2.34699988e+00 2.28800011e+00
    2.23300004e+00 2.17700005e+00 2.15899992e+00 2.15899992e+00
    2.15300012e+00 2.09599996e+00 2.03800011e+00 2.00999999e+00
    2.00799990e+00 2.00500011e+00 2.00500011e+00 2.00500011e+00
    2.00500011e+00 2.00500011e+00 2.00500011e+00 2.00500011e+00
    2.00500011e+00 2.01900005e+00 2.07399988e+00 2.12899995e+00 0. 0. 0.
    0. 0. 0. 0. 2.96600008e+00 2.83500004e+00 2.77099991e+00
    2.77099991e+00 2.77099991e+00 2.73600006e+00 2.69799995e+00
    2.66199994e+00 2.62599993e+00 2.58999991e+00 2.53299999e+00
    2.47099996e+00 2.41499996e+00 2.38299990e+00 2.34999990e+00
    2.33899999e+00 2.33899999e+00 2.32999992e+00 2.24699998e+00
    2.16300011e+00 2.11100006e+00 2.08599997e+00 2.06100011e+00
    2.05999994e+00 2.05999994e+00 2.05999994e+00 2.05999994e+00
    2.05999994e+00 2.05999994e+00 2.05999994e+00 2.07500005e+00
    2.13100004e+00 2.18700004e+00 0. 0. 0. 0. 0. 0. 0. 0. 2.86299992e+00
    2.77099991e+00 2.77099991e+00 2.77099991e+00 2.75999999e+00
    2.74799991e+00 2.73600006e+00 2.72499990e+00 2.71300006e+00
    2.65899992e+00 2.59500003e+00 2.54299998e+00 2.53200006e+00
    2.52200007e+00 2.51799989e+00 2.51799989e+00 2.50799990e+00
    2.39800000e+00 2.28800011e+00 2.21099997e+00 2.16400003e+00
    2.11700010e+00 2.11500001e+00 2.11500001e+00 2.11500001e+00
    2.11500001e+00 2.11500001e+00 2.11500001e+00 2.11500001e+00
    2.13000011e+00 2.18700004e+00 2.24399996e+00 0. 0. 0. 0. 0. 0. 0. 0.
    2.87599993e+00 2.77099991e+00 2.77099991e+00 2.77099991e+00
    2.77099991e+00 2.77099991e+00 2.77099991e+00 2.77099991e+00
    2.77099991e+00 2.71799994e+00 2.65300012e+00 2.60299993e+00
    2.60299993e+00 2.60299993e+00 2.60299993e+00 2.60299993e+00
    2.59100008e+00 2.46900010e+00 2.34599996e+00 2.25799990e+00
    2.20099998e+00 2.14299989e+00 2.14100003e+00 2.14100003e+00
    2.14100003e+00 2.14100003e+00 2.14100003e+00 2.14100003e+00
    2.14100003e+00 2.15599990e+00 2.21300006e+00 2.27099991e+00 0. 0. 0.
    0. 0. 0. 0. 0. 0. 0. 0. 0. 0. 0. 0. 0. 0. 0. 0. 0. 0. 0. 0. 0. 0. 0.
    0. 0. 0. 0. 0. 0. 0. 0. 0. 0. 0. 0. 0. 0. 0. 0. 0. 0. 0. 0. 0. 0. 0.
    0. 0. 0. 0. 0. 0. 0. 0. 0. 0. 0. 0. 0. 0. 0. 0. 0. 0. 0. 0. 0. 0. 0.
    0. 0. 0. 0. 0. 0. 0. 0. 0. 0. 0. 0. 0. 0. 0. 0. 0. 0. 0. 0. 0. 0. 0.
    0. 0. 0. 0. 0. 0. 0. 0. 0. 0. 0. 0. 0. 0. 0. 0. 0. 0. 0. 0. 0. 0. 0.
    0. 0. 0. 0. 0. 0. 0. 0. 0. 0. 0. 0. 0. 0. 0. 0. 0. 0. 0. 0. 0. 0. 0.
    0. 0. 0. 0. 0. 0. 0. 0. 0. 0. 0. 0. 0. 0. 0. 0. 0. 0. 0. 0. 0. 0. 0.
    0. 0. 0. 0. 0. 0. 0. 0. 0. 0. 0. 0. 0. 0. 0. 0. 0. 0. 0. 0. 0. 0. 0.
    0. 0. 0. 0. 0. 0. 0. 0. 0. 0. 0. 0. 0. 0. 0. 0. 0. 0. 0. 0. 0. 0. 0.
    0. 0. 0. 0. 0. 0. 0. 0. 0. 0. 0. 0. 0. 0. 0. 0. 0. 0. 0. 0. 0. 0. 0.
    0. 0. 0. 0. 0. 0. 0.</data></Depth>
</opencv_storage>
