<?xml version="1.0"?>
<opencv_storage>
<Depth type_id="opencv-matrix">
  <rows>40</rows>
  <cols>40</cols>
  <dt>f</dt>
  <data>
    0. 0. 0. 0. 0. 0. 0. 0. 0. 0. 0. 0. 0. 0. 0. 0. 0. 0. 0. 0. 0. 0. 0.
    0. 0. 0. 0. 0. 0. 0. 0. 0. 0. 0. 0. 0. 0. 0. 0. 0. 0. 0. 0. 0. 0. 0.
    0. 0. 0. 0. 0. 0. 0. 0. 0. 0. 0. 0. 0. 0. 0. 0. 0. 0. 0. 0. 0. 0. 0.
    0. 0. 0. 0. 0. 0. 0. 0. 0. 0. 0. 0. 0. 0. 0. 0. 0. 0. 0. 0. 0. 0. 0.
    0. 0. 0. 0. 0. 0. 0. 0. 0. 0. 0. 0. 0. 0. 0. 0. 0. 0. 0. 0. 0. 0. 0.
    0. 0. 0. 0. 0. 0. 0. 0. 0. 0. 1.64900005e+00 1.64900005e+00
    1.64900005e+00 1.64900005e+00 1.64900005e+00 1.64900005e+00
    1.64900005e+00 1.64900005e+00 1.64900005e+00 1.64900005e+00
    1.64900005e+00 1.67700005e+00 1.72399998e+00 1.76999998e+00
    1.81799996e+00 1.86600006e+00 1.84200001e+00 1.79400003e+00
    1.76199996e+00 1.76199996e+00 1.76199996e+00 1.85099995e+00
    1.95000005e+00 2. 2. 2.00300002e+00 2.05500007e+00 2.10700011e+00
    2.12500000e+00 0. 0. 0. 0. 0. 0. 0. 0. 0. 0. 0. 1.66199994e+00
    1.66400003e+00 1.66999996e+00 1.67600000e+00 1.67600000e+00
    1.67600000e+00 1.67600000e+00 1.67600000e+00 1.67600000e+00
    1.68200004e+00 1.68799996e+00 1.71200001e+00 1.74699998e+00
    1.78299999e+00 1.82500005e+00 1.86800003e+00 1.84200001e+00
    1.79400003e+00 1.76199996e+00 1.76199996e+00 1.76199996e+00
    1.85099995e+00 1.95000005e+00 2. 2. 2.00300002e+00 2.05500007e+00
    2.10700011e+00 2.12500000e+00 0. 0. 0. 0. 0. 0. 0. 0. 0. 0. 0.
    1.70899999e+00 1.71599996e+00 1.74199998e+00 1.76699996e+00
    1.77100003e+00 1.77100003e+00 1.77100003e+00 1.77100003e+00
    1.77100003e+00 1.79799998e+00 1.82500005e+00 1.83299994e+00
    1.82799995e+00 1.82799995e+00 1.85000002e+00 1.87199998e+00
    1.84200001e+00 1.79400003e+00 1.76199996e+00 1.76199996e+00
    1.76199996e+00 1.85099995e+00 1.95000005e+00 2. 2. 2.00300002e+00
    2.05500007e+00 2.10700011e+00 2.12500000e+00 0. 0. 0. 0. 0. 0. 0. 0.
    0. 0. 0. 1.75600004e+00 1.76900005e+00 1.81400001e+00 1.85899997e+00
    1.86500001e+00 1.86500001e+00 1.86500001e+00 1.86500001e+00
    1.86600006e+00 1.91400003e+00 1.96200001e+00 1.95400000e+00
    1.90900004e+00 1.87199998e+00 1.87500000e+00 1.87699997e+00
    1.84200001e+00 1.79400003e+00 1.76199996e+00 1.76199996e+00
    1.76199996e+00 1.85099995e+00 1.95000005e+00 2. 2. 2.00300002e+00
    2.05500007e+00 2.10700011e+00 2.12500000e+00 0. 0. 0. 0. 0. 0. 0. 0.
    0. 0. 0. 1.80299997e+00 1.81200004e+00 1.84300005e+00 1.87399995e+00
    1.87800002e+00 1.87800002e+00 1.87800002e+00 1.87800002e+00
    1.87899995e+00 1.91100001e+00 1.94299996e+00 1.94799995e+00
    1.93299997e+00 1.91799998e+00 1.89999998e+00 1.88199997e+00
    1.85500002e+00 1.82400000e+00 1.80299997e+00 1.80299997e+00
    1.80299997e+00 1.87699997e+00 1.95799994e+00 2.00900006e+00
    2.02699995e+00 2.04699993e+00 2.07999992e+00 2.11299992e+00
    2.12500000e+00 0. 0. 0. 0. 0. 0. 0. 0. 0. 0. 0. 1.85099995e+00
    1.85500002e+00 1.86600006e+00 1.87699997e+00 1.87800002e+00
    1.87800002e+00 1.87800002e+00 1.87800002e+00 1.87800002e+00
    1.88999999e+00 1.90100002e+00 1.92200005e+00 1.95000005e+00
    1.96500003e+00 1.92600000e+00 1.88800001e+00 1.87000000e+00
    1.85899997e+00 1.85099995e+00 1.85099995e+00 1.85099995e+00
    1.90699995e+00 1.96899998e+00 2.01900005e+00 2.05900002e+00
    2.09699988e+00 2.10899997e+00 2.12100005e+00 2.12500000e+00 0. 0. 0.
    0. 0. 0. 0. 0. 0. 0. 0. 1.87800002e+00 1.87800002e+00 1.87800002e+00
    1.87800002e+00 1.87800002e+00 1.87800002e+00 1.87800002e+00
    1.87800002e+00 1.87800002e+00 1.87800002e+00 1.87800002e+00
    1.90300000e+00 1.94400001e+00 1.97000003e+00 1.92900002e+00
    1.88800001e+00 1.87800002e+00 1.87800002e+00 1.87800002e+00
    1.87800002e+00 1.87800002e+00 1.93200004e+00 1.99199998e+00
    2.04299998e+00 2.08599997e+00 2.12500000e+00 2.12500000e+00
    2.12500000e+00 2.12500000e+00 0. 0. 0. 0. 0. 0. 0. 0. 0. 0. 0.
    1.87800002e+00 1.87800002e+00 1.87800002e+00 1.87800002e+00
    1.87800002e+00 1.87800002e+00 1.87800002e+00 1.87800002e+00
    1.87800002e+00 1.87800002e+00 1.87800002e+00 1.88999999e+00
    1.91100001e+00 1.92400002e+00 1.90300000e+00 1.88300002e+00
    1.87800002e+00 1.87800002e+00 1.87800002e+00 1.87800002e+00
    1.87800002e+00 1.95200002e+00 2.03299999e+00 2.08500004e+00
    2.10500002e+00 2.12500000e+00 2.12500000e+00 2.12500000e+00
    2.12500000e+00 0. 0. 0. 0. 0. 0. 0. 0. 0. 0. 0. 1.87699997e+00
    1.87699997e+00 1.87699997e+00 1.87699997e+00 1.87699997e+00
    1.87800002e+00 1.87800002e+00 1.87800002e+00 1.87800002e+00
    1.87800002e+00 1.87800002e+00 1.87800002e+00 1.87800002e+00
    1.87800002e+00 1.87800002e+00 1.87800002e+00 1.87800002e+00
    1.87800002e+00 1.87800002e+00 1.87899995e+00 1.87899995e+00
    1.97099996e+00 2.07299995e+00 2.12500000e+00 2.12599993e+00
    2.12599993e+00 2.12599993e+00 2.12599993e+00 2.12599993e+00 0. 0. 0.
    0. 0. 0. 0. 0. 0. 0. 0. 1.82900000e+00 1.82900000e+00 1.82900000e+00
    1.82900000e+00 1.84700000e+00 1.86699998e+00 1.87800002e+00
    1.87800002e+00 1.87800002e+00 1.87800002e+00 1.87800002e+00
    1.87800002e+00 1.87800002e+00 1.87800002e+00 1.87800002e+00
    1.87800002e+00 1.87800002e+00 1.87800002e+00 1.88499999e+00
    1.90600002e+00 1.92799997e+00 2.00300002e+00 2.08400011e+00
    2.13599992e+00 2.15899992e+00 2.18000007e+00 2.18000007e+00
    2.18000007e+00 2.18000007e+00 0. 0. 0. 0. 0. 0. 0. 0. 0. 0. 0.
    1.78100002e+00 1.78100002e+00 1.78100002e+00 1.78100002e+00
    1.81599998e+00 1.85599995e+00 1.87800002e+00 1.87800002e+00
    1.87800002e+00 1.87800002e+00 1.87800002e+00 1.87800002e+00
    1.87800002e+00 1.87800002e+00 1.87800002e+00 1.87800002e+00
    1.87800002e+00 1.87800002e+00 1.89199996e+00 1.93400002e+00
    1.97599995e+00 2.03399992e+00 2.09400010e+00 2.14700007e+00
    2.19199991e+00 2.23399997e+00 2.23399997e+00 2.23399997e+00
    2.23399997e+00 0. 0. 0. 0. 0. 0. 0. 0. 0. 0. 0. 1.76199996e+00
    1.76199996e+00 1.76199996e+00 1.76199996e+00 1.80299997e+00
    1.85099995e+00 1.87800002e+00 1.87800002e+00 1.87800002e+00
    1.87800002e+00 1.87800002e+00 1.87800002e+00 1.87800002e+00
    1.87800002e+00 1.87800002e+00 1.87800002e+00 1.87800002e+00
    1.87800002e+00 1.89499998e+00 1.94500005e+00 1.99500000e+00
    2.04699993e+00 2.09899998e+00 2.15100002e+00 2.20499992e+00
    2.25999999e+00 2.31900001e+00 2.37800002e+00 2.39899993e+00 0. 0. 0.
    0. 0. 0. 0. 0. 0. 0. 0. 1.76199996e+00 1.76199996e+00 1.76199996e+00
    1.76199996e+00 1.80299997e+00 1.85099995e+00 1.87800002e+00
    1.87800002e+00 1.87800002e+00 1.87800002e+00 1.87800002e+00
    1.87800002e+00 1.87800002e+00 1.87800002e+00 1.87800002e+00
    1.87800002e+00 1.87800002e+00 1.87800002e+00 1.89499998e+00
    1.94500005e+00 1.99500000e+00 2.04699993e+00 2.09899998e+00
    2.15100002e+00 2.20499992e+00 2.26600003e+00 2.42400002e+00
    2.58200002e+00 2.63800001e+00 0. 0. 0. 0. 0. 0. 0. 0. 0. 0. 0.
    1.61899996e+00 1.63600004e+00 1.69500005e+00 1.75399995e+00
    1.80299997e+00 1.85099995e+00 1.87800002e+00 1.87800002e+00
    1.87800002e+00 1.88199997e+00 1.88499999e+00 1.88699996e+00
    1.88699996e+00 1.88600004e+00 1.88300002e+00 1.87899995e+00
    1.87800002e+00 1.87800002e+00 1.89499998e+00 1.94500005e+00
    1.99500000e+00 2.04699993e+00 2.09899998e+00 2.15300012e+00
    2.21099997e+00 2.28099990e+00 2.51600003e+00 2.75099993e+00
    2.83500004e+00 0. 0. 0. 0. 0. 0. 0. 0. 0. 0. 0. 0. 0. 1.31599998e+00
    1.70899999e+00 1.80299997e+00 1.85099995e+00 1.87800002e+00
    1.87800002e+00 1.87899995e+00 1.90300000e+00 1.92700005e+00
    1.93700004e+00 1.93700004e+00 1.93299997e+00 1.90799999e+00
    1.88399994e+00 1.87800002e+00 1.87800002e+00 1.89499998e+00
    1.94500005e+00 1.99500000e+00 2.04699993e+00 2.09899998e+00
    2.16499996e+00 2.24600005e+00 2.33599997e+00 2.54699993e+00
    2.75900006e+00 2.83500004e+00 0. 0. 0. 0. 0. 0. 0. 0. 0. 0. 0. 0. 0.
    0. 1.66499996e+00 1.80299997e+00 1.85099995e+00 1.87800002e+00
    1.87800002e+00 1.87899995e+00 1.92400002e+00 1.96899998e+00
    1.98800004e+00 1.98800004e+00 1.98000002e+00 1.93400002e+00
    1.88900006e+00 1.87800002e+00 1.87800002e+00 1.89499998e+00
    1.94500005e+00 1.99500000e+00 2.04699993e+00 2.09899998e+00
    2.17600012e+00 2.27999997e+00 2.39000010e+00 2.57900000e+00
    2.76699996e+00 2.83500004e+00 0. 0. 0. 0. 0. 0. 0. 0. 0. 0. 0. 0. 0.
    0. 1.65400004e+00 1.80299997e+00 1.85099995e+00 1.88499999e+00
    1.90100002e+00 1.91700006e+00 1.95099998e+00 1.98599994e+00 2. 2.
    1.99399996e+00 1.95899999e+00 1.92499995e+00 1.91600001e+00
    1.91600001e+00 1.92700005e+00 1.96200001e+00 1.99699998e+00
    2.06200004e+00 2.13100004e+00 2.21099997e+00 2.30500007e+00
    2.40400004e+00 2.58699989e+00 2.76999998e+00 2.83500004e+00 0. 0. 0.
    0. 0. 0. 0. 0. 0. 0. 0. 0. 0. 0. 1.65400004e+00 1.80299997e+00
    1.85099995e+00 1.89400005e+00 1.93099999e+00 1.96700001e+00
    1.98099995e+00 1.99399996e+00 2. 2. 1.99800003e+00 1.98399997e+00
    1.97000003e+00 1.96599996e+00 1.96599996e+00 1.97099996e+00
    1.98500001e+00 1.99899995e+00 2.08299994e+00 2.17300010e+00
    2.25399995e+00 2.32599998e+00 2.40400004e+00 2.58699989e+00
    2.76999998e+00 2.83500004e+00 0. 0. 0. 0. 0. 0. 0. 0. 0. 0. 0. 0. 0.
    0. 1.66900003e+00 1.81400001e+00 1.85500002e+00 1.89999998e+00
    1.95099998e+00 2. 2. 2. 2. 2. 2. 2. 2. 2. 2. 2. 2. 2. 2.09599996e+00
    2.20199990e+00 2.27999997e+00 2.32800007e+00 2.38400006e+00
    2.54099989e+00 2.69899988e+00 2.75600004e+00 0. 0. 0. 0. 0. 0. 0. 0.
    0. 0. 0. 0. 0. 0. 1.71399999e+00 1.84399998e+00 1.86600006e+00
    1.89999998e+00 1.95099998e+00 2. 2. 2. 2. 2. 2. 2. 2. 2. 2. 2. 2. 2.
    2.09599996e+00 2.20199990e+00 2.26799989e+00 2.29399991e+00
    2.32299995e+00 2.40499997e+00 2.48699999e+00 2.51699996e+00 0. 0. 0.
    0. 0. 0. 0. 0. 0. 0. 0. 0. 0. 0. 1.75899994e+00 1.87500000e+00
    1.87699997e+00 1.89999998e+00 1.95099998e+00 2. 2. 2. 2. 2. 2. 2. 2.
    2. 2. 2. 2. 2. 2.09599996e+00 2.20199990e+00 2.25699997e+00
    2.25900006e+00 2.26200008e+00 2.26799989e+00 2.27500010e+00
    2.27800012e+00 0. 0. 0. 0. 0. 0. 0. 0. 0. 0. 0. 0. 0. 0.
    1.02600002e+00 1.39300001e+00 1.73399997e+00 1.93799996e+00
    1.96899998e+00 2. 2. 2. 2. 2. 2. 2. 2. 2. 2. 2. 2. 2. 2.07800007e+00
    2.16300011e+00 2.20700002e+00 2.20700002e+00 2.20700002e+00
    2.20700002e+00 2.20700002e+00 2.20700002e+00 0. 0. 0. 0. 0. 0. 0. 0.
    0. 0. 0. 0. 0. 0. 0. 0. 1.57599998e+00 1.97899997e+00 1.99000001e+00
    2. 2. 2. 2. 2. 2. 2. 2. 2. 2. 2. 2. 2. 2.05699992e+00 2.11999989e+00
    2.15300012e+00 2.15300012e+00 2.15300012e+00 2.15300012e+00
    2.15300012e+00 2.15300012e+00 0. 0. 0. 0. 0. 0. 0. 0. 0. 0. 0. 0. 0.
    0. 0. 0. 1.16400003e+00 1.65199995e+00 1.84099996e+00 2.02500010e+00
    2.01500010e+00 2.00399995e+00 2. 2. 2. 2. 2. 2. 2. 2. 2. 2.
    2.03699994e+00 2.07900000e+00 2.09999990e+00 2.09999990e+00
    2.10100007e+00 2.11100006e+00 2.12100005e+00 2.12500000e+00 0. 0. 0.
    0. 0. 0. 0. 0. 0. 0. 0. 0. 0. 0. 0. 0. 0. 0. 1.51300001e+00
    2.07599998e+00 2.04399991e+00 2.01300001e+00 2. 2. 2. 2. 2. 2. 2. 2.
    2. 2. 2.01799989e+00 2.03800011e+00 2.04800010e+00 2.04800010e+00
    2.04999995e+00 2.08200002e+00 2.11400008e+00 2.12500000e+00 0. 0. 0.
    0. 0. 0. 0. 0. 0. 0. 0. 0. 0. 0. 0. 0. 0. 0. 1.20599997e+00
    2.12400007e+00 2.07399988e+00 2.02300000e+00 2.00200009e+00
    2.00099993e+00 2. 2. 2. 2. 2. 2. 2. 2. 2. 2. 2. 2. 2.00300002e+00
    2.05500007e+00 2.10700011e+00 2.12500000e+00 0. 0. 0. 0. 0. 0. 0. 0.
    0. 0. 0. 0. 0. 0. 0. 0. 0. 0. 1.19700003e+00 2.12400007e+00
    2.09500003e+00 2.06699991e+00 2.04099989e+00 2.01900005e+00 2. 2. 2.
    2. 2. 2. 2. 2. 2. 2. 2. 2. 2.00300002e+00 2.05500007e+00
    2.10700011e+00 2.12500000e+00 0. 0. 0. 0. 0. 0. 0. 0. 0. 0. 0. 0. 0.
    0. 0. 0. 0. 0. 1.18799996e+00 2.12500000e+00 2.11700010e+00
    2.10999990e+00 2.07999992e+00 2.03600001e+00 2. 2. 2. 2. 2. 2. 2. 2.
    2. 2. 2. 2. 2.00300002e+00 2.05500007e+00 2.10700011e+00
    2.12500000e+00 0. 0. 0. 0. 0. 0. 0. 0. 0. 0. 0. 0. 0. 0. 0. 0. 0. 0.
    1.18499994e+00 2.12500000e+00 2.12500000e+00 2.12500000e+00
    2.09400010e+00 2.04200006e+00 2. 2. 2. 2. 2. 2. 2. 2. 2.01200008e+00
    2.02600002e+00 2.03299999e+00 2.03299999e+00 2.03600001e+00
    2.07299995e+00 2.11100006e+00 2.12500000e+00 0. 0. 0. 0. 0. 0. 0. 0.
    0. 0. 0. 0. 0. 0. 0. 0. 0. 0. 1.18499994e+00 2.12500000e+00
    2.12500000e+00 2.12500000e+00 2.09400010e+00 2.04200006e+00 2. 2. 2.
    2. 2. 2. 2. 2. 2.03200006e+00 2.06699991e+00 2.08500004e+00
    2.08500004e+00 2.08599997e+00 2.10200000e+00 2.11899996e+00
    2.12500000e+00 0. 0. 0. 0. 0. 0. 0. 0. 0. 0. 0. 0. 0. 0. 0. 0. 0. 0.
    1.06400001e+00 1.92100000e+00 2.01099992e+00 2.10100007e+00
    2.10599995e+00 2.05399990e+00 2.00999999e+00 2.00600004e+00
    2.00099993e+00 2. 2. 2. 2. 2. 2.04299998e+00 2.08999991e+00
    2.11599994e+00 2.12100005e+00 2.12500000e+00 2.12500000e+00
    2.12500000e+00 2.12500000e+00 0. 0. 0. 0. 0. 0. 0. 0. 0. 0. 0. 0. 0.
    0. 0. 0. 0. 0. 0. 0. 1.49100006e+00 1.99100006e+00 2.15899992e+00
    2.10599995e+00 2.05800009e+00 2.03200006e+00 2.00600004e+00 2. 2. 2.
    2. 2. 2.02300000e+00 2.04900002e+00 2.07500005e+00 2.10100007e+00
    2.12500000e+00 2.12500000e+00 2.12500000e+00 2.12500000e+00 0. 0. 0.
    0. 0. 0. 0. 0. 0. 0. 0. 0. 0. 0. 0. 0. 0. 0. 0. 0. 0. 1.88000000e+00
    2.21300006e+00 2.15899992e+00 2.10599995e+00 2.05900002e+00
    2.01200008e+00 2. 2. 2. 2. 2. 2.00399995e+00 2.00799990e+00
    2.03299999e+00 2.08100009e+00 2.12500000e+00 2.12500000e+00
    2.12500000e+00 2.12500000e+00 0. 0. 0. 0. 0. 0. 0. 0. 0. 0. 0. 0. 0.
    0. 0. 0. 0. 0. 0. 0. 0. 1.85800004e+00 2.22399998e+00 2.17000008e+00
    2.11599994e+00 2.06399989e+00 2.01300001e+00 2. 2. 2. 2. 2. 2. 2.
    2.02500010e+00 2.07699990e+00 2.12500000e+00 2.12500000e+00
    2.12500000e+00 2.12500000e+00 0. 0. 0. 0. 0. 0. 0. 0. 0. 0. 0. 0. 0.
    0. 0. 0. 0. 0. 0. 0. 0. 0. 0. 0. 0. 0. 0. 0. 0. 0. 0. 0. 0. 0. 0. 0.
    0. 0. 0. 0. 0. 0. 0. 0. 0. 0. 0. 0. 0. 0. 0. 0. 0. 0. 0. 0. 0. 0. 0.
    0. 0. 0. 0. 0. 0. 0. 0. 0. 0. 0. 0. 0. 0. 0. 0. 0. 0. 0. 0. 0. 0. 0.
    0. 0. 0. 0. 0. 0. 0. 0. 0. 0. 0. 0. 0. 0. 0. 0. 0. 0. 0. 0. 0. 0. 0.
    0. 0. 0. 0. 0. 0. 0. 0. 0. 0. 0. 0. 0. 0. 0. 0. 0. 0. 0. 0. 0.</data></Depth>
</opencv_storage>
