<?xml version="1.0"?>
<opencv_storage>
<Depth type_id="opencv-matrix">
  <rows>40</rows>
  <cols>40</cols>
  <dt>f</dt>
  <data>
    0. 0. 0. 0. 0. 1.38600004e+00 1.71700001e+00 2.10500002e+00
    2.10500002e+00 2.08400011e+00 2.04999995e+00 2.01699996e+00 2. 2. 0.
    0. 0. 0. 0. 0. 0. 0. 0. 0. 0. 0. 0. 0. 0. 0. 0. 0. 0. 0. 0. 0. 0. 0.
    0. 0. 0. 0. 0. 0. 0. 1.71700001e+00 1.88399994e+00 2.07999992e+00
    2.07999992e+00 2.06900001e+00 2.04999995e+00 2.01699996e+00 2. 2. 0.
    0. 0. 0. 0. 0. 0. 0. 0. 0. 0. 0. 0. 0. 0. 0. 0. 0. 0. 0. 0. 0. 0. 0.
    0. 0. 0. 0. 0. 0. 0. 2.10500002e+00 2.07999992e+00 2.05100012e+00
    2.05100012e+00 2.05100012e+00 2.04999995e+00 2.02099991e+00
    2.00399995e+00 2. 0. 0. 0. 0. 0. 0. 0. 0. 0. 0. 0. 0. 0. 0. 0. 0. 0.
    0. 0. 0. 0. 0. 0. 0. 0. 0. 0. 0. 0. 0. 0. 2.10500002e+00
    2.07999992e+00 2.05100012e+00 2.05100012e+00 2.05100012e+00
    2.05100012e+00 2.04200006e+00 2.02600002e+00 2.00200009e+00
    1.63499999e+00 1.00699997e+00 0. 0. 0. 0. 0. 0. 0. 0. 0. 0. 0. 0. 0.
    0. 0. 0. 0. 0. 0. 0. 0. 0. 0. 0. 0. 0. 0. 0. 0. 2.10500002e+00
    2.08999991e+00 2.07200003e+00 2.07200003e+00 2.06399989e+00
    2.05100012e+00 2.05100012e+00 2.03600001e+00 2.00300002e+00
    1.97000003e+00 1.63999999e+00 0. 0. 0. 0. 0. 0. 0. 0. 0. 0. 0. 0. 0.
    0. 0. 0. 0. 0. 0. 0. 0. 0. 0. 0. 0. 0. 0. 0. 0. 2.10500002e+00
    2.10500002e+00 2.10500002e+00 2.10500002e+00 2.08400011e+00
    2.05100012e+00 2.04999995e+00 2.03500009e+00 2.00300002e+00
    1.97000003e+00 1.93799996e+00 1.90600002e+00 0. 0. 0. 0. 0. 0. 0. 0.
    0. 0. 0. 0. 0. 0. 0. 0. 0. 0. 0. 0. 0. 0. 0. 0. 0. 0. 0. 0.
    2.10500002e+00 2.10500002e+00 2.10500002e+00 2.10500002e+00
    2.08400011e+00 2.04999995e+00 2.02900004e+00 2.01200008e+00
    2.00099993e+00 1.97000003e+00 1.93799996e+00 1.90600002e+00
    1.52600002e+00 1.15400004e+00 1.15400004e+00 0. 0. 0. 0. 0. 0. 0. 0.
    0. 0. 0. 0. 0. 0. 0. 0. 0. 0. 0. 0. 0. 0. 0. 0. 0. 1.86699998e+00
    1.97599995e+00 2.10500002e+00 2.10500002e+00 2.08400011e+00
    2.04999995e+00 2.01699996e+00 2. 2. 1.97000003e+00 1.94099998e+00
    1.91900003e+00 1.91400003e+00 1.91400003e+00 1.91400003e+00 0. 0. 0.
    0. 0. 0. 0. 0. 0. 0. 0. 0. 0. 0. 0. 0. 0. 0. 0. 0. 0. 0. 0. 0. 0.
    1.36000001e+00 1.70299995e+00 2.10500002e+00 2.10500002e+00
    2.08400011e+00 2.04999995e+00 2.01699996e+00 2. 2. 1.97000003e+00
    1.94799995e+00 1.94599998e+00 1.94599998e+00 1.94599998e+00
    1.94599998e+00 1.00100005e+00 0. 0. 0. 0. 0. 0. 0. 0. 0. 0. 0. 0. 0.
    0. 0. 0. 0. 0. 0. 0. 0. 0. 0. 0. 1.31299996e+00 1.67700005e+00
    2.10500002e+00 2.10500002e+00 2.08400011e+00 2.04999995e+00
    2.01699996e+00 2. 2. 1.97000003e+00 1.94900000e+00 1.94900000e+00
    1.94900000e+00 1.94900000e+00 1.94900000e+00 1.55200005e+00 0. 0. 0.
    0. 0. 0. 0. 0. 0. 0. 0. 0. 0. 0. 0. 0. 0. 0. 0. 0. 0. 0. 0. 0.
    1.30499995e+00 1.58899999e+00 1.94099998e+00 2.05800009e+00
    2.08400011e+00 2.04999995e+00 2.01699996e+00 2. 2. 1.97700000e+00
    1.95799994e+00 1.95099998e+00 1.94900000e+00 1.94900000e+00
    1.94900000e+00 1.95899999e+00 1.83099997e+00 0. 0. 0. 0. 0. 0. 0. 0.
    0. 0. 0. 0. 0. 0. 0. 0. 0. 0. 0. 0. 0. 0. 0. 1.28299999e+00
    1.33299994e+00 1.46399999e+00 1.91999996e+00 2.08400011e+00
    2.04999995e+00 2.01699996e+00 2. 2. 1.99600005e+00 1.98300004e+00
    1.95500004e+00 1.94900000e+00 1.94900000e+00 1.94900000e+00
    1.98599994e+00 1.89300001e+00 0. 0. 0. 0. 0. 0. 0. 0. 0. 0. 0. 0. 0.
    0. 0. 0. 0. 0. 0. 0. 0. 0. 0. 1.27800000e+00 1.27800000e+00
    1.31900001e+00 1.58299994e+00 1.83800006e+00 2.07699990e+00
    2.04299998e+00 2.02600002e+00 2.02600002e+00 2.02600002e+00
    2.01999998e+00 2.00399995e+00 2. 2. 2. 2.02200007e+00 1.90600002e+00
    0. 0. 0. 0. 0. 0. 0. 0. 0. 0. 0. 0. 0. 0. 0. 0. 0. 0. 0. 0. 0. 0. 0.
    1.27800000e+00 1.27800000e+00 1.27800000e+00 1.27800000e+00
    1.54799998e+00 1.99000001e+00 2.03500009e+00 2.05599999e+00
    2.05100012e+00 2.05100012e+00 2.05100012e+00 2.05100012e+00
    2.05100012e+00 2.05100012e+00 2.05100012e+00 2.05100012e+00
    1.90699995e+00 0. 0. 0. 0. 0. 0. 0. 0. 0. 0. 0. 0. 0. 0. 0. 0. 0. 0.
    0. 0. 0. 0. 0. 1.27800000e+00 1.27800000e+00 1.27800000e+00
    1.27800000e+00 1.34700000e+00 1.47200000e+00 1.87800002e+00
    2.08100009e+00 2.05299997e+00 2.05100012e+00 2.05100012e+00
    2.05100012e+00 2.05100012e+00 2.05100012e+00 2.05100012e+00
    2.05100012e+00 1.90699995e+00 0. 0. 0. 0. 0. 0. 0. 0. 0. 0. 0. 0. 0.
    0. 0. 0. 0. 0. 0. 0. 0. 0. 0. 1.27800000e+00 1.27800000e+00
    1.27800000e+00 1.27800000e+00 1.27800000e+00 1.29499996e+00
    1.80900002e+00 2.07299995e+00 2.05299997e+00 2.05100012e+00
    2.05100012e+00 2.05100012e+00 2.05100012e+00 2.05100012e+00
    2.05100012e+00 2.04200006e+00 1.94599998e+00 1.08099997e+00 0. 0. 0.
    0. 0. 0. 0. 0. 0. 0. 0. 0. 0. 0. 0. 0. 0. 0. 0. 0. 0. 0.
    1.27800000e+00 1.27800000e+00 1.27800000e+00 1.27800000e+00
    1.27800000e+00 1.29400003e+00 1.78900003e+00 2.05100012e+00
    2.05100012e+00 2.04900002e+00 2.04800010e+00 2.04800010e+00
    2.04800010e+00 2.04800010e+00 2.04800010e+00 2.02800012e+00 2.
    1.99800003e+00 1.99699998e+00 1.99699998e+00 0. 0. 0. 0. 0. 0. 0. 0.
    0. 0. 0. 0. 0. 0. 0. 0. 0. 0. 0. 0. 1.27800000e+00 1.27800000e+00
    1.27800000e+00 1.27800000e+00 1.27800000e+00 1.29400003e+00
    1.78900003e+00 2.05100012e+00 2.05100012e+00 2.02999997e+00
    2.01500010e+00 2.01500010e+00 2.01500010e+00 2.01500010e+00
    2.01500010e+00 2.00900006e+00 1.99800003e+00 1.97500002e+00
    1.96399999e+00 1.96399999e+00 1.55999994e+00 0. 0. 0. 0. 0. 0. 0. 0.
    0. 0. 0. 0. 0. 0. 0. 0. 0. 0. 0. 1.27800000e+00 1.27800000e+00
    1.27800000e+00 1.27800000e+00 1.27800000e+00 1.29400003e+00
    1.80100000e+00 2.06399989e+00 2.05200005e+00 2.02099991e+00 2. 2. 2.
    2. 2. 2. 1.99699998e+00 1.96399999e+00 1.94900000e+00 1.94900000e+00
    1.98099995e+00 1.39499998e+00 0. 0. 0. 0. 0. 0. 0. 0. 0. 0. 0. 0. 0.
    0. 0. 0. 0. 0. 1.27800000e+00 1.27800000e+00 1.27800000e+00
    1.27800000e+00 1.27800000e+00 1.29499996e+00 1.82400000e+00
    2.08800006e+00 2.05399990e+00 2.02099991e+00 2. 2. 2. 2. 2. 2.
    1.99699998e+00 1.96399999e+00 1.94900000e+00 1.94900000e+00
    1.98099995e+00 1.39499998e+00 0. 0. 0. 0. 0. 0. 0. 0. 0. 0. 0. 0. 0.
    0. 0. 0. 0. 0. 1.27800000e+00 1.27800000e+00 1.27800000e+00
    1.27800000e+00 1.27800000e+00 1.28400004e+00 1.48500001e+00
    1.73899996e+00 2.05500007e+00 2.05399990e+00 2.02500010e+00
    2.00399995e+00 2. 2. 2. 1.98699999e+00 1.96700001e+00 1.95500004e+00
    1.94900000e+00 1.94900000e+00 1.96099997e+00 1.74800003e+00
    1.21000004e+00 1.12800002e+00 0. 0. 0. 0. 0. 0. 0. 0. 0. 0. 0. 0. 0.
    0. 0. 0. 1.26900005e+00 1.26900005e+00 1.26999998e+00 1.27600002e+00
    1.27800000e+00 1.27800000e+00 1.27800000e+00 1.46200001e+00
    1.85200000e+00 1.98300004e+00 2.04299998e+00 2.01900005e+00
    2.01300001e+00 2.01099992e+00 2.00300002e+00 1.97899997e+00
    1.94900000e+00 1.94900000e+00 1.94900000e+00 1.94900000e+00
    1.94900000e+00 1.95899999e+00 1.98300004e+00 1.98699999e+00
    1.67600000e+00 0. 0. 0. 0. 0. 0. 0. 0. 0. 0. 0. 0. 0. 0. 0.
    1.24600005e+00 1.24600005e+00 1.25000000e+00 1.26999998e+00
    1.27800000e+00 1.27800000e+00 1.27800000e+00 1.30200005e+00
    1.35399997e+00 1.76100004e+00 2.04999995e+00 2.04699993e+00
    2.04600000e+00 2.03999996e+00 2.00999999e+00 1.97899997e+00
    1.94900000e+00 1.94900000e+00 1.94900000e+00 1.94900000e+00
    1.94900000e+00 1.95000005e+00 1.95400000e+00 1.95400000e+00
    1.91299999e+00 1.76800001e+00 0. 0. 0. 0. 0. 0. 0. 0. 0. 0. 0. 0. 0.
    0. 1.24300003e+00 1.24300003e+00 1.24699998e+00 1.26900005e+00
    1.27800000e+00 1.27800000e+00 1.27800000e+00 1.27800000e+00
    1.27800000e+00 1.74399996e+00 2.07399988e+00 2.05500007e+00
    2.05100012e+00 2.04800010e+00 2.03299999e+00 2.00600004e+00
    1.97700000e+00 1.97700000e+00 1.96700001e+00 1.95000005e+00
    1.94900000e+00 1.94900000e+00 1.94900000e+00 1.93400002e+00
    1.92200005e+00 1.92200005e+00 1.45500004e+00 0. 0. 0. 0. 0. 0. 0. 0.
    0. 0. 0. 0. 0. 1.24300003e+00 1.24300003e+00 1.24600005e+00
    1.26400006e+00 1.27400005e+00 1.27800000e+00 1.27800000e+00
    1.27800000e+00 1.27800000e+00 1.67100000e+00 1.97800004e+00
    2.04600000e+00 2.05599999e+00 2.05100012e+00 2.05100012e+00
    2.02999997e+00 2. 2. 1.98300004e+00 1.95000005e+00 1.94900000e+00
    1.94900000e+00 1.94900000e+00 1.92200005e+00 1.89900005e+00
    1.89900005e+00 1.92200005e+00 1.75899994e+00 0. 0. 0. 0. 0. 0. 0. 0.
    0. 0. 0. 0. 1.24300003e+00 1.24300003e+00 1.24399996e+00
    1.24800003e+00 1.25999999e+00 1.27800000e+00 1.27800000e+00
    1.27800000e+00 1.27800000e+00 1.36300004e+00 1.57299995e+00
    2.00200009e+00 2.07299995e+00 2.05100012e+00 2.05100012e+00
    2.02999997e+00 2. 2. 1.98300004e+00 1.95000005e+00 1.94900000e+00
    1.94900000e+00 1.94900000e+00 1.92200005e+00 1.89900005e+00
    1.89900005e+00 1.92200005e+00 1.90400004e+00 1.62100005e+00
    1.50699997e+00 0. 0. 0. 0. 0. 0. 0. 0. 0. 0. 1.24300003e+00
    1.24300003e+00 1.24300003e+00 1.24300003e+00 1.25600004e+00
    1.27800000e+00 1.27800000e+00 1.27800000e+00 1.27800000e+00
    1.27800000e+00 1.37600005e+00 1.66100001e+00 1.89999998e+00
    2.07200003e+00 2.05599999e+00 2.03900003e+00 2.02200007e+00
    2.00699997e+00 1.98300004e+00 1.95000005e+00 1.94900000e+00
    1.94900000e+00 1.94900000e+00 1.92200005e+00 1.89900005e+00
    1.89900005e+00 1.92200005e+00 1.94400001e+00 1.91199994e+00
    1.89900005e+00 0. 0. 0. 0. 0. 0. 0. 0. 0. 0. 1.24300003e+00
    1.24300003e+00 1.24300003e+00 1.24600005e+00 1.25899994e+00
    1.27800000e+00 1.27800000e+00 1.27800000e+00 1.27800000e+00
    1.27800000e+00 1.27800000e+00 1.27800000e+00 1.64999998e+00
    2.02399993e+00 2.04399991e+00 2.05100012e+00 2.04800010e+00
    2.01500010e+00 1.98399997e+00 1.95500004e+00 1.95099998e+00
    1.94900000e+00 1.94900000e+00 1.92499995e+00 1.90400004e+00
    1.90400004e+00 1.92499995e+00 1.94400001e+00 1.91600001e+00
    1.90400004e+00 0. 0. 0. 0. 0. 0. 0. 0. 0. 0. 1.24300003e+00
    1.24300003e+00 1.24600005e+00 1.26199996e+00 1.27199996e+00
    1.27800000e+00 1.27800000e+00 1.27800000e+00 1.27800000e+00
    1.27800000e+00 1.27800000e+00 1.27800000e+00 1.38499999e+00
    1.57000005e+00 1.92900002e+00 2.05100012e+00 2.04800010e+00
    2.01500010e+00 1.99600005e+00 1.98699999e+00 1.96300006e+00
    1.94900000e+00 1.94900000e+00 1.94200003e+00 1.93599999e+00
    1.93599999e+00 1.94200003e+00 1.94799995e+00 1.93900001e+00
    1.93599999e+00 0. 0. 0. 0. 0. 0. 0. 0. 0. 0. 1.25600004e+00
    1.25600004e+00 1.25899994e+00 1.27199996e+00 1.27800000e+00
    1.27800000e+00 1.27800000e+00 1.27800000e+00 1.27800000e+00
    1.27800000e+00 1.27499998e+00 1.26600003e+00 1.25800002e+00
    1.31900001e+00 1.62399995e+00 1.86500001e+00 2.04800010e+00
    2.01500010e+00 2. 2. 1.96800005e+00 1.94900000e+00 1.94900000e+00
    1.94900000e+00 1.94900000e+00 1.94900000e+00 1.94900000e+00
    1.94900000e+00 1.94900000e+00 1.94900000e+00 0. 0. 0. 0. 0. 0. 0. 0.
    0. 0. 1.27800000e+00 1.27800000e+00 1.27800000e+00 1.27699995e+00
    1.27699995e+00 1.27699995e+00 1.27699995e+00 1.27699995e+00
    1.27699995e+00 1.27800000e+00 1.26999998e+00 1.24800003e+00
    1.22599995e+00 1.20899999e+00 1.20899999e+00 1.55599999e+00
    2.03099990e+00 2.00999999e+00 2. 2. 1.96800005e+00 1.94900000e+00
    1.94900000e+00 1.94900000e+00 1.94900000e+00 1.94900000e+00
    1.94900000e+00 1.94900000e+00 1.94900000e+00 1.94900000e+00 0. 0. 0.
    0. 0. 0. 0. 0. 0. 0. 1.27800000e+00 1.27800000e+00 1.27600002e+00
    1.26100004e+00 1.25500000e+00 1.25500000e+00 1.25500000e+00
    1.25500000e+00 1.25500000e+00 1.26800001e+00 1.26999998e+00
    1.24800003e+00 1.22599995e+00 1.20899999e+00 1.20899999e+00
    1.34800005e+00 1.56700003e+00 1.86199999e+00 2. 2. 1.96800005e+00
    1.94900000e+00 1.94900000e+00 1.94900000e+00 1.94900000e+00
    1.94900000e+00 1.94900000e+00 1.94900000e+00 1.94900000e+00
    1.94900000e+00 0. 0. 0. 0. 0. 0. 0. 0. 0. 0. 1.27800000e+00
    1.27800000e+00 1.27400005e+00 1.25199997e+00 1.24300003e+00
    1.24300003e+00 1.24300003e+00 1.24300003e+00 1.24300003e+00
    1.25699997e+00 1.26199996e+00 1.24600005e+00 1.23099995e+00
    1.22099996e+00 1.22800004e+00 1.25000000e+00 1.32200003e+00
    1.78499997e+00 1.99500000e+00 1.98500001e+00 1.96200001e+00
    1.94900000e+00 1.94900000e+00 1.94900000e+00 1.94599998e+00
    1.93700004e+00 1.93400002e+00 1.93499994e+00 1.94500005e+00
    1.94900000e+00 0. 0. 0. 0. 0. 0. 0. 0. 0. 0. 1.27800000e+00
    1.27800000e+00 1.27400005e+00 1.25199997e+00 1.24300003e+00
    1.24300003e+00 1.24300003e+00 1.24300003e+00 1.24300003e+00
    1.24399996e+00 1.24500000e+00 1.24300003e+00 1.24199998e+00
    1.24600005e+00 1.26699996e+00 1.27600002e+00 1.32200003e+00
    1.78499997e+00 1.98399997e+00 1.95299995e+00 1.95000005e+00
    1.94900000e+00 1.94900000e+00 1.94900000e+00 1.94000006e+00
    1.90999997e+00 1.90199995e+00 1.90699995e+00 1.93700004e+00
    1.94900000e+00 0. 0. 0. 0. 0. 0. 0. 0. 0. 0. 1.29799998e+00
    1.28900003e+00 1.27400005e+00 1.25199997e+00 1.24300003e+00
    1.24300003e+00 1.24300003e+00 1.24300003e+00 1.24300003e+00
    1.24300003e+00 1.24300003e+00 1.24300003e+00 1.24300003e+00
    1.24800003e+00 1.26999998e+00 1.27800000e+00 1.29700005e+00
    1.48899996e+00 1.70500004e+00 1.94200003e+00 1.94900000e+00
    1.94900000e+00 1.94900000e+00 1.94900000e+00 1.94000006e+00
    1.90799999e+00 1.89900005e+00 1.90400004e+00 1.93599999e+00
    1.94900000e+00 0. 0. 0. 0. 0. 0. 0. 0. 0. 0. 1.31299996e+00
    1.29700005e+00 1.27499998e+00 1.25800002e+00 1.24800003e+00
    1.24300003e+00 1.24300003e+00 1.24300003e+00 1.24300003e+00
    1.24300003e+00 1.24300003e+00 1.24300003e+00 1.24300003e+00
    1.24800003e+00 1.26999998e+00 1.27499998e+00 1.26999998e+00
    1.26999998e+00 1.50199997e+00 1.93700004e+00 1.94900000e+00
    1.94900000e+00 1.94900000e+00 1.94900000e+00 1.94200003e+00
    1.91700006e+00 1.90999997e+00 1.91400003e+00 1.93900001e+00
    1.94900000e+00 0. 0. 0. 0. 0. 0. 0. 0. 0. 0. 1.31299996e+00
    1.29700005e+00 1.27800000e+00 1.27400005e+00 1.26199996e+00
    1.24300003e+00 1.24300003e+00 1.24300003e+00 1.24300003e+00
    1.24300003e+00 1.24300003e+00 1.24300003e+00 1.24300003e+00
    1.24800003e+00 1.26999998e+00 1.26499999e+00 1.24800003e+00
    1.24800003e+00 1.48699999e+00 1.93599999e+00 1.94900000e+00
    1.94900000e+00 1.94900000e+00 1.94900000e+00 1.94799995e+00
    1.94299996e+00 1.94200003e+00 1.94299996e+00 1.94700003e+00
    1.94900000e+00 0. 0. 0. 0. 0. 0. 0. 0. 0. 0. 1.33099997e+00
    1.30700004e+00 1.27800000e+00 1.27800000e+00 1.26499999e+00
    1.24300003e+00 1.24300003e+00 1.24300003e+00 1.24300003e+00
    1.24300003e+00 1.24300003e+00 1.24300003e+00 1.24300003e+00
    1.24800003e+00 1.26999998e+00 1.26300001e+00 1.24300003e+00
    1.24300003e+00 1.48399997e+00 1.93599999e+00 1.94900000e+00
    1.94900000e+00 1.94900000e+00 1.94900000e+00 1.94900000e+00
    1.94900000e+00 1.94900000e+00 1.84099996e+00 1.16900003e+00 0. 0. 0.
    0. 0. 0. 0. 0. 0. 0. 0. 1.34899998e+00 1.31599998e+00 1.27800000e+00
    1.27800000e+00 1.26499999e+00 1.24300003e+00 1.24300003e+00
    1.24300003e+00 1.24300003e+00 1.24300003e+00 1.24300003e+00
    1.24300003e+00 1.24300003e+00 1.24800003e+00 1.26999998e+00
    1.26300001e+00 1.24300003e+00 1.24300003e+00 1.48399997e+00
    1.93599999e+00 1.94900000e+00 1.94900000e+00 1.94900000e+00
    1.94900000e+00 1.94900000e+00 1.94900000e+00 1.94900000e+00
    1.73500001e+00 0. 0. 0. 0. 0. 0. 0. 0. 0. 0. 0. 0. 0. 0. 0. 0. 0. 0.
    0. 0. 0. 0. 0. 0. 0. 0. 0. 0. 0. 0. 0. 0. 0. 0. 0. 0. 0. 0. 0. 0. 0.
    0. 0. 0. 0. 0. 0.</data></Depth>
</opencv_storage>
