<?xml version="1.0"?>
<opencv_storage>
<Depth type_id="opencv-matrix">
  <rows>40</rows>
  <cols>40</cols>
  <dt>f</dt>
  <data>
    0. 0. 0. 0. 0. 0. 0. 0. 0. 0. 0. 0. 0. 0. 0. 0. 2. 2. 2.01200008e+00
    2.01200008e+00 2.01200008e+00 2.01200008e+00 2. 2.95099998e+00 0. 0.
    0. 0. 0. 0. 0. 0. 0. 0. 0. 0. 0. 0. 0. 0. 0. 0. 0. 0. 0. 0. 0. 0. 0.
    0. 0. 0. 0. 0. 0. 2.01099992e+00 2.00500011e+00 2.00500011e+00
    2.01200008e+00 2.01200008e+00 2.01200008e+00 2.01200008e+00
    2.00500011e+00 2.00500011e+00 0. 0. 0. 0. 0. 0. 0. 0. 0. 0. 0. 0. 0.
    0. 0. 0. 0. 0. 0. 0. 0. 0. 0. 0. 0. 0. 0. 2.85500002e+00
    2.99000001e+00 0. 2.13199997e+00 2.02900004e+00 2.02099991e+00
    2.02099991e+00 2.02099991e+00 2.01799989e+00 2.01200008e+00
    2.01200008e+00 2.01200008e+00 2.01200008e+00 0. 0. 0. 0. 0. 0. 0. 0.
    0. 0. 0. 0. 0. 0. 0. 0. 0. 0. 0. 0. 0. 2.84699988e+00 2.82999992e+00
    2.82999992e+00 2.82999992e+00 2.82999992e+00 2.81999993e+00
    2.05100012e+00 2.04699993e+00 2.03800011e+00 2.03800011e+00
    2.03800011e+00 2.03099990e+00 2.02500010e+00 2.01200008e+00
    2.01200008e+00 2.01200008e+00 2.01200008e+00 2.01200008e+00
    2.01200008e+00 2.01200008e+00 0. 0. 0. 0. 0. 0. 0. 0. 0. 0. 0. 0. 0.
    0. 0. 0. 0. 0. 0. 2.84699988e+00 2.82800007e+00 2.82200003e+00
    2.82200003e+00 2.78099990e+00 2.58999991e+00 2.17000008e+00
    2.03900003e+00 2.04800010e+00 2.04200006e+00 2.04999995e+00
    2.04800010e+00 2.03099990e+00 2.02500010e+00 2.01200008e+00
    2.01200008e+00 2.01200008e+00 2.01200008e+00 2.00799990e+00
    2.00799990e+00 2.00799990e+00 0. 0. 0. 0. 0. 0. 0. 0. 0. 0. 0. 0. 0.
    0. 0. 0. 0. 0. 0. 2.81500006e+00 2.79800010e+00 2.78200006e+00
    2.39299989e+00 2.29299998e+00 2.04699993e+00 2.03900003e+00
    2.03900003e+00 2.05100012e+00 2.05100012e+00 2.05100012e+00
    2.04800010e+00 2.03099990e+00 2.02500010e+00 2.01999998e+00
    2.01699996e+00 2.01200008e+00 2.01200008e+00 2. 2. 2. 2.10299993e+00
    2.83899999e+00 0. 0. 0. 0. 0. 0. 0. 0. 0. 0. 0. 0. 0. 0.
    2.98499990e+00 2.85899997e+00 2.85599995e+00 2.79399991e+00
    2.14400005e+00 2.13499999e+00 2.04800010e+00 2.03999996e+00
    2.04500008e+00 2.03800011e+00 2.03900003e+00 2.05100012e+00
    2.05100012e+00 2.03999996e+00 2.03900003e+00 2.03099990e+00
    2.02500010e+00 2.02500010e+00 2.02399993e+00 2.01600003e+00
    2.01200008e+00 2. 2. 2. 2. 2. 0. 0. 0. 0. 0. 0. 0. 0. 0. 0. 0. 0. 0.
    0. 2.83299994e+00 2.52500010e+00 2.09299994e+00 2.07800007e+00
    2.06399989e+00 2.05599999e+00 2.05100012e+00 2.05100012e+00
    2.05100012e+00 2.05100012e+00 2.05100012e+00 2.05100012e+00
    2.05100012e+00 2.04099989e+00 2.03999996e+00 2.03800011e+00
    2.03800011e+00 2.02500010e+00 2.02399993e+00 2.01600003e+00
    2.01200008e+00 2.00200009e+00 2. 2. 2. 2.00399995e+00 2.00999999e+00
    0. 0. 0. 0. 0. 0. 0. 0. 0. 0. 0. 0. 0. 2.80699992e+00 2.49499989e+00
    2.08200002e+00 2.07800007e+00 2.06100011e+00 2.05100012e+00
    2.05100012e+00 2.05100012e+00 2.05100012e+00 2.04600000e+00
    2.04500008e+00 2.05100012e+00 2.05100012e+00 2.05100012e+00
    2.04299998e+00 2.03800011e+00 2.03299999e+00 2.01900005e+00
    2.01600003e+00 2.01200008e+00 2.01200008e+00 2.00900006e+00 2. 2. 2.
    2. 2.00399995e+00 0. 0. 0. 0. 0. 0. 0. 0. 0. 0. 0. 0. 0.
    2.67400002e+00 2.18000007e+00 2.07900000e+00 2.07800007e+00
    2.06100011e+00 2.05100012e+00 2.05100012e+00 2.05100012e+00
    2.04600000e+00 2.03900003e+00 2.03900003e+00 2.05100012e+00
    2.05100012e+00 2.05100012e+00 2.03800011e+00 2.03299999e+00
    2.02600002e+00 2.01200008e+00 2.01200008e+00 2.01200008e+00
    2.01200008e+00 2.01099992e+00 2.00399995e+00 2. 2. 2. 2.00200009e+00
    2.01200008e+00 2.91000009e+00 0. 0. 0. 0. 0. 0. 0. 0. 0. 0. 0.
    2.10299993e+00 2.08500004e+00 2.07800007e+00 2.07599998e+00
    2.05999994e+00 2.05100012e+00 2.05100012e+00 2.05100012e+00
    2.04500008e+00 2.03800011e+00 2.03900003e+00 2.05100012e+00
    2.05100012e+00 2.03900003e+00 2.03800011e+00 2.03099990e+00
    2.02399993e+00 2.01200008e+00 2.01200008e+00 2.01200008e+00
    2.01200008e+00 2.01200008e+00 2.01200008e+00 2.00200009e+00
    1.99899995e+00 1.99899995e+00 2. 1.99899995e+00 2. 2. 0. 0. 0. 0. 0.
    0. 0. 0. 0. 0. 2.08599997e+00 2.07800007e+00 2.06900001e+00
    2.05100012e+00 2.05100012e+00 2.05100012e+00 2.05100012e+00
    2.05100012e+00 2.04500008e+00 2.03800011e+00 2.03900003e+00
    2.05100012e+00 2.05100012e+00 2.03900003e+00 2.03800011e+00
    2.03099990e+00 2.01500010e+00 2.01200008e+00 2.01200008e+00
    2.01200008e+00 2.01200008e+00 2.01200008e+00 2.00600004e+00 2.
    1.98699999e+00 1.98699999e+00 1.99300003e+00 1.98699999e+00
    1.98899996e+00 1.99600005e+00 0. 0. 0. 0. 0. 0. 0. 0. 0. 0.
    2.07800007e+00 2.07800007e+00 2.06900001e+00 2.05100012e+00
    2.05100012e+00 2.05100012e+00 2.05100012e+00 2.05100012e+00
    2.04500008e+00 2.03800011e+00 2.03900003e+00 2.05100012e+00
    2.04600000e+00 2.03800011e+00 2.03800011e+00 2.03099990e+00
    2.01500010e+00 2.01200008e+00 2.01200008e+00 2.01200008e+00
    2.01200008e+00 2.01200008e+00 2.00600004e+00 2. 1.98699999e+00
    1.98699999e+00 1.98699999e+00 1.98699999e+00 1.97899997e+00
    1.97899997e+00 0. 0. 0. 0. 0. 0. 0. 0. 0. 0. 2.05299997e+00
    2.06399989e+00 2.06900001e+00 2.05100012e+00 2.05100012e+00
    2.05100012e+00 2.05100012e+00 2.05100012e+00 2.04500008e+00
    2.03800011e+00 2.03900003e+00 2.05100012e+00 2.04299998e+00
    2.03800011e+00 2.03500009e+00 2.02500010e+00 2.01500010e+00
    2.01200008e+00 2.01200008e+00 2.01200008e+00 2.01200008e+00
    2.00900006e+00 2. 2. 1.99899995e+00 1.99899995e+00 1.99100006e+00
    1.98699999e+00 1.97500002e+00 1.98099995e+00 2.12700009e+00 0. 0. 0.
    0. 0. 0. 0. 0. 0. 2.05399990e+00 2.06399989e+00 2.06900001e+00
    2.05399990e+00 2.05100012e+00 2.05100012e+00 2.05100012e+00
    2.04999995e+00 2.04299998e+00 2.03800011e+00 2.03900003e+00
    2.05100012e+00 2.04299998e+00 2.03800011e+00 2.03500009e+00
    2.02500010e+00 2.01699996e+00 2.01500010e+00 2.01200008e+00
    2.01200008e+00 2.01200008e+00 2.00900006e+00 2. 2. 2. 2.
    1.99100006e+00 1.98699999e+00 1.98399997e+00 1.98399997e+00
    1.99500000e+00 2.31900001e+00 0. 0. 0. 0. 0. 0. 0. 0. 2.35999990e+00
    2.24200010e+00 2.07299995e+00 2.06500006e+00 2.05100012e+00
    2.05100012e+00 2.04500008e+00 2.04299998e+00 2.03800011e+00
    2.03800011e+00 2.03900003e+00 2.05100012e+00 2.04299998e+00
    2.03800011e+00 2.02999997e+00 2.02500010e+00 2.01999998e+00
    2.01799989e+00 2.01200008e+00 2.01200008e+00 2.00600004e+00
    2.00399995e+00 2. 2. 2. 2. 1.99100006e+00 1.98699999e+00
    1.97300005e+00 1.96800005e+00 1.97399998e+00 2.13400006e+00 0. 0. 0.
    0. 0. 0. 0. 0. 2.64599991e+00 2.60400009e+00 2.20600009e+00
    2.06500006e+00 2.05100012e+00 2.05100012e+00 2.03900003e+00
    2.03800011e+00 2.03800011e+00 2.03800011e+00 2.03900003e+00
    2.05100012e+00 2.04299998e+00 2.03800011e+00 2.02500010e+00
    2.02500010e+00 2.01500010e+00 2.01200008e+00 2.01200008e+00
    2.01200008e+00 2. 2. 2. 2. 1.99899995e+00 1.99000001e+00
    1.98800004e+00 1.98699999e+00 1.97099996e+00 1.96200001e+00
    1.96200001e+00 1.96200001e+00 2.84299994e+00 0. 0. 0. 0. 0. 0. 0.
    2.64499998e+00 2.64499998e+00 2.27900004e+00 2.06500006e+00
    2.05100012e+00 2.05100012e+00 2.05100012e+00 2.03800011e+00
    2.03800011e+00 2.03800011e+00 2.03900003e+00 2.05100012e+00
    2.04200006e+00 2.03699994e+00 2.02500010e+00 2.02500010e+00
    2.01500010e+00 2.01200008e+00 2.01200008e+00 2.01099992e+00 2. 2. 2.
    2. 1.98699999e+00 1.98699999e+00 1.98699999e+00 1.98599994e+00
    1.97500002e+00 1.97500002e+00 1.96500003e+00 1.96500003e+00
    1.97399998e+00 0. 0. 0. 0. 0. 0. 0. 2.64499998e+00 2.64499998e+00
    2.66000009e+00 2.06500006e+00 2.05500007e+00 2.05100012e+00
    2.05100012e+00 2.03800011e+00 2.03800011e+00 2.03800011e+00
    2.03800011e+00 2.04299998e+00 2.02999997e+00 2.02500010e+00
    2.02500010e+00 2.02500010e+00 2.01500010e+00 2.01200008e+00
    2.01200008e+00 2.00399995e+00 2. 2. 2. 2. 1.98699999e+00
    1.98699999e+00 1.98399997e+00 1.97500002e+00 1.97500002e+00
    1.97200000e+00 1.97000003e+00 1.96800005e+00 1.95700002e+00
    1.95700002e+00 0. 0. 0. 0. 0. 0. 2.64499998e+00 2.64499998e+00
    2.66000009e+00 2.47499990e+00 2.06100011e+00 2.05100012e+00
    2.05100012e+00 2.03800011e+00 2.03800011e+00 2.03800011e+00
    2.03800011e+00 2.03800011e+00 2.02999997e+00 2.02500010e+00
    2.02500010e+00 2.02099991e+00 2.01300001e+00 2.01200008e+00
    2.00900006e+00 2.00099993e+00 2. 2. 2. 2. 1.98699999e+00
    1.98399997e+00 1.97599995e+00 1.97500002e+00 1.97500002e+00
    1.96800005e+00 1.96200001e+00 1.96000004e+00 1.95000005e+00
    1.95599997e+00 2.66499996e+00 0. 0. 0. 0. 0. 2.64800000e+00
    2.66499996e+00 2.66599989e+00 2.73200011e+00 2.53200006e+00
    2.03900003e+00 2.04999995e+00 2.03800011e+00 2.03800011e+00
    2.03800011e+00 2.04999995e+00 2.03800011e+00 2.02999997e+00
    2.02500010e+00 2.02500010e+00 2.01799989e+00 2.01200008e+00
    2.01200008e+00 2.00699997e+00 2. 2. 2. 2. 2. 1.98599994e+00
    1.97500002e+00 1.96599996e+00 1.96300006e+00 1.97099996e+00
    1.96200001e+00 1.96200001e+00 1.96200001e+00 1.96200001e+00
    1.96200001e+00 2.01900005e+00 0. 0. 0. 0. 0. 2.64499998e+00
    2.64499998e+00 2.66000009e+00 2.74099994e+00 2.61500001e+00
    2.11700010e+00 2.04999995e+00 2.04099989e+00 2.03999996e+00
    2.03800011e+00 2.04699993e+00 2.03800011e+00 2.03800011e+00
    2.03800011e+00 2.03299999e+00 2.02500010e+00 2.01500010e+00
    2.01200008e+00 2.01200008e+00 2.01200008e+00 2.00900006e+00 2. 2. 2.
    1.98599994e+00 1.97500002e+00 1.96800005e+00 1.96500003e+00
    1.97099996e+00 1.96200001e+00 1.96200001e+00 1.96200001e+00
    1.95899999e+00 1.95200002e+00 1.95000005e+00 2.61500001e+00 0. 0. 0.
    0. 2.64700007e+00 2.65599990e+00 2.67199993e+00 2.75799990e+00
    2.81800008e+00 2.61899996e+00 2.09899998e+00 2.05100012e+00
    2.04500008e+00 2.03800011e+00 2.03800011e+00 2.03800011e+00
    2.03800011e+00 2.03800011e+00 2.02500010e+00 2.02500010e+00
    2.01500010e+00 2.01200008e+00 2.01200008e+00 2.01200008e+00 2. 2. 2.
    1.99399996e+00 1.98599994e+00 1.97500002e+00 1.97500002e+00
    1.97500002e+00 1.97099996e+00 1.96200001e+00 1.96200001e+00
    1.96000004e+00 1.95000005e+00 1.95000005e+00 1.95000005e+00
    2.26699996e+00 0. 0. 0. 0. 2.66300011e+00 2.67400002e+00
    2.71499991e+00 2.79800010e+00 2.85100007e+00 2.85299993e+00
    2.73399997e+00 2.03999996e+00 2.03900003e+00 2.03800011e+00
    2.03800011e+00 2.03800011e+00 2.03800011e+00 2.02800012e+00
    2.02300000e+00 2.01399994e+00 2.01200008e+00 2.01300001e+00
    2.01900005e+00 2.01200008e+00 2. 1.99699998e+00 1.98899996e+00
    1.98699999e+00 1.98699999e+00 1.98500001e+00 1.98500001e+00
    1.97500002e+00 1.97099996e+00 1.96200001e+00 1.96200001e+00
    1.95200002e+00 1.95000005e+00 1.95000005e+00 1.95000005e+00
    1.96700001e+00 0. 0. 0. 0. 2.67000008e+00 2.70300007e+00
    2.74799991e+00 2.80299997e+00 2.85999990e+00 2.86400008e+00
    2.86400008e+00 2.02500010e+00 2.03099990e+00 2.03800011e+00
    2.03900003e+00 2.03800011e+00 2.03699994e+00 2.02600002e+00
    2.01200008e+00 2.01200008e+00 2.01200008e+00 2.01300001e+00
    2.01900005e+00 2.01200008e+00 2.00200009e+00 1.99699998e+00
    1.98699999e+00 1.98699999e+00 1.98699999e+00 1.98199999e+00
    1.97500002e+00 1.96200001e+00 1.96200001e+00 1.96200001e+00
    1.95200002e+00 1.95000005e+00 1.95000005e+00 1.94900000e+00
    1.94900000e+00 1.95299995e+00 1.97399998e+00 0. 0. 0. 2.68199992e+00
    2.73600006e+00 2.76699996e+00 2.77500010e+00 2.98000002e+00 0. 0.
    2.02500010e+00 2.03099990e+00 2.03800011e+00 2.05100012e+00
    2.04200006e+00 2.02999997e+00 2.02500010e+00 2.01200008e+00
    2.01200008e+00 2.01200008e+00 2.01200008e+00 2.01200008e+00
    2.01200008e+00 2.01200008e+00 1.99699998e+00 1.98699999e+00
    1.98699999e+00 1.98699999e+00 1.98399997e+00 1.97599995e+00
    1.96700001e+00 1.96200001e+00 1.96200001e+00 1.95200002e+00
    1.95000005e+00 1.95000005e+00 1.94099998e+00 1.93799996e+00
    1.95000005e+00 1.95000005e+00 0. 0. 0. 0. 2.75300002e+00
    2.75699997e+00 2.75900006e+00 2.94000006e+00 0. 0. 2.68099999e+00
    2.03600001e+00 2.03800011e+00 2.05100012e+00 2.04699993e+00
    2.02999997e+00 2.02500010e+00 2.01200008e+00 2.01200008e+00
    2.01200008e+00 2.01200008e+00 2.01200008e+00 2.01200008e+00
    2.01200008e+00 2.00500011e+00 1.99600005e+00 1.99600005e+00
    1.98699999e+00 1.98699999e+00 1.97899997e+00 1.97500002e+00
    1.96200001e+00 1.96200001e+00 1.95899999e+00 1.95000005e+00
    1.95000005e+00 1.94700003e+00 1.94700003e+00 1.94700003e+00
    1.93700004e+00 2.48499990e+00 0. 0. 0. 0. 2.74000001e+00
    2.73399997e+00 2.73499990e+00 2.97199988e+00 0. 2.96000004e+00
    2.05100012e+00 2.05100012e+00 2.05100012e+00 2.04699993e+00
    2.02999997e+00 2.02500010e+00 2.02200007e+00 2.01200008e+00
    2.01200008e+00 2.01200008e+00 2.01200008e+00 2.01200008e+00
    2.01200008e+00 2.00900006e+00 2. 2. 1.98699999e+00 1.98699999e+00
    1.97899997e+00 1.97500002e+00 1.96200001e+00 1.96200001e+00
    1.96200001e+00 1.95000005e+00 1.95000005e+00 1.95000005e+00
    1.95000005e+00 1.93799996e+00 1.93099999e+00 1.92700005e+00 0. 0. 0.
    0. 0. 2.73399997e+00 2.72700000e+00 2.91000009e+00 0. 0.
    2.77800012e+00 2.12700009e+00 2.04999995e+00 2.03800011e+00
    2.02999997e+00 2.02500010e+00 2.02300000e+00 2.01399994e+00
    2.01200008e+00 2.01099992e+00 2. 2. 2. 2. 1.99300003e+00
    1.98699999e+00 1.98699999e+00 1.98199999e+00 1.96599996e+00
    1.96200001e+00 1.96200001e+00 1.96200001e+00 1.96200001e+00
    1.95000005e+00 1.95000005e+00 1.95000005e+00 1.95000005e+00
    1.93799996e+00 1.93799996e+00 1.93799996e+00 0. 0. 0. 0. 0. 0.
    2.71099997e+00 2.71099997e+00 2.73099995e+00 2.75099993e+00
    2.88899994e+00 2.25000000e+00 2.04299998e+00 2.03800011e+00
    2.03399992e+00 2.02600002e+00 2.02300000e+00 2.01500010e+00
    2.01200008e+00 2.01099992e+00 2. 2. 2. 2. 1.99300003e+00
    1.98699999e+00 1.98699999e+00 1.98199999e+00 1.96599996e+00
    1.96200001e+00 1.96200001e+00 1.96200001e+00 1.96200001e+00
    1.95000005e+00 1.95000005e+00 1.95000005e+00 1.95000005e+00
    1.93799996e+00 1.93799996e+00 1.93799996e+00 0. 0. 0. 0. 0. 0. 0.
    2.73099995e+00 2.71600008e+00 2.70400000e+00 2.67199993e+00
    2.60299993e+00 2.03800011e+00 2.03399992e+00 2.02699995e+00
    2.02500010e+00 2.02200007e+00 2.01200008e+00 2.01200008e+00
    2.01200008e+00 2.00600004e+00 2. 2. 1.98899996e+00 1.98800004e+00
    1.98699999e+00 1.97700000e+00 1.98000002e+00 1.96899998e+00
    1.96200001e+00 1.96200001e+00 1.96200001e+00 1.96200001e+00
    1.95000005e+00 1.95000005e+00 1.95000005e+00 1.95000005e+00
    1.93799996e+00 1.93799996e+00 1.94700003e+00 0. 0. 0. 0. 0. 0. 0. 0.
    2.69099998e+00 2.68600011e+00 2.67000008e+00 2.67000008e+00
    2.03800011e+00 2.03399992e+00 2.02500010e+00 2.02500010e+00
    2.02500010e+00 2.01799989e+00 2.01200008e+00 2.01200008e+00
    2.00699997e+00 2. 2. 1.98699999e+00 1.98699999e+00 1.98699999e+00
    1.97700000e+00 1.97500002e+00 1.96599996e+00 1.96200001e+00
    1.96200001e+00 1.96200001e+00 1.96200001e+00 1.95000005e+00
    1.95000005e+00 1.95000005e+00 1.94799995e+00 1.93599999e+00
    2.02200007e+00 2.73200011e+00 0. 0. 0. 0. 0. 0. 0. 0. 0. 0.
    2.86599994e+00 2.85999990e+00 2.51200008e+00 2.34500003e+00
    2.02500010e+00 2.02500010e+00 2.02500010e+00 2.01799989e+00
    2.01200008e+00 2.01200008e+00 2.00699997e+00 2. 2. 1.98599994e+00
    1.98199999e+00 1.98199999e+00 1.98099995e+00 1.97500002e+00
    1.96599996e+00 1.96200001e+00 1.96200001e+00 1.96200001e+00
    1.95700002e+00 1.95000005e+00 1.94799995e+00 1.94500005e+00
    1.93799996e+00 1.92700005e+00 2.48399997e+00 2.81900001e+00 0. 0. 0.
    0. 0. 0. 0. 0. 0. 0. 0. 0. 0. 2.71799994e+00 2.02500010e+00
    2.02500010e+00 2.02500010e+00 2.01799989e+00 2.01200008e+00
    2.01200008e+00 2.00699997e+00 2. 2. 1.98399997e+00 1.97500002e+00
    1.97500002e+00 1.97500002e+00 1.97500002e+00 1.96599996e+00
    1.96200001e+00 1.96200001e+00 1.96200001e+00 1.95200002e+00
    1.95000005e+00 1.94500005e+00 1.93799996e+00 1.93799996e+00
    2.15000010e+00 2.75999999e+00 2.83299994e+00 0. 0. 0. 0. 0. 0. 0. 0.
    0. 0. 0. 0. 0. 0. 2.43499994e+00 2.02800012e+00 2.02500010e+00
    2.01900005e+00 2.01200008e+00 2.01200008e+00 2.00699997e+00 2. 2.
    1.99699998e+00 1.98699999e+00 1.97700000e+00 1.97500002e+00
    1.97500002e+00 1.96599996e+00 1.96200001e+00 1.96200001e+00
    1.96200001e+00 1.95200002e+00 1.95000005e+00 1.93200004e+00
    1.91499996e+00 2. 2.84699988e+00 2.82999992e+00 2.82999992e+00 0. 0.
    0. 0. 0. 0. 0. 0. 0. 0. 0. 0. 0. 0. 0. 2.10500002e+00 2.02500010e+00
    2.02500010e+00 2.01500010e+00 2.01099992e+00 2. 2. 2. 1.99699998e+00
    1.98500001e+00 1.97599995e+00 1.97500002e+00 1.97500002e+00
    1.96599996e+00 1.96200001e+00 1.96200001e+00 1.96200001e+00
    1.39300001e+00 1.38999999e+00 1.85800004e+00 1.43200004e+00
    2.85500002e+00 2.84699988e+00 2.82500005e+00 2.82200003e+00 0. 0. 0.
    0. 0. 0. 0. 0. 0. 0. 0. 0. 0. 2.97099996e+00 2.83599997e+00
    2.41100001e+00 2.02500010e+00 2.02099991e+00 2.01300001e+00
    2.01099992e+00 2. 2. 2. 1.99100006e+00 1.98099995e+00 1.97500002e+00
    1.97500002e+00 1.97500002e+00 1.97099996e+00 1.97000003e+00
    1.61500001e+00 0. 0. 0. 0. 1.43799996e+00 2.85500002e+00
    2.84200001e+00 2.80900002e+00 2.79200006e+00 0. 0. 0. 0. 0. 0. 0. 0.
    0. 0. 0. 0. 0. 2.69099998e+00 2.66599989e+00 2.60700011e+00
    2.42799997e+00 2.00200009e+00 2.00999999e+00 2.01099992e+00 2.
    1.99199998e+00 1.98800004e+00 1.98099995e+00 1.96399999e+00
    1.97300005e+00 1.97599995e+00 1.98599994e+00 1.98599994e+00
    1.98599994e+00 0. 0. 0. 0. 0. 0. 2.85500002e+00 2.83899999e+00
    2.80500007e+00 2.78299999e+00 0. 0. 0. 0. 0. 0. 0. 0. 0. 0. 0. 0. 0.
    2.66599989e+00 2.66599989e+00 2.61800003e+00 2.48300004e+00
    2.00200009e+00 2. 2. 2. 1.99100006e+00 1.98699999e+00 1.98099995e+00
    1.96399999e+00 2.05599999e+00 1.98099995e+00 1.98699999e+00
    1.98699999e+00 1.98699999e+00 1.40100002e+00 0. 0. 0. 0. 0.
    1.95000005e+00 1.93799996e+00 2.35200000e+00 2.61800003e+00 0. 0. 0.
    0. 0. 0. 0. 0. 0. 0. 0. 0. 0. 2.77999997e+00 2.67000008e+00
    2.66599989e+00 2.59299994e+00 2.16799998e+00 2.00699997e+00
    2.00500011e+00 2. 1.99100006e+00 1.98699999e+00 2.23300004e+00
    2.22799993e+00 2.46199989e+00 2.24000001e+00 2.23399997e+00
    2.06100011e+00 1.98699999e+00 1.40100002e+00 0. 0. 0. 0. 0.
    1.95000005e+00 1.93299997e+00 1.92900002e+00 1.92200005e+00 0.</data></Depth>
</opencv_storage>
