<?xml version="1.0"?>
<opencv_storage>
<Depth type_id="opencv-matrix">
  <rows>40</rows>
  <cols>40</cols>
  <dt>f</dt>
  <data>
    0. 0. 0. 0. 0. 0. 0. 0. 0. 0. 0. 0. 0. 0. 0. 0. 0. 0. 0. 0. 0. 0.
    1.18200004e+00 1.93400002e+00 1.94799995e+00 1.96700001e+00
    1.97599995e+00 1.98500001e+00 1.99600005e+00 1.99600005e+00
    1.99600005e+00 1.99300003e+00 1.97599995e+00 1.97599995e+00
    1.97599995e+00 1.97599995e+00 1.97599995e+00 1.97599995e+00 0. 0. 0.
    0. 0. 0. 0. 0. 0. 0. 0. 0. 0. 0. 0. 0. 0. 0. 0. 0. 0. 0. 0. 0.
    1.77699995e+00 1.92999995e+00 1.94400001e+00 1.96599996e+00
    1.98500001e+00 2.00500011e+00 2.01900005e+00 2.01300001e+00 2.
    1.99899995e+00 1.99300003e+00 1.97599995e+00 1.97599995e+00
    1.97599995e+00 1.97599995e+00 1.97599995e+00 0. 0. 0. 0. 0. 0. 0. 0.
    0. 0. 0. 0. 0. 0. 0. 0. 0. 0. 0. 0. 0. 0. 0. 1.38800001e+00
    1.96700001e+00 1.96300006e+00 1.96700001e+00 1.97300005e+00
    1.98800004e+00 2.00999999e+00 2.02399993e+00 2.01699996e+00 2. 2.
    1.99899995e+00 1.99199998e+00 1.97599995e+00 1.97599995e+00
    1.97599995e+00 1.99000001e+00 0. 0. 0. 0. 0. 0. 0. 0. 0. 0. 0. 0. 0.
    0. 0. 0. 0. 0. 0. 0. 0. 0. 0. 1.40100002e+00 1.99199998e+00
    1.99199998e+00 1.99199998e+00 2. 2.01200008e+00 2.01900005e+00
    2.02399993e+00 2.01699996e+00 2. 2. 1.99800003e+00 1.98399997e+00
    1.97599995e+00 1.99100006e+00 1.99199998e+00 1.99800003e+00 0. 0. 0.
    0. 0. 0. 0. 0. 0. 0. 0. 0. 0. 0. 0. 0. 0. 0. 0. 0. 0. 0. 0.
    1.77900004e+00 2.01399994e+00 2.01399994e+00 2.01399994e+00
    2.01999998e+00 2.02399993e+00 2.02399993e+00 2.02399993e+00
    2.01699996e+00 2. 2. 1.99699998e+00 1.97599995e+00 1.97599995e+00
    1.99800003e+00 2. 2. 0. 0. 0. 0. 0. 0. 0. 0. 0. 0. 0. 0. 0. 0. 0. 0.
    0. 0. 0. 0. 0. 0. 1.83899999e+00 2.02600002e+00 2.02399993e+00
    2.02399993e+00 2.02399993e+00 2.02399993e+00 2.02399993e+00
    2.02399993e+00 2.02399993e+00 2.01699996e+00 2. 2. 1.99699998e+00
    1.97599995e+00 1.97599995e+00 2.00999999e+00 2.42499995e+00
    2.49000001e+00 0. 0. 0. 0. 0. 0. 0. 0. 0. 0. 0. 0. 0. 0. 0. 0. 0. 0.
    0. 0. 0. 1.88600004e+00 2.02200007e+00 2.02399993e+00 2.02399993e+00
    2.02399993e+00 2.02399993e+00 2.02399993e+00 2.02399993e+00
    2.02399993e+00 2.02399993e+00 2.01999998e+00 2.00900006e+00 2.
    1.99899995e+00 1.98699999e+00 1.98699999e+00 2.02099991e+00
    2.79399991e+00 2.91499996e+00 0. 0. 0. 0. 0. 0. 0. 0. 0. 0. 0. 0. 0.
    0. 0. 0. 0. 0. 0. 0. 1.96399999e+00 2. 2.02099991e+00 2.02399993e+00
    2.02399993e+00 2.02399993e+00 2.02399993e+00 2.02399993e+00
    2.02399993e+00 2.02399993e+00 2.02399993e+00 2.02399993e+00
    2.02099991e+00 2.00999999e+00 2.00900006e+00 2. 2. 2.37800002e+00
    2.86100006e+00 2.93199992e+00 0. 0. 0. 0. 0. 0. 0. 0. 0. 0. 0. 0. 0.
    0. 0. 0. 0. 0. 0. 2.03900003e+00 2.00099993e+00 2. 2.01300001e+00
    2.02200007e+00 2.02399993e+00 2.02399993e+00 2.02399993e+00
    2.02399993e+00 2.02399993e+00 2.02399993e+00 2.02399993e+00
    2.02200007e+00 2.01600003e+00 2.01600003e+00 2.01399994e+00 2. 2.
    2.88599992e+00 2.95700002e+00 2.95700002e+00 0. 0. 0. 0. 0. 0. 0. 0.
    0. 0. 0. 0. 0. 0. 0. 0. 0. 2. 2.00200009e+00 2.01600003e+00 2. 2. 2.
    2.01900005e+00 2.02399993e+00 2.02399993e+00 2.02399993e+00
    2.02399993e+00 2.02399993e+00 2.02399993e+00 2.02399993e+00
    2.01699996e+00 2. 1.99899995e+00 1.99300003e+00 1.99300003e+00 2.
    2.88599992e+00 2.95700002e+00 2.95700002e+00 0. 0. 0. 0. 0. 0. 0. 0.
    0. 0. 0. 0. 0. 0. 0. 0. 0. 1.99500000e+00 1.99500000e+00 2. 2. 2. 2.
    2.01900005e+00 2.02399993e+00 2.02399993e+00 2.02399993e+00
    2.02099991e+00 2.01900005e+00 2.01900005e+00 2.01900005e+00
    2.01099992e+00 1.99500000e+00 1.99100006e+00 1.97599995e+00
    1.98800004e+00 2.22300005e+00 2.91199994e+00 2.95799994e+00
    2.95700002e+00 0. 0. 0. 0. 0. 0. 0. 0. 0. 0. 0. 0. 0. 0. 0. 0. 0.
    1.97599995e+00 1.97800004e+00 2. 2. 2. 2.00300002e+00 2.01999998e+00
    2.02399993e+00 2.02099991e+00 2.01999998e+00 2.00900006e+00 2. 2. 2.
    1.99300003e+00 1.97599995e+00 1.97599995e+00 1.97599995e+00
    2.03099990e+00 2.98799992e+00 2.99300003e+00 2.96199989e+00
    2.95700002e+00 0. 0. 0. 0. 0. 0. 0. 0. 0. 0. 0. 0. 0. 0. 0. 0. 0.
    1.97599995e+00 1.97800004e+00 2. 2. 2. 2.01799989e+00 2.02300000e+00
    2.02399993e+00 2.00799990e+00 2. 2. 2.00099993e+00 2.00099993e+00 2.
    1.99399996e+00 1.97800004e+00 1.97599995e+00 1.99000001e+00
    2.14299989e+00 2.98499990e+00 2.96000004e+00 2.95700002e+00
    2.95700002e+00 0. 0. 0. 0. 0. 0. 0. 0. 0. 0. 0. 0. 0. 0. 0. 0.
    2.01300001e+00 1.97700000e+00 1.97899997e+00 2. 2. 2. 2.
    2.01900005e+00 2.02300000e+00 2.00799990e+00 2. 2. 2.01200008e+00
    2.01399994e+00 2. 2.00099993e+00 1.99699998e+00 1.98500001e+00
    2.12100005e+00 2.95700002e+00 2.95700002e+00 2.95700002e+00
    2.95700002e+00 2.95700002e+00 0. 0. 0. 0. 0. 0. 0. 0. 0. 0. 0. 0. 0.
    0. 0. 0. 2.01799989e+00 1.99899995e+00 2. 2. 2. 2. 2. 2.01900005e+00
    2.00699997e+00 2. 2. 2. 2.01200008e+00 2.01399994e+00 2.
    2.01399994e+00 2.04800010e+00 2.20199990e+00 2.93799996e+00
    2.95700002e+00 2.95700002e+00 2.95700002e+00 2.95700002e+00
    2.95700002e+00 0. 0. 0. 0. 0. 0. 0. 0. 0. 0. 0. 0. 0. 0. 0.
    1.85300004e+00 2.02399993e+00 2.01799989e+00 2. 2. 2. 2. 2.
    2.01900005e+00 2.00600004e+00 2. 2.01300001e+00 2.02200007e+00
    2.02300000e+00 2.02300000e+00 2.02200007e+00 2.02999997e+00
    2.25399995e+00 2.92700005e+00 2.95700002e+00 2.95700002e+00
    2.95700002e+00 2.95700002e+00 2.95700002e+00 2.92600012e+00 0. 0. 0.
    0. 0. 0. 0. 0. 0. 0. 0. 0. 0. 1.60500002e+00 1.75199997e+00
    2.02399993e+00 2.02399993e+00 2.02300000e+00 2.01799989e+00 2. 2.
    1.98099995e+00 1.97899997e+00 1.99899995e+00 2.00099993e+00 2.
    2.01500010e+00 2.02399993e+00 2.02399993e+00 2.02399993e+00
    2.02399993e+00 2.03099990e+00 2.27300000e+00 2.99900007e+00
    2.99000001e+00 2.95700002e+00 2.95700002e+00 2.95700002e+00
    2.95700002e+00 2.92300010e+00 0. 0. 0. 0. 0. 0. 0. 0. 0. 0. 0.
    1.07200003e+00 1.69099998e+00 2.00500011e+00 2.01200008e+00
    2.02399993e+00 2.02399993e+00 2.02399993e+00 2.02200007e+00 2. 2.
    1.97800004e+00 1.97599995e+00 1.99500000e+00 2. 2. 2.01500010e+00
    2.02399993e+00 2.02399993e+00 2.02399993e+00 2.02399993e+00
    2.25600004e+00 2.84899998e+00 0. 2.99499989e+00 2.95700002e+00
    2.95700002e+00 2.95700002e+00 2.95700002e+00 2.92300010e+00 0. 0. 0.
    0. 0. 0. 0. 0. 0. 0. 0. 1.38900006e+00 2. 2. 2.00200009e+00
    2.00600004e+00 2.00999999e+00 2.02399993e+00 2.02200007e+00 2. 2.
    1.99399996e+00 1.99399996e+00 1.99899995e+00 2. 2. 2.01500010e+00
    2.02399993e+00 2.03299999e+00 2.04200006e+00 2.04200006e+00
    2.32699990e+00 0. 0. 2.99499989e+00 2.95700002e+00 2.95700002e+00
    2.95700002e+00 2.95700002e+00 2.92300010e+00 0. 0. 0. 0. 0. 0. 0. 0.
    0. 0. 0. 1.38900006e+00 2. 2. 2. 2. 2.00500011e+00 2.02399993e+00
    2.02300000e+00 2.01600003e+00 2.01600003e+00 2.00099993e+00 2. 2. 2.
    2. 2.01500010e+00 2.02399993e+00 2.02800012e+00 2.03900003e+00
    2.27800012e+00 2.77900004e+00 0. 0. 2.99499989e+00 2.95700002e+00
    2.95700002e+00 2.95700002e+00 2.95700002e+00 2.92300010e+00 0. 0. 0.
    0. 0. 0. 0. 0. 0. 0. 0. 0. 1.58899999e+00 2. 2. 2. 2.00500011e+00
    2.02399993e+00 2.02399993e+00 2.02399993e+00 2.02399993e+00
    2.00200009e+00 2. 2. 2. 2. 2.01500010e+00 2.02399993e+00
    2.02399993e+00 2.27800012e+00 2.76099992e+00 0. 0. 0. 2.99799991e+00
    2.98300004e+00 2.98300004e+00 2.95900011e+00 2.95700002e+00
    2.92300010e+00 0. 0. 0. 0. 0. 0. 0. 0. 0. 0. 0. 1.08899999e+00
    1.69200003e+00 2. 2.00500011e+00 2.01300001e+00 2.01600003e+00
    2.02399993e+00 2.02399993e+00 2.02399993e+00 2.02399993e+00
    2.00200009e+00 2. 2.00999999e+00 2.00399995e+00 2. 2.00699997e+00
    2.01799989e+00 2.28099990e+00 2.74300003e+00 0. 0. 0. 0. 0.
    2.99900007e+00 2.97700000e+00 2.95799994e+00 2.95700002e+00
    2.92300010e+00 0. 0. 0. 0. 0. 0. 0. 0. 0. 0. 1.09700000e+00
    1.70200002e+00 2. 2.00500011e+00 2.01600003e+00 2.02399993e+00
    2.02399993e+00 2.02399993e+00 2.02399993e+00 2.02399993e+00
    2.02399993e+00 2.00200009e+00 2. 2.01900005e+00 2.00600004e+00 2. 2.
    2.01300001e+00 2.50600004e+00 0. 0. 0. 0. 0. 0. 2.99799991e+00
    2.95799994e+00 2.95700002e+00 2.95700002e+00 2.92300010e+00 0. 0. 0.
    0. 0. 0. 0. 0. 0. 0. 1.51100004e+00 2.02800012e+00 2.00999999e+00
    2.01600003e+00 2.02399993e+00 2.02399993e+00 2.02399993e+00
    2.02399993e+00 2.02399993e+00 2.02399993e+00 2.02399993e+00
    2.01099992e+00 2.00999999e+00 2.02099991e+00 2.01399994e+00
    2.00999999e+00 2.00999999e+00 2.26200008e+00 2.74000001e+00 0. 0. 0.
    0. 2.99699998e+00 2.98200011e+00 2.98099995e+00 2.95700002e+00
    2.95700002e+00 2.94199991e+00 2.92000008e+00 0. 0. 0. 0. 0. 0. 0. 0.
    0. 1.02999997e+00 1.70500004e+00 2.03999996e+00 2.02900004e+00
    2.02399993e+00 2.02399993e+00 2.02399993e+00 2.02399993e+00
    2.02399993e+00 2.02399993e+00 2.02399993e+00 2.02399993e+00
    2.02399993e+00 2.02399993e+00 2.03099990e+00 2.03299999e+00
    2.03299999e+00 2.25999999e+00 2.76999998e+00 0. 0. 0. 0.
    2.99600005e+00 2.98000002e+00 2.95700002e+00 2.95700002e+00
    2.95700002e+00 2.94300008e+00 2.91899991e+00 2.91499996e+00 0. 0. 0.
    0. 0. 1.00999999e+00 1.08899999e+00 1.10000002e+00 1.10300004e+00
    1.72200000e+00 2.04600000e+00 2.04900002e+00 2.04099989e+00
    2.02800012e+00 2.02399993e+00 2.02399993e+00 2.02200007e+00
    2.01699996e+00 2.01699996e+00 2.01699996e+00 2.01699996e+00
    2.02300000e+00 2.02399993e+00 2.04399991e+00 2.04900002e+00
    2.05399990e+00 2.67499995e+00 0. 0. 0. 2.99499989e+00 2.98699999e+00
    2.98000002e+00 2.95700002e+00 2.95700002e+00 2.95700002e+00
    2.95700002e+00 2.91799998e+00 2.91499996e+00 2.91499996e+00 0. 0. 0.
    0. 0. 1.10699999e+00 1.87300003e+00 2.00500011e+00 2.01699996e+00
    2.01799989e+00 2.03299999e+00 2.04600000e+00 2.04900002e+00
    2.03900003e+00 2.02399993e+00 2.02200007e+00 2.01399994e+00
    1.99899995e+00 1.99399996e+00 1.99399996e+00 1.99399996e+00
    2.01600003e+00 2.02300000e+00 2.04399991e+00 2.05299997e+00
    2.23499990e+00 2.76099992e+00 0. 0. 0. 2.98499990e+00 2.95700002e+00
    2.95700002e+00 2.95700002e+00 2.95700002e+00 2.95700002e+00
    2.95700002e+00 2.91799998e+00 2.91499996e+00 2.91499996e+00 0. 0. 0.
    0. 0. 0. 1.61300004e+00 1.97599995e+00 1.99300003e+00 2.
    2.01399994e+00 2.03500009e+00 2.04500008e+00 2.03600001e+00
    2.02399993e+00 2.01699996e+00 2. 1.99600005e+00 1.97599995e+00
    1.97599995e+00 1.97599995e+00 1.99800003e+00 2.02099991e+00
    2.04399991e+00 2.19600010e+00 2.83699989e+00 0. 0. 0. 0.
    2.98499990e+00 2.95700002e+00 2.95700002e+00 2.95700002e+00
    2.95700002e+00 2.95700002e+00 2.95700002e+00 2.92499995e+00
    2.91599989e+00 2.91499996e+00 0. 0. 0. 0. 0. 1.45599997e+00
    1.92900002e+00 1.97899997e+00 1.99399996e+00 2.00200009e+00
    2.01500010e+00 2.02399993e+00 2.02399993e+00 2.02399993e+00
    2.02399993e+00 2.01699996e+00 2. 1.99600005e+00 1.97899997e+00
    1.97899997e+00 1.97899997e+00 2.00099993e+00 2.02099991e+00
    2.13599992e+00 2.83999991e+00 0. 0. 0. 0. 2.99799991e+00
    2.98099995e+00 2.95700002e+00 2.95700002e+00 2.95700002e+00
    2.95700002e+00 2.95700002e+00 2.95700002e+00 2.95700002e+00
    2.92499995e+00 2.92000008e+00 0. 0. 0. 0. 1.90400004e+00 0.
    1.58000004e+00 2. 2. 2.01600003e+00 2.02399993e+00 2.02399993e+00
    2.02399993e+00 2.02399993e+00 2.02399993e+00 2.01699996e+00
    2.00099993e+00 2. 2. 2. 2. 2.02200007e+00 2.02500010e+00
    2.86899996e+00 0. 0. 0. 0. 0. 2.98200011e+00 2.95700002e+00
    2.95700002e+00 2.95700002e+00 2.95700002e+00 2.95700002e+00
    2.95700002e+00 2.95700002e+00 2.95700002e+00 2.95700002e+00
    2.95700002e+00 0. 0. 0. 0. 0. 1.75000000e+00 2.00200009e+00 2. 2.
    2.01600003e+00 2.02399993e+00 2.02399993e+00 2.02399993e+00
    2.02399993e+00 2.02399993e+00 2.02399993e+00 2.01799989e+00 2. 2. 2.
    2. 2.02200007e+00 2.04500008e+00 2.87299991e+00 0. 0. 0. 0. 0.
    2.98200011e+00 2.95700002e+00 2.95700002e+00 2.95700002e+00
    2.95700002e+00 2.95700002e+00 2.95700002e+00 2.95700002e+00
    2.95700002e+00 2.95700002e+00 2.95700002e+00 0. 0. 0. 0.
    1.83399999e+00 2.02900004e+00 2.02600002e+00 2.00500011e+00 2.
    2.01600003e+00 2.02399993e+00 2.02399993e+00 2.02399993e+00
    2.02399993e+00 2.02399993e+00 2.02399993e+00 2.02399993e+00
    2.02200007e+00 2.02200007e+00 2.02300000e+00 2.04500008e+00
    2.93000007e+00 0. 0. 0. 0. 0. 0. 2.96000004e+00 2.95900011e+00
    2.95700002e+00 2.95700002e+00 2.95700002e+00 2.95700002e+00
    2.95700002e+00 2.95700002e+00 2.95700002e+00 2.95700002e+00
    2.95700002e+00 2.95700002e+00 0. 0. 0. 0. 2.04900002e+00
    2.04900002e+00 2.02800012e+00 2.02099991e+00 2.02099991e+00
    2.02300000e+00 2.03699994e+00 2.04600000e+00 2.03500009e+00
    2.02399993e+00 2.02399993e+00 2.02399993e+00 2.02399993e+00
    2.02399993e+00 2.02600002e+00 2.04600000e+00 2.04900002e+00 0. 0. 0.
    0. 0. 0. 2.97900009e+00 2.95700002e+00 2.95700002e+00 2.95700002e+00
    2.95700002e+00 2.95700002e+00 2.95700002e+00 2.95700002e+00
    2.95700002e+00 2.95700002e+00 2.95700002e+00 2.95700002e+00
    2.95700002e+00 0. 0. 0. 0. 2.06900001e+00 2.05100012e+00
    2.02800012e+00 2.02399993e+00 2.02399993e+00 2.03699994e+00
    2.04699993e+00 2.04900002e+00 2.04699993e+00 2.03600001e+00
    2.02399993e+00 2.02399993e+00 2.02399993e+00 2.02399993e+00
    2.02699995e+00 2.08299994e+00 2.86500001e+00 0. 0. 0. 0. 0. 0.
    2.97700000e+00 2.95700002e+00 2.94300008e+00 2.92300010e+00
    2.93300009e+00 2.95700002e+00 2.95700002e+00 2.95700002e+00
    2.95700002e+00 2.95700002e+00 2.95700002e+00 2.95700002e+00
    2.95700002e+00 0. 0. 0. 0. 2.07399988e+00 2.05100012e+00
    2.04399991e+00 2.02800012e+00 2.02399993e+00 2.03999996e+00
    2.04900002e+00 2.04900002e+00 2.04900002e+00 2.04600000e+00
    2.04299998e+00 2.04299998e+00 2.04299998e+00 2.04299998e+00
    2.04500008e+00 2.10899997e+00 0. 0. 0. 0. 0. 0. 0. 2.97700000e+00
    2.95700002e+00 2.93899989e+00 2.91499996e+00 2.92700005e+00
    2.95700002e+00 2.95700002e+00 2.95700002e+00 2.95700002e+00
    2.95700002e+00 2.95700002e+00 2.95700002e+00 2.95700002e+00 0. 0. 0.
    0. 2.05699992e+00 2.04999995e+00 2.04900002e+00 2.04299998e+00
    2.04099989e+00 2.04600000e+00 2.04900002e+00 2.04900002e+00
    2.04900002e+00 2.04900002e+00 2.04900002e+00 2.04900002e+00
    2.04900002e+00 2.04900002e+00 2.12199998e+00 2.77600002e+00 0. 0. 0.
    0. 0. 0. 2.98799992e+00 2.96300006e+00 2.95700002e+00 2.95099998e+00
    2.94300008e+00 2.94799995e+00 2.95700002e+00 2.95700002e+00
    2.95700002e+00 2.95700002e+00 2.95700002e+00 2.95700002e+00
    2.95700002e+00 2.95700002e+00 0. 0. 0. 0. 2.04900002e+00
    2.04900002e+00 2.04900002e+00 2.04900002e+00 2.04900002e+00
    2.04900002e+00 2.04900002e+00 2.04900002e+00 2.04200006e+00
    2.03399992e+00 2.03399992e+00 2.03800011e+00 2.04900002e+00
    2.04900002e+00 2.15300012e+00 0. 0. 0. 0. 0. 0. 0. 2.97399998e+00
    2.95700002e+00 2.95700002e+00 2.95700002e+00 2.95700002e+00
    2.95700002e+00 2.95700002e+00 2.95700002e+00 2.95700002e+00
    2.95700002e+00 2.95700002e+00 2.95700002e+00 2.95700002e+00
    2.95700002e+00 0. 0. 0. 0. 2.04900002e+00 2.04900002e+00
    2.04900002e+00 2.04900002e+00 2.04900002e+00 2.04900002e+00
    2.04900002e+00 2.04900002e+00 2.03699994e+00 2.02399993e+00
    2.02399993e+00 2.03099990e+00 2.04900002e+00 2.04900002e+00
    2.15100002e+00 0. 0. 0. 0. 0. 0. 0. 2.97399998e+00 2.95700002e+00
    2.95700002e+00 2.95700002e+00 2.95700002e+00 2.95700002e+00
    2.95700002e+00 2.95700002e+00 2.95700002e+00 2.95700002e+00
    2.95700002e+00 2.95700002e+00 2.95700002e+00 2.95700002e+00 0. 0. 0.
    0. 2.06100011e+00 2.06100011e+00 2.05100012e+00 2.04900002e+00
    2.04900002e+00 2.04900002e+00 2.04200006e+00 2.03699994e+00
    2.03099990e+00 2.02399993e+00 2.02399993e+00 2.03099990e+00
    2.16000009e+00 2.53900003e+00 2.59100008e+00 0. 0. 0. 0. 0. 0.
    2.98600006e+00 2.96600008e+00 2.95700002e+00 2.95700002e+00
    2.95700002e+00 2.95700002e+00 2.95700002e+00 2.95700002e+00
    2.95700002e+00 2.95700002e+00 2.95799994e+00 2.97799993e+00
    2.97799993e+00 2.96000004e+00 2.95700002e+00 0. 0. 0. 0.
    1.35099995e+00 1.35099995e+00 1.95000005e+00 2.05100012e+00
    2.04900002e+00 2.04900002e+00 2.03399992e+00 2.02399993e+00
    2.02399993e+00 2.02399993e+00 2.02399993e+00 2.16000009e+00
    2.36400008e+00 1.90900004e+00 1.90900004e+00 1.95599997e+00 0. 0. 0.
    0. 0. 2.97099996e+00 2.95700002e+00 2.95700002e+00 2.95700002e+00
    2.95700002e+00 2.95700002e+00 2.95700002e+00 2.95700002e+00
    2.95700002e+00 2.95700002e+00 2.95900011e+00 2.99900007e+00 0.
    2.96300006e+00 2.95700002e+00 0. 0.</data></Depth>
</opencv_storage>
