<?xml version="1.0"?>
<opencv_storage>
<Depth type_id="opencv-matrix">
  <rows>40</rows>
  <cols>40</cols>
  <dt>f</dt>
  <data>
    0. 0. 0. 0. 0. 0. 0. 0. 0. 0. 0. 0. 0. 0. 0. 0. 0. 0. 0. 0. 0. 0. 0.
    0. 0. 0. 0. 0. 0. 0. 0. 0. 0. 0. 0. 0. 0. 0. 0. 0. 0. 0. 0. 0. 0. 0.
    0. 0. 0. 0. 0. 0. 0. 0. 0. 0. 0. 0. 0. 0. 0. 0. 0. 0. 0. 0. 0. 0. 0.
    0. 0. 0. 0. 0. 0. 0. 0. 0. 0. 0. 0. 0. 0. 0. 0. 0. 1.38199997e+00
    1.38199997e+00 1.38199997e+00 1.38199997e+00 1.38199997e+00
    1.38199997e+00 1.65100002e+00 1.38199997e+00 1.38199997e+00
    1.75999999e+00 1.38199997e+00 1.38199997e+00 1.38199997e+00
    1.38199997e+00 1.83899999e+00 1.90199995e+00 1.94400001e+00
    1.94400001e+00 1.75800002e+00 1.75699997e+00 1.94099998e+00
    1.75600004e+00 1.94299996e+00 1.94099998e+00 1.94200003e+00
    1.94099998e+00 1.94099998e+00 1.41100001e+00 0. 0. 0. 0. 0. 0. 0. 0.
    0. 0. 0. 0. 1.38199997e+00 1.38800001e+00 1.94900000e+00
    1.95000005e+00 1.94900000e+00 1.95000005e+00 1.94900000e+00
    1.94900000e+00 1.94799995e+00 1.94799995e+00 1.94700003e+00
    1.94599998e+00 1.94700003e+00 1.94700003e+00 1.94700003e+00
    1.94500005e+00 1.94599998e+00 1.94400001e+00 1.94500005e+00
    1.94400001e+00 1.94599998e+00 1.94400001e+00 1.94599998e+00
    1.94500005e+00 1.94599998e+00 1.94400001e+00 1.94400001e+00
    1.38199997e+00 0. 0. 0. 0. 0. 0. 0. 0. 0. 0. 0. 0. 1.38199997e+00
    1.38399994e+00 1.95299995e+00 1.95299995e+00 1.95200002e+00
    1.95299995e+00 1.95099998e+00 1.95200002e+00 1.95000005e+00
    1.95099998e+00 1.95000005e+00 1.95000005e+00 1.94900000e+00
    1.94799995e+00 1.94799995e+00 1.94700003e+00 1.94700003e+00
    1.94700003e+00 1.94799995e+00 1.94700003e+00 1.94700003e+00
    1.94799995e+00 1.94700003e+00 1.94799995e+00 1.94700003e+00
    1.94700003e+00 1.94700003e+00 1.38199997e+00 0. 0. 0. 0. 0. 0. 0. 0.
    0. 0. 0. 0. 1.38199997e+00 1.38199997e+00 1.95500004e+00
    1.95500004e+00 1.95700002e+00 1.95599997e+00 1.95500004e+00
    1.95500004e+00 1.95400000e+00 1.95299995e+00 1.95299995e+00
    1.95400000e+00 1.95400000e+00 1.95200002e+00 1.95099998e+00
    1.95099998e+00 1.95099998e+00 1.95000005e+00 1.95099998e+00
    1.95000005e+00 1.95000005e+00 1.95099998e+00 1.95000005e+00
    1.95099998e+00 1.95000005e+00 1.94900000e+00 1.95000005e+00
    1.80299997e+00 0. 0. 0. 0. 0. 0. 0. 0. 0. 0. 0. 0. 1.38199997e+00
    1.38199997e+00 1.96000004e+00 1.95799994e+00 1.95899999e+00
    1.95899999e+00 1.95700002e+00 1.95799994e+00 1.95700002e+00
    1.95700002e+00 1.95599997e+00 1.95599997e+00 1.95500004e+00
    1.95500004e+00 1.95500004e+00 1.95500004e+00 1.95599997e+00
    1.95500004e+00 1.95500004e+00 1.95500004e+00 1.95400000e+00
    1.95200002e+00 1.95400000e+00 1.95400000e+00 1.95400000e+00
    1.95200002e+00 1.95200002e+00 1.47099996e+00 0. 0. 0. 0. 0. 0. 0. 0.
    0. 0. 0. 0. 1.38199997e+00 1.38199997e+00 1.96200001e+00
    1.96200001e+00 1.96200001e+00 1.96000004e+00 1.96099997e+00
    1.96099997e+00 1.96000004e+00 1.96000004e+00 1.95799994e+00
    1.96000004e+00 1.95899999e+00 1.95899999e+00 1.95799994e+00
    1.95899999e+00 1.95700002e+00 1.95799994e+00 1.95799994e+00
    1.95799994e+00 1.95700002e+00 1.95500004e+00 1.95799994e+00
    1.95799994e+00 1.95700002e+00 1.95500004e+00 1.95599997e+00
    1.38199997e+00 0. 0. 0. 0. 0. 0. 0. 0. 0. 0. 0. 0. 1.38199997e+00
    1.38199997e+00 1.96599996e+00 1.96500003e+00 1.96599996e+00
    1.96399999e+00 1.96500003e+00 1.96300006e+00 1.96300006e+00
    1.96300006e+00 1.96200001e+00 1.96200001e+00 1.96200001e+00
    1.96000004e+00 1.96200001e+00 1.96200001e+00 1.95899999e+00
    1.96000004e+00 1.96000004e+00 1.95899999e+00 1.96000004e+00
    1.96000004e+00 1.95899999e+00 1.96099997e+00 1.96000004e+00
    1.95899999e+00 1.96000004e+00 1.38199997e+00 0. 0. 0. 0. 0. 0. 0. 0.
    0. 0. 0. 0. 1.38199997e+00 1.38199997e+00 1.96899998e+00
    1.96899998e+00 1.96899998e+00 1.96700001e+00 1.96700001e+00
    1.96700001e+00 1.96700001e+00 1.96599996e+00 1.96500003e+00
    1.96700001e+00 1.96599996e+00 1.96599996e+00 1.96300006e+00
    1.96300006e+00 1.96300006e+00 1.96300006e+00 1.96399999e+00
    1.96399999e+00 1.96300006e+00 1.96300006e+00 1.96300006e+00
    1.96300006e+00 1.96300006e+00 1.96099997e+00 1.96200001e+00
    1.38199997e+00 0. 0. 0. 0. 0. 0. 0. 0. 0. 0. 0. 0. 1.38199997e+00
    1.38199997e+00 1.97200000e+00 1.97099996e+00 1.97099996e+00
    1.97099996e+00 1.97000003e+00 1.97000003e+00 1.97000003e+00
    1.96899998e+00 1.96899998e+00 1.97000003e+00 1.96899998e+00
    1.96800005e+00 1.96800005e+00 1.96800005e+00 1.96700001e+00
    1.96599996e+00 1.96700001e+00 1.96599996e+00 1.96599996e+00
    1.96599996e+00 1.96700001e+00 1.96599996e+00 1.96700001e+00
    1.96599996e+00 1.96399999e+00 1.38199997e+00 0. 0. 0. 0. 0. 0. 0. 0.
    0. 0. 0. 0. 1.38199997e+00 1.38199997e+00 1.97599995e+00
    1.97399998e+00 1.97500002e+00 1.97399998e+00 1.97399998e+00
    1.97399998e+00 1.97399998e+00 1.97099996e+00 1.97200000e+00
    1.97099996e+00 1.97200000e+00 1.97200000e+00 1.97099996e+00
    1.97099996e+00 1.97000003e+00 1.97099996e+00 1.97099996e+00
    1.97099996e+00 1.97099996e+00 1.97099996e+00 1.97099996e+00
    1.97000003e+00 1.97000003e+00 1.97000003e+00 1.96800005e+00
    1.38199997e+00 0. 0. 0. 0. 0. 0. 0. 0. 0. 0. 0. 0. 1.38199997e+00
    1.38199997e+00 1.95200002e+00 1.97800004e+00 1.97899997e+00
    1.97700000e+00 1.97700000e+00 1.97700000e+00 1.97700000e+00
    1.97500002e+00 1.97500002e+00 1.97500002e+00 1.97599995e+00
    1.97500002e+00 1.97399998e+00 1.97399998e+00 1.97399998e+00
    1.97399998e+00 1.97399998e+00 1.97300005e+00 1.97399998e+00
    1.97300005e+00 1.97399998e+00 1.97399998e+00 1.97300005e+00
    1.97200000e+00 1.97300005e+00 1.38199997e+00 0. 0. 0. 0. 0. 0. 0. 0.
    0. 0. 0. 0. 1.38199997e+00 1.38199997e+00 1.46800005e+00
    1.98099995e+00 1.98199999e+00 1.98099995e+00 1.98000002e+00
    1.98000002e+00 1.98099995e+00 1.98000002e+00 1.97899997e+00
    1.97899997e+00 1.97899997e+00 1.97899997e+00 1.97800004e+00
    1.97800004e+00 1.97599995e+00 1.97700000e+00 1.97700000e+00
    1.97700000e+00 1.97599995e+00 1.97700000e+00 1.97700000e+00
    1.97599995e+00 1.97700000e+00 1.97700000e+00 1.97500002e+00
    1.38199997e+00 0. 0. 0. 0. 0. 0. 0. 0. 0. 0. 0. 0. 1.38199997e+00
    1.38199997e+00 1.59300005e+00 1.98500001e+00 1.98599994e+00
    1.98399997e+00 1.98399997e+00 1.98399997e+00 1.98399997e+00
    1.98300004e+00 1.98300004e+00 1.98199999e+00 1.98199999e+00
    1.98199999e+00 1.98199999e+00 1.98199999e+00 1.98099995e+00
    1.98099995e+00 1.98199999e+00 1.98000002e+00 1.98000002e+00
    1.98000002e+00 1.98000002e+00 1.98000002e+00 1.97899997e+00
    1.98000002e+00 1.97899997e+00 1.38199997e+00 0. 0. 0. 0. 0. 0. 0. 0.
    0. 0. 0. 0. 1.38199997e+00 1.38199997e+00 1.38199997e+00
    1.99000001e+00 1.98800004e+00 1.98800004e+00 1.98800004e+00
    1.98800004e+00 1.98699999e+00 1.98599994e+00 1.98500001e+00
    1.98500001e+00 1.98500001e+00 1.98500001e+00 1.98500001e+00
    1.98500001e+00 1.98399997e+00 1.98399997e+00 1.98399997e+00
    1.98399997e+00 1.98300004e+00 1.98300004e+00 1.98399997e+00
    1.98399997e+00 1.98300004e+00 1.98300004e+00 1.98099995e+00
    1.38199997e+00 0. 0. 0. 0. 0. 0. 0. 0. 0. 0. 0. 0. 1.38199997e+00
    1.38199997e+00 1.38199997e+00 1.99199998e+00 1.99300003e+00
    1.99199998e+00 1.99199998e+00 1.99100006e+00 1.99100006e+00
    1.99100006e+00 1.99000001e+00 1.98899996e+00 1.98899996e+00
    1.98899996e+00 1.98800004e+00 1.98800004e+00 1.98800004e+00
    1.98699999e+00 1.98800004e+00 1.98800004e+00 1.98800004e+00
    1.98699999e+00 1.98800004e+00 1.98699999e+00 1.98599994e+00
    1.98599994e+00 1.98599994e+00 1.38199997e+00 0. 0. 0. 0. 0. 0. 0. 0.
    0. 0. 0. 0. 1.38199997e+00 1.38199997e+00 1.38199997e+00
    1.99500000e+00 1.99699998e+00 1.99600005e+00 1.99500000e+00
    1.99500000e+00 1.99500000e+00 1.99399996e+00 1.99399996e+00
    1.99199998e+00 1.99399996e+00 1.99199998e+00 1.99300003e+00
    1.99199998e+00 1.99100006e+00 1.99000001e+00 1.99100006e+00
    1.99100006e+00 1.99100006e+00 1.99100006e+00 1.99100006e+00
    1.99100006e+00 1.99100006e+00 1.99000001e+00 1.75300002e+00
    1.38199997e+00 0. 0. 0. 0. 0. 0. 0. 0. 0. 0. 0. 0. 1.38199997e+00
    1.38199997e+00 1.38199997e+00 2. 2. 2. 2. 1.99800003e+00
    1.99699998e+00 1.99800003e+00 1.99699998e+00 1.99600005e+00
    1.99699998e+00 1.99600005e+00 1.99600005e+00 1.99500000e+00
    1.99500000e+00 1.99600005e+00 1.99500000e+00 1.99500000e+00
    1.99399996e+00 1.99399996e+00 1.99399996e+00 1.99300003e+00
    1.99300003e+00 1.99300003e+00 1.68400002e+00 1.38199997e+00 0. 0. 0.
    0. 0. 0. 0. 0. 0. 0. 0. 0. 1.38199997e+00 1.38199997e+00
    1.38199997e+00 2.00399995e+00 2.00399995e+00 2.00300002e+00
    2.00200009e+00 2.00200009e+00 2.00099993e+00 2.00099993e+00
    2.00099993e+00 1.99899995e+00 2.00099993e+00 2. 2. 2. 2.
    1.99899995e+00 1.99899995e+00 1.99800003e+00 1.99699998e+00
    1.99699998e+00 1.99600005e+00 1.99600005e+00 1.99600005e+00
    1.99699998e+00 1.99399996e+00 1.38199997e+00 0. 0. 0. 0. 0. 0. 0. 0.
    0. 0. 0. 0. 1.38199997e+00 1.38199997e+00 1.38199997e+00
    2.00900006e+00 2.00999999e+00 2.00699997e+00 2.00600004e+00
    2.00600004e+00 2.00600004e+00 2.00500011e+00 2.00500011e+00
    2.00300002e+00 2.00300002e+00 2.00300002e+00 2.00300002e+00
    2.00300002e+00 2.00300002e+00 2.00200009e+00 2.00200009e+00
    2.00200009e+00 2.00099993e+00 2.00200009e+00 2.00200009e+00
    2.00099993e+00 2. 2.00200009e+00 2.00099993e+00 1.38199997e+00 0. 0.
    0. 0. 0. 0. 0. 0. 0. 0. 0. 0. 1.38199997e+00 1.38199997e+00
    1.38199997e+00 2.01200008e+00 2.01200008e+00 2.00999999e+00
    2.00999999e+00 2.00999999e+00 2.00900006e+00 2.00900006e+00
    2.00699997e+00 2.00699997e+00 2.00900006e+00 2.00900006e+00
    2.00699997e+00 2.00699997e+00 2.00399995e+00 2.00500011e+00
    2.00500011e+00 2.00399995e+00 2.00500011e+00 2.00399995e+00
    2.00500011e+00 2.00500011e+00 2.00399995e+00 2.00500011e+00
    1.69000006e+00 1.38199997e+00 0. 0. 0. 0. 0. 0. 0. 0. 0. 0. 0. 0.
    1.38199997e+00 1.38199997e+00 1.38199997e+00 2.01699996e+00
    2.01500010e+00 2.01399994e+00 2.01399994e+00 2.01300001e+00
    2.01200008e+00 2.01300001e+00 2.01200008e+00 2.01099992e+00
    2.01200008e+00 2.01099992e+00 2.00999999e+00 2.01099992e+00
    2.00999999e+00 2.00999999e+00 2.00999999e+00 2.00999999e+00
    2.00799990e+00 2.00900006e+00 2.00900006e+00 2.00600004e+00
    2.00699997e+00 2.00699997e+00 1.38199997e+00 1.38199997e+00 0. 0. 0.
    0. 0. 0. 0. 0. 0. 0. 0. 0. 2.07999992e+00 1.38199997e+00
    1.38199997e+00 2.01999998e+00 2.01900005e+00 2.01799989e+00
    2.01699996e+00 2.01600003e+00 2.01699996e+00 2.01699996e+00
    2.01699996e+00 2.01399994e+00 2.01600003e+00 2.01500010e+00
    2.01399994e+00 2.01399994e+00 2.01300001e+00 2.01399994e+00
    2.01300001e+00 2.01300001e+00 2.01300001e+00 2.01300001e+00
    2.01300001e+00 2.01200008e+00 2.01099992e+00 2.01099992e+00
    1.38199997e+00 1.38199997e+00 0. 0. 0. 0. 0. 0. 0. 0. 0. 0. 0. 0.
    2.24399996e+00 1.38199997e+00 1.38199997e+00 1.82400000e+00
    2.02300000e+00 2.02200007e+00 2.02200007e+00 2.02200007e+00
    2.01999998e+00 2.01999998e+00 2.01900005e+00 2.01900005e+00
    2.01900005e+00 2.01799989e+00 2.01799989e+00 2.01799989e+00
    2.01699996e+00 2.01799989e+00 2.01699996e+00 2.01699996e+00
    2.01399994e+00 2.01600003e+00 2.01600003e+00 2.01399994e+00
    2.01399994e+00 2.01399994e+00 1.38199997e+00 1.38199997e+00 0. 0. 0.
    0. 0. 0. 0. 0. 0. 0. 0. 0. 0. 1.38199997e+00 1.38199997e+00
    1.82599998e+00 2.02699995e+00 2.02699995e+00 2.02500010e+00
    2.02500010e+00 2.02500010e+00 2.02399993e+00 2.02399993e+00
    2.02300000e+00 2.02300000e+00 2.02300000e+00 2.02200007e+00
    2.02300000e+00 2.02099991e+00 2.02200007e+00 2.02099991e+00
    2.01999998e+00 2.01900005e+00 2.01900005e+00 2.01900005e+00
    2.01900005e+00 2.01799989e+00 2.01799989e+00 1.38199997e+00
    1.38199997e+00 0. 0. 0. 0. 0. 0. 0. 0. 0. 0. 0. 0. 0. 1.38199997e+00
    1.38199997e+00 1.38199997e+00 2.03099990e+00 2.02999997e+00
    2.02900004e+00 2.02900004e+00 2.02900004e+00 2.02900004e+00
    2.02800012e+00 2.02800012e+00 2.02900004e+00 2.02800012e+00
    2.02800012e+00 2.02600002e+00 2.02500010e+00 2.02500010e+00
    2.02500010e+00 2.02500010e+00 2.02399993e+00 2.02399993e+00
    2.02399993e+00 2.02300000e+00 2.02300000e+00 2.02099991e+00
    1.38199997e+00 1.38199997e+00 0. 0. 0. 0. 0. 0. 0. 0. 0. 0. 0. 0. 0.
    1.38199997e+00 1.38199997e+00 2.00500011e+00 2.03399992e+00
    2.03399992e+00 2.03299999e+00 2.03399992e+00 2.03099990e+00
    2.03200006e+00 2.03200006e+00 2.03099990e+00 2.03200006e+00
    2.02999997e+00 2.03099990e+00 2.02999997e+00 2.02900004e+00
    2.02999997e+00 2.02900004e+00 2.02900004e+00 2.02900004e+00
    2.02900004e+00 2.02800012e+00 2.02800012e+00 2.02600002e+00
    2.02600002e+00 1.38199997e+00 2.84999990e+00 0. 0. 0. 0. 0. 0. 0. 0.
    0. 0. 0. 0. 0. 1.38199997e+00 1.38199997e+00 1.83500004e+00
    2.03900003e+00 2.03800011e+00 2.03800011e+00 2.03800011e+00
    2.03699994e+00 2.03600001e+00 2.03600001e+00 2.03699994e+00
    2.03500009e+00 2.03500009e+00 2.03500009e+00 2.03399992e+00
    2.03299999e+00 2.03200006e+00 2.03299999e+00 2.03299999e+00
    2.03299999e+00 2.03200006e+00 2.03200006e+00 2.03200006e+00
    2.03200006e+00 2.02999997e+00 1.38199997e+00 2.94300008e+00 0. 0. 0.
    0. 0. 0. 0. 0. 0. 0. 0. 0. 0. 1.38199997e+00 1.38199997e+00
    1.38199997e+00 2.04399991e+00 2.04399991e+00 2.04299998e+00
    2.04299998e+00 2.04099989e+00 2.04299998e+00 2.04200006e+00
    2.04099989e+00 2.04099989e+00 2.03900003e+00 2.03900003e+00
    2.03900003e+00 2.03699994e+00 2.03800011e+00 2.03699994e+00
    2.03699994e+00 2.03699994e+00 2.03600001e+00 2.03600001e+00
    2.03600001e+00 2.03500009e+00 2.03500009e+00 1.38199997e+00
    2.81599998e+00 0. 0. 0. 0. 0. 0. 0. 0. 0. 0. 0. 0. 0. 0.
    1.38199997e+00 1.38199997e+00 2.04800010e+00 2.04800010e+00
    2.04600000e+00 2.04600000e+00 2.04500008e+00 2.04500008e+00
    2.04500008e+00 2.04399991e+00 2.04399991e+00 2.04399991e+00
    2.04399991e+00 2.04399991e+00 2.04099989e+00 2.04299998e+00
    2.04099989e+00 2.03999996e+00 2.03900003e+00 2.03999996e+00
    2.03900003e+00 2.03900003e+00 2.03900003e+00 2.03699994e+00
    1.38199997e+00 2.99900007e+00 0. 0. 0. 0. 0. 0. 0. 0. 0. 0. 0. 0. 0.
    0. 1.38199997e+00 1.62600005e+00 2.05299997e+00 2.05100012e+00
    2.05100012e+00 2.05100012e+00 2.04900002e+00 2.04999995e+00
    2.04900002e+00 2.04900002e+00 2.04800010e+00 2.04900002e+00
    2.04699993e+00 2.04800010e+00 2.04699993e+00 2.04699993e+00
    2.04500008e+00 2.04500008e+00 2.04500008e+00 2.04500008e+00
    2.04399991e+00 2.04299998e+00 2.04299998e+00 1.93200004e+00
    1.38199997e+00 2.96499991e+00 0. 0. 0. 0. 0. 0. 0. 0. 0. 0. 0. 0. 0.
    0. 1.38199997e+00 1.38199997e+00 2.05800009e+00 2.05699992e+00
    2.05699992e+00 2.05599999e+00 2.05500007e+00 2.05399990e+00
    2.05299997e+00 2.05299997e+00 2.05299997e+00 2.05299997e+00
    2.05200005e+00 2.04999995e+00 2.04999995e+00 2.04999995e+00
    2.04900002e+00 2.04999995e+00 2.04900002e+00 2.04900002e+00
    2.04900002e+00 2.04900002e+00 2.04900002e+00 2.04800010e+00
    1.38199997e+00 2.92499995e+00 0. 0. 0. 0. 0. 0. 0. 0. 0. 0. 0. 0.
    2.98200011e+00 2.97600007e+00 1.38199997e+00 1.38199997e+00
    2.06100011e+00 2.05999994e+00 2.05999994e+00 2.05999994e+00
    2.05800009e+00 2.05800009e+00 2.05699992e+00 2.05699992e+00
    2.05500007e+00 2.05599999e+00 2.05599999e+00 2.05399990e+00
    2.05399990e+00 2.05299997e+00 2.05399990e+00 2.05299997e+00
    2.05299997e+00 2.05200005e+00 2.05299997e+00 2.04900002e+00
    2.04999995e+00 2.07900000e+00 2.89299989e+00 2.89700007e+00 0. 0. 0.
    0. 0. 0. 0. 0. 0. 0. 0. 0. 2.95700002e+00 2.94600010e+00
    2.95000005e+00 2.94099998e+00 2.93499994e+00 2.48699999e+00
    2.42799997e+00 2.41599989e+00 2.41599989e+00 2.14700007e+00
    2.14599991e+00 2.08500004e+00 2.13299990e+00 2.14199996e+00
    2.14199996e+00 2.14000010e+00 2.14299989e+00 2.14700007e+00
    2.13800001e+00 2.17700005e+00 2.47000003e+00 2.90599990e+00
    2.88400006e+00 2.88299990e+00 2.88100004e+00 2.63400006e+00
    2.87100005e+00 2.86500001e+00 0. 0. 0. 0. 0. 0. 0. 0. 0. 0. 0. 0.
    2.90599990e+00 2.90599990e+00 2.90700006e+00 2.90700006e+00
    2.90599990e+00 2.49200010e+00 2.43400002e+00 2.41000009e+00
    2.41000009e+00 2.13199997e+00 2.13199997e+00 2.08800006e+00
    2.08800006e+00 2.12500000e+00 2.12700009e+00 2.12400007e+00
    2.11899996e+00 2.07399988e+00 2.12100005e+00 2.11700010e+00
    2.46099997e+00 2.45799994e+00 2.49699998e+00 2.44700003e+00
    2.42300010e+00 2.41300011e+00 2.43899989e+00 2.84200001e+00 0. 0. 0.
    0. 0. 0. 0. 0. 0. 0. 0. 0. 2.45199990e+00 2.47199988e+00
    2.47499990e+00 2.47600007e+00 2.47499990e+00 2.47399998e+00
    2.43600011e+00 2.41400003e+00 2.41899991e+00 2.11899996e+00
    2.11700010e+00 2.10700011e+00 2.11100006e+00 2.11199999e+00
    2.11100006e+00 2.11100006e+00 2.10700011e+00 2.10700011e+00
    2.10599995e+00 2.10500002e+00 2.44899988e+00 2.44499993e+00
    2.43899989e+00 2.42600012e+00 2.41100001e+00 2.40400004e+00
    2.40799999e+00 2.80699992e+00 0. 0. 0. 0. 0. 0. 0. 0. 0. 0. 0. 0. 0.
    0. 0. 0. 0. 0. 0. 0. 0. 0. 0. 0. 0. 0. 0. 0. 0. 0. 0. 0. 0. 0. 0. 0.
    0. 0. 0. 0. 0. 0. 0. 0. 0. 0. 0. 0. 0. 0. 0. 0. 0. 0. 0. 0. 0. 0. 0.
    0. 0. 0. 0. 0. 0. 0. 0. 0. 0. 0. 0. 0. 0. 0. 0. 0. 0. 0. 0. 0. 0. 0.
    0. 0. 0. 0. 0. 0. 0. 0. 0. 0. 0. 0. 0. 0. 0. 0. 0. 0. 0. 0. 0. 0. 0.
    0. 0. 0. 0. 0. 0. 0. 0. 0. 0. 0. 0. 0. 0. 0. 0. 0. 0. 0. 0. 0.</data></Depth>
</opencv_storage>
