<?xml version="1.0"?>
<opencv_storage>
<Depth type_id="opencv-matrix">
  <rows>40</rows>
  <cols>40</cols>
  <dt>f</dt>
  <data>
    0. 0. 0. 0. 0. 0. 0. 0. 1.36399996e+00 2.02800012e+00 2.01600003e+00
    2.01600003e+00 2.01300001e+00 2.01200008e+00 2.01200008e+00
    2.01099992e+00 2.01099992e+00 2.00799990e+00 2.00500011e+00
    2.00600004e+00 2.00500011e+00 1.99899995e+00 1.99699998e+00
    1.99699998e+00 1.99500000e+00 1.99699998e+00 2.00099993e+00
    2.00200009e+00 2.80100012e+00 0. 0. 0. 0. 0. 0. 0. 0. 0. 0. 0. 0. 0.
    0. 0. 0. 0. 0. 0. 2.05299997e+00 2.03399992e+00 2.01699996e+00
    2.01600003e+00 2.01399994e+00 2.01099992e+00 2.01099992e+00
    2.01099992e+00 2.01099992e+00 2.00500011e+00 2.00500011e+00
    2.00099993e+00 2. 1.99699998e+00 1.99500000e+00 1.99500000e+00
    1.99500000e+00 1.99500000e+00 1.99500000e+00 1.99500000e+00
    1.99000001e+00 1.99800003e+00 1.99699998e+00 1.99199998e+00
    1.99199998e+00 2.83899999e+00 0. 0. 0. 0. 0. 0. 0. 0. 0. 0. 0. 0. 0.
    2.10899997e+00 2.04699993e+00 2.03299999e+00 2.01699996e+00
    2.01600003e+00 2.01600003e+00 2.01399994e+00 2.01099992e+00
    2.01099992e+00 2.01099992e+00 2.00600004e+00 2.00500011e+00
    2.00300002e+00 1.99899995e+00 1.99600005e+00 1.99500000e+00
    1.99500000e+00 1.99500000e+00 1.99500000e+00 1.99199998e+00
    1.99000001e+00 1.99000001e+00 1.99500000e+00 1.99500000e+00
    1.99199998e+00 1.98599994e+00 1.98399997e+00 0. 0. 0. 0. 0. 0. 0. 0.
    0. 0. 0. 0. 0. 1.64400005e+00 1.71300006e+00 2.03099990e+00
    2.01600003e+00 2.01600003e+00 2.01099992e+00 2.01200008e+00
    2.01200008e+00 2.01099992e+00 2.01099992e+00 2.00500011e+00
    2.00500011e+00 2.00399995e+00 1.99899995e+00 1.99600005e+00
    1.99500000e+00 1.99500000e+00 1.99500000e+00 1.99500000e+00
    1.99399996e+00 1.99000001e+00 1.99000001e+00 1.99500000e+00
    1.99000001e+00 1.99000001e+00 1.99300003e+00 1.99199998e+00 0. 0. 0.
    0. 0. 0. 0. 0. 0. 0. 0. 0. 2.76099992e+00 1.63499999e+00
    1.66600001e+00 2.01900005e+00 2.01600003e+00 2.01600003e+00
    2.01300001e+00 2.01099992e+00 2.01099992e+00 2.01099992e+00
    2.00799990e+00 2.00500011e+00 2.00500011e+00 2.00200009e+00 2. 2.
    1.99500000e+00 1.99500000e+00 1.99500000e+00 1.99500000e+00
    1.99500000e+00 1.99000001e+00 1.99000001e+00 1.99500000e+00
    1.99199998e+00 1.99000001e+00 1.99100006e+00 1.99000001e+00 0. 0. 0.
    0. 0. 0. 0. 0. 0. 0. 0. 0. 0. 2.72900009e+00 1.66700006e+00
    2.02099991e+00 2.01600003e+00 2.01600003e+00 2.01500010e+00
    2.01200008e+00 2.01099992e+00 2.01099992e+00 2.00799990e+00
    2.00500011e+00 2.00500011e+00 2.00500011e+00 2.00200009e+00 2.
    1.99500000e+00 1.99500000e+00 1.99500000e+00 1.99500000e+00
    1.99500000e+00 1.99100006e+00 1.99000001e+00 1.99500000e+00
    1.99100006e+00 1.99000001e+00 1.99000001e+00 1.99000001e+00 0. 0. 0.
    0. 0. 0. 0. 0. 0. 0. 0. 0. 0. 0. 1.03900003e+00 2.01999998e+00
    2.01600003e+00 2.01600003e+00 2.01300001e+00 2.01099992e+00
    2.01099992e+00 2.01099992e+00 2.01099992e+00 2.00600004e+00
    2.00500011e+00 2.00300002e+00 2.00099993e+00 2. 1.99600005e+00
    1.99500000e+00 1.99699998e+00 1.99199998e+00 1.99000001e+00
    1.99100006e+00 1.99199998e+00 1.99500000e+00 1.99199998e+00
    1.99000001e+00 1.99000001e+00 1.99000001e+00 0. 0. 0. 0. 0. 0. 0. 0.
    0. 0. 0. 0. 0. 2.71499991e+00 1.36199999e+00 2.01799989e+00
    2.01600003e+00 2.01300001e+00 2.01099992e+00 2.01099992e+00
    2.01099992e+00 2.01099992e+00 2.01099992e+00 2.01099992e+00
    2.00500011e+00 2.00200009e+00 2. 2. 1.99699998e+00 1.99500000e+00
    1.99500000e+00 1.99500000e+00 1.99100006e+00 1.99000001e+00
    1.99000001e+00 1.99500000e+00 1.99199998e+00 1.99100006e+00
    1.99000001e+00 1.99000001e+00 0. 0. 0. 0. 0. 0. 0. 0. 0. 0. 0. 0. 0.
    1.59800005e+00 1.72899997e+00 2.01799989e+00 2.01600003e+00
    2.01600003e+00 2.01500010e+00 2.01300001e+00 2.01099992e+00
    2.01099992e+00 2.01099992e+00 2.00799990e+00 2.00200009e+00 2. 2. 2.
    1.99500000e+00 1.99500000e+00 1.99500000e+00 1.99500000e+00
    1.99399996e+00 1.99100006e+00 1.99000001e+00 1.99300003e+00
    1.99000001e+00 1.99000001e+00 1.98500001e+00 1.98399997e+00 0. 0. 0.
    0. 0. 0. 0. 0. 0. 0. 0. 0. 0. 0. 2.02900004e+00 2.01799989e+00
    2.01600003e+00 2.01600003e+00 2.01300001e+00 2.01099992e+00
    2.01099992e+00 2.01099992e+00 2.01099992e+00 2.00799990e+00
    2.00200009e+00 2. 2. 2. 1.99600005e+00 1.99699998e+00 1.99500000e+00
    1.99500000e+00 1.99500000e+00 1.99399996e+00 1.99000001e+00
    1.99199998e+00 1.99199998e+00 1.99100006e+00 1.98300004e+00
    2.93300009e+00 0. 0. 0. 0. 0. 0. 0. 0. 0. 0. 0. 0. 2.74499989e+00 0.
    1.72500002e+00 2.01699996e+00 2.01600003e+00 2.01600003e+00
    2.01099992e+00 2.01099992e+00 2.01099992e+00 2.01099992e+00
    2.00799990e+00 2.00600004e+00 2.00200009e+00 1.99699998e+00
    1.99500000e+00 1.99500000e+00 1.99500000e+00 2. 1.99699998e+00
    1.99500000e+00 1.99199998e+00 1.99100006e+00 1.99000001e+00
    1.99000001e+00 1.99100006e+00 1.99199998e+00 1.98699999e+00 0. 0. 0.
    0. 0. 0. 0. 0. 0. 0. 0. 0. 0. 2.72199988e+00 0. 2.01600003e+00
    2.01600003e+00 2.01600003e+00 2.01600003e+00 2.01099992e+00
    2.01099992e+00 2.01099992e+00 2.01099992e+00 2.00500011e+00
    2.00500011e+00 2.00399995e+00 1.99899995e+00 1.99800003e+00
    1.99500000e+00 1.99500000e+00 1.99500000e+00 1.99600005e+00
    1.99500000e+00 1.99000001e+00 1.99000001e+00 1.99000001e+00
    1.99000001e+00 1.99000001e+00 1.99000001e+00 1.99000001e+00 0. 0. 0.
    0. 0. 0. 0. 0. 0. 0. 0. 0. 0. 1.56900001e+00 0. 2.01900005e+00
    2.01600003e+00 2.01600003e+00 2.01300001e+00 2.01099992e+00
    2.01099992e+00 2.01099992e+00 2.01099992e+00 2.00699997e+00
    2.00500011e+00 2.00500011e+00 2.00500011e+00 2. 1.99699998e+00
    1.99500000e+00 1.99500000e+00 1.99500000e+00 1.99500000e+00
    1.99100006e+00 1.99000001e+00 1.99000001e+00 1.99100006e+00
    1.99000001e+00 1.98599994e+00 1.98099995e+00 0. 0. 0. 0. 0. 0. 0. 0.
    0. 0. 0. 0. 0. 2.77300000e+00 1.35099995e+00 2.01799989e+00
    2.01600003e+00 2.01500010e+00 2.01099992e+00 2.01099992e+00
    2.01099992e+00 2.01099992e+00 2.01099992e+00 2.00999999e+00
    2.00500011e+00 2.00500011e+00 2.00200009e+00 1.99699998e+00
    1.99500000e+00 1.99500000e+00 1.99500000e+00 1.99500000e+00
    1.99500000e+00 1.99199998e+00 1.99000001e+00 1.99000001e+00
    1.99300003e+00 1.99000001e+00 1.98599994e+00 1.97899997e+00 0. 0. 0.
    0. 0. 0. 0. 0. 0. 0. 0. 0. 0. 0. 1.34899998e+00 2.01799989e+00
    2.01699996e+00 2.01500010e+00 2.01099992e+00 2.01200008e+00
    2.01099992e+00 2.01099992e+00 2.00900006e+00 2.00799990e+00
    2.00300002e+00 2.00099993e+00 2. 2. 1.99500000e+00 1.99600005e+00
    1.99500000e+00 1.99500000e+00 1.99500000e+00 1.99199998e+00
    1.99000001e+00 1.98399997e+00 1.99000001e+00 1.99000001e+00
    1.98500001e+00 1.97899997e+00 0. 0. 0. 0. 0. 0. 0. 0. 0. 0. 0. 0. 0.
    0. 1.35899997e+00 2.01900005e+00 2.01799989e+00 2.01600003e+00
    2.01099992e+00 2.01300001e+00 2.01099992e+00 2.01099992e+00
    2.00500011e+00 2.00399995e+00 2. 1.99699998e+00 1.99800003e+00 2.
    1.99699998e+00 1.99500000e+00 1.99500000e+00 1.99500000e+00
    1.99500000e+00 1.99100006e+00 1.99000001e+00 1.99000001e+00
    1.99000001e+00 1.99000001e+00 1.98399997e+00 1.97899997e+00 0. 0. 0.
    0. 0. 0. 0. 0. 0. 0. 0. 0. 0. 0. 1.35099995e+00 2.02099991e+00
    2.01699996e+00 2.01300001e+00 2.01099992e+00 2.01099992e+00
    2.01099992e+00 2.01099992e+00 2.00200009e+00 2.00300002e+00
    2.00500011e+00 2. 1.99500000e+00 1.99500000e+00 2. 1.99699998e+00
    1.99500000e+00 1.99500000e+00 1.99000001e+00 1.99000001e+00
    1.99000001e+00 1.99000001e+00 1.99100006e+00 1.99000001e+00
    1.98800004e+00 1.98399997e+00 0. 0. 0. 0. 0. 0. 0. 0. 0. 0. 0. 0. 0.
    2.82699990e+00 1.74300003e+00 2.01799989e+00 2.01600003e+00
    2.01200008e+00 2.01099992e+00 2.01099992e+00 2.01099992e+00
    2.01099992e+00 2.00699997e+00 2.00500011e+00 2.00500011e+00
    2.00099993e+00 1.99699998e+00 1.99500000e+00 1.99500000e+00
    1.99600005e+00 1.99500000e+00 1.99500000e+00 1.99000001e+00
    1.99000001e+00 1.99000001e+00 1.99000001e+00 1.99000001e+00
    1.99000001e+00 1.97899997e+00 1.97899997e+00 0. 0. 0. 0. 0. 0. 0. 0.
    0. 0. 0. 0. 0. 1.50300002e+00 2.01600003e+00 2.01600003e+00
    2.01600003e+00 2.01200008e+00 2.01099992e+00 2.01099992e+00
    2.01099992e+00 2.01099992e+00 2.01099992e+00 2.00799990e+00
    2.00500011e+00 2. 1.99899995e+00 1.99800003e+00 1.99500000e+00
    1.99500000e+00 1.99500000e+00 1.99500000e+00 1.99300003e+00
    1.99500000e+00 1.99300003e+00 1.99000001e+00 1.99000001e+00
    1.98800004e+00 1.97899997e+00 0. 0. 0. 0. 0. 0. 0. 0. 0. 0. 0. 0. 0.
    0. 2.68799996e+00 2.01099992e+00 2.01600003e+00 2.01600003e+00
    2.01600003e+00 2.01099992e+00 2.01099992e+00 2.01099992e+00
    2.01099992e+00 2.01099992e+00 2.00799990e+00 2.00500011e+00
    2.00300002e+00 2. 2. 1.99500000e+00 1.99500000e+00 1.99500000e+00
    1.99500000e+00 1.99500000e+00 1.99199998e+00 1.99000001e+00
    1.99000001e+00 1.99000001e+00 1.98599994e+00 1.98800004e+00 0. 0. 0.
    0. 0. 0. 0. 0. 0. 0. 0. 0. 0. 0. 1.34200001e+00 2.01600003e+00
    2.01600003e+00 2.01600003e+00 2.01600003e+00 2.01399994e+00
    2.01200008e+00 2.01099992e+00 2.01099992e+00 2.00699997e+00
    2.00500011e+00 2.00500011e+00 2. 2. 2. 1.99600005e+00 1.99500000e+00
    1.99500000e+00 1.99500000e+00 1.99500000e+00 1.99199998e+00
    1.99000001e+00 1.99000001e+00 1.99000001e+00 1.98599994e+00
    1.98800004e+00 0. 0. 0. 0. 0. 0. 0. 0. 0. 0. 0. 0. 0. 0.
    1.74899995e+00 2.01600003e+00 2.01600003e+00 2.01600003e+00
    2.01300001e+00 2.01099992e+00 2.01099992e+00 2.01099992e+00
    2.00799990e+00 2.00500011e+00 2.00500011e+00 2.00500011e+00 2. 2. 2.
    1.99699998e+00 1.99800003e+00 1.99699998e+00 1.99500000e+00
    1.99500000e+00 1.99399996e+00 1.99000001e+00 1.99000001e+00
    1.99000001e+00 1.99000001e+00 1.99000001e+00 0. 0. 0. 0. 0. 0. 0. 0.
    0. 0. 0. 0. 0. 0. 1.60099995e+00 2.01399994e+00 2.01600003e+00
    2.01600003e+00 2.01300001e+00 2.01099992e+00 2.01099992e+00
    2.01099992e+00 2.01099992e+00 2.00500011e+00 2.00500011e+00
    2.00500011e+00 2.00300002e+00 2.00099993e+00 1.99800003e+00
    1.99600005e+00 1.99600005e+00 1.99600005e+00 1.99500000e+00
    1.99500000e+00 1.99100006e+00 1.99000001e+00 1.99000001e+00
    1.99000001e+00 1.98599994e+00 1.98399997e+00 0. 0. 0. 0. 0. 0. 0. 0.
    0. 0. 0. 0. 0. 0. 2.01600003e+00 2.01600003e+00 2.01600003e+00
    2.01600003e+00 2.01600003e+00 2.01399994e+00 2.01099992e+00
    2.01099992e+00 2.01099992e+00 2.00999999e+00 2.00699997e+00
    2.00500011e+00 2.00200009e+00 2. 1.99899995e+00 1.99500000e+00
    1.99500000e+00 1.99500000e+00 1.99500000e+00 1.99100006e+00
    1.99000001e+00 1.99000001e+00 1.98399997e+00 1.99000001e+00
    1.98800004e+00 1.98399997e+00 0. 0. 0. 0. 0. 0. 0. 0. 0. 0. 0. 0. 0.
    0. 2.02300000e+00 2.01600003e+00 2.01600003e+00 2.01600003e+00
    2.01600003e+00 2.01600003e+00 2.01099992e+00 2.01099992e+00
    2.01099992e+00 2.01099992e+00 2.00500011e+00 2.00200009e+00 2. 2.
    1.99699998e+00 1.99500000e+00 1.99699998e+00 1.99500000e+00
    1.99300003e+00 1.99000001e+00 1.99000001e+00 1.99000001e+00
    1.99000001e+00 1.99000001e+00 1.99000001e+00 1.99300003e+00 0. 0. 0.
    0. 0. 0. 0. 0. 0. 0. 0. 0. 0. 0. 2.03500009e+00 2.01600003e+00
    2.01600003e+00 2.01600003e+00 2.01600003e+00 2.01399994e+00
    2.01399994e+00 2.01200008e+00 2.01099992e+00 2.01099992e+00
    2.00699997e+00 2.00399995e+00 2. 1.99699998e+00 1.99500000e+00
    1.99500000e+00 1.99600005e+00 1.99600005e+00 1.99199998e+00
    1.99000001e+00 1.99000001e+00 1.99000001e+00 1.98399997e+00
    1.99000001e+00 1.98800004e+00 1.98300004e+00 0. 0. 0. 0. 0. 0. 0. 0.
    0. 0. 0. 0. 0. 0. 2.03099990e+00 2.01900005e+00 2.01600003e+00
    2.01600003e+00 2.01600003e+00 2.01500010e+00 2.01500010e+00
    2.01300001e+00 2.01099992e+00 2.01099992e+00 2.01099992e+00
    2.00699997e+00 2.00399995e+00 1.99899995e+00 1.99500000e+00
    1.99500000e+00 1.99500000e+00 1.99500000e+00 1.99399996e+00
    1.99000001e+00 1.99000001e+00 1.99000001e+00 1.99000001e+00
    1.99300003e+00 1.98899996e+00 1.98599994e+00 0. 0. 0. 0. 0. 0. 0. 0.
    0. 0. 0. 0. 0. 0. 2.02399993e+00 2.01600003e+00 2.01600003e+00
    2.01600003e+00 2.01600003e+00 2.01600003e+00 2.01399994e+00
    2.01099992e+00 2.01099992e+00 2.01099992e+00 2.01099992e+00
    2.00900006e+00 2.00500011e+00 2.00300002e+00 1.99600005e+00
    1.99500000e+00 1.99500000e+00 1.99500000e+00 1.99199998e+00
    1.99000001e+00 1.99000001e+00 1.99000001e+00 1.99000001e+00
    1.99300003e+00 1.99000001e+00 1.99000001e+00 0. 0. 0. 0. 0. 0. 0. 0.
    0. 0. 0. 0. 0. 0. 2.01799989e+00 2.01600003e+00 2.01600003e+00
    2.01200008e+00 2.01200008e+00 2.01300001e+00 2.01099992e+00
    2.01099992e+00 2.01099992e+00 2.01099992e+00 2.00500011e+00
    2.00300002e+00 2.00200009e+00 2.00099993e+00 1.99699998e+00
    1.99500000e+00 1.99500000e+00 1.99500000e+00 1.99000001e+00
    1.99000001e+00 1.99000001e+00 1.99000001e+00 1.99000001e+00
    1.99100006e+00 1.98399997e+00 1.98099995e+00 0. 0. 0. 0. 0. 0. 0. 0.
    0. 0. 0. 0. 0. 0. 2.02099991e+00 2.01699996e+00 2.01600003e+00
    2.01300001e+00 2.01300001e+00 2.01099992e+00 2.01099992e+00
    2.01099992e+00 2.01099992e+00 2.00600004e+00 2.00500011e+00 2. 2. 2.
    2. 1.99500000e+00 1.99500000e+00 1.99199998e+00 1.99000001e+00
    1.99000001e+00 1.99000001e+00 1.99000001e+00 1.99000001e+00
    1.99100006e+00 1.97399998e+00 1.96399999e+00 0. 0. 0. 0. 0. 0. 0. 0.
    0. 0. 0. 0. 0. 0. 2.02200007e+00 2.01600003e+00 2.01399994e+00
    2.01300001e+00 2.01200008e+00 2.01099992e+00 2.01300001e+00
    2.01099992e+00 2.00900006e+00 2.00500011e+00 2.00200009e+00
    2.00300002e+00 2. 1.99500000e+00 1.99500000e+00 1.99500000e+00
    1.99500000e+00 1.99000001e+00 1.99000001e+00 1.99000001e+00
    1.99000001e+00 1.99000001e+00 1.99000001e+00 1.98599994e+00
    1.98099995e+00 2.67899990e+00 0. 0. 0. 0. 0. 0. 0. 0. 0. 0. 0. 0. 0.
    0. 2.01799989e+00 2.01600003e+00 2.01099992e+00 2.01099992e+00
    2.01099992e+00 2.01099992e+00 2.01099992e+00 2.01099992e+00
    2.00500011e+00 2.00200009e+00 2. 2.00300002e+00 2.00399995e+00
    1.99800003e+00 1.99500000e+00 1.99500000e+00 1.99500000e+00
    1.99300003e+00 1.99000001e+00 1.99000001e+00 1.99000001e+00
    1.99000001e+00 1.99000001e+00 1.99000001e+00 1.99000001e+00
    2.36899996e+00 0. 0. 0. 0. 0. 0. 0. 0. 0. 0. 0. 0. 0. 0.
    2.01799989e+00 2.01300001e+00 2.01099992e+00 2.01099992e+00
    2.01099992e+00 2.01099992e+00 2.01099992e+00 2.00699997e+00
    2.00500011e+00 2.00699997e+00 2.00200009e+00 2. 2.00099993e+00
    2.00099993e+00 1.99899995e+00 1.99500000e+00 1.99199998e+00
    1.99000001e+00 1.99000001e+00 1.99000001e+00 1.99000001e+00
    1.99000001e+00 1.98599994e+00 1.98599994e+00 1.98300004e+00 0. 0. 0.
    0. 0. 0. 0. 0. 0. 0. 0. 0. 0. 0. 0. 2.01600003e+00 2.01600003e+00
    2.01399994e+00 2.01300001e+00 2.01099992e+00 2.01099992e+00
    2.00500011e+00 2.00500011e+00 2.00500011e+00 2.00200009e+00 2. 2. 2.
    1.99800003e+00 1.99500000e+00 1.99500000e+00 1.99199998e+00
    1.99000001e+00 1.99000001e+00 1.99000001e+00 1.99000001e+00
    1.99000001e+00 1.98399997e+00 1.98599994e+00 1.98199999e+00 0. 0. 0.
    0. 0. 0. 0. 0. 0. 0. 0. 0. 0. 0. 0. 0. 1.11899996e+00 1.11699998e+00
    1.11699998e+00 1.11699998e+00 2.01399994e+00 2.00200009e+00 2.
    2.00500011e+00 2.00200009e+00 1.99699998e+00 1.99500000e+00
    1.99600005e+00 1.99500000e+00 1.99500000e+00 1.99199998e+00
    1.99000001e+00 1.99000001e+00 1.99000001e+00 1.99000001e+00
    1.99000001e+00 1.99000001e+00 1.99000001e+00 1.98599994e+00
    1.98399997e+00 0. 0. 0. 0. 0. 0. 0. 0. 0. 0. 0. 0. 0. 0. 0. 0. 0. 0.
    0. 0. 0. 1.58500004e+00 2.00699997e+00 2.01200008e+00 2.01200008e+00
    1.99500000e+00 1.99500000e+00 1.99500000e+00 1.99199998e+00
    1.99699998e+00 1.99600005e+00 1.99199998e+00 1.99000001e+00
    1.99000001e+00 1.99000001e+00 1.99000001e+00 1.99000001e+00
    1.99000001e+00 1.97800004e+00 1.97700000e+00 2.59699988e+00 0. 0. 0.
    0. 0. 0. 0. 0. 0. 0. 0. 0. 0. 0. 0. 0. 0. 0. 0. 0. 0. 1.81900001e+00
    2.02500010e+00 2.02500010e+00 1.11000001e+00 1.10899997e+00 0.
    2.06500006e+00 2.02800012e+00 1.99699998e+00 1.99199998e+00
    1.98699999e+00 1.97899997e+00 1.98800004e+00 1.99000001e+00
    1.99000001e+00 1.99199998e+00 1.98699999e+00 1.17700005e+00 0. 0. 0.
    0. 0. 0. 0. 0. 0. 0. 0. 0. 0. 0. 0. 0. 0. 0. 0. 0. 0. 0.
    1.85899997e+00 2.01799989e+00 2.01600003e+00 2.07999992e+00
    2.07699990e+00 1.63600004e+00 1.89699996e+00 1.08399999e+00
    2.10299993e+00 2.10299993e+00 2.06900001e+00 1.49899995e+00
    1.09099996e+00 1.99000001e+00 1.09099996e+00 1.09399998e+00 0. 0. 0.
    1.29700005e+00 1.68799996e+00 0. 0. 0. 0. 0. 0. 0. 0. 0. 0. 0. 0. 0.
    0. 0. 0. 0. 1.40499997e+00 2.07100010e+00 2.05900002e+00
    2.04900002e+00 2.09100008e+00 2.07999992e+00 2.07800007e+00
    2.08400011e+00 2.08800006e+00 2.09999990e+00 2.10299993e+00
    2.10200000e+00 1.83700001e+00 1.07299995e+00 0. 1.08500004e+00 0. 0.
    0. 0. 0. 0. 0. 0. 0. 0. 0. 0. 0. 0. 0. 0. 0. 0. 0. 0. 0. 0. 0. 0.
    1.39499998e+00 2.05699992e+00 2.04900002e+00 2.04299998e+00
    2.06399989e+00 2.06399989e+00 2.06699991e+00 2.06900001e+00
    2.06599998e+00 2.06699991e+00 2.08899999e+00 2.08299994e+00
    2.08999991e+00 1.26499999e+00 0. 0. 0. 0. 0. 0. 0. 0. 0. 0. 0. 0. 0.
    0. 0.</data></Depth>
</opencv_storage>
