<?xml version="1.0"?>
<opencv_storage>
<Depth type_id="opencv-matrix">
  <rows>40</rows>
  <cols>40</cols>
  <dt>f</dt>
  <data>
    0. 0. 0. 0. 0. 0. 0. 1.22399998e+00 1.22399998e+00 1.22399998e+00
    1.22399998e+00 1.22399998e+00 1.22399998e+00 1.22399998e+00
    1.22399998e+00 1.22399998e+00 1.31299996e+00 2.06999993e+00
    2.06800008e+00 1.39600003e+00 2.07399988e+00 2.06399989e+00
    2.05999994e+00 2.05699992e+00 2.05299997e+00 2.03399992e+00
    2.05299997e+00 2.04500008e+00 2.24499989e+00 2.29099989e+00
    2.28099990e+00 1.22399998e+00 1.22399998e+00 0. 0. 0. 0. 0. 0. 0. 0.
    0. 0. 0. 0. 0. 0. 1.22399998e+00 1.22399998e+00 1.22399998e+00
    1.22399998e+00 1.22399998e+00 1.22399998e+00 1.22399998e+00
    1.22399998e+00 1.22399998e+00 1.22399998e+00 2.09699988e+00
    2.09599996e+00 1.22399998e+00 2.09299994e+00 2.08699989e+00
    2.08299994e+00 2.07900000e+00 2.08100009e+00 2.03299999e+00
    2.07800007e+00 2.07599998e+00 2.29800010e+00 1.90300000e+00
    1.22399998e+00 1.22399998e+00 1.22399998e+00 0. 0. 0. 0. 0. 0. 0. 0.
    0. 0. 0. 0. 0. 0. 1.22399998e+00 1.22399998e+00 1.22399998e+00
    1.22399998e+00 1.22399998e+00 1.22399998e+00 1.22399998e+00
    1.22399998e+00 1.22399998e+00 1.22399998e+00 2.00200009e+00
    1.58099997e+00 1.22399998e+00 2.11500001e+00 2.10800004e+00
    2.10800004e+00 2.10500002e+00 2.03299999e+00 2.02900004e+00
    2.10400009e+00 2.09800005e+00 1.39100003e+00 1.22399998e+00
    1.22399998e+00 1.22399998e+00 1.22399998e+00 0. 0. 0. 0. 0. 0. 0. 0.
    0. 0. 0. 0. 0. 0. 1.22399998e+00 1.22399998e+00 1.22399998e+00
    1.22399998e+00 1.22399998e+00 1.22399998e+00 1.22399998e+00
    1.22399998e+00 1.22399998e+00 1.22399998e+00 1.22399998e+00
    1.22399998e+00 1.22399998e+00 1.23099995e+00 2.14800000e+00
    2.13499999e+00 2.14000010e+00 2.02900004e+00 2.02200007e+00
    2.12700009e+00 2.11500001e+00 1.22399998e+00 1.22399998e+00
    1.22399998e+00 1.22399998e+00 1.22399998e+00 0. 0. 0. 0. 0. 0. 0. 0.
    0. 0. 0. 0. 0. 0. 1.22399998e+00 1.22399998e+00 1.22399998e+00
    1.46599996e+00 2.01999998e+00 2.01799989e+00 2.01799989e+00
    2.01600003e+00 2.01600003e+00 2.01500010e+00 2.01399994e+00
    2.01399994e+00 2.01399994e+00 1.62500000e+00 2.33599997e+00
    2.19199991e+00 2.01099992e+00 2.01699996e+00 2.01900005e+00
    2.35299993e+00 2.35599995e+00 1.22399998e+00 1.22399998e+00
    1.22399998e+00 1.22399998e+00 1.22399998e+00 0. 0. 0. 0. 0. 0. 0. 0.
    0. 0. 0. 0. 0. 0. 1.22399998e+00 1.22399998e+00 1.22399998e+00
    2.01799989e+00 2.01799989e+00 2.01799989e+00 2.01600003e+00
    2.01600003e+00 2.01600003e+00 2.01500010e+00 2.01600003e+00
    2.01399994e+00 2.01300001e+00 2.01300001e+00 2.01099992e+00
    2.01099992e+00 2.00900006e+00 2.00699997e+00 2.00799990e+00
    2.00699997e+00 2.00699997e+00 2.00500011e+00 2.00399995e+00
    2.00200009e+00 1.99699998e+00 1.97599995e+00 0. 0. 0. 0. 0. 0. 0. 0.
    0. 0. 0. 0. 0. 0. 1.22399998e+00 1.22399998e+00 1.22399998e+00
    2.01799989e+00 2.01799989e+00 2.01799989e+00 2.01600003e+00
    2.01300001e+00 2.01600003e+00 2.01399994e+00 2.01399994e+00
    2.01300001e+00 2.01200008e+00 2.01200008e+00 2.01099992e+00
    2.00900006e+00 2.00699997e+00 2.00699997e+00 2.00600004e+00
    2.00699997e+00 2.00699997e+00 2.00699997e+00 2.00399995e+00
    2.00500011e+00 2.00399995e+00 2.00200009e+00 0. 0. 0. 0. 0. 0. 0. 0.
    0. 0. 0. 0. 0. 0. 1.22399998e+00 1.22399998e+00 1.33500004e+00
    2.01799989e+00 2.01600003e+00 2.01600003e+00 2.01399994e+00
    2.01300001e+00 2.01399994e+00 2.01300001e+00 2.01300001e+00
    2.01300001e+00 2.00999999e+00 2.01099992e+00 2.00900006e+00
    2.00900006e+00 2.00699997e+00 2.00699997e+00 2.00600004e+00
    2.00699997e+00 2.00699997e+00 2.00699997e+00 2.00399995e+00
    2.00200009e+00 2.00200009e+00 2.00200009e+00 0. 0. 0. 0. 0. 0. 0. 0.
    0. 0. 0. 0. 0. 0. 1.22399998e+00 1.22399998e+00 1.33599997e+00
    2.01799989e+00 2.01600003e+00 2.01399994e+00 2.01399994e+00
    2.01300001e+00 2.01399994e+00 2.01399994e+00 2.01300001e+00
    2.01099992e+00 2.01099992e+00 2.00699997e+00 2.00799990e+00
    2.00699997e+00 2.00500011e+00 2.00600004e+00 2.00500011e+00
    2.00600004e+00 2.00500011e+00 2.00399995e+00 2.00200009e+00 2. 2. 2.
    0. 0. 0. 0. 0. 0. 0. 0. 0. 0. 0. 0. 0. 0. 1.22399998e+00
    1.22399998e+00 1.87800002e+00 2.01699996e+00 2.01399994e+00
    2.01399994e+00 2.01300001e+00 2.01300001e+00 2.01300001e+00
    2.01300001e+00 2.01200008e+00 2.00900006e+00 2.00900006e+00
    2.00699997e+00 2.00699997e+00 2.00500011e+00 2.00500011e+00
    2.00500011e+00 2.00399995e+00 2.00399995e+00 2.00399995e+00
    2.00200009e+00 2. 2. 2. 1.99899995e+00 0. 0. 0. 0. 0. 0. 0. 0. 0. 0.
    0. 0. 0. 0. 1.22399998e+00 1.22399998e+00 1.33500004e+00
    2.01600003e+00 2.01500010e+00 2.01300001e+00 2.01300001e+00
    2.01099992e+00 2.01300001e+00 2.01300001e+00 2.01099992e+00
    2.00900006e+00 2.00900006e+00 2.00699997e+00 2.00699997e+00
    2.00600004e+00 2.00500011e+00 2.00399995e+00 2.00300002e+00
    2.00399995e+00 2.00200009e+00 2.00200009e+00 2. 2. 2. 1.99899995e+00
    0. 0. 0. 0. 0. 0. 0. 0. 0. 0. 0. 0. 0. 0. 1.22399998e+00
    1.22399998e+00 1.81599998e+00 2.01399994e+00 2.01300001e+00
    2.01300001e+00 2.01099992e+00 2.01099992e+00 2.01300001e+00
    2.01300001e+00 2.00900006e+00 2.00799990e+00 2.00699997e+00
    2.00699997e+00 2.00500011e+00 2.00500011e+00 2.00399995e+00
    2.00300002e+00 2.00200009e+00 2.00200009e+00 2.00200009e+00 2. 2.
    1.99899995e+00 1.99699998e+00 1.99699998e+00 0. 0. 0. 0. 0. 0. 0. 0.
    0. 0. 0. 0. 0. 0. 1.22399998e+00 1.22399998e+00 1.33500004e+00
    2.01300001e+00 2.01300001e+00 2.01099992e+00 2.01099992e+00
    2.01099992e+00 2.01099992e+00 2.00900006e+00 2.00900006e+00
    2.00699997e+00 2.00699997e+00 2.00500011e+00 2.00399995e+00
    2.00399995e+00 2.00099993e+00 2.00200009e+00 2.00099993e+00 2. 2. 2.
    1.99899995e+00 1.99699998e+00 1.99500000e+00 1.99600005e+00 0. 0. 0.
    0. 0. 0. 0. 0. 0. 0. 0. 0. 0. 0. 1.22399998e+00 1.22399998e+00
    2.01500010e+00 2.01300001e+00 2.01300001e+00 2.01099992e+00
    2.00999999e+00 2.00900006e+00 2.00900006e+00 2.00699997e+00
    2.00699997e+00 2.00699997e+00 2.00600004e+00 2.00500011e+00
    2.00500011e+00 2.00300002e+00 2.00099993e+00 2.00200009e+00
    2.00099993e+00 2. 2. 1.99899995e+00 1.99800003e+00 1.99699998e+00
    1.99500000e+00 1.99399996e+00 0. 0. 0. 0. 0. 0. 0. 0. 0. 0. 0. 0. 0.
    0. 1.22399998e+00 1.22399998e+00 2.01300001e+00 2.01099992e+00
    2.01099992e+00 2.01099992e+00 2.00900006e+00 2.00699997e+00
    2.00900006e+00 2.00799990e+00 2.00500011e+00 2.00500011e+00
    2.00500011e+00 2.00200009e+00 2.00300002e+00 2. 2. 2. 2. 2. 2.
    1.99800003e+00 1.99500000e+00 1.99699998e+00 1.99300003e+00
    1.50600004e+00 0. 0. 0. 0. 0. 0. 0. 0. 0. 0. 0. 0. 0. 0.
    1.22399998e+00 1.22399998e+00 2.01399994e+00 2.01300001e+00
    2.01099992e+00 2.01099992e+00 2.00900006e+00 2.00900006e+00
    2.00900006e+00 2.00699997e+00 2.00699997e+00 2.00500011e+00
    2.00399995e+00 2.00399995e+00 2.00200009e+00 2. 2. 2. 1.99899995e+00
    2. 1.99899995e+00 1.99699998e+00 1.99500000e+00 1.99500000e+00
    1.99300003e+00 1.50699997e+00 0. 0. 0. 0. 0. 0. 0. 0. 0. 0. 0. 0. 0.
    0. 1.22399998e+00 1.22399998e+00 2.01300001e+00 2.01099992e+00
    2.01099992e+00 2.00900006e+00 2.00900006e+00 2.00699997e+00
    2.00699997e+00 2.00699997e+00 2.00500011e+00 2.00500011e+00
    2.00399995e+00 2.00200009e+00 2. 2. 1.99800003e+00 2. 1.99800003e+00
    1.99800003e+00 1.99800003e+00 1.99500000e+00 1.99500000e+00
    1.99399996e+00 1.99300003e+00 1.50600004e+00 0. 0. 0. 0. 0. 0. 0. 0.
    0. 0. 0. 0. 0. 0. 1.22399998e+00 1.76300001e+00 2.01099992e+00
    2.01099992e+00 2.00900006e+00 2.00699997e+00 2.00900006e+00
    2.00699997e+00 2.00699997e+00 2.00500011e+00 2.00399995e+00
    2.00399995e+00 2.00300002e+00 2.00200009e+00 2. 2. 1.99899995e+00
    1.99800003e+00 1.99800003e+00 1.99800003e+00 1.99699998e+00
    1.99500000e+00 1.99300003e+00 1.99300003e+00 1.99300003e+00
    1.71899998e+00 0. 0. 0. 0. 0. 0. 0. 0. 0. 0. 0. 0. 0. 0.
    1.22399998e+00 1.76100004e+00 2.01099992e+00 2.01099992e+00
    2.00900006e+00 2.00500011e+00 2.00699997e+00 2.00500011e+00
    2.00500011e+00 2.00500011e+00 2.00399995e+00 2.00399995e+00
    2.00200009e+00 2. 2. 2. 1.99699998e+00 1.99800003e+00 1.99699998e+00
    1.99699998e+00 1.99500000e+00 1.99500000e+00 1.99500000e+00
    1.99300003e+00 1.99100006e+00 1.50500000e+00 0. 0. 0. 0. 0. 0. 0. 0.
    0. 0. 0. 0. 0. 0. 1.22399998e+00 1.22399998e+00 2.01099992e+00
    2.00900006e+00 2.00799990e+00 2.00500011e+00 2.00600004e+00
    2.00500011e+00 2.00500011e+00 2.00500011e+00 2.00300002e+00
    2.00399995e+00 2. 2. 2. 1.99800003e+00 1.99699998e+00 1.99800003e+00
    1.99600005e+00 1.99699998e+00 1.99500000e+00 1.99500000e+00
    1.99300003e+00 1.99100006e+00 1.99100006e+00 1.22399998e+00 0. 0. 0.
    0. 0. 0. 0. 0. 0. 0. 0. 0. 0. 0. 1.22399998e+00 1.76300001e+00
    2.01099992e+00 2.00900006e+00 2.00500011e+00 2.00500011e+00
    2.00500011e+00 2.00399995e+00 2.00500011e+00 2.00399995e+00
    2.00200009e+00 2.00200009e+00 2. 2. 1.99800003e+00 1.99699998e+00
    1.99800003e+00 1.99699998e+00 1.99600005e+00 1.99500000e+00
    1.99500000e+00 1.99300003e+00 1.99199998e+00 1.99100006e+00
    1.98800004e+00 1.22399998e+00 0. 0. 0. 0. 0. 0. 0. 0. 0. 0. 0. 0. 0.
    0. 1.22399998e+00 1.76300001e+00 2.00900006e+00 2.00699997e+00
    2.00500011e+00 2.00500011e+00 2.00399995e+00 2.00399995e+00
    2.00399995e+00 2.00099993e+00 2.00200009e+00 2. 2. 1.99800003e+00
    1.99699998e+00 1.99699998e+00 1.99500000e+00 1.99300003e+00
    1.99500000e+00 1.99500000e+00 1.99300003e+00 1.99300003e+00
    1.99100006e+00 1.98899996e+00 1.99000001e+00 1.22399998e+00 0. 0. 0.
    0. 0. 0. 0. 0. 0. 0. 0. 0. 0. 0. 1.22399998e+00 1.94200003e+00
    2.00600004e+00 2.00699997e+00 2.00500011e+00 2.00500011e+00
    2.00399995e+00 2.00200009e+00 2.00399995e+00 2.00200009e+00 2. 2.
    1.99899995e+00 1.99699998e+00 1.99500000e+00 1.99500000e+00
    1.99500000e+00 1.99300003e+00 1.99300003e+00 1.99300003e+00
    1.99199998e+00 1.99000001e+00 1.99000001e+00 1.98800004e+00
    1.98699999e+00 1.22399998e+00 0. 0. 0. 0. 0. 0. 0. 0. 0. 0. 0. 0. 0.
    0. 1.22399998e+00 2.00900006e+00 2.00500011e+00 2.00500011e+00
    2.00500011e+00 2.00399995e+00 2.00399995e+00 2.00200009e+00
    2.00200009e+00 2. 2. 1.99800003e+00 1.99800003e+00 1.99500000e+00
    1.99500000e+00 1.99500000e+00 1.99500000e+00 1.99300003e+00
    1.99300003e+00 1.99300003e+00 1.99000001e+00 1.99000001e+00
    1.98800004e+00 1.98800004e+00 1.98599994e+00 1.22399998e+00 0. 0. 0.
    0. 0. 0. 0. 0. 0. 0. 0. 0. 0. 0. 1.40199995e+00 2.00999999e+00
    2.00699997e+00 2.00500011e+00 2.00399995e+00 2.00399995e+00
    2.00300002e+00 2.00200009e+00 2. 2. 2. 1.99800003e+00 1.99600005e+00
    1.99600005e+00 1.99300003e+00 1.99300003e+00 1.99300003e+00
    1.99100006e+00 1.99100006e+00 1.99100006e+00 1.99000001e+00
    1.98800004e+00 1.98800004e+00 1.98800004e+00 1.98599994e+00
    1.22399998e+00 0. 0. 0. 0. 0. 0. 0. 0. 0. 0. 0. 0. 0. 0.
    1.22399998e+00 2.00600004e+00 2.00500011e+00 2.00500011e+00
    2.00399995e+00 2.00399995e+00 2. 2. 2. 1.99800003e+00 1.99899995e+00
    1.99800003e+00 1.99699998e+00 1.99500000e+00 1.99199998e+00
    1.99100006e+00 1.99199998e+00 1.99000001e+00 1.99199998e+00
    1.98800004e+00 1.98899996e+00 1.98800004e+00 1.98699999e+00
    1.98599994e+00 1.98500001e+00 1.22399998e+00 0. 0. 0. 0. 0. 0. 0. 0.
    0. 0. 0. 0. 0. 0. 1.22399998e+00 2.00500011e+00 2.00399995e+00
    2.00399995e+00 2.00200009e+00 2.00099993e+00 2. 1.99899995e+00 2.
    1.99800003e+00 1.99800003e+00 1.99699998e+00 1.99500000e+00
    1.99300003e+00 1.99300003e+00 1.99199998e+00 1.99100006e+00
    1.99000001e+00 1.99100006e+00 1.98800004e+00 1.98899996e+00
    1.98800004e+00 1.98599994e+00 1.98599994e+00 1.98599994e+00
    1.22399998e+00 0. 0. 0. 0. 0. 0. 0. 0. 0. 0. 0. 0. 0. 0.
    1.22399998e+00 2.00399995e+00 2.00500011e+00 2.00399995e+00
    2.00200009e+00 2.00099993e+00 1.99800003e+00 1.99899995e+00
    1.99800003e+00 1.99800003e+00 1.99699998e+00 1.99500000e+00
    1.99500000e+00 1.99300003e+00 1.99100006e+00 1.99100006e+00
    1.99100006e+00 1.98800004e+00 1.98899996e+00 1.98800004e+00
    1.98800004e+00 1.98599994e+00 1.98599994e+00 1.98599994e+00
    1.85099995e+00 1.22399998e+00 0. 0. 0. 0. 0. 0. 0. 0. 0. 0. 0. 0. 0.
    0. 1.40199995e+00 2.00399995e+00 2.00399995e+00 2.00300002e+00
    2.00200009e+00 1.99899995e+00 1.99800003e+00 1.99800003e+00
    1.99800003e+00 1.99600005e+00 1.99500000e+00 1.99300003e+00
    1.99300003e+00 1.99100006e+00 1.99100006e+00 1.99100006e+00
    1.99000001e+00 1.98699999e+00 1.98899996e+00 1.98800004e+00
    1.98599994e+00 1.98599994e+00 1.98500001e+00 1.98300004e+00
    1.84899998e+00 1.22399998e+00 0. 0. 0. 0. 0. 0. 0. 0. 0. 0. 0. 0. 0.
    0. 2.00500011e+00 2.00399995e+00 2.00399995e+00 2.00200009e+00 2.
    1.99800003e+00 1.99800003e+00 1.99699998e+00 1.99699998e+00
    1.99500000e+00 1.99500000e+00 1.99300003e+00 1.99199998e+00
    1.99000001e+00 1.99000001e+00 1.99000001e+00 1.98800004e+00
    1.98599994e+00 1.98699999e+00 1.98599994e+00 1.98599994e+00
    1.98500001e+00 1.98300004e+00 1.98300004e+00 1.84700000e+00
    1.22399998e+00 0. 0. 0. 0. 0. 0. 0. 0. 0. 0. 0. 0. 0. 0.
    1.62500000e+00 2.00399995e+00 2.00399995e+00 2.00099993e+00
    1.99800003e+00 1.99800003e+00 1.99699998e+00 1.99699998e+00
    1.99600005e+00 1.99500000e+00 1.99500000e+00 1.99100006e+00
    1.99100006e+00 1.99000001e+00 1.99000001e+00 1.98899996e+00
    1.98699999e+00 1.98599994e+00 1.98800004e+00 1.98599994e+00
    1.98599994e+00 1.98500001e+00 1.98199999e+00 1.98300004e+00
    1.22399998e+00 1.22399998e+00 0. 0. 0. 0. 0. 0. 0. 0. 0. 0. 0. 0. 0.
    0. 2.00399995e+00 2.00200009e+00 2.00200009e+00 1.99800003e+00
    1.99800003e+00 1.99800003e+00 1.99699998e+00 1.99600005e+00
    1.99500000e+00 1.99300003e+00 1.99300003e+00 1.99100006e+00
    1.99000001e+00 1.99000001e+00 1.98899996e+00 1.98800004e+00
    1.98599994e+00 1.98599994e+00 1.98599994e+00 1.98599994e+00
    1.98500001e+00 1.98500001e+00 1.98099995e+00 1.98300004e+00
    1.22399998e+00 1.22399998e+00 0. 0. 0. 0. 0. 0. 0. 0. 0. 0. 0. 0. 0.
    0. 2. 2.00099993e+00 2. 1.99800003e+00 1.99800003e+00 1.99699998e+00
    1.99600005e+00 1.99500000e+00 1.99300003e+00 1.99300003e+00
    1.99300003e+00 1.99100006e+00 1.99000001e+00 1.98800004e+00
    1.98599994e+00 1.98699999e+00 1.98599994e+00 1.98500001e+00
    1.98599994e+00 1.98500001e+00 1.98500001e+00 1.98300004e+00
    1.98099995e+00 1.98300004e+00 1.22399998e+00 1.22399998e+00 0. 0. 0.
    0. 0. 0. 0. 0. 0. 0. 0. 0. 0. 0. 2.00200009e+00 2. 1.99800003e+00
    1.99800003e+00 1.99800003e+00 1.99699998e+00 1.99300003e+00
    1.99300003e+00 1.99300003e+00 1.99300003e+00 1.99300003e+00
    1.99100006e+00 1.99000001e+00 1.98800004e+00 1.98599994e+00
    1.98599994e+00 1.98599994e+00 1.98500001e+00 1.98599994e+00
    1.98500001e+00 1.98500001e+00 1.98300004e+00 1.98199999e+00
    1.98099995e+00 1.22399998e+00 1.22399998e+00 0. 0. 0. 0. 0. 0. 0. 0.
    0. 0. 0. 0. 0. 0. 2.00200009e+00 1.99899995e+00 1.99800003e+00
    1.99800003e+00 1.99699998e+00 1.99699998e+00 1.99300003e+00
    1.99399996e+00 1.99300003e+00 1.99300003e+00 1.99100006e+00
    1.99100006e+00 1.99000001e+00 1.98800004e+00 1.98500001e+00
    1.98699999e+00 1.98300004e+00 1.98300004e+00 1.98199999e+00
    1.98300004e+00 1.98099995e+00 1.98099995e+00 1.98099995e+00
    1.97899997e+00 1.22399998e+00 1.22399998e+00 0. 0. 0. 0. 0. 0. 0. 0.
    0. 0. 0. 0. 0. 0. 2. 1.99800003e+00 1.99800003e+00 1.99699998e+00
    1.99699998e+00 1.99500000e+00 1.99300003e+00 1.99300003e+00
    1.99100006e+00 1.99199998e+00 1.99100006e+00 1.99000001e+00
    1.98699999e+00 1.98599994e+00 1.98599994e+00 1.98500001e+00
    1.98500001e+00 1.98399997e+00 1.98300004e+00 1.98399997e+00
    1.98199999e+00 1.98099995e+00 1.98000002e+00 1.97800004e+00
    1.22399998e+00 1.22399998e+00 0. 0. 0. 0. 0. 0. 0. 0. 0. 0. 0. 0. 0.
    0. 2.00200009e+00 1.99800003e+00 1.99800003e+00 1.99600005e+00
    1.99699998e+00 1.99300003e+00 1.99100006e+00 1.99199998e+00
    1.99100006e+00 1.99199998e+00 1.99000001e+00 1.99100006e+00
    1.98800004e+00 1.98599994e+00 1.98599994e+00 1.98500001e+00
    1.98399997e+00 1.98300004e+00 1.98300004e+00 1.98300004e+00
    1.98199999e+00 1.98099995e+00 1.97899997e+00 1.91900003e+00
    1.22399998e+00 1.22399998e+00 0. 0. 0. 0. 0. 0. 0. 0. 0. 0. 0. 0. 0.
    0. 1.99800003e+00 1.99699998e+00 1.99699998e+00 1.99600005e+00
    1.99500000e+00 1.99100006e+00 1.99100006e+00 1.99199998e+00
    1.99100006e+00 1.99100006e+00 1.98899996e+00 1.98800004e+00
    1.98599994e+00 1.98599994e+00 1.98500001e+00 1.98300004e+00
    1.98199999e+00 1.98199999e+00 1.98099995e+00 1.98099995e+00
    1.97899997e+00 1.98099995e+00 1.97899997e+00 1.74000001e+00
    1.22399998e+00 1.22399998e+00 0. 0. 0. 0. 0. 0. 0. 0. 0. 0. 0. 0. 0.
    0. 0. 0. 0. 0. 2.07100010e+00 2.06699991e+00 2.06100011e+00
    1.99000001e+00 1.99100006e+00 1.99000001e+00 1.98800004e+00
    1.98599994e+00 1.98599994e+00 1.98599994e+00 1.98500001e+00
    1.98300004e+00 1.98099995e+00 1.98300004e+00 1.98099995e+00
    1.97899997e+00 1.97899997e+00 1.98099995e+00 1.97899997e+00
    1.97399998e+00 1.22399998e+00 1.22399998e+00 0. 0. 0. 0. 0. 0. 0. 0.
    0. 0. 0. 0. 0. 0. 0. 0. 0. 0. 0. 0. 0. 0. 0. 0. 0. 0. 0. 0.
    1.98399997e+00 0. 0. 1.97899997e+00 1.98099995e+00 1.98099995e+00
    1.97899997e+00 1.97899997e+00 1.97899997e+00 1.71800005e+00
    1.22399998e+00 2.64000010e+00 0. 0. 0. 0. 0. 0. 0.</data></Depth>
</opencv_storage>
