<?xml version="1.0"?>
<opencv_storage>
<Depth type_id="opencv-matrix">
  <rows>40</rows>
  <cols>40</cols>
  <dt>f</dt>
  <data>
    0. 0. 0. 0. 0. 0. 0. 0. 0. 0. 0. 0. 0. 0. 0. 0. 0. 0. 0. 0. 0. 0. 0.
    0. 0. 0. 0. 0. 0. 0. 0. 0. 0. 0. 0. 0. 0. 0. 0. 0. 0. 0. 0. 0. 0. 0.
    0. 0. 0. 0. 0. 0. 0. 0. 0. 0. 0. 0. 0. 0. 0. 0. 0. 0. 0. 0. 0. 0. 0.
    0. 0. 0. 0. 0. 0. 0. 0. 0. 0. 0. 0. 0. 0. 0. 0. 0. 0. 0. 0. 0. 0. 0.
    0. 0. 0. 0. 0. 0. 0. 0. 0. 0. 0. 0. 0. 0. 0. 0. 0. 0. 0. 0. 0. 0. 0.
    0. 0. 0. 0. 0. 0. 0. 0. 0. 0. 0. 0. 0. 0. 0. 0. 0. 0. 0. 0. 0. 0. 0.
    0. 0. 0. 0. 0. 0. 0. 0. 0. 0. 0. 0. 0. 0. 0. 0. 0. 0. 0. 0. 0. 0. 0.
    0. 0. 0. 0. 0. 0. 0. 0. 0. 0. 0. 0. 0. 0. 0. 0. 0. 0. 0. 0. 0. 0. 0.
    0. 0. 0. 0. 0. 0. 0. 0. 0. 0. 0. 0. 0. 0. 0. 0. 0. 0. 0. 0. 0. 0. 0.
    0. 0. 0. 0. 0. 0. 0. 0. 0. 0. 0. 0. 0. 0. 0. 0. 0. 0. 0. 0. 0. 0. 0.
    0. 0. 0. 0. 0. 0. 0. 0. 0. 0. 0. 0. 0. 0. 0. 0. 0. 0. 0. 0. 0. 0. 0.
    0. 0. 0. 0. 0. 0. 0. 0. 0. 0. 0. 0. 0. 0. 0. 0. 0. 0. 0. 0. 0. 0. 0.
    0. 0. 0. 0. 0. 0. 0. 0. 0. 0. 0. 0. 0. 0. 0. 0. 0. 0. 0. 0. 0. 0. 0.
    0. 0. 0. 0. 0. 0. 0. 0. 0. 0. 0. 0. 0. 0. 0. 0. 0. 0. 0. 0.
    1.64699996e+00 0. 0. 0. 0. 0. 0. 0. 0. 0. 0. 0. 0. 0. 0. 0. 0. 0. 0.
    0. 0. 0. 0. 0. 0. 0. 0. 0. 0. 0. 0. 0. 0. 1.57799995e+00 0. 0. 0. 0.
    0. 0. 1.86600006e+00 0. 0. 0. 0. 0. 0. 0. 0. 0. 0. 0. 0. 0. 0. 0. 0.
    0. 0. 0. 0. 0. 0. 0. 0. 0. 0. 0. 0. 0. 0. 0. 0. 1.95400000e+00
    1.73199999e+00 1.44599998e+00 0. 0. 1.39100003e+00 1.47599995e+00
    1.90100002e+00 0. 0. 0. 0. 0. 0. 0. 0. 0. 0. 0. 0. 0. 0. 0. 0. 0. 0.
    0. 0. 0. 0. 0. 0. 0. 0. 0. 0. 0. 1.21000004e+00 1.22000003e+00
    1.60399997e+00 1.92799997e+00 1.94000006e+00 1.94299996e+00
    1.71300006e+00 1.42600000e+00 1.90900004e+00 1.90900004e+00
    1.90900004e+00 0. 0. 0. 0. 0. 0. 0. 0. 0. 0. 0. 0. 0. 0. 0. 0. 0. 0.
    0. 0. 0. 0. 0. 0. 0. 1.14199996e+00 1.12899995e+00 1.10200000e+00
    1.63900006e+00 1.86600006e+00 1.87899995e+00 1.89900005e+00
    1.91999996e+00 1.93200004e+00 1.93200004e+00 1.92400002e+00
    1.90900004e+00 1.90900004e+00 1.90900004e+00 1.90900004e+00 0. 0. 0.
    0. 0. 0. 0. 0. 0. 0. 0. 0. 0. 0. 0. 0. 0. 0. 0. 0. 1.01900005e+00
    1.00500000e+00 1.00500000e+00 1.00500000e+00 1.90100002e+00
    1.97700000e+00 1.94700003e+00 1.91600001e+00 1.88900006e+00
    1.88000000e+00 1.88499999e+00 1.89900005e+00 1.92700005e+00
    1.94599998e+00 1.94099998e+00 1.92400002e+00 1.90900004e+00
    1.90900004e+00 1.90900004e+00 1.90900004e+00 0. 0. 0. 0. 0. 0. 0. 0.
    0. 0. 0. 0. 0. 0. 0. 0. 0. 0. 0. 1.08899999e+00 2.02099991e+00 2. 2.
    2. 1.97899997e+00 1.97700000e+00 1.94000006e+00 1.91499996e+00
    1.89400005e+00 1.88800001e+00 1.89499998e+00 1.91299999e+00
    1.93799996e+00 1.95400000e+00 1.94599998e+00 1.92400002e+00
    1.90900004e+00 1.90900004e+00 1.90900004e+00 1.90900004e+00 0. 0. 0.
    0. 0. 0. 0. 0. 0. 1.65499997e+00 1.97599995e+00 1.96500003e+00
    1.97099996e+00 1.30400002e+00 0. 1.24199998e+00 2.04299998e+00
    2.03500009e+00 2.03200006e+00 2.02399993e+00 2.02200007e+00
    2.01200008e+00 2. 2. 1.97899997e+00 1.97700000e+00 1.95000005e+00
    1.93599999e+00 1.92700005e+00 1.92400002e+00 1.92900002e+00
    1.93900001e+00 1.94900000e+00 1.95400000e+00 1.94599998e+00
    1.92400002e+00 1.90900004e+00 1.90900004e+00 1.90900004e+00
    1.90900004e+00 0. 0. 0. 0. 0. 0. 0. 1.81500006e+00 2.02900004e+00
    2.00600004e+00 1.96899998e+00 1.95400000e+00 1.95400000e+00
    1.95400000e+00 1.96500003e+00 2.00099993e+00 2.03200006e+00
    2.02399993e+00 2.02399993e+00 2.02399993e+00 2.02200007e+00
    2.01099992e+00 2. 2. 1.97899997e+00 1.97700000e+00 1.96700001e+00
    1.96500003e+00 1.96500003e+00 1.96500003e+00 1.96500003e+00
    1.95899999e+00 1.95400000e+00 1.94900000e+00 1.93900001e+00
    1.92400002e+00 1.90900004e+00 1.90900004e+00 1.90900004e+00
    1.90900004e+00 0. 0. 0. 0. 0. 0. 1.77600002e+00 2.04600000e+00
    2.02699995e+00 2.00600004e+00 1.97599995e+00 1.96399999e+00
    1.97000003e+00 1.97399998e+00 1.98500001e+00 2.00799990e+00
    2.01999998e+00 2.01399994e+00 2.01399994e+00 2.01399994e+00
    2.01200008e+00 2. 2. 2. 1.97899997e+00 1.97700000e+00 1.97700000e+00
    1.97700000e+00 1.97700000e+00 1.97700000e+00 1.97700000e+00
    1.96399999e+00 1.95400000e+00 1.94400001e+00 1.93200004e+00
    1.92799997e+00 1.91900003e+00 1.91700006e+00 1.90900004e+00
    1.90900004e+00 2.08899999e+00 2.08899999e+00 1.76800001e+00 0. 0. 0.
    1.87300003e+00 2.02999997e+00 2.02399993e+00 2.01300001e+00
    1.99300003e+00 1.98599994e+00 1.99399996e+00 2. 2.01099992e+00
    2.02399993e+00 2.01600003e+00 2. 2. 2. 2. 2. 2. 2. 1.97899997e+00
    1.97700000e+00 1.97700000e+00 1.97700000e+00 1.97099996e+00
    1.96800005e+00 1.96800005e+00 1.96500003e+00 1.95799994e+00
    1.94400001e+00 1.93200004e+00 1.93200004e+00 1.93200004e+00
    1.92700005e+00 1.90900004e+00 1.90900004e+00 2.07299995e+00
    2.07299995e+00 1.85899997e+00 0. 0. 1.97099996e+00 2.05100012e+00
    2.03399992e+00 2.03200006e+00 2.02600002e+00 2.01300001e+00
    2.01300001e+00 2.01099992e+00 2.00799990e+00 2.01500010e+00
    2.02399993e+00 2.01600003e+00 2. 2. 2. 2. 2. 2. 2. 1.97899997e+00
    1.97700000e+00 1.97700000e+00 1.97700000e+00 1.96099997e+00
    1.95400000e+00 1.95400000e+00 1.96200001e+00 1.96200001e+00
    1.94400001e+00 1.93200004e+00 1.93200004e+00 1.93200004e+00
    1.92700005e+00 1.90900004e+00 1.90900004e+00 2.07800007e+00
    2.07299995e+00 2.07599998e+00 2.09800005e+00 2.09800005e+00
    2.08100009e+00 2.05699992e+00 2.04900002e+00 2.04800010e+00
    2.03500009e+00 2.03099990e+00 2.04099989e+00 2.03800011e+00
    2.03099990e+00 2.02800012e+00 2.02399993e+00 2.01600003e+00 2. 2. 2.
    2. 2. 2. 1.99399996e+00 1.97800004e+00 1.97700000e+00 1.97700000e+00
    1.97700000e+00 1.96099997e+00 1.95400000e+00 1.95400000e+00
    1.95400000e+00 1.95400000e+00 1.94700003e+00 1.93799996e+00
    1.93599999e+00 1.93200004e+00 1.92700005e+00 1.90900004e+00
    1.90900004e+00 2.09400010e+00 2.07800007e+00 2.08100009e+00
    2.09800005e+00 2.09800005e+00 2.09800005e+00 2.07599998e+00
    2.05699992e+00 2.04900002e+00 2.04800010e+00 2.04800010e+00
    2.04800010e+00 2.04800010e+00 2.04500008e+00 2.03399992e+00
    2.02399993e+00 2.01600003e+00 2. 2. 2. 2. 2. 1.99899995e+00
    1.97800004e+00 1.97700000e+00 1.97700000e+00 1.97700000e+00
    1.97700000e+00 1.96399999e+00 1.95599997e+00 1.95400000e+00
    1.95400000e+00 1.95400000e+00 1.95200002e+00 1.94900000e+00
    1.94400001e+00 1.93200004e+00 1.92700005e+00 1.90900004e+00
    1.90900004e+00 2.10100007e+00 2.09800005e+00 2.09800005e+00
    2.09800005e+00 2.09800005e+00 2.09800005e+00 2.07599998e+00
    2.07299995e+00 2.05699992e+00 2.04900002e+00 2.04800010e+00
    2.04800010e+00 2.04800010e+00 2.03600001e+00 2.02399993e+00
    2.02200007e+00 2.01300001e+00 2. 2.00099993e+00 2.00300002e+00 2. 2.
    1.99899995e+00 1.97800004e+00 1.97700000e+00 1.97700000e+00
    1.97700000e+00 1.97700000e+00 1.97700000e+00 1.96399999e+00
    1.95799994e+00 1.95599997e+00 1.95400000e+00 1.94400001e+00
    1.93099999e+00 1.92799997e+00 1.92900002e+00 1.92799997e+00
    1.91199994e+00 1.90900004e+00 2.11800003e+00 2.09800005e+00
    2.09800005e+00 2.09800005e+00 2.09800005e+00 2.09500003e+00
    2.07500005e+00 2.07299995e+00 2.07100010e+00 2.05399990e+00
    2.04800010e+00 2.04999995e+00 2.04900002e+00 2.03600001e+00
    2.02399993e+00 2.01399994e+00 2. 2. 2.00500011e+00 2.01699996e+00 2.
    2. 1.99899995e+00 1.98000002e+00 1.98000002e+00 1.98000002e+00
    1.97700000e+00 1.97700000e+00 1.97700000e+00 1.97700000e+00
    1.97700000e+00 1.96599996e+00 1.95500004e+00 1.94400001e+00
    1.92299998e+00 1.90900004e+00 1.91499996e+00 1.93200004e+00
    1.94400001e+00 2.00399995e+00 2.11599994e+00 2.09800005e+00
    2.09800005e+00 2.09800005e+00 2.09800005e+00 2.07399988e+00
    2.07299995e+00 2.07299995e+00 2.05299997e+00 2.04800010e+00
    2.04800010e+00 2.06299996e+00 2.05800009e+00 2.03600001e+00
    2.02399993e+00 2.01500010e+00 2.00099993e+00 2. 2. 2. 2. 2. 2. 2. 2.
    2. 1.98099995e+00 1.97700000e+00 1.97700000e+00 1.97700000e+00
    1.97700000e+00 1.97700000e+00 1.96599996e+00 1.94599998e+00
    1.94500005e+00 1.96099997e+00 1.96500003e+00 1.98099995e+00
    2.11400008e+00 2.77900004e+00 2.09800005e+00 2.09800005e+00
    2.09800005e+00 2.09800005e+00 2.09800005e+00 2.07399988e+00
    2.07299995e+00 2.07299995e+00 2.05299997e+00 2.04800010e+00
    2.04800010e+00 2.04800010e+00 2.04800010e+00 2.03600001e+00
    2.02399993e+00 2.02399993e+00 2.01600003e+00 2. 2. 2. 2. 2. 2. 2. 2.
    2. 1.98099995e+00 1.97700000e+00 1.97700000e+00 1.97700000e+00
    1.97700000e+00 1.97700000e+00 1.97800004e+00 1.97800004e+00
    2.31399989e+00 2.84400010e+00 2.81800008e+00 2.81800008e+00
    2.81200004e+00 2.77900004e+00 2.09800005e+00 2.09800005e+00
    2.09500003e+00 2.07399988e+00 2.07399988e+00 2.07299995e+00
    2.07299995e+00 2.07299995e+00 2.05299997e+00 2.04800010e+00
    2.04800010e+00 2.04800010e+00 2.04800010e+00 2.03600001e+00
    2.02399993e+00 2.02399993e+00 2.01600003e+00 2. 1.99500000e+00
    1.97800004e+00 1.97800004e+00 1.97800004e+00 1.97800004e+00
    1.97800004e+00 1.97800004e+00 1.99699998e+00 1.98099995e+00
    1.97700000e+00 1.97700000e+00 1.97700000e+00 1.97700000e+00
    1.97700000e+00 2.40499997e+00 2.83200002e+00 2.82900000e+00
    2.85599995e+00 2.84500003e+00 2.81800008e+00 2.81800008e+00
    2.81599998e+00 2.09800005e+00 2.09400010e+00 2.07500005e+00
    2.07299995e+00 2.07299995e+00 2.07299995e+00 2.07299995e+00
    2.07299995e+00 2.05299997e+00 2.04800010e+00 2.04800010e+00
    2.03500009e+00 2.02699995e+00 2.02500010e+00 2.02399993e+00
    2.02399993e+00 2.02300000e+00 2.02099991e+00 2.01099992e+00
    1.97700000e+00 1.97700000e+00 1.97700000e+00 1.97700000e+00
    1.97700000e+00 1.97700000e+00 1.99699998e+00 2.62199998e+00
    2.76300001e+00 2.78900003e+00 2.79900002e+00 2.79900002e+00
    2.79900002e+00 2.84699988e+00 2.88000011e+00 2.85700011e+00
    2.84599996e+00 2.82100010e+00 2.81800008e+00 2.81800008e+00
    2.81800008e+00 2.09800005e+00 2.09400010e+00 2.07299995e+00
    2.07299995e+00 2.07299995e+00 2.07299995e+00 2.07299995e+00
    2.07299995e+00 2.06999993e+00 2.05399990e+00 2.04800010e+00
    2.03299999e+00 2.02399993e+00 2.02399993e+00 2.02399993e+00
    2.02399993e+00 2.02399993e+00 2.02399993e+00 2.02699995e+00
    2.03699994e+00 2.14000010e+00 2.78500009e+00 2.78299999e+00
    2.71799994e+00 2.71600008e+00 2.71900010e+00 2.83100009e+00
    2.85700011e+00 2.88499999e+00 2.89700007e+00 2.89700007e+00
    2.87899995e+00 2.86299992e+00 2.86100006e+00 2.85700011e+00
    2.84400010e+00 2.81800008e+00 2.81800008e+00 2.82299995e+00
    2.85100007e+00 2.09800005e+00 2.09699988e+00 2.08999991e+00
    2.07299995e+00 2.07299995e+00 2.07299995e+00 2.07299995e+00
    2.07299995e+00 2.07299995e+00 2.05500007e+00 2.04800010e+00
    2.03299999e+00 2.01300001e+00 2.00500011e+00 2.01399994e+00
    2.02399993e+00 2.02399993e+00 2.25000000e+00 2.77699995e+00
    2.78099990e+00 2.80699992e+00 2.96900010e+00 2.93799996e+00
    2.92199993e+00 2.89100003e+00 2.88800001e+00 2.88800001e+00
    2.88800001e+00 2.89400005e+00 2.87599993e+00 2.86599994e+00
    2.86100006e+00 2.85700011e+00 2.85700011e+00 2.85700011e+00
    2.84400010e+00 2.81800008e+00 2.82500005e+00 2.84500003e+00
    2.82599998e+00 2.09800005e+00 2.09800005e+00 2.09500003e+00
    2.07299995e+00 2.07299995e+00 2.07299995e+00 2.07299995e+00
    2.07299995e+00 2.07299995e+00 2.05500007e+00 2.04800010e+00
    2.04399991e+00 2.01799989e+00 2. 2.33500004e+00 2.72399998e+00
    2.72399998e+00 2.80100012e+00 2.98099995e+00 2.98099995e+00
    2.97700000e+00 2.94899988e+00 2.93899989e+00 2.93899989e+00
    2.90000010e+00 2.89700007e+00 2.89700007e+00 2.89700007e+00
    2.87599993e+00 2.86100006e+00 2.85700011e+00 2.84100008e+00
    2.82800007e+00 2.82800007e+00 2.82800007e+00 2.82500005e+00
    2.81800008e+00 2.82699990e+00 2.85100007e+00 2.81800008e+00
    2.09800005e+00 2.09800005e+00 2.09500003e+00 2.07299995e+00
    2.07299995e+00 2.07299995e+00 2.07299995e+00 2.58999991e+00
    2.20499992e+00 2.06699991e+00 2.50200009e+00 2.71000004e+00
    2.70099998e+00 2.67899990e+00 2.81100011e+00 2.98099995e+00
    2.98099995e+00 2.98099995e+00 2.98099995e+00 2.97600007e+00
    2.95099998e+00 2.93700004e+00 2.91100001e+00 2.91100001e+00
    2.89800000e+00 2.87299991e+00 2.86999989e+00 2.86999989e+00
    2.86100006e+00 2.85700011e+00 2.85700011e+00 2.83599997e+00
    2.81800008e+00 2.81800008e+00 2.81800008e+00 2.81800008e+00
    2.81800008e+00 2.82100010e+00 2.82800007e+00 2.81800008e+00
    2.11400008e+00 2.11599994e+00 2.13199997e+00 2.17499995e+00
    2.53800011e+00 2.53800011e+00 2.60500002e+00 2.90000010e+00
    2.68600011e+00 2.61299992e+00 2.87299991e+00 0. 0. 0. 2.98099995e+00
    2.97000003e+00 2.95499992e+00 2.95499992e+00 2.95499992e+00
    2.95199990e+00 2.93499994e+00 2.91100001e+00 2.89700007e+00
    2.89700007e+00 2.89700007e+00 2.86199999e+00 2.85700011e+00
    2.85700011e+00 2.85700011e+00 2.85700011e+00 2.85700011e+00
    2.83599997e+00 2.81800008e+00 2.81800008e+00 2.81800008e+00
    2.81800008e+00 2.81800008e+00 2.81800008e+00 2.81800008e+00
    2.81500006e+00 2.13800001e+00 2.14199996e+00 2.20199990e+00
    2.52500010e+00 2.79600000e+00 2.77500010e+00 2.82100010e+00
    2.82599998e+00 2.82599998e+00 2.82599998e+00 2.86800003e+00
    2.90000010e+00 2.96000004e+00 2.99000001e+00 2.98099995e+00
    2.96399999e+00 2.93899989e+00 2.93899989e+00 2.93899989e+00
    2.93899989e+00 2.93300009e+00 2.89700007e+00 2.89599991e+00
    2.87500000e+00 2.87400007e+00 2.85899997e+00 2.85700011e+00
    2.85700011e+00 2.85700011e+00 2.85700011e+00 2.84400010e+00
    2.82599998e+00 2.81800008e+00 2.81800008e+00 2.80900002e+00
    2.79600000e+00 2.80200005e+00 2.81800008e+00 2.81800008e+00
    2.81399989e+00 0. 0. 0. 0. 0. 0. 0. 0. 0. 0. 0. 0. 0. 0. 0. 0. 0. 0.
    0. 0. 0. 0. 0. 0. 0. 0. 0. 0. 0. 0. 0. 0. 0. 0. 0. 0. 0. 0. 0. 0. 0.
    0. 0. 0. 0. 0. 0. 0. 0. 0. 0. 0. 0. 0. 0. 0. 0. 0. 0. 0. 0. 0. 0. 0.
    0. 0. 0. 0. 0. 0. 0. 0. 0. 0. 0. 0. 0. 0. 0. 0. 0. 0. 0. 0. 0. 0. 0.
    0. 0. 0. 0. 0. 0. 0. 0. 0. 0. 0. 0. 0. 0. 0. 0. 0. 0. 0. 0. 0. 0. 0.
    0. 0. 0. 0. 0. 0. 0. 0. 0. 0. 0. 0. 0. 0. 0. 0. 0. 0. 0. 0. 0. 0. 0.
    0. 0. 0. 0. 0. 0. 0. 0. 0. 0. 0. 0. 0. 0. 0. 0. 0. 0. 0. 0. 0. 0. 0.
    0. 0. 0. 0. 0. 0. 0. 0. 0. 0. 0. 0. 0. 0. 0. 0. 0. 0. 0. 0. 0. 0. 0.
    0. 0. 0. 0. 0. 0. 0. 0. 0. 0. 0. 0. 0. 0. 0. 0. 0. 0. 0. 0. 0. 0. 0.
    0. 0. 0. 0. 0. 0. 0. 0. 0. 0. 0. 0. 0. 0. 0. 0. 0. 0. 0. 0. 0. 0. 0.
    0. 0. 0. 0. 0. 0. 0. 0. 0. 0. 0. 0. 0. 0. 0. 0. 0. 0. 0. 0. 0. 0. 0.
    0. 0. 0. 0. 0. 0. 0. 0. 0. 0. 0. 0. 0. 0. 0. 0. 0. 0. 0. 0. 0. 0. 0.
    0. 0. 0. 0. 0. 0. 0. 0. 0.</data></Depth>
</opencv_storage>
