<?xml version="1.0"?>
<opencv_storage>
<Depth type_id="opencv-matrix">
  <rows>40</rows>
  <cols>40</cols>
  <dt>f</dt>
  <data>
    0. 0. 0. 0. 0. 0. 0. 0. 0. 0. 0. 0. 0. 0. 0. 0. 0. 0. 0. 0. 0. 0. 0.
    0. 0. 0. 0. 0. 0. 0. 0. 0. 0. 0. 0. 0. 0. 0. 0. 0. 0. 0. 0. 0. 0. 0.
    0. 0. 2.81900001e+00 1.98800004e+00 1.99199998e+00 1.99699998e+00
    2.22099996e+00 1.99399996e+00 2.41499996e+00 2.41599989e+00 0.
    2.66700006e+00 0. 0. 2.39599991e+00 2.39700007e+00 0. 0. 0. 0. 0.
    2.36999989e+00 0. 0. 0. 0. 0. 0. 0. 0. 0. 0. 0. 0. 0. 0. 0. 0. 0. 0.
    0. 0. 1.98500001e+00 1.98500001e+00 1.98800004e+00 1.98800004e+00
    1.99100006e+00 1.99399996e+00 1.99500000e+00 1.99699998e+00 2.
    1.99899995e+00 2.00099993e+00 2.00300002e+00 2.00600004e+00
    2.00600004e+00 2.00900006e+00 2.00900006e+00 2.01099992e+00
    2.00999999e+00 2.01200008e+00 2.01099992e+00 2.01500010e+00
    2.01799989e+00 2.01900005e+00 0. 0. 0. 0. 0. 0. 0. 0. 0. 0. 0. 0. 0.
    0. 0. 0. 0. 1.98500001e+00 1.98500001e+00 1.98800004e+00
    1.98800004e+00 1.99000001e+00 1.99399996e+00 1.99399996e+00
    1.99699998e+00 1.99800003e+00 2. 2.00200009e+00 2.00300002e+00
    2.00600004e+00 2.00900006e+00 2.00999999e+00 2.01200008e+00
    2.01099992e+00 2.00900006e+00 2.01099992e+00 2.01200008e+00
    2.01500010e+00 2.01799989e+00 2.01799989e+00 1.78600001e+00 0. 0. 0.
    0. 0. 0. 0. 0. 0. 0. 0. 0. 0. 0. 0. 0. 1.98500001e+00 1.98500001e+00
    1.98800004e+00 1.98800004e+00 1.99100006e+00 1.99399996e+00
    1.99699998e+00 1.99699998e+00 1.99699998e+00 1.99699998e+00 2.
    2.00399995e+00 2.00300002e+00 2.00600004e+00 2.00900006e+00
    2.00900006e+00 2.01200008e+00 2.00900006e+00 2.00900006e+00
    2.01200008e+00 2.01500010e+00 2.01500010e+00 2.01799989e+00
    1.73800004e+00 0. 0. 0. 0. 0. 0. 0. 0. 0. 0. 0. 0. 0. 0. 0. 0.
    1.98500001e+00 1.98500001e+00 1.98800004e+00 1.98800004e+00
    1.99100006e+00 1.99100006e+00 1.99699998e+00 1.99699998e+00
    1.99699998e+00 1.99699998e+00 2. 2.00300002e+00 2.00300002e+00
    2.00600004e+00 2.00900006e+00 2.00999999e+00 2.01200008e+00
    2.00900006e+00 2.00900006e+00 2.00999999e+00 2.01500010e+00
    2.01500010e+00 2.01699996e+00 2.01900005e+00 0. 0. 0. 0. 0. 0. 0. 0.
    0. 0. 0. 0. 0. 0. 0. 0. 1.98500001e+00 1.98599994e+00 1.98800004e+00
    1.98800004e+00 1.99100006e+00 1.99399996e+00 1.99699998e+00
    1.99800003e+00 1.99899995e+00 1.99800003e+00 2. 2.00300002e+00
    2.00300002e+00 2.00500011e+00 2.00900006e+00 2.00900006e+00
    2.00900006e+00 2.00900006e+00 2.00900006e+00 2.00900006e+00
    2.01300001e+00 2.01399994e+00 2.01500010e+00 2.01500010e+00 0. 0. 0.
    0. 0. 0. 0. 0. 0. 0. 0. 0. 0. 0. 0. 0. 1.98500001e+00 1.98500001e+00
    1.98800004e+00 1.98800004e+00 1.99000001e+00 1.99399996e+00
    1.99699998e+00 1.99699998e+00 1.99699998e+00 2. 2. 2.00099993e+00
    2.00300002e+00 2.00600004e+00 2.00799990e+00 2.00900006e+00
    2.00900006e+00 2.00900006e+00 2.00900006e+00 2.00900006e+00
    2.01200008e+00 2.01200008e+00 2.01500010e+00 2.01200008e+00 0. 0. 0.
    0. 0. 0. 0. 0. 0. 0. 0. 0. 0. 0. 0. 0. 1.98500001e+00 1.98500001e+00
    1.98800004e+00 1.98899996e+00 1.99000001e+00 1.99300003e+00
    1.99699998e+00 1.99699998e+00 1.99699998e+00 1.99699998e+00 2. 2.
    2.00300002e+00 2.00600004e+00 2.00799990e+00 2.00900006e+00
    2.01099992e+00 2.00900006e+00 2.00900006e+00 2.00900006e+00
    2.01200008e+00 2.01200008e+00 2.01699996e+00 2.01200008e+00 0. 0. 0.
    0. 0. 0. 0. 0. 0. 0. 0. 0. 0. 0. 0. 0. 1.98500001e+00 1.98500001e+00
    1.98800004e+00 1.98800004e+00 1.98899996e+00 1.99300003e+00
    1.99399996e+00 1.99699998e+00 1.99699998e+00 1.99699998e+00 2. 2.
    2.00300002e+00 2.00600004e+00 2.00699997e+00 2.00900006e+00
    2.00900006e+00 2.00900006e+00 2.00900006e+00 2.00999999e+00
    2.01200008e+00 2.01399994e+00 2.01699996e+00 2.01500010e+00 0. 0. 0.
    0. 0. 0. 0. 0. 0. 0. 0. 0. 0. 0. 0. 0. 1.82200003e+00 1.98500001e+00
    1.98800004e+00 1.98800004e+00 1.98800004e+00 1.99100006e+00
    1.99399996e+00 1.99600005e+00 1.99699998e+00 1.99699998e+00 2. 2.
    2.00300002e+00 2.00300002e+00 2.00699997e+00 2.00900006e+00
    2.00900006e+00 2.00900006e+00 2.00900006e+00 2.00900006e+00
    2.01200008e+00 2.01200008e+00 2.01200008e+00 1.97800004e+00 0. 0. 0.
    0. 0. 0. 0. 0. 0. 0. 0. 0. 0. 0. 0. 0. 1.91299999e+00 1.98500001e+00
    1.98500001e+00 1.98800004e+00 1.98800004e+00 1.99199998e+00
    1.99399996e+00 1.99399996e+00 1.99699998e+00 1.99699998e+00 2. 2. 2.
    2.00399995e+00 2.00600004e+00 2.00900006e+00 2.00900006e+00
    2.00699997e+00 2.00900006e+00 2.00900006e+00 2.01200008e+00
    2.00999999e+00 2.01300001e+00 2.01200008e+00 0. 0. 0. 0. 0. 0. 0. 0.
    0. 0. 0. 0. 0. 0. 0. 0. 1.98500001e+00 1.98500001e+00 1.98500001e+00
    1.98800004e+00 1.98800004e+00 1.99100006e+00 1.99399996e+00
    1.99600005e+00 1.99699998e+00 1.99699998e+00 2. 2. 2.00099993e+00
    2.00500011e+00 2.00600004e+00 2.00900006e+00 2.00900006e+00
    2.00600004e+00 2.00600004e+00 2.00900006e+00 2.00900006e+00
    2.00999999e+00 2.01300001e+00 2.00999999e+00 0. 0. 0. 0. 0. 0. 0. 0.
    0. 0. 0. 0. 0. 0. 0. 0. 1.83899999e+00 1.98399997e+00 1.98500001e+00
    1.98800004e+00 1.98800004e+00 1.98899996e+00 1.99399996e+00
    1.99699998e+00 1.99699998e+00 1.99699998e+00 2. 2. 2. 2.00500011e+00
    2.00600004e+00 2.00600004e+00 2.00900006e+00 2.00600004e+00
    2.00600004e+00 2.00900006e+00 2.00900006e+00 2.00900006e+00
    2.01200008e+00 2.01200008e+00 0. 0. 0. 0. 0. 0. 0. 0. 0. 0. 0. 0. 0.
    0. 0. 0. 1.82000005e+00 1.98300004e+00 1.98500001e+00 1.98599994e+00
    1.99000001e+00 1.99100006e+00 1.99399996e+00 1.99600005e+00
    1.99699998e+00 1.99699998e+00 2. 2. 2. 2.00200009e+00 2.00300002e+00
    2.00600004e+00 2.00900006e+00 2.00600004e+00 2.00600004e+00
    2.00900006e+00 2.00900006e+00 2.00900006e+00 2.00900006e+00
    2.00900006e+00 0. 0. 0. 0. 0. 0. 0. 0. 0. 0. 0. 0. 0. 0. 0. 0.
    1.98000002e+00 1.98399997e+00 1.98500001e+00 1.98500001e+00
    1.98800004e+00 1.99100006e+00 1.99500000e+00 1.99699998e+00
    1.99699998e+00 1.99699998e+00 1.99800003e+00 2. 2. 2.00300002e+00
    2.00300002e+00 2.00600004e+00 2.00900006e+00 2.00600004e+00
    2.00600004e+00 2.00600004e+00 2.00900006e+00 2.00900006e+00
    2.01099992e+00 2.00900006e+00 0. 0. 0. 0. 0. 0. 0. 0. 0. 0. 0. 0. 0.
    0. 0. 0. 1.98300004e+00 1.98399997e+00 1.98500001e+00 1.98500001e+00
    1.98800004e+00 1.99100006e+00 1.99399996e+00 1.99699998e+00
    1.99699998e+00 1.99699998e+00 1.99699998e+00 1.99699998e+00 2. 2.
    2.00300002e+00 2.00600004e+00 2.00600004e+00 2.00600004e+00
    2.00600004e+00 2.00600004e+00 2.00900006e+00 2.00900006e+00
    2.00900006e+00 2.00900006e+00 0. 0. 0. 0. 0. 0. 0. 0. 0. 0. 0. 0. 0.
    0. 0. 0. 1.82200003e+00 1.98099995e+00 1.98500001e+00 1.98500001e+00
    1.98800004e+00 1.98800004e+00 1.98800004e+00 1.99300003e+00
    1.99699998e+00 1.99500000e+00 1.99899995e+00 1.99899995e+00 2. 2.
    2.00200009e+00 2.00399995e+00 2.00699997e+00 2.00600004e+00
    2.00600004e+00 2.00799990e+00 2.00900006e+00 2.00900006e+00
    2.00900006e+00 2.00799990e+00 0. 0. 0. 0. 0. 0. 0. 0. 0. 0. 0. 0. 0.
    0. 0. 0. 1.19900000e+00 1.98199999e+00 1.98500001e+00 1.98500001e+00
    1.98800004e+00 1.98800004e+00 1.98800004e+00 1.99000001e+00
    1.99699998e+00 1.99399996e+00 1.99899995e+00 1.99899995e+00 2. 2.
    2.00099993e+00 2.00300002e+00 2.00600004e+00 2.00500011e+00
    2.00600004e+00 2.00600004e+00 2.00699997e+00 2.00900006e+00
    2.00900006e+00 2.00999999e+00 0. 0. 0. 0. 0. 0. 0. 0. 0. 0. 0. 0. 0.
    0. 0. 0. 1.96099997e+00 1.97899997e+00 1.98500001e+00 1.98500001e+00
    1.98800004e+00 1.98800004e+00 1.99100006e+00 1.99100006e+00
    1.99500000e+00 1.99699998e+00 2. 1.99800003e+00 2. 2. 2.
    2.00300002e+00 2.00600004e+00 2.00300002e+00 2.00600004e+00
    2.00600004e+00 2.00600004e+00 2.00600004e+00 2.00799990e+00
    2.00999999e+00 0. 0. 0. 0. 0. 0. 0. 0. 0. 0. 0. 0. 0. 0. 0. 0.
    1.33099997e+00 1.98000002e+00 1.98500001e+00 1.98699999e+00
    1.98800004e+00 1.98800004e+00 1.99100006e+00 1.99399996e+00
    1.99399996e+00 1.99699998e+00 1.99699998e+00 2. 2. 2. 2.
    2.00300002e+00 2.00399995e+00 2.00300002e+00 2.00399995e+00
    2.00600004e+00 2.00600004e+00 2.00600004e+00 2.00799990e+00
    2.00900006e+00 0. 0. 0. 0. 0. 0. 0. 0. 0. 0. 0. 0. 0. 0. 0. 0. 0.
    1.49600005e+00 1.98300004e+00 1.98699999e+00 1.98800004e+00
    1.98800004e+00 1.99000001e+00 1.99199998e+00 1.99399996e+00
    1.99699998e+00 1.99699998e+00 1.99699998e+00 1.99899995e+00 2. 2.
    2.00200009e+00 2.00300002e+00 2.00300002e+00 2.00300002e+00
    2.00600004e+00 2.00600004e+00 2.00600004e+00 2.00600004e+00
    2.00600004e+00 0. 0. 0. 0. 0. 0. 0. 0. 0. 0. 0. 0. 0. 0. 0. 0. 0.
    1.49600005e+00 1.98300004e+00 1.98500001e+00 1.98800004e+00
    1.98800004e+00 1.98800004e+00 1.99000001e+00 1.99199998e+00
    1.99399996e+00 1.99699998e+00 1.99699998e+00 1.99699998e+00 2. 2. 2.
    2.00300002e+00 2.00099993e+00 2.00600004e+00 2.00600004e+00
    2.00600004e+00 2.00600004e+00 2.00600004e+00 2.00900006e+00 0. 0. 0.
    0. 0. 0. 0. 0. 0. 0. 0. 0. 0. 0. 0. 0. 0. 1.49600005e+00
    1.98300004e+00 1.98500001e+00 1.98500001e+00 1.98800004e+00
    1.98800004e+00 1.99000001e+00 1.99399996e+00 1.99399996e+00
    1.99600005e+00 1.99699998e+00 1.99699998e+00 2. 2. 2. 2.00300002e+00
    2. 2.00300002e+00 2.00500011e+00 2.00600004e+00 2.00600004e+00
    2.00600004e+00 2.00900006e+00 0. 0. 0. 0. 0. 0. 0. 0. 0. 0. 0. 0. 0.
    0. 0. 0. 0. 1.49600005e+00 1.98300004e+00 1.98500001e+00
    1.98500001e+00 1.98800004e+00 1.98800004e+00 1.99000001e+00
    1.99100006e+00 1.99399996e+00 1.99699998e+00 1.99699998e+00 2. 2. 2.
    2. 2.00300002e+00 2. 2.00300002e+00 2.00600004e+00 2.00600004e+00
    2.00600004e+00 2.00600004e+00 2.00900006e+00 0. 0. 0. 0. 0. 0. 0. 0.
    0. 0. 0. 0. 0. 0. 0. 0. 0. 1.49500000e+00 1.98300004e+00
    1.98500001e+00 1.98300004e+00 1.98800004e+00 1.98800004e+00
    1.99100006e+00 1.99100006e+00 1.99399996e+00 1.99600005e+00
    1.99699998e+00 1.99699998e+00 1.99699998e+00 2. 2. 2.00300002e+00
    2.00300002e+00 2.00600004e+00 2.00600004e+00 2.00600004e+00
    2.00600004e+00 2.00799990e+00 2.00900006e+00 0. 0. 0. 0. 0. 0. 0. 0.
    0. 0. 0. 0. 0. 0. 0. 0. 0. 1.49600005e+00 1.98300004e+00
    1.98300004e+00 1.98300004e+00 1.98800004e+00 1.98800004e+00
    1.98800004e+00 1.99100006e+00 1.99100006e+00 1.99600005e+00
    1.99699998e+00 1.99699998e+00 1.99899995e+00 2. 2. 2.00099993e+00 2.
    2.00300002e+00 2.00600004e+00 2.00600004e+00 2.00600004e+00
    2.00799990e+00 2.00699997e+00 0. 0. 0. 0. 0. 0. 0. 0. 0. 0. 0. 0. 0.
    0. 0. 0. 0. 1.49699998e+00 1.98500001e+00 1.98399997e+00
    1.98300004e+00 1.98500001e+00 1.98800004e+00 1.98800004e+00
    1.99100006e+00 1.99100006e+00 1.99300003e+00 1.99699998e+00
    1.99699998e+00 1.99699998e+00 2. 2. 2. 2.00099993e+00 2.00300002e+00
    2.00600004e+00 2.00600004e+00 2.00600004e+00 2.00600004e+00
    2.00600004e+00 0. 0. 0. 0. 0. 0. 0. 0. 0. 0. 0. 0. 0. 0. 0. 0. 0.
    1.49600005e+00 1.98300004e+00 1.98500001e+00 1.98500001e+00
    1.98500001e+00 1.98500001e+00 1.98800004e+00 1.99100006e+00
    1.99100006e+00 1.99399996e+00 1.99699998e+00 1.99699998e+00
    1.99699998e+00 1.99800003e+00 2. 2. 2. 2.00300002e+00 2.00500011e+00
    2.00600004e+00 2.00600004e+00 2.00600004e+00 2.00600004e+00 0. 0. 0.
    0. 0. 0. 0. 0. 0. 0. 0. 0. 0. 0. 0. 0. 0. 1.49500000e+00
    1.98300004e+00 1.98500001e+00 1.98500001e+00 1.98500001e+00
    1.98800004e+00 1.98800004e+00 1.99100006e+00 1.99100006e+00
    1.99399996e+00 1.99699998e+00 1.99699998e+00 1.99699998e+00
    1.99699998e+00 2. 2. 2.00099993e+00 2.00300002e+00 2.00500011e+00
    2.00600004e+00 2.00600004e+00 2.00600004e+00 2.00600004e+00 0. 0. 0.
    0. 0. 0. 0. 0. 0. 0. 0. 0. 0. 0. 0. 0. 0. 1.98199999e+00
    1.98399997e+00 1.98399997e+00 1.98500001e+00 1.98500001e+00
    1.98699999e+00 1.98800004e+00 1.98800004e+00 1.99100006e+00
    1.99199998e+00 1.99699998e+00 1.99699998e+00 1.99699998e+00
    1.99699998e+00 1.99800003e+00 2. 1.99699998e+00 2.00300002e+00
    2.00500011e+00 2.00600004e+00 2.00600004e+00 2.00600004e+00
    2.00600004e+00 0. 0. 0. 0. 0. 0. 0. 0. 0. 0. 0. 0. 0. 0. 0. 0.
    1.81799996e+00 1.98099995e+00 1.98300004e+00 1.98300004e+00
    1.98500001e+00 1.98500001e+00 1.98500001e+00 1.98800004e+00
    1.98800004e+00 1.99100006e+00 1.99100006e+00 1.99699998e+00
    1.99399996e+00 1.99699998e+00 1.99699998e+00 2. 2. 2. 2.
    2.00200009e+00 2.00300002e+00 2.00600004e+00 2.00600004e+00
    2.00600004e+00 0. 0. 0. 0. 0. 0. 0. 0. 0. 0. 0. 0. 0. 0. 0. 0.
    1.98500001e+00 1.98300004e+00 1.98300004e+00 1.98300004e+00
    1.98500001e+00 1.98500001e+00 1.98500001e+00 1.98800004e+00
    1.98800004e+00 1.99100006e+00 1.99100006e+00 1.99500000e+00
    1.99699998e+00 1.99699998e+00 1.99600005e+00 1.99699998e+00
    2.00099993e+00 2. 2. 2.00200009e+00 2.00399995e+00 2.00600004e+00
    2.00699997e+00 2.00399995e+00 0. 0. 0. 0. 0. 0. 0. 0. 0. 0. 0. 0. 0.
    0. 0. 0. 1.98500001e+00 1.98300004e+00 1.98300004e+00 1.98399997e+00
    1.98500001e+00 1.98500001e+00 1.98500001e+00 1.98699999e+00
    1.98800004e+00 1.98800004e+00 1.99100006e+00 1.99100006e+00
    1.99399996e+00 1.99699998e+00 1.99699998e+00 2. 2. 1.99800003e+00 2.
    2.00099993e+00 2.00600004e+00 2.00600004e+00 2.00600004e+00
    2.00600004e+00 0. 0. 0. 0. 0. 0. 0. 0. 0. 0. 0. 0. 0. 0. 0. 0.
    1.98099995e+00 1.97899997e+00 1.98300004e+00 1.98300004e+00
    1.98399997e+00 1.98500001e+00 1.98500001e+00 1.98800004e+00
    1.98800004e+00 1.98800004e+00 1.99100006e+00 1.99100006e+00
    1.99399996e+00 1.99699998e+00 1.99699998e+00 2. 2. 1.99800003e+00 2.
    2.00200009e+00 2.00399995e+00 2.00600004e+00 2.00799990e+00
    2.00900006e+00 0. 0. 0. 0. 0. 0. 0. 0. 0. 0. 0. 0. 0. 0. 0. 0.
    1.81700003e+00 1.97800004e+00 1.98000002e+00 1.97800004e+00
    1.98199999e+00 1.98500001e+00 1.98500001e+00 1.98699999e+00
    1.98800004e+00 1.98800004e+00 1.98800004e+00 1.99199998e+00
    1.99399996e+00 1.99699998e+00 1.99699998e+00 2. 2. 1.99800003e+00
    1.99899995e+00 2.00099993e+00 2.00300002e+00 2.00600004e+00
    2.00600004e+00 2.00999999e+00 0. 0. 0. 0. 0. 0. 0. 0. 0. 0. 0. 0. 0.
    0. 0. 0. 2.43199992e+00 1.97800004e+00 1.97700000e+00 2.73000002e+00
    2.40499997e+00 1.98500001e+00 1.98500001e+00 1.98500001e+00
    1.98899996e+00 1.99100006e+00 1.98899996e+00 1.99000001e+00
    1.98800004e+00 2.34500003e+00 1.99500000e+00 2. 2. 2.18400002e+00
    2.74099994e+00 1.99899995e+00 2.00099993e+00 2.73399997e+00
    2.00799990e+00 0. 0. 0. 0. 0. 0. 0. 0. 0. 0. 0. 0. 0. 0. 0. 0. 0. 0.
    0. 0. 0. 0. 0. 0. 0. 0. 2.00699997e+00 2.57699990e+00 0. 0. 0. 0.
    2.02099991e+00 2.01900005e+00 0. 0. 0. 0. 0. 0. 0. 0. 0. 0. 0. 0. 0.
    0. 0. 0. 0. 0. 0. 0. 0. 0. 0. 0. 0. 0. 0. 0. 0. 0. 0. 0.
    2.09800005e+00 2.59299994e+00 0. 0. 0. 0. 2.02399993e+00
    1.43099999e+00 0. 0. 0. 0. 0. 0. 0. 0. 0. 0. 0. 0. 0. 0. 0. 0. 0. 0.
    0. 0. 0. 0. 0. 0. 0. 0. 0. 0. 0. 0. 0. 0. 0. 0. 0. 0. 0. 0. 0. 0. 0.
    0. 0. 0. 0. 0. 0. 0. 0. 0. 0. 0. 0. 0. 0.</data></Depth>
</opencv_storage>
