<?xml version="1.0"?>
<opencv_storage>
<Depth type_id="opencv-matrix">
  <rows>40</rows>
  <cols>40</cols>
  <dt>f</dt>
  <data>
    0. 0. 0. 0. 0. 0. 0. 0. 0. 0. 0. 0. 0. 0. 0. 0. 0. 0. 0. 0. 0. 0. 0.
    0. 0. 0. 0. 0. 0. 0. 0. 0. 0. 0. 0. 0. 0. 0. 0. 0. 0. 0. 0. 0. 0. 0.
    0. 0. 2.03399992e+00 2.02600002e+00 2.02200007e+00 2.01900005e+00
    2.01099992e+00 2.01099992e+00 2.01099992e+00 2.01099992e+00
    2.01099992e+00 2.01099992e+00 2.01099992e+00 2.01099992e+00
    2.01200008e+00 2.01300001e+00 2.02200007e+00 2.02200007e+00
    2.02200007e+00 2.02200007e+00 2.02200007e+00 2.02200007e+00
    2.02200007e+00 2.02200007e+00 2.02200007e+00 2.02200007e+00 0. 0. 0.
    0. 0. 0. 0. 0. 0. 0. 0. 0. 0. 0. 0. 0. 2.02600002e+00 2.01900005e+00
    2.01600003e+00 2.00799990e+00 2.00900006e+00 2.01099992e+00
    2.01099992e+00 2.01600003e+00 2.01099992e+00 2.01099992e+00
    2.01099992e+00 2.01200008e+00 2.01999998e+00 2.02200007e+00
    2.01600003e+00 2.01600003e+00 2.02200007e+00 2.02200007e+00
    2.02200007e+00 2.02200007e+00 2.02200007e+00 2.02200007e+00
    2.02200007e+00 1.76900005e+00 0. 0. 0. 0. 0. 0. 0. 0. 0. 0. 0. 0. 0.
    0. 0. 0. 2.01999998e+00 2.01099992e+00 2.01099992e+00 2.
    2.00699997e+00 2.00099993e+00 2.00099993e+00 2.00900006e+00
    2.01099992e+00 2.01099992e+00 2.01099992e+00 2.01399994e+00
    2.02200007e+00 2.02200007e+00 2.01099992e+00 2.01099992e+00
    2.02099991e+00 2.01200008e+00 2.01999998e+00 2.02200007e+00
    2.02200007e+00 2.02200007e+00 2.02500010e+00 1.56900001e+00 0. 0. 0.
    0. 0. 0. 0. 0. 0. 0. 0. 0. 0. 0. 0. 0. 2.01999998e+00 2.01099992e+00
    2.01099992e+00 2.00300002e+00 2.00099993e+00 1.98800004e+00
    1.98800004e+00 1.99699998e+00 2.01099992e+00 2.01399994e+00
    2.01399994e+00 2.02200007e+00 2.01999998e+00 2.01099992e+00
    2.01099992e+00 2.01099992e+00 2.02099991e+00 2.01099992e+00
    2.01099992e+00 2.02200007e+00 1.64499998e+00 1.35200000e+00
    1.33800006e+00 1.34099996e+00 0. 0. 0. 0. 0. 0. 0. 0. 0. 0. 0. 0. 0.
    0. 0. 0. 2.01999998e+00 2.01099992e+00 2.01099992e+00 2.01099992e+00
    2.00399995e+00 1.98800004e+00 1.99100006e+00 1.99899995e+00
    2.01300001e+00 2.02200007e+00 2.02200007e+00 2.02200007e+00
    2.01500010e+00 2.01099992e+00 2.01099992e+00 2.01099992e+00
    2.02200007e+00 2.01799989e+00 2.01799989e+00 2.02200007e+00
    1.64100003e+00 1.34500003e+00 1.34099996e+00 1.34200001e+00 0. 0. 0.
    0. 0. 0. 0. 0. 0. 0. 0. 0. 0. 0. 0. 0. 2.01999998e+00 2.01099992e+00
    2.01099992e+00 2.01099992e+00 2.00399995e+00 1.98800004e+00
    1.99300003e+00 2. 2.01200008e+00 2.02200007e+00 2.01200008e+00
    2.01099992e+00 2.01099992e+00 2.01099992e+00 2.01099992e+00
    2.01099992e+00 2.02200007e+00 2.02200007e+00 2.02200007e+00
    1.89100003e+00 1.35200000e+00 1.34300005e+00 1.34300005e+00
    1.34300005e+00 0. 0. 0. 0. 0. 0. 0. 0. 0. 0. 0. 0. 0. 0. 0. 0.
    2.01600003e+00 2.00699997e+00 2.00099993e+00 2. 2. 2. 2. 2. 2.
    2.00300002e+00 2.00699997e+00 1.99500000e+00 1.99500000e+00 2.
    2.00799990e+00 2.01099992e+00 2.02200007e+00 2.02200007e+00
    2.02200007e+00 1.67499995e+00 1.34500003e+00 1.34300005e+00
    1.33800006e+00 1.34099996e+00 0. 0. 0. 0. 0. 0. 0. 0. 0. 0. 0. 0. 0.
    0. 0. 0. 2.00900006e+00 2. 2. 2. 2. 2. 2. 2. 2. 2. 2. 1.98800004e+00
    1.98800004e+00 2. 2.00399995e+00 2.01099992e+00 2.02200007e+00
    2.02200007e+00 2.02200007e+00 1.35300004e+00 1.34899998e+00
    1.34300005e+00 1.34200001e+00 1.34300005e+00 0. 0. 0. 0. 0. 0. 0. 0.
    0. 0. 0. 0. 0. 0. 0. 0. 2.00600004e+00 1.98800004e+00 1.99800003e+00
    2. 1.99899995e+00 1.99800003e+00 1.99899995e+00 2.00799990e+00
    2.01099992e+00 2.00500011e+00 2. 2. 2. 2. 2.00399995e+00
    2.01300001e+00 2.02200007e+00 2.02200007e+00 1.94700003e+00
    1.35200000e+00 1.34800005e+00 1.34300005e+00 1.34300005e+00
    1.34300005e+00 0. 0. 0. 0. 0. 0. 0. 0. 0. 0. 0. 0. 0. 0. 0. 0.
    1.99800003e+00 1.98800004e+00 1.98800004e+00 2. 1.99199998e+00
    1.98800004e+00 1.99300003e+00 2.00799990e+00 2.01099992e+00
    2.00500011e+00 2. 2. 2. 2.00500011e+00 2.01099992e+00 2.02200007e+00
    2.02200007e+00 2.02200007e+00 1.47200000e+00 1.35200000e+00
    1.34800005e+00 1.34599996e+00 1.34300005e+00 1.34300005e+00 0. 0. 0.
    0. 0. 0. 0. 0. 0. 0. 0. 0. 0. 0. 0. 0. 1.99800003e+00 1.98800004e+00
    1.98800004e+00 1.98899996e+00 1.98899996e+00 1.98800004e+00
    1.98899996e+00 1.99899995e+00 2.00099993e+00 2.00099993e+00 2.
    2.00200009e+00 2.00999999e+00 2.01099992e+00 2.01500010e+00
    2.02200007e+00 2.02200007e+00 2.02200007e+00 1.47200000e+00
    1.35599995e+00 1.35000002e+00 1.34800005e+00 1.33899999e+00
    1.33899999e+00 0. 0. 0. 0. 0. 0. 0. 0. 0. 0. 0. 0. 0. 0. 0. 0.
    2.00099993e+00 1.98899996e+00 1.98800004e+00 1.98800004e+00
    1.98800004e+00 1.99100006e+00 1.99199998e+00 2.00099993e+00 2. 2. 2.
    2. 2.00699997e+00 2.01099992e+00 2.01099992e+00 2.01099992e+00
    2.02200007e+00 2.02200007e+00 1.47099996e+00 1.35599995e+00
    1.35300004e+00 1.34800005e+00 1.33800006e+00 1.33800006e+00 0. 0. 0.
    0. 0. 0. 0. 0. 0. 0. 0. 0. 0. 0. 0. 0. 2.00200009e+00 1.99000001e+00
    1.98800004e+00 1.98800004e+00 1.98800004e+00 2. 2.00200009e+00
    2.00399995e+00 2. 2. 2. 2.00699997e+00 2.00900006e+00 2.01799989e+00
    2.01799989e+00 2.01799989e+00 2.02200007e+00 2.02200007e+00
    1.46800005e+00 1.35399997e+00 1.35399997e+00 1.34800005e+00
    1.34099996e+00 1.33899999e+00 0. 0. 0. 0. 0. 0. 0. 0. 0. 0. 0. 0. 0.
    0. 0. 0. 1.98800004e+00 1.98800004e+00 1.98800004e+00 1.98800004e+00
    1.98800004e+00 1.98800004e+00 1.98800004e+00 1.99699998e+00 2. 2. 2.
    2.01099992e+00 2.01099992e+00 2.02200007e+00 2.02200007e+00
    2.02200007e+00 2.02200007e+00 2.02200007e+00 2.02200007e+00
    1.35800004e+00 1.35800004e+00 1.35300004e+00 1.34599996e+00
    1.34300005e+00 0. 0. 0. 0. 0. 0. 0. 0. 0. 0. 0. 0. 0. 0. 0. 0.
    1.98800004e+00 1.98800004e+00 1.98800004e+00 1.98800004e+00
    1.98800004e+00 1.98800004e+00 1.98800004e+00 1.99399996e+00
    1.99600005e+00 2.00399995e+00 2.01099992e+00 2.01099992e+00
    2.01099992e+00 2.01799989e+00 2.01900005e+00 2.02200007e+00
    2.02200007e+00 2.02200007e+00 2.03200006e+00 1.72300005e+00
    1.37300003e+00 1.36500001e+00 1.35800004e+00 1.35599995e+00 0. 0. 0.
    0. 0. 0. 0. 0. 0. 0. 0. 0. 0. 0. 0. 0. 1.98800004e+00 1.98800004e+00
    1.98800004e+00 1.98800004e+00 1.98800004e+00 1.98800004e+00
    1.99100006e+00 1.99000001e+00 1.99000001e+00 2. 2.00300002e+00
    2.00900006e+00 2.00300002e+00 2.01099992e+00 2.01500010e+00
    2.02200007e+00 2.02200007e+00 2.02200007e+00 2.02500010e+00
    1.38399994e+00 1.37600005e+00 1.36500001e+00 1.35800004e+00
    1.35800004e+00 0. 0. 0. 0. 0. 0. 0. 0. 0. 0. 0. 0. 0. 0. 0. 0.
    1.97700000e+00 1.98300004e+00 1.98800004e+00 1.98800004e+00
    1.98800004e+00 1.98800004e+00 1.99199998e+00 1.99899995e+00
    1.99899995e+00 2.00099993e+00 2.00099993e+00 2. 2. 2. 2.01500010e+00
    2.02200007e+00 2.02200007e+00 2.02200007e+00 2.02200007e+00
    1.42900002e+00 1.37899995e+00 1.36300004e+00 1.35800004e+00
    1.35800004e+00 0. 0. 0. 0. 0. 0. 0. 0. 0. 0. 0. 0. 0. 0. 0. 0.
    1.98199999e+00 1.98500001e+00 1.98800004e+00 1.98800004e+00
    1.98800004e+00 1.98800004e+00 1.98800004e+00 1.98800004e+00
    1.99100006e+00 2.01099992e+00 2.01099992e+00 2. 2. 2.00500011e+00
    2.01799989e+00 2.02200007e+00 2.02200007e+00 2.02200007e+00
    2.02200007e+00 1.89400005e+00 1.36800003e+00 1.35399997e+00
    1.35300004e+00 1.35599995e+00 0. 0. 0. 0. 0. 0. 0. 0. 0. 0. 0. 0. 0.
    0. 0. 0. 1.98800004e+00 1.98800004e+00 1.98800004e+00 1.98800004e+00
    1.98800004e+00 1.98800004e+00 1.99199998e+00 1.99800003e+00
    2.00799990e+00 2.00600004e+00 2.00200009e+00 2. 2.00600004e+00
    2.01099992e+00 2.02200007e+00 2.02200007e+00 2.02200007e+00
    2.02200007e+00 2.02200007e+00 1.88999999e+00 1.34899998e+00
    1.35300004e+00 1.35300004e+00 1.35599995e+00 0. 0. 0. 0. 0. 0. 0. 0.
    0. 0. 0. 0. 0. 0. 0. 0. 1.98800004e+00 1.98800004e+00 1.98800004e+00
    1.98800004e+00 1.98800004e+00 1.98800004e+00 1.98800004e+00
    1.99699998e+00 2. 2. 1.99800003e+00 1.99800003e+00 2.00699997e+00
    2.01099992e+00 2.02099991e+00 2.01900005e+00 2.01799989e+00
    2.01999998e+00 2.01999998e+00 1.88800001e+00 1.34300005e+00
    1.35200000e+00 1.35500002e+00 1.36099994e+00 0. 0. 0. 0. 0. 0. 0. 0.
    0. 0. 0. 0. 0. 0. 0. 0. 1.98699999e+00 1.98199999e+00 1.98199999e+00
    1.98800004e+00 1.98800004e+00 1.98800004e+00 1.98800004e+00
    1.99699998e+00 2. 2. 1.98899996e+00 1.99100006e+00 2.00699997e+00
    2.01099992e+00 2.01500010e+00 2.00600004e+00 2.00099993e+00
    2.01099992e+00 2.01099992e+00 1.89400005e+00 1.34300005e+00
    1.35200000e+00 1.35500002e+00 1.36399996e+00 0. 0. 0. 0. 0. 0. 0. 0.
    0. 0. 0. 0. 0. 0. 0. 0. 1.97800004e+00 1.97700000e+00 1.97700000e+00
    1.97800004e+00 1.98500001e+00 1.98800004e+00 1.98800004e+00
    1.98899996e+00 2. 2. 1.99899995e+00 1.99899995e+00 2.00699997e+00
    2.01099992e+00 2.01799989e+00 2.01099992e+00 2.02099991e+00
    2.02099991e+00 2.03099990e+00 2.02500010e+00 1.63100004e+00
    1.35800004e+00 1.35800004e+00 1.36199999e+00 0. 0. 0. 0. 0. 0. 0. 0.
    0. 0. 0. 0. 0. 0. 0. 0. 1.97700000e+00 1.97700000e+00 1.97700000e+00
    1.98000002e+00 1.98500001e+00 1.98800004e+00 1.98800004e+00
    1.98800004e+00 1.99600005e+00 1.99800003e+00 2. 2. 2.00699997e+00
    2.01099992e+00 2.01900005e+00 2.01399994e+00 2.02200007e+00
    2.02200007e+00 2.02900004e+00 2.02999997e+00 1.76600003e+00
    1.37300003e+00 1.35800004e+00 1.36099994e+00 0. 0. 0. 0. 0. 0. 0. 0.
    0. 0. 0. 0. 0. 0. 0. 0. 1.97700000e+00 1.97700000e+00 1.97700000e+00
    1.98800004e+00 1.98800004e+00 1.98800004e+00 1.98800004e+00
    1.98800004e+00 1.98800004e+00 1.99399996e+00 2. 2. 2.00200009e+00
    2.01099992e+00 2.01500010e+00 2.01500010e+00 2.02200007e+00
    2.02200007e+00 2.02200007e+00 2.02200007e+00 2.02900004e+00
    1.40699995e+00 1.35800004e+00 1.36099994e+00 0. 0. 0. 0. 0. 0. 0. 0.
    0. 0. 0. 0. 0. 0. 0. 0. 1.97899997e+00 1.98800004e+00 1.98800004e+00
    1.98800004e+00 1.98800004e+00 1.98800004e+00 1.98800004e+00
    1.98800004e+00 1.98800004e+00 1.99399996e+00 2. 2. 2. 2.
    2.01099992e+00 2.01099992e+00 2.02200007e+00 2.02200007e+00
    2.02200007e+00 2.02500010e+00 1.67200005e+00 1.38000000e+00
    1.36399996e+00 1.36699998e+00 0. 0. 0. 0. 0. 0. 0. 0. 0. 0. 0. 0. 0.
    0. 0. 0. 1.97899997e+00 1.98199999e+00 1.97700000e+00 1.97700000e+00
    1.98399997e+00 1.98800004e+00 1.98800004e+00 1.98800004e+00
    1.98800004e+00 1.99399996e+00 2. 2. 2.00300002e+00 2.00500011e+00
    2.01099992e+00 2.01099992e+00 2.02200007e+00 2.02200007e+00
    2.03200006e+00 2.03399992e+00 1.82099998e+00 1.65999997e+00
    1.38100004e+00 1.37600005e+00 0. 0. 0. 0. 0. 0. 0. 0. 0. 0. 0. 0. 0.
    0. 0. 0. 1.97700000e+00 1.97800004e+00 1.97700000e+00 1.97700000e+00
    1.97899997e+00 1.98800004e+00 1.98800004e+00 1.98800004e+00
    1.98800004e+00 1.99399996e+00 2. 2.00200009e+00 2.00999999e+00
    2.01900005e+00 2.01999998e+00 2.01999998e+00 2.02200007e+00
    2.02600002e+00 2.03399992e+00 2.03399992e+00 2.03399992e+00
    2.03600001e+00 1.38800001e+00 1.38300002e+00 0. 0. 0. 0. 0. 0. 0. 0.
    0. 0. 0. 0. 0. 0. 0. 0. 1.97700000e+00 1.97800004e+00 1.97700000e+00
    1.97700000e+00 1.97700000e+00 1.98800004e+00 1.98800004e+00
    1.99600005e+00 1.99800003e+00 1.99800003e+00 1.99800003e+00 2.
    2.00699997e+00 2.02200007e+00 2.02200007e+00 2.02200007e+00
    2.02200007e+00 2.02800012e+00 2.03399992e+00 2.03399992e+00
    2.03399992e+00 1.43700004e+00 1.38999999e+00 1.38699996e+00 0. 0. 0.
    0. 0. 0. 0. 0. 0. 0. 0. 0. 0. 0. 0. 0. 1.97800004e+00 1.97899997e+00
    1.97700000e+00 1.97700000e+00 1.97700000e+00 1.98800004e+00
    1.98800004e+00 1.98800004e+00 1.98800004e+00 1.98800004e+00
    1.98800004e+00 2. 2.00699997e+00 2.01600003e+00 2.01799989e+00
    2.02200007e+00 2.02300000e+00 2.03099990e+00 2.03399992e+00
    2.03399992e+00 2.03399992e+00 1.43400002e+00 1.38999999e+00
    1.38999999e+00 0. 0. 0. 0. 0. 0. 0. 0. 0. 0. 0. 0. 0. 0. 0. 0.
    1.97700000e+00 1.97700000e+00 1.97700000e+00 1.97700000e+00
    1.97700000e+00 1.97899997e+00 1.98800004e+00 1.98800004e+00
    1.98800004e+00 1.98800004e+00 1.99699998e+00 2. 2.00699997e+00
    2.01099992e+00 2.01500010e+00 2.02200007e+00 2.02300000e+00
    2.03399992e+00 2.03399992e+00 2.03399992e+00 2.03399992e+00
    1.43200004e+00 1.38999999e+00 1.38999999e+00 0. 0. 0. 0. 0. 0. 0. 0.
    0. 0. 0. 0. 0. 0. 0. 0. 1.97500002e+00 1.97700000e+00 1.97700000e+00
    1.97700000e+00 1.97700000e+00 1.98000002e+00 1.98800004e+00
    1.98800004e+00 1.98800004e+00 1.99000001e+00 2.00900006e+00
    2.01099992e+00 2.01099992e+00 2.02200007e+00 2.02200007e+00
    2.02200007e+00 2.02300000e+00 2.03099990e+00 2.03099990e+00
    2.03099990e+00 1.94000006e+00 1.42200005e+00 1.38999999e+00
    1.38999999e+00 0. 0. 0. 0. 0. 0. 0. 0. 0. 0. 0. 0. 0. 0. 0. 0.
    1.96800005e+00 1.97099996e+00 1.97099996e+00 1.97700000e+00
    1.97700000e+00 1.98800004e+00 1.98800004e+00 1.98800004e+00
    1.98800004e+00 1.99399996e+00 2.00399995e+00 2.01099992e+00
    2.01099992e+00 2.01500010e+00 2.02200007e+00 2.02200007e+00
    2.02200007e+00 2.02200007e+00 2.02200007e+00 2.02200007e+00
    1.66700006e+00 1.39499998e+00 1.38999999e+00 1.38999999e+00 0. 0. 0.
    0. 0. 0. 0. 0. 0. 0. 0. 0. 0. 0. 0. 0. 1.96700001e+00 1.96700001e+00
    1.96700001e+00 1.97700000e+00 1.98399997e+00 1.98800004e+00
    1.98800004e+00 1.98800004e+00 1.98800004e+00 1.98800004e+00
    1.99899995e+00 2.01099992e+00 2.01099992e+00 2.01099992e+00
    2.02200007e+00 2.02200007e+00 2.02200007e+00 2.02200007e+00
    2.02200007e+00 2.03399992e+00 1.66999996e+00 1.38999999e+00
    1.38999999e+00 1.38999999e+00 0. 0. 0. 0. 0. 0. 0. 0. 0. 0. 0. 0. 0.
    0. 0. 0. 1.97700000e+00 1.97300005e+00 1.97099996e+00 1.98300004e+00
    1.98800004e+00 1.98800004e+00 1.98800004e+00 1.98800004e+00
    1.98800004e+00 1.99000001e+00 2.00900006e+00 2.01099992e+00
    2.01099992e+00 2.01099992e+00 2.02200007e+00 2.02200007e+00
    2.02200007e+00 2.02800012e+00 2.03399992e+00 1.72500002e+00
    1.39300001e+00 1.39199996e+00 1.39499998e+00 1.39499998e+00 0. 0. 0.
    0. 0. 0. 0. 0. 0. 0. 0. 0. 0. 0. 0. 0. 1.97700000e+00 1.97700000e+00
    1.97700000e+00 1.98800004e+00 1.98800004e+00 1.98800004e+00
    1.98800004e+00 1.98800004e+00 1.98800004e+00 1.99399996e+00
    2.00999999e+00 2.01099992e+00 2.01099992e+00 2.01099992e+00
    2.01399994e+00 2.01399994e+00 1.55400002e+00 1.55799997e+00
    1.56500006e+00 1.40100002e+00 1.39900005e+00 1.39499998e+00
    1.39499998e+00 1.39699996e+00 0. 0. 0. 0. 0. 0. 0. 0. 0. 0. 0. 0. 0.
    0. 0. 0. 1.97700000e+00 1.97700000e+00 1.98599994e+00 1.98399997e+00
    1.97700000e+00 1.97700000e+00 1.98099995e+00 1.98800004e+00
    1.98800004e+00 1.99500000e+00 2.00999999e+00 2.01099992e+00
    1.96500003e+00 1.38900006e+00 1.37899995e+00 1.37899995e+00
    1.37899995e+00 1.38100004e+00 1.38900006e+00 1.39999998e+00
    1.39999998e+00 1.39600003e+00 1.39499998e+00 1.39800000e+00 0. 0. 0.
    0. 0. 0. 0. 0. 0. 0. 0. 0. 0. 0. 0. 0. 1.97700000e+00 1.97700000e+00
    1.97700000e+00 1.97700000e+00 1.97700000e+00 1.97700000e+00
    1.98099995e+00 1.98800004e+00 1.99000001e+00 2. 2.00999999e+00
    2.01099992e+00 1.62300003e+00 1.37899995e+00 1.37899995e+00
    1.37899995e+00 1.37899995e+00 1.38100004e+00 1.38900006e+00
    1.39600003e+00 1.39999998e+00 1.39999998e+00 1.39499998e+00
    1.39800000e+00 0. 0. 0. 0. 0. 0. 0. 0. 0. 0. 0. 0. 0. 0. 0. 0. 0. 0.
    0. 0. 0. 0. 0. 0. 0. 0. 0. 0. 0. 0. 0. 0. 0. 0. 0. 0. 0. 0. 0. 0. 0.
    0. 0. 0. 0. 0. 0. 0. 0. 0. 0. 0. 0. 0. 0. 0. 0. 0. 0. 0. 0. 0. 0. 0.
    0. 0. 0. 0. 0. 0. 0. 0. 0. 0. 0. 0. 0. 0. 0. 0. 0. 0. 0. 0. 0. 0. 0.
    0.</data></Depth>
</opencv_storage>
