<?xml version="1.0"?>
<opencv_storage>
<Depth type_id="opencv-matrix">
  <rows>40</rows>
  <cols>40</cols>
  <dt>f</dt>
  <data>
    0. 0. 0. 0. 0. 0. 0. 0. 0. 0. 0. 0. 0. 0. 0. 0. 0. 0. 0. 0. 0. 0. 0.
    0. 0. 0. 0. 0. 0. 0. 0. 0. 0. 0. 0. 0. 0. 0. 0. 0. 0. 0. 0. 0. 0. 0.
    0. 0. 0. 0. 0. 0. 0. 0. 0. 0. 0. 0. 0. 0. 0. 0. 0. 0. 0. 0. 0. 0. 0.
    0. 0. 0. 0. 0. 0. 0. 0. 0. 0. 0. 0. 0. 0. 0. 0. 0. 0. 0. 0. 0. 0. 0.
    0. 0. 0. 0. 0. 0. 0. 0. 0. 0. 0. 0. 0. 0. 0. 0. 0. 0. 0. 0. 0. 0. 0.
    0. 0. 0. 0. 0. 0. 0. 0. 0. 0. 0. 0. 0. 0. 0. 0. 0. 0. 0. 0. 0. 0. 0.
    0. 0. 0. 0. 0. 0. 0. 0. 0. 0. 0. 0. 0. 0. 0. 0. 0. 0. 0. 0. 0. 0. 0.
    0. 0. 0. 0. 0. 0. 0. 0. 0. 0. 0. 0. 0. 0. 0. 0. 0. 0. 0. 0. 0. 0. 0.
    0. 0. 0. 0. 0. 0. 0. 0. 0. 0. 0. 0. 0. 0. 0. 0. 0. 0. 0. 0. 0. 0. 0.
    0. 0. 0. 0. 0. 0. 0. 0. 0. 0. 0. 0. 0. 0. 0. 0. 0. 0. 0. 0. 0. 0. 0.
    0. 0. 0. 0. 0. 0. 0. 0. 0. 0. 0. 0. 0. 0. 0. 0. 0. 0. 0. 0. 0. 0. 0.
    0. 0. 0. 0. 0. 0. 0. 0. 0. 0. 0. 0. 0. 0. 0. 0. 0. 0. 0. 0. 0. 0. 0.
    0. 0. 0. 0. 0. 0. 2.02900004e+00 2.02200007e+00 2.01799989e+00
    2.01799989e+00 2.02300000e+00 2.01799989e+00 2.01799989e+00
    2.01900005e+00 2.01300001e+00 2.01200008e+00 2.01200008e+00
    2.01200008e+00 2.00600004e+00 2.58299994e+00 2.00600004e+00
    2.00500011e+00 1.99500000e+00 2. 2. 2.00399995e+00 0. 0. 0. 0.
    1.97800004e+00 1.99500000e+00 0. 2.93300009e+00 0. 2.85800004e+00
    2.87400007e+00 2.90100002e+00 2.88499999e+00 2.88499999e+00
    1.66700006e+00 1.23599994e+00 0. 0. 2.45099998e+00 1.16299999e+00
    2.02999997e+00 2.02600002e+00 2.02300000e+00 2.02300000e+00
    2.01799989e+00 2.01799989e+00 2.01799989e+00 2.01799989e+00
    2.01200008e+00 2.01200008e+00 2.01200008e+00 2.01200008e+00
    2.00900006e+00 2.00600004e+00 2.00600004e+00 2.00500011e+00
    1.99699998e+00 2. 1.99500000e+00 1.99500000e+00 1.99500000e+00
    1.99000001e+00 1.98899996e+00 1.98899996e+00 1.98899996e+00
    1.99100006e+00 1.98800004e+00 1.97800004e+00 1.98399997e+00
    1.98000002e+00 1.98000002e+00 1.97800004e+00 1.97500002e+00
    1.97500002e+00 1.97399998e+00 1.96700001e+00 1.96599996e+00 0.
    1.08399999e+00 1.16499996e+00 2.03200006e+00 2.02500010e+00
    2.02500010e+00 2.02500010e+00 2.01999998e+00 2.01799989e+00
    2.01799989e+00 2.01799989e+00 2.01200008e+00 2.01200008e+00
    2.01200008e+00 2.01300001e+00 2.00900006e+00 2.00600004e+00
    2.00600004e+00 2.00600004e+00 2.00399995e+00 2. 1.99500000e+00
    1.99500000e+00 1.99500000e+00 1.99199998e+00 1.98899996e+00
    1.98899996e+00 1.98899996e+00 1.99100006e+00 1.98699999e+00
    1.98199999e+00 1.97800004e+00 1.98199999e+00 1.98399997e+00
    1.98399997e+00 1.97800004e+00 1.98199999e+00 1.97800004e+00
    1.97500002e+00 1.97300005e+00 0. 1.30400002e+00 2.10400009e+00
    2.03299999e+00 2.02900004e+00 2.02900004e+00 2.02900004e+00
    2.02300000e+00 2.01799989e+00 2.01799989e+00 2.01799989e+00
    2.01300001e+00 2.01600003e+00 2.01699996e+00 2.01399994e+00
    2.00999999e+00 2.00699997e+00 2.00600004e+00 2.00500011e+00
    2.00099993e+00 2. 1.99500000e+00 1.99399996e+00 1.99500000e+00
    1.99000001e+00 1.98899996e+00 1.98899996e+00 1.98899996e+00
    1.99500000e+00 1.99000001e+00 1.98199999e+00 1.97800004e+00
    1.97800004e+00 1.98300004e+00 1.97800004e+00 1.97300005e+00
    1.97700000e+00 1.97800004e+00 1.97800004e+00 1.97200000e+00 0.
    1.29499996e+00 2.09100008e+00 2.03200006e+00 2.02900004e+00
    2.02900004e+00 2.02900004e+00 2.02399993e+00 2.02300000e+00
    2.01900005e+00 2.01799989e+00 2.01799989e+00 2.01399994e+00
    2.01200008e+00 2.01200008e+00 2.01200008e+00 2.00999999e+00
    2.00600004e+00 2.00600004e+00 2.00399995e+00 1.99899995e+00
    1.99500000e+00 1.99000001e+00 1.99399996e+00 1.99500000e+00
    1.99100006e+00 1.99300003e+00 1.99500000e+00 1.99500000e+00
    1.99300003e+00 1.98800004e+00 1.98500001e+00 1.98500001e+00
    1.98399997e+00 1.97800004e+00 1.97800004e+00 1.97800004e+00
    1.97800004e+00 1.97800004e+00 1.97000003e+00 0. 2.08800006e+00
    2.07500005e+00 2.02900004e+00 2.02900004e+00 2.02900004e+00
    2.02999997e+00 2.02999997e+00 2.02300000e+00 2.01799989e+00
    2.01799989e+00 2.01799989e+00 2.01399994e+00 2.01200008e+00
    2.01200008e+00 2.01200008e+00 2.00999999e+00 2.00600004e+00
    2.00600004e+00 2. 1.99500000e+00 1.99500000e+00 1.99500000e+00
    1.99500000e+00 1.99500000e+00 1.99500000e+00 1.99500000e+00
    1.99500000e+00 1.99500000e+00 1.99300003e+00 1.98899996e+00
    1.98899996e+00 1.98899996e+00 1.98399997e+00 1.97899997e+00
    1.97800004e+00 1.97800004e+00 1.97800004e+00 1.97800004e+00
    1.97500002e+00 0. 2.09100008e+00 2.07399988e+00 2.03299999e+00
    2.02900004e+00 2.02900004e+00 2.02900004e+00 2.02900004e+00
    2.02300000e+00 2.02300000e+00 2.01900005e+00 2.01799989e+00
    2.01200008e+00 2.01200008e+00 2.01200008e+00 2.01200008e+00
    2.00999999e+00 2.00600004e+00 2.00600004e+00 1.99899995e+00
    1.99500000e+00 1.99500000e+00 2. 1.99600005e+00 1.99500000e+00
    1.99500000e+00 1.99800003e+00 1.99500000e+00 1.99500000e+00
    1.99500000e+00 1.98899996e+00 1.98899996e+00 1.98399997e+00
    1.98399997e+00 1.98899996e+00 1.98399997e+00 1.97800004e+00
    1.97800004e+00 1.97800004e+00 1.97800004e+00 0. 2.09699988e+00
    2.07599998e+00 2.03299999e+00 2.02900004e+00 2.02900004e+00
    2.02900004e+00 2.02900004e+00 2.02900004e+00 2.02300000e+00
    2.01900005e+00 2.01799989e+00 2.01799989e+00 2.01200008e+00
    2.01200008e+00 2.01200008e+00 2.00600004e+00 2.00399995e+00
    2.00099993e+00 2.00500011e+00 2. 1.99500000e+00 1.99500000e+00
    1.99500000e+00 1.99500000e+00 1.99500000e+00 1.99800003e+00 2.
    1.99500000e+00 1.98899996e+00 1.98899996e+00 1.98899996e+00
    1.98899996e+00 1.98399997e+00 1.97899997e+00 1.98399997e+00
    1.97800004e+00 1.97800004e+00 1.97800004e+00 1.97800004e+00 0.
    2.11599994e+00 2.07699990e+00 2.03299999e+00 2.02900004e+00
    2.02800012e+00 2.02300000e+00 2.02399993e+00 2.02399993e+00
    2.02399993e+00 2.01900005e+00 2.01799989e+00 2.01799989e+00
    2.01200008e+00 2.01200008e+00 2.01200008e+00 2.01099992e+00
    2.00600004e+00 2.00600004e+00 2.00600004e+00 2. 1.99899995e+00
    1.99500000e+00 1.99500000e+00 1.99800003e+00 1.99500000e+00
    1.99800003e+00 2. 1.99500000e+00 1.98899996e+00 1.98899996e+00
    1.98899996e+00 1.98899996e+00 1.98899996e+00 1.97800004e+00
    1.97899997e+00 1.97800004e+00 1.97800004e+00 1.97800004e+00
    1.97800004e+00 0. 0. 2.07900000e+00 2.03299999e+00 2.02900004e+00
    2.02900004e+00 2.02800012e+00 2.02300000e+00 2.02300000e+00
    2.02300000e+00 2.02300000e+00 2.01900005e+00 2.01799989e+00
    2.01799989e+00 2.01699996e+00 2.01200008e+00 2.00999999e+00
    2.00699997e+00 2.00600004e+00 2. 2. 1.99600005e+00 1.99500000e+00
    1.99500000e+00 1.99500000e+00 1.99500000e+00 1.99600005e+00
    1.99600005e+00 1.99500000e+00 1.99199998e+00 1.98899996e+00
    1.98899996e+00 1.98899996e+00 1.98899996e+00 1.98399997e+00
    1.98300004e+00 1.97800004e+00 1.97800004e+00 1.97800004e+00
    1.97800004e+00 0. 2.11299992e+00 2.06500006e+00 2.03299999e+00
    2.02900004e+00 2.02999997e+00 2.03399992e+00 2.03500009e+00
    2.02900004e+00 2.02800012e+00 2.02399993e+00 2.02300000e+00
    2.01799989e+00 2.01799989e+00 2.01200008e+00 2.01200008e+00
    2.00600004e+00 2.00600004e+00 2.01099992e+00 2.00500011e+00 2.
    1.99500000e+00 1.99500000e+00 1.99500000e+00 1.99500000e+00
    1.99500000e+00 1.99500000e+00 1.99500000e+00 1.99500000e+00
    1.99500000e+00 1.99199998e+00 1.98899996e+00 1.98800004e+00
    1.98300004e+00 1.98000002e+00 1.98399997e+00 1.98300004e+00
    1.98199999e+00 1.97800004e+00 1.97399998e+00 0. 2.11999989e+00
    2.05599999e+00 2.03299999e+00 2.02900004e+00 2.02900004e+00
    2.02999997e+00 2.03099990e+00 2.02900004e+00 2.02900004e+00
    2.02399993e+00 2.01799989e+00 2.01799989e+00 2.01300001e+00
    2.01200008e+00 2.01200008e+00 2.01200008e+00 2.00600004e+00
    2.00799990e+00 2.00200009e+00 2. 1.99800003e+00 1.99500000e+00
    1.99500000e+00 1.99199998e+00 1.99399996e+00 1.99800003e+00
    1.99199998e+00 1.98899996e+00 1.99500000e+00 1.99399996e+00
    1.98899996e+00 1.98800004e+00 1.98399997e+00 1.98199999e+00
    1.98399997e+00 1.97899997e+00 1.97800004e+00 1.97300005e+00
    1.36399996e+00 0. 2.11999989e+00 2.07699990e+00 2.03299999e+00
    2.02900004e+00 2.02900004e+00 2.02900004e+00 2.02900004e+00
    2.02900004e+00 2.02900004e+00 2.02300000e+00 2.01799989e+00
    2.01799989e+00 2.01600003e+00 2.01600003e+00 2.01200008e+00
    2.01200008e+00 2.01200008e+00 2.00600004e+00 2. 2. 2. 2.
    1.99500000e+00 1.99000001e+00 1.99300003e+00 1.99800003e+00
    1.99800003e+00 1.99500000e+00 1.99500000e+00 1.99500000e+00
    1.99399996e+00 1.98800004e+00 1.98399997e+00 1.98399997e+00
    1.97800004e+00 1.97800004e+00 1.98099995e+00 1.97000003e+00
    1.04400003e+00 0. 2.11400008e+00 2.06399989e+00 2.03500009e+00
    2.02900004e+00 2.02800012e+00 2.02399993e+00 2.02900004e+00
    2.02900004e+00 2.02900004e+00 2.02300000e+00 2.01799989e+00
    2.01799989e+00 2.01799989e+00 2.01799989e+00 2.01200008e+00
    2.01200008e+00 2.01200008e+00 2.00600004e+00 2.00300002e+00
    2.00300002e+00 2.00300002e+00 2. 1.99600005e+00 1.99500000e+00
    1.99500000e+00 1.99800003e+00 1.99899995e+00 1.99500000e+00
    1.99500000e+00 1.99500000e+00 1.99500000e+00 1.98800004e+00
    1.98399997e+00 1.98399997e+00 1.98399997e+00 1.97800004e+00
    1.98300004e+00 1.97399998e+00 1.04600000e+00 0. 1.71800005e+00
    2.05299997e+00 2.03699994e+00 2.02900004e+00 2.02800012e+00
    2.02600002e+00 2.03200006e+00 2.02900004e+00 2.02900004e+00
    2.02399993e+00 2.01799989e+00 2.01399994e+00 2.01200008e+00
    2.01500010e+00 2.01500010e+00 2.01200008e+00 2.01200008e+00
    2.00600004e+00 2.00600004e+00 2.00600004e+00 2.00600004e+00
    1.99500000e+00 1.99500000e+00 1.99500000e+00 1.99500000e+00
    1.99800003e+00 1.99800003e+00 1.99500000e+00 1.99500000e+00
    1.99500000e+00 1.99500000e+00 1.98899996e+00 1.98399997e+00
    1.98399997e+00 1.98399997e+00 1.98399997e+00 1.98399997e+00
    1.97800004e+00 0. 0. 1.77699995e+00 2.04699993e+00 2.03299999e+00
    2.02900004e+00 2.02900004e+00 2.02999997e+00 2.03500009e+00
    2.02900004e+00 2.02699995e+00 2.02300000e+00 2.01799989e+00
    2.01799989e+00 2.01399994e+00 2.01399994e+00 2.01500010e+00
    2.01200008e+00 2.01200008e+00 2.00600004e+00 2.00600004e+00
    2.00600004e+00 2. 1.99500000e+00 1.99500000e+00 1.99500000e+00
    1.99500000e+00 1.99800003e+00 1.99699998e+00 1.99500000e+00
    1.99300003e+00 1.98899996e+00 1.99500000e+00 1.99100006e+00
    1.98599994e+00 1.98399997e+00 1.98599994e+00 1.98599994e+00
    1.98399997e+00 1.97800004e+00 1.39100003e+00 0. 1.50800002e+00
    2.04500008e+00 2.03500009e+00 2.03500009e+00 2.02999997e+00
    2.02999997e+00 2.03500009e+00 2.02399993e+00 2.02300000e+00
    2.02300000e+00 2.01900005e+00 2.01799989e+00 2.01799989e+00
    2.01799989e+00 2.01500010e+00 2.01200008e+00 2.01200008e+00
    2.01200008e+00 2.01099992e+00 2. 2. 1.99699998e+00 1.99600005e+00
    1.99500000e+00 1.99500000e+00 1.99800003e+00 2. 1.99600005e+00
    1.99100006e+00 1.99100006e+00 1.99500000e+00 1.99399996e+00
    1.98899996e+00 1.98899996e+00 1.98899996e+00 1.98899996e+00
    1.98399997e+00 1.97800004e+00 1.71599996e+00 0. 1.89100003e+00
    2.04500008e+00 2.03500009e+00 2.03500009e+00 2.03399992e+00
    2.02999997e+00 2.03500009e+00 2.03500009e+00 2.02399993e+00
    2.02300000e+00 2.01999998e+00 2.01799989e+00 2.01699996e+00
    2.01699996e+00 2.01600003e+00 2.01300001e+00 2.01200008e+00
    2.01200008e+00 2.00999999e+00 2.00099993e+00 2. 1.99500000e+00
    1.99899995e+00 1.99500000e+00 1.99500000e+00 1.99800003e+00
    1.99699998e+00 1.99500000e+00 1.99500000e+00 1.99500000e+00
    1.99500000e+00 1.99500000e+00 1.98899996e+00 1.98899996e+00
    1.98899996e+00 1.98800004e+00 1.98300004e+00 1.98300004e+00 0. 0.
    2.07200003e+00 2.04900002e+00 2.03500009e+00 2.03500009e+00
    2.02900004e+00 2.02999997e+00 2.03500009e+00 2.03500009e+00
    2.02999997e+00 2.02300000e+00 2.02300000e+00 2.01900005e+00
    2.01500010e+00 2.01500010e+00 2.01799989e+00 2.01600003e+00
    2.01200008e+00 2.01099992e+00 2.00600004e+00 2.00600004e+00
    2.00099993e+00 2. 2. 1.99500000e+00 1.99500000e+00 1.99800003e+00
    1.99800003e+00 1.99500000e+00 1.99800003e+00 1.99500000e+00
    1.99500000e+00 1.99500000e+00 1.99500000e+00 1.98899996e+00
    1.98899996e+00 1.98399997e+00 1.97899997e+00 1.97800004e+00 0. 0.
    2.01900005e+00 2.05800009e+00 2.03500009e+00 2.03500009e+00
    2.03399992e+00 2.02999997e+00 2.03500009e+00 2.03500009e+00
    2.02999997e+00 2.02300000e+00 2.02300000e+00 2.02300000e+00
    2.01799989e+00 2.01799989e+00 2.01799989e+00 2.01600003e+00
    2.01200008e+00 2.01200008e+00 2.00600004e+00 2.00600004e+00
    2.00600004e+00 2.00600004e+00 2. 1.99500000e+00 1.99500000e+00
    1.99800003e+00 2. 1.99500000e+00 1.99500000e+00 1.99500000e+00
    1.99300003e+00 1.99000001e+00 1.98899996e+00 1.98899996e+00
    1.98899996e+00 1.98500001e+00 1.97800004e+00 1.97800004e+00 0. 0.
    1.38699996e+00 2.04999995e+00 2.02900004e+00 2.03500009e+00
    2.03399992e+00 2.02999997e+00 2.03500009e+00 2.02900004e+00
    2.02900004e+00 2.02399993e+00 2.02300000e+00 2.01799989e+00
    2.01799989e+00 2.01799989e+00 2.01799989e+00 2.01799989e+00
    2.01200008e+00 2.01200008e+00 2.01200008e+00 2.01200008e+00
    2.00600004e+00 2.00600004e+00 2. 1.99600005e+00 1.99500000e+00
    1.99800003e+00 2. 1.99500000e+00 1.99500000e+00 1.99300003e+00
    1.99100006e+00 1.99500000e+00 1.98899996e+00 1.98899996e+00
    1.98899996e+00 1.98500001e+00 1.98399997e+00 1.98399997e+00 0. 0. 0.
    2.03299999e+00 2.02900004e+00 2.03500009e+00 2.03399992e+00
    2.02999997e+00 2.03500009e+00 2.02900004e+00 2.02399993e+00
    2.02800012e+00 2.02300000e+00 2.01999998e+00 2.01799989e+00
    2.01799989e+00 2.01799989e+00 2.01600003e+00 2.01200008e+00
    2.01200008e+00 2.01200008e+00 2.00600004e+00 2. 2. 1.99500000e+00
    1.99899995e+00 1.99699998e+00 1.99800003e+00 2. 1.99500000e+00
    1.99500000e+00 1.99500000e+00 1.99500000e+00 1.99500000e+00
    1.99399996e+00 1.98899996e+00 1.98899996e+00 1.98899996e+00
    1.98399997e+00 1.97599995e+00 1.01300001e+00 0. 0. 2.03500009e+00
    2.03299999e+00 2.02999997e+00 2.03399992e+00 2.02999997e+00
    2.03500009e+00 2.02900004e+00 2.02399993e+00 2.02300000e+00
    2.02300000e+00 2.01999998e+00 2.01799989e+00 2.01799989e+00
    2.01799989e+00 2.01099992e+00 2.00699997e+00 2.00799990e+00
    2.01200008e+00 2.00600004e+00 2. 1.99500000e+00 1.99500000e+00
    1.99500000e+00 1.99500000e+00 1.99800003e+00 2. 2. 2. 1.99800003e+00
    1.99500000e+00 1.99500000e+00 1.99500000e+00 1.99399996e+00
    1.99399996e+00 1.99399996e+00 1.98399997e+00 1.97399998e+00
    1.04600000e+00 0. 0. 0. 0. 0. 2.03500009e+00 2.03999996e+00 0. 0.
    2.02300000e+00 2.02300000e+00 2.02800012e+00 2.01999998e+00
    2.01799989e+00 2.01799989e+00 2.01799989e+00 2.01399994e+00
    2.01099992e+00 2.01099992e+00 2.00699997e+00 2.00600004e+00 2.
    1.99500000e+00 1.99500000e+00 1.99000001e+00 1.99300003e+00
    1.99800003e+00 2. 2. 1.99800003e+00 1.99500000e+00 1.99500000e+00 2.
    1.99500000e+00 1.99500000e+00 1.99500000e+00 1.99100006e+00
    1.98399997e+00 1.97700000e+00 1.04799998e+00 0. 0. 0. 0. 0. 0. 0. 0.
    0. 0. 0. 0. 0. 0. 0. 0. 0. 0. 0. 0. 0. 0. 0. 0. 0. 0. 2.00799990e+00
    0. 0. 0. 0. 1.99600005e+00 1.99899995e+00 1.99500000e+00
    1.99500000e+00 1.99500000e+00 1.99000001e+00 1.98399997e+00
    1.99300003e+00 0. 0. 0. 0. 0. 0. 0. 0. 0. 0. 0. 0. 0. 0. 0. 0. 0. 0.
    0. 0. 0. 0. 0. 0. 0. 0. 0. 0. 0. 0. 0. 0. 0. 0. 0. 0. 0. 0. 0. 0. 0.
    0. 0. 0. 0. 0. 0. 0. 0. 0. 0. 0. 0. 0. 0. 0. 0. 0. 0. 0. 0. 0. 0. 0.
    0. 0. 0. 0. 0. 0. 0. 0. 0. 0. 0. 0. 0. 0. 0. 0. 0. 0. 0. 0. 0. 0. 0.
    0. 0. 0. 0. 0. 0. 0. 0. 0. 0. 0. 0. 0. 0. 0. 0. 0. 0. 0. 0. 0. 0. 0.
    0. 0. 0. 0. 0. 0. 0. 0. 0. 0. 0. 0. 0. 0. 0. 0. 0. 0. 0. 0. 0. 0. 0.
    0. 0. 0. 0. 0. 0. 0. 0. 0. 0. 0. 0. 0. 0. 0. 0. 0. 0. 0. 0. 0. 0. 0.
    0. 0. 0. 0. 0. 0. 0. 0. 0. 0. 0. 0. 0. 0. 0. 0. 0. 0. 0. 0. 0. 0. 0.
    0. 0. 0. 0. 0. 0. 0. 0. 0. 0. 0. 0. 0. 0. 0. 0. 0. 0. 0. 0. 0. 0. 0.
    0. 0. 0. 0. 0. 0. 0. 0. 0. 0. 0. 0. 0. 0. 0. 0. 0. 0. 0. 0. 0. 0. 0.
    0. 0. 0. 0. 0. 0. 0. 0. 0. 0. 0. 0. 0. 0. 0. 0. 0. 0. 0. 0. 0. 0. 0.
    0. 0. 0. 0. 0. 0. 0. 0. 0. 0. 0. 0. 0. 0. 0. 0. 0. 0. 0. 0. 0. 0. 0.
    0. 0. 0. 0. 0. 0. 0. 0. 0. 0. 0. 0. 0. 0. 0. 0. 0. 0. 0. 0. 0. 0. 0.
    0. 0. 0. 0. 0. 0. 0. 0. 0. 0. 0. 0. 0. 0. 0. 0. 0. 0. 0. 0. 0. 0. 0.
    0. 0. 0. 0. 0.</data></Depth>
</opencv_storage>
