<?xml version="1.0"?>
<opencv_storage>
<Depth type_id="opencv-matrix">
  <rows>40</rows>
  <cols>40</cols>
  <dt>f</dt>
  <data>
    0. 0. 0. 0. 0. 0. 1.22899997e+00 1.22899997e+00 0. 0. 0. 0. 0. 0.
    1.22899997e+00 1.22899997e+00 2.07100010e+00 2.06399989e+00
    2.03600001e+00 1.32200003e+00 2.06200004e+00 2.05500007e+00
    2.05299997e+00 2.05599999e+00 2.03699994e+00 2.04299998e+00
    2.04200006e+00 2.03699994e+00 1.22899997e+00 1.22899997e+00
    1.22899997e+00 1.22899997e+00 1.22899997e+00 0. 0. 0. 0. 0. 0. 0. 0.
    0. 0. 0. 0. 0. 0. 0. 0. 0. 0. 0. 0. 0. 1.22899997e+00 1.22899997e+00
    2.08699989e+00 2.08899999e+00 2.03399992e+00 2.05800009e+00
    2.08400011e+00 2.08299994e+00 2.07800007e+00 2.07100010e+00
    2.03299999e+00 2.08200002e+00 2.07200003e+00 1.82200003e+00
    1.22899997e+00 1.22899997e+00 1.22899997e+00 1.22899997e+00
    1.22899997e+00 0. 0. 0. 0. 0. 0. 0. 0. 0. 0. 0. 0. 0. 1.22899997e+00
    2.95400000e+00 0. 0. 0. 0. 0. 1.22899997e+00 1.22899997e+00
    1.22899997e+00 2.11800003e+00 2.11100006e+00 2.03099990e+00
    2.01999998e+00 2.10899997e+00 2.10200000e+00 2.10100007e+00
    2.09800005e+00 2.03299999e+00 2.05200005e+00 2.09100008e+00
    1.22899997e+00 1.22899997e+00 1.22899997e+00 1.22899997e+00
    1.22899997e+00 1.22899997e+00 0. 0. 0. 0. 0. 0. 0. 0. 0. 0. 0. 0. 0.
    1.22899997e+00 1.22899997e+00 1.82599998e+00 1.22899997e+00 0.
    2.47700000e+00 2.48099995e+00 1.22899997e+00 1.22899997e+00
    1.22899997e+00 1.22899997e+00 1.76300001e+00 2.03200006e+00
    2.07900000e+00 2.38299990e+00 2.30399990e+00 2.12299991e+00
    2.05200005e+00 2.03399992e+00 1.71700001e+00 2.11199999e+00
    1.22899997e+00 1.22899997e+00 1.22899997e+00 1.22899997e+00
    1.22899997e+00 1.22899997e+00 0. 0. 0. 0. 0. 0. 0. 0. 0. 0. 0. 0. 0.
    1.22899997e+00 1.22899997e+00 1.22899997e+00 1.22899997e+00
    2.01399994e+00 2.01099992e+00 2.00900006e+00 2.01200008e+00
    2.01200008e+00 2.01200008e+00 1.99300003e+00 2.01200008e+00
    2.02300000e+00 2.01300001e+00 2.34200001e+00 2.33400011e+00
    2.38499999e+00 2.03099990e+00 2.02999997e+00 1.22899997e+00
    1.22899997e+00 1.22899997e+00 1.22899997e+00 1.22899997e+00
    1.22899997e+00 1.22899997e+00 1.22899997e+00 0. 0. 0. 0. 0. 0. 0. 0.
    0. 0. 0. 0. 0. 1.22899997e+00 1.22899997e+00 1.22899997e+00
    1.75699997e+00 2.01099992e+00 2.00999999e+00 2.00999999e+00
    2.01099992e+00 2.01099992e+00 2.01200008e+00 2.01099992e+00
    2.01200008e+00 2.00999999e+00 2.00999999e+00 2.00999999e+00
    2.00999999e+00 2.00900006e+00 2.00799990e+00 2.01200008e+00
    2.01300001e+00 1.72200000e+00 1.92600000e+00 1.72300005e+00
    1.22899997e+00 1.22899997e+00 1.22899997e+00 1.22899997e+00 0. 0. 0.
    0. 0. 0. 0. 0. 0. 0. 0. 0. 0. 1.22899997e+00 1.22899997e+00
    1.22899997e+00 1.78400004e+00 2.00999999e+00 2.00999999e+00
    2.00999999e+00 2.00999999e+00 2.00999999e+00 2.00999999e+00
    2.00999999e+00 2.00999999e+00 2.00999999e+00 2.00999999e+00
    2.00900006e+00 2.00900006e+00 2.00999999e+00 2.00999999e+00
    2.01200008e+00 2.00900006e+00 2.00999999e+00 2.00900006e+00
    2.00999999e+00 2.00900006e+00 2.00999999e+00 2.00699997e+00
    2.00699997e+00 0. 0. 0. 0. 0. 0. 0. 0. 0. 0. 0. 0. 0. 1.22899997e+00
    1.22899997e+00 1.22899997e+00 2.00900006e+00 2.00999999e+00
    2.00900006e+00 2.00900006e+00 2.00999999e+00 2.01099992e+00
    2.00999999e+00 2.00999999e+00 2.00900006e+00 2.00900006e+00
    2.01099992e+00 2.00900006e+00 2.00900006e+00 2.00900006e+00
    2.00799990e+00 2.00900006e+00 2.00999999e+00 2.00999999e+00
    2.00999999e+00 2.00999999e+00 2.00900006e+00 2.00900006e+00
    2.00900006e+00 2.00699997e+00 0. 0. 0. 0. 0. 0. 0. 0. 0. 0. 0. 0. 0.
    1.22899997e+00 1.22899997e+00 1.22899997e+00 2.01099992e+00
    2.00900006e+00 2.00900006e+00 2.00900006e+00 2.00999999e+00
    2.00999999e+00 2.00900006e+00 2.00999999e+00 2.00699997e+00
    2.00699997e+00 2.00900006e+00 2.00900006e+00 2.00900006e+00
    2.00900006e+00 2.00900006e+00 2.00900006e+00 2.00999999e+00
    2.00999999e+00 2.00999999e+00 2.00900006e+00 2.00699997e+00
    2.00699997e+00 2.00799990e+00 2.00500011e+00 0. 0. 0. 0. 0. 0. 0. 0.
    0. 0. 0. 0. 0. 1.22899997e+00 1.22899997e+00 1.22899997e+00
    2.00999999e+00 2.00900006e+00 2.00900006e+00 2.00699997e+00
    2.00799990e+00 2.00900006e+00 2.00999999e+00 2.00799990e+00
    2.00699997e+00 2.00699997e+00 2.00699997e+00 2.00900006e+00
    2.00699997e+00 2.00699997e+00 2.00600004e+00 2.00799990e+00
    2.00799990e+00 2.00699997e+00 2.00699997e+00 2.00699997e+00
    2.00699997e+00 2.00600004e+00 2.00699997e+00 2.00399995e+00 0. 0. 0.
    0. 0. 0. 0. 0. 0. 0. 0. 0. 0. 1.22899997e+00 1.22899997e+00
    1.22899997e+00 2.00900006e+00 2.00900006e+00 2.00900006e+00
    2.00699997e+00 2.00799990e+00 2.00900006e+00 2.00900006e+00
    2.00900006e+00 2.00500011e+00 2.00699997e+00 2.00900006e+00
    2.00699997e+00 2.00699997e+00 2.00699997e+00 2.00500011e+00
    2.00699997e+00 2.00699997e+00 2.00699997e+00 2.00699997e+00
    2.00699997e+00 2.00699997e+00 2.00600004e+00 2.00699997e+00
    2.00300002e+00 0. 0. 0. 0. 0. 0. 0. 0. 0. 0. 0. 0. 0. 1.22899997e+00
    1.22899997e+00 1.38300002e+00 2.00900006e+00 2.00799990e+00
    2.00699997e+00 2.00500011e+00 2.00799990e+00 2.00900006e+00
    2.00900006e+00 2.00799990e+00 2.00500011e+00 2.00699997e+00
    2.00699997e+00 2.00699997e+00 2.00500011e+00 2.00500011e+00
    2.00500011e+00 2.00699997e+00 2.00699997e+00 2.00600004e+00
    2.00600004e+00 2.00600004e+00 2.00500011e+00 2.00500011e+00
    2.00500011e+00 1.73800004e+00 0. 0. 0. 0. 0. 0. 0. 0. 0. 0. 0. 0. 0.
    1.22899997e+00 1.22899997e+00 1.38100004e+00 2.00900006e+00
    2.00699997e+00 2.00500011e+00 2.00500011e+00 2.00699997e+00
    2.00699997e+00 2.00799990e+00 2.00699997e+00 2.00500011e+00
    2.00699997e+00 2.00699997e+00 2.00500011e+00 2.00500011e+00
    2.00500011e+00 2.00300002e+00 2.00500011e+00 2.00500011e+00
    2.00500011e+00 2.00500011e+00 2.00500011e+00 2.00500011e+00
    2.00300002e+00 2.00300002e+00 2. 0. 0. 0. 0. 0. 0. 0. 0. 0. 0. 0. 0.
    0. 1.22899997e+00 1.22899997e+00 1.22899997e+00 2.00600004e+00
    2.00699997e+00 2.00500011e+00 2.00500011e+00 2.00600004e+00
    2.00699997e+00 2.00600004e+00 2.00500011e+00 2.00500011e+00
    2.00699997e+00 2.00500011e+00 2.00500011e+00 2.00500011e+00
    2.00300002e+00 2.00500011e+00 2.00500011e+00 2.00500011e+00
    2.00300002e+00 2.00500011e+00 2.00500011e+00 2.00399995e+00
    2.00300002e+00 2.00200009e+00 1.47399998e+00 0. 0. 0. 0. 0. 0. 0. 0.
    0. 0. 0. 0. 0. 1.22899997e+00 1.22899997e+00 1.38100004e+00
    2.00699997e+00 2.00699997e+00 2.00399995e+00 2.00300002e+00
    2.00399995e+00 2.00500011e+00 2.00500011e+00 2.00500011e+00
    2.00300002e+00 2.00500011e+00 2.00300002e+00 2.00500011e+00
    2.00300002e+00 2.00300002e+00 2.00300002e+00 2.00500011e+00
    2.00500011e+00 2.00500011e+00 2.00500011e+00 2.00500011e+00
    2.00200009e+00 2.00200009e+00 2.00200009e+00 1.47399998e+00 0. 0. 0.
    0. 0. 0. 0. 0. 0. 0. 0. 0. 0. 1.22899997e+00 1.22899997e+00
    1.38199997e+00 2.00300002e+00 2.00300002e+00 2.00300002e+00
    2.00300002e+00 2.00399995e+00 2.00500011e+00 2.00500011e+00
    2.00300002e+00 2.00300002e+00 2.00500011e+00 2.00300002e+00
    2.00300002e+00 2.00300002e+00 2.00200009e+00 2.00300002e+00
    2.00500011e+00 2.00500011e+00 2.00500011e+00 2.00500011e+00
    2.00300002e+00 2.00099993e+00 2. 2.00300002e+00 1.33200002e+00 0. 0.
    0. 0. 0. 0. 0. 0. 0. 0. 0. 0. 0. 1.22899997e+00 1.22899997e+00
    1.38199997e+00 2.00399995e+00 2.00500011e+00 2.00300002e+00
    2.00300002e+00 2.00399995e+00 2.00500011e+00 2.00500011e+00
    2.00300002e+00 2.00300002e+00 2.00300002e+00 2.00300002e+00
    2.00300002e+00 2.00300002e+00 2.00200009e+00 2.00200009e+00
    2.00500011e+00 2.00399995e+00 2.00300002e+00 2.00200009e+00
    2.00200009e+00 2. 2. 2.00300002e+00 1.47399998e+00 0. 0. 0. 0. 0. 0.
    0. 0. 0. 0. 0. 0. 0. 1.22899997e+00 1.22899997e+00 2.00600004e+00
    2.00300002e+00 2.00300002e+00 2.00300002e+00 2.00300002e+00
    2.00399995e+00 2.00399995e+00 2.00300002e+00 2.00300002e+00
    2.00300002e+00 2.00300002e+00 2.00300002e+00 2.00300002e+00
    2.00200009e+00 2.00200009e+00 2.00300002e+00 2.00300002e+00
    2.00300002e+00 2.00200009e+00 2.00099993e+00 2.00099993e+00 2.
    2.00300002e+00 2. 1.22899997e+00 0. 0. 0. 0. 0. 0. 0. 0. 0. 0. 0. 0.
    0. 1.22899997e+00 1.22899997e+00 2.00300002e+00 2.00300002e+00
    2.00300002e+00 2.00300002e+00 2.00200009e+00 2.00300002e+00
    2.00300002e+00 2.00300002e+00 2.00200009e+00 2.00300002e+00
    2.00300002e+00 2.00300002e+00 2.00200009e+00 2.00200009e+00
    2.00200009e+00 2.00300002e+00 2.00300002e+00 2.00200009e+00
    2.00200009e+00 2.00200009e+00 2. 2. 2. 2. 1.22899997e+00 0. 0. 0. 0.
    0. 0. 0. 0. 0. 0. 0. 0. 0. 1.22899997e+00 1.22899997e+00
    2.00399995e+00 2.00300002e+00 2.00300002e+00 2.00200009e+00
    2.00200009e+00 2.00300002e+00 2.00300002e+00 2.00300002e+00
    2.00099993e+00 2.00200009e+00 2.00300002e+00 2.00200009e+00
    2.00200009e+00 2.00200009e+00 2. 2.00099993e+00 2.00099993e+00
    2.00099993e+00 2.00200009e+00 2.00200009e+00 2. 1.99800003e+00
    1.99800003e+00 2. 1.22899997e+00 0. 0. 0. 0. 0. 0. 0. 0. 0. 0. 0. 0.
    0. 1.22899997e+00 1.22899997e+00 2.00300002e+00 2.00300002e+00
    2.00200009e+00 2.00200009e+00 2.00200009e+00 2.00300002e+00
    2.00300002e+00 2.00300002e+00 2. 2. 2. 2. 2. 2. 2. 1.99800003e+00 2.
    2. 2.00200009e+00 2. 2. 2. 1.99899995e+00 1.99800003e+00
    1.22899997e+00 0. 0. 0. 0. 0. 0. 0. 0. 0. 0. 0. 0. 0. 1.22899997e+00
    1.22899997e+00 2.00300002e+00 2.00300002e+00 2.00200009e+00
    2.00200009e+00 2.00200009e+00 2.00300002e+00 2.00300002e+00
    2.00200009e+00 2. 1.99899995e+00 2.00200009e+00 1.99899995e+00
    1.99800003e+00 1.99800003e+00 1.99899995e+00 1.99899995e+00 2. 2. 2.
    1.99899995e+00 1.99899995e+00 1.99800003e+00 1.99800003e+00
    1.84099996e+00 1.22899997e+00 0. 0. 0. 0. 0. 0. 0. 0. 0. 0. 0. 0. 0.
    1.22899997e+00 1.22899997e+00 2.00200009e+00 2. 2.00200009e+00 2. 2.
    2.00099993e+00 2.00200009e+00 2. 2. 2. 2. 1.99800003e+00
    1.99600005e+00 1.99800003e+00 1.99800003e+00 1.99699998e+00 2. 2.
    1.99800003e+00 1.99800003e+00 1.99800003e+00 1.99800003e+00
    1.99800003e+00 1.84099996e+00 1.22899997e+00 0. 0. 0. 0. 0. 0. 0. 0.
    0. 0. 0. 0. 0. 1.22899997e+00 1.36600006e+00 2.00200009e+00
    2.00200009e+00 2.00200009e+00 2. 2. 2.00099993e+00 2.00099993e+00 2.
    1.99800003e+00 2. 1.99800003e+00 1.99800003e+00 1.99800003e+00
    1.99600005e+00 1.99800003e+00 1.99800003e+00 1.99800003e+00 2.
    1.99800003e+00 1.99800003e+00 1.99800003e+00 1.99800003e+00
    1.99800003e+00 1.83899999e+00 1.22899997e+00 0. 0. 0. 0. 0. 0. 0. 0.
    0. 0. 0. 0. 0. 1.22899997e+00 1.78499997e+00 2.00200009e+00
    2.00099993e+00 2.00200009e+00 2. 2. 1.99899995e+00 2. 2.
    1.99800003e+00 1.99800003e+00 1.99800003e+00 1.99800003e+00
    1.99800003e+00 1.99600005e+00 1.99699998e+00 1.99600005e+00
    1.99800003e+00 1.99800003e+00 1.99600005e+00 1.99699998e+00
    1.99800003e+00 1.99800003e+00 1.99699998e+00 1.83700001e+00
    1.22899997e+00 0. 0. 0. 0. 0. 0. 0. 0. 0. 0. 0. 0. 0. 1.22899997e+00
    2.00200009e+00 2. 2. 2. 1.99800003e+00 1.99800003e+00 1.99800003e+00
    1.99800003e+00 1.99800003e+00 1.99800003e+00 1.99800003e+00
    1.99600005e+00 1.99600005e+00 1.99600005e+00 1.99600005e+00
    1.99600005e+00 1.99600005e+00 1.99600005e+00 1.99699998e+00
    1.99600005e+00 1.99600005e+00 1.99600005e+00 1.99500000e+00
    1.99600005e+00 1.22899997e+00 1.22899997e+00 0. 0. 0. 0. 0. 0. 0. 0.
    0. 0. 0. 0. 0. 1.22899997e+00 1.85300004e+00 2. 2. 1.99800003e+00
    1.99800003e+00 1.99600005e+00 1.99800003e+00 1.99800003e+00
    1.99800003e+00 1.99600005e+00 1.99600005e+00 1.99600005e+00
    1.99600005e+00 1.99600005e+00 1.99500000e+00 1.99500000e+00
    1.99500000e+00 1.99600005e+00 1.99500000e+00 1.99699998e+00
    1.99500000e+00 1.99600005e+00 1.99500000e+00 1.99500000e+00
    1.22899997e+00 1.22899997e+00 0. 0. 0. 0. 0. 0. 0. 0. 0. 0. 0. 0. 0.
    1.22899997e+00 2. 2. 2. 1.99800003e+00 1.99600005e+00 1.99600005e+00
    1.99800003e+00 1.99800003e+00 1.99699998e+00 1.99600005e+00
    1.99600005e+00 1.99600005e+00 1.99600005e+00 1.99600005e+00
    1.99500000e+00 1.99500000e+00 1.99500000e+00 1.99600005e+00
    1.99600005e+00 1.99500000e+00 1.99500000e+00 1.99500000e+00
    1.99500000e+00 1.99500000e+00 1.22899997e+00 1.22899997e+00 0. 0. 0.
    0. 0. 0. 0. 0. 0. 0. 0. 0. 0. 1.22899997e+00 1.99800003e+00
    1.99800003e+00 1.99600005e+00 1.99600005e+00 1.99600005e+00
    1.99600005e+00 1.99800003e+00 1.99699998e+00 1.99600005e+00
    1.99600005e+00 1.99600005e+00 1.99500000e+00 1.99600005e+00
    1.99500000e+00 1.99500000e+00 1.99500000e+00 1.99300003e+00
    1.99500000e+00 1.99500000e+00 1.99500000e+00 1.99399996e+00
    1.99300003e+00 1.99399996e+00 1.99300003e+00 1.22899997e+00
    1.22899997e+00 0. 0. 0. 0. 0. 0. 0. 0. 0. 0. 0. 0. 0. 1.22899997e+00
    1.99800003e+00 1.99600005e+00 1.99600005e+00 1.99600005e+00
    1.99600005e+00 1.99600005e+00 1.99600005e+00 1.99600005e+00
    1.99600005e+00 1.99600005e+00 1.99500000e+00 1.99300003e+00
    1.99500000e+00 1.99300003e+00 1.99500000e+00 1.99300003e+00
    1.99300003e+00 1.99500000e+00 1.99500000e+00 1.99500000e+00
    1.99300003e+00 1.99300003e+00 1.99100006e+00 1.99100006e+00
    1.22899997e+00 1.22899997e+00 0. 0. 0. 0. 0. 0. 0. 0. 0. 0. 0. 0. 0.
    1.22899997e+00 1.99899995e+00 1.99699998e+00 1.99699998e+00
    1.99600005e+00 1.99600005e+00 1.99500000e+00 1.99600005e+00
    1.99500000e+00 1.99500000e+00 1.99600005e+00 1.99500000e+00
    1.99300003e+00 1.99199998e+00 1.99300003e+00 1.99300003e+00
    1.99100006e+00 1.99199998e+00 1.99300003e+00 1.99300003e+00
    1.99399996e+00 1.99300003e+00 1.99300003e+00 1.99199998e+00
    1.99100006e+00 1.22899997e+00 1.22899997e+00 0. 0. 0. 0. 0. 0. 0. 0.
    0. 0. 0. 0. 0. 1.41299999e+00 1.99600005e+00 1.99600005e+00
    1.99600005e+00 1.99600005e+00 1.99500000e+00 1.99500000e+00
    1.99600005e+00 1.99500000e+00 1.99500000e+00 1.99500000e+00
    1.99300003e+00 1.99500000e+00 1.99300003e+00 1.99300003e+00
    1.99100006e+00 1.99100006e+00 1.99100006e+00 1.99500000e+00
    1.99300003e+00 1.99300003e+00 1.99300003e+00 1.99199998e+00
    1.99300003e+00 1.99300003e+00 1.22899997e+00 1.22899997e+00 0. 0. 0.
    0. 0. 0. 0. 0. 0. 0. 0. 0. 0. 1.99800003e+00 1.99600005e+00
    1.99600005e+00 1.99500000e+00 1.99500000e+00 1.99500000e+00
    1.99500000e+00 1.99500000e+00 1.99500000e+00 1.99300003e+00
    1.99500000e+00 1.99300003e+00 1.99100006e+00 1.99199998e+00
    1.99100006e+00 1.99100006e+00 1.99100006e+00 1.99100006e+00
    1.99300003e+00 1.99300003e+00 1.99300003e+00 1.99199998e+00
    1.99100006e+00 1.99300003e+00 1.68400002e+00 1.22899997e+00
    1.22899997e+00 0. 0. 0. 0. 0. 0. 0. 0. 0. 0. 0. 0. 0. 1.99600005e+00
    1.99600005e+00 1.99500000e+00 1.99500000e+00 1.99500000e+00
    1.99300003e+00 1.99300003e+00 1.99500000e+00 1.99500000e+00
    1.99399996e+00 1.99300003e+00 1.99300003e+00 1.99300003e+00
    1.99100006e+00 1.99100006e+00 1.99100006e+00 1.99100006e+00
    1.99100006e+00 1.99300003e+00 1.99100006e+00 1.99300003e+00
    1.99100006e+00 1.99100006e+00 1.99300003e+00 1.43799996e+00
    1.22899997e+00 0. 0. 0. 0. 0. 0. 0. 0. 0. 0. 0. 0. 0. 0.
    1.99800003e+00 1.99500000e+00 1.99500000e+00 1.99500000e+00
    1.99399996e+00 1.99399996e+00 1.99100006e+00 1.99300003e+00
    1.99300003e+00 1.99300003e+00 1.99500000e+00 1.99100006e+00
    1.99100006e+00 1.99100006e+00 1.99100006e+00 1.99100006e+00
    1.99000001e+00 1.99000001e+00 1.99300003e+00 1.99100006e+00
    1.99300003e+00 1.99199998e+00 1.99100006e+00 1.99199998e+00
    1.22899997e+00 1.22899997e+00 0. 0. 0. 0. 0. 0. 0. 0. 0. 0. 0. 0. 0.
    0. 1.99600005e+00 1.99500000e+00 1.99500000e+00 1.99300003e+00
    1.99300003e+00 1.99300003e+00 1.99100006e+00 1.99399996e+00
    1.99100006e+00 1.99199998e+00 1.99500000e+00 1.99100006e+00
    1.99100006e+00 1.99000001e+00 1.99100006e+00 1.99100006e+00
    1.99000001e+00 1.99100006e+00 1.99100006e+00 1.99100006e+00
    1.99100006e+00 1.99100006e+00 1.99100006e+00 1.99300003e+00
    1.22899997e+00 1.22899997e+00 0. 0. 0. 0. 0. 0. 0. 0. 0. 0. 0. 0. 0.
    0. 1.99500000e+00 1.99500000e+00 1.99500000e+00 1.99199998e+00
    1.99300003e+00 1.99300003e+00 1.99100006e+00 1.99399996e+00
    1.99100006e+00 1.99100006e+00 1.99300003e+00 1.99100006e+00
    1.99000001e+00 1.99000001e+00 1.99000001e+00 1.99100006e+00
    1.99000001e+00 1.99000001e+00 1.99100006e+00 1.99100006e+00
    1.99100006e+00 1.99100006e+00 1.99100006e+00 1.99000001e+00
    1.22899997e+00 1.22899997e+00 0. 0. 0. 0. 0. 0. 0. 0. 0. 0. 0. 0. 0.
    0. 1.99500000e+00 1.99199998e+00 1.99300003e+00 1.99100006e+00
    1.99300003e+00 1.99100006e+00 1.99000001e+00 1.99300003e+00
    1.99100006e+00 1.99100006e+00 1.99100006e+00 1.99100006e+00
    1.99000001e+00 1.99000001e+00 1.99000001e+00 1.99100006e+00
    1.99000001e+00 1.99000001e+00 1.99100006e+00 1.99100006e+00
    1.99100006e+00 1.99100006e+00 1.99100006e+00 1.99000001e+00
    1.22899997e+00 1.22899997e+00 0. 0. 0. 0. 0. 0. 0. 0. 0. 0. 0. 0. 0.
    0. 0. 0. 0. 0. 0. 1.99800003e+00 1.99100006e+00 0. 1.99199998e+00
    1.99100006e+00 1.99000001e+00 1.99100006e+00 1.99000001e+00
    1.99000001e+00 1.98800004e+00 1.99000001e+00 1.99000001e+00
    1.99000001e+00 1.99100006e+00 1.99100006e+00 1.99100006e+00
    1.99100006e+00 1.99100006e+00 1.99000001e+00 1.22899997e+00
    1.22899997e+00 0. 0. 0. 0. 0. 0. 0. 0. 0. 0. 0. 0. 0. 0. 0. 0. 0. 0.
    0. 0. 0. 0. 0. 0. 0. 0. 0. 0. 1.98399997e+00 1.99000001e+00
    1.98800004e+00 1.99000001e+00 1.99100006e+00 1.99100006e+00
    1.99100006e+00 1.99100006e+00 1.99100006e+00 1.80299997e+00
    1.22899997e+00 1.22899997e+00 0. 0. 0. 0. 0. 0. 0. 0.</data></Depth>
</opencv_storage>
