<?xml version="1.0"?>
<opencv_storage>
<Depth type_id="opencv-matrix">
  <rows>40</rows>
  <cols>40</cols>
  <dt>f</dt>
  <data>
    0. 0. 0. 0. 0. 0. 0. 0. 0. 0. 0. 0. 0. 0. 0. 0. 0. 0. 0. 0. 0. 0. 0.
    0. 0. 0. 0. 0. 0. 0. 0. 0. 0. 0. 0. 0. 0. 0. 0. 0. 0. 0. 0. 0. 0. 0.
    0. 0. 0. 0. 0. 0. 0. 0. 0. 0. 0. 0. 0. 0. 0. 0. 0. 0. 0. 0. 0. 0. 0.
    0. 0. 0. 0. 0. 0. 0. 0. 0. 0. 0. 0. 0. 0. 0. 0. 0. 0. 0. 0. 0. 0. 0.
    0. 0. 0. 0. 0. 0. 0. 0. 0. 0. 0. 0. 0. 0. 0. 0. 0. 0. 0. 0. 0. 0. 0.
    0. 0. 0. 0. 0. 0. 0. 0. 0. 0. 0. 0. 0. 0. 0. 0. 0. 0. 0. 0. 0. 0. 0.
    0. 0. 0. 0. 0. 0. 0. 0. 0. 0. 0. 0. 0. 0. 0. 0. 0. 0. 0. 0. 0. 0. 0.
    0. 0. 0. 0. 0. 0. 0. 0. 0. 0. 0. 0. 0. 0. 0. 0. 0. 0. 0. 0. 0. 0. 0.
    0. 0. 0. 0. 0. 0. 0. 0. 0. 0. 0. 0. 0. 0. 0. 0. 2.15899992e+00
    2.15899992e+00 2.15899992e+00 2.15899992e+00 2.15899992e+00
    2.15899992e+00 2.15899992e+00 2.15899992e+00 2.15899992e+00
    2.16199994e+00 2.20499992e+00 2.24200010e+00 2.24200010e+00
    2.24200010e+00 2.24200010e+00 2.31900001e+00 2.55800009e+00
    2.70000005e+00 2.70000005e+00 2.72600007e+00 2.77900004e+00
    2.76999998e+00 2.71799994e+00 2.70000005e+00 2.70000005e+00
    2.78099990e+00 2.88899994e+00 2.90599990e+00 2.90599990e+00
    2.90599990e+00 2.90599990e+00 2.90599990e+00 2.90599990e+00
    2.90599990e+00 2.90599990e+00 2.90599990e+00 2.89100003e+00
    2.83599997e+00 2.80100012e+00 2.80100012e+00 2.15100002e+00
    2.13899994e+00 2.13599992e+00 2.13599992e+00 2.14599991e+00
    2.15799999e+00 2.15899992e+00 2.15899992e+00 2.15899992e+00
    2.16100001e+00 2.19199991e+00 2.21499991e+00 2.19099998e+00
    2.17300010e+00 2.17300010e+00 2.24399996e+00 2.46399999e+00
    2.60500002e+00 2.63199997e+00 2.67100000e+00 2.72300005e+00
    2.73099995e+00 2.70799994e+00 2.70000005e+00 2.70000005e+00
    2.78099990e+00 2.88899994e+00 2.90599990e+00 2.90599990e+00
    2.90599990e+00 2.90599990e+00 2.90599990e+00 2.90400004e+00
    2.88899994e+00 2.87599993e+00 2.87599993e+00 2.86500001e+00
    2.82599998e+00 2.80100012e+00 2.80100012e+00 2.13800001e+00
    2.10299993e+00 2.09400010e+00 2.09400010e+00 2.12100005e+00
    2.15499997e+00 2.15899992e+00 2.15899992e+00 2.15899992e+00
    2.16000009e+00 2.16799998e+00 2.16499996e+00 2.09800005e+00
    2.04699993e+00 2.04699993e+00 2.10599995e+00 2.29099989e+00
    2.43099999e+00 2.50699997e+00 2.56999993e+00 2.61999989e+00
    2.65899992e+00 2.69000006e+00 2.70000005e+00 2.70000005e+00
    2.78099990e+00 2.88899994e+00 2.90599990e+00 2.90599990e+00
    2.90599990e+00 2.90599990e+00 2.90599990e+00 2.90199995e+00
    2.85700011e+00 2.82100010e+00 2.82100010e+00 2.81800008e+00
    2.80800009e+00 2.80100012e+00 2.80100012e+00 2.13199997e+00
    2.08999991e+00 2.07800007e+00 2.07800007e+00 2.11199999e+00
    2.15400004e+00 2.15899992e+00 2.15899992e+00 2.15899992e+00
    2.15799999e+00 2.14400005e+00 2.12199998e+00 2.05299997e+00 2. 2.
    2.04099989e+00 2.17000008e+00 2.28299999e+00 2.37400007e+00
    2.45199990e+00 2.51399994e+00 2.56999993e+00 2.61999989e+00
    2.64800000e+00 2.66400003e+00 2.76200008e+00 2.88599992e+00
    2.90599990e+00 2.90599990e+00 2.90599990e+00 2.90599990e+00
    2.90599990e+00 2.90000010e+00 2.84599996e+00 2.80100012e+00
    2.80100012e+00 2.80100012e+00 2.80100012e+00 2.80100012e+00
    2.80100012e+00 2.13199997e+00 2.08999991e+00 2.07800007e+00
    2.07800007e+00 2.11199999e+00 2.15400004e+00 2.15899992e+00
    2.15899992e+00 2.15899992e+00 2.15700006e+00 2.12100005e+00
    2.08299994e+00 2.03600001e+00 2. 2. 2.01900005e+00 2.07900000e+00
    2.15100002e+00 2.23799992e+00 2.32299995e+00 2.40799999e+00
    2.47199988e+00 2.51999998e+00 2.56399989e+00 2.60599995e+00
    2.73099995e+00 2.88199997e+00 2.90599990e+00 2.90599990e+00
    2.90599990e+00 2.90599990e+00 2.90599990e+00 2.90000010e+00
    2.84599996e+00 2.80100012e+00 2.80100012e+00 2.80100012e+00
    2.80100012e+00 2.80100012e+00 2.80100012e+00 2.14199996e+00
    2.11599994e+00 2.10800004e+00 2.10800004e+00 2.13000011e+00
    2.15599990e+00 2.14499998e+00 2.12899995e+00 2.12899995e+00
    2.12700009e+00 2.10100007e+00 2.07200003e+00 2.03099990e+00 2. 2.
    2.01300001e+00 2.05399990e+00 2.10599995e+00 2.17600012e+00
    2.23900008e+00 2.29600000e+00 2.33699989e+00 2.36700010e+00
    2.39800000e+00 2.42899990e+00 2.52300000e+00 2.63899994e+00
    2.76699996e+00 2.89700007e+00 2.88700008e+00 2.86700010e+00
    2.86700010e+00 2.86299992e+00 2.82900000e+00 2.80100012e+00
    2.80100012e+00 2.80100012e+00 2.80100012e+00 2.80100012e+00
    2.80100012e+00 2.15599990e+00 2.15199995e+00 2.15100002e+00
    2.15100002e+00 2.15400004e+00 2.15899992e+00 2.12500000e+00
    2.08699989e+00 2.08599997e+00 2.08599997e+00 2.08200002e+00
    2.07200003e+00 2.03099990e+00 2. 2. 2.01300001e+00 2.05399990e+00
    2.09699988e+00 2.14400005e+00 2.17199993e+00 2.18199992e+00
    2.18799996e+00 2.19300008e+00 2.19799995e+00 2.20300007e+00
    2.24600005e+00 2.30200005e+00 2.57200003e+00 2.88299990e+00
    2.85999990e+00 2.81200004e+00 2.81200004e+00 2.81100011e+00
    2.80599999e+00 2.80100012e+00 2.80100012e+00 2.80100012e+00
    2.80100012e+00 2.80100012e+00 2.80100012e+00 2.15899992e+00
    2.15899992e+00 2.15899992e+00 2.15899992e+00 2.14499998e+00
    2.12700009e+00 2.08800006e+00 2.04600000e+00 2.04500008e+00
    2.04500008e+00 2.04500008e+00 2.04200006e+00 2.01799989e+00 2. 2.
    2.00799990e+00 2.03099990e+00 2.06200004e+00 2.10400009e+00
    2.11700010e+00 2.09899998e+00 2.09200001e+00 2.09200001e+00
    2.09200001e+00 2.09200001e+00 2.11100006e+00 2.13599992e+00
    2.33899999e+00 2.57500005e+00 2.65300012e+00 2.71799994e+00
    2.73900008e+00 2.75900006e+00 2.75900006e+00 2.75900006e+00
    2.75900006e+00 2.76500010e+00 2.78699994e+00 2.80100012e+00
    2.80100012e+00 2.15899992e+00 2.15899992e+00 2.15899992e+00
    2.15899992e+00 2.12700009e+00 2.08699989e+00 2.04600000e+00
    2.00600004e+00 2.00500011e+00 2.00500011e+00 2.00500011e+00
    2.00399995e+00 2.00200009e+00 2. 2. 2.00099993e+00 2.00300002e+00
    2.02099991e+00 2.06200004e+00 2.06399989e+00 2.02500010e+00
    2.00900006e+00 2.00900006e+00 2.00900006e+00 2.00900006e+00
    2.01099992e+00 2.01399994e+00 2.09699988e+00 2.19499993e+00
    2.40199995e+00 2.61400008e+00 2.66199994e+00 2.70600009e+00
    2.70600009e+00 2.70600009e+00 2.70600009e+00 2.71900010e+00
    2.76900005e+00 2.80100012e+00 2.80100012e+00 2.15899992e+00
    2.15899992e+00 2.15899992e+00 2.15899992e+00 2.10999990e+00
    2.04900002e+00 2.02200007e+00 2.00099993e+00 2. 2. 2. 2. 2. 2. 2. 2.
    2. 2.01699996e+00 2.05699992e+00 2.05800009e+00 2.01699996e+00 2. 2.
    2. 2. 2. 2. 2.03699994e+00 2.08200002e+00 2.20000005e+00
    2.32299995e+00 2.36899996e+00 2.42100000e+00 2.52600002e+00
    2.61500001e+00 2.63800001e+00 2.67499995e+00 2.75200009e+00
    2.80100012e+00 2.80100012e+00 2.15899992e+00 2.15899992e+00
    2.15899992e+00 2.15899992e+00 2.09299994e+00 2.00999999e+00
    2.00099993e+00 2. 2. 2. 2. 2. 2. 2. 2. 2. 2. 2.01699996e+00
    2.05699992e+00 2.05800009e+00 2.01699996e+00 2. 2. 2. 2. 2. 2.
    2.00099993e+00 2.00200009e+00 2.00500011e+00 2.00799990e+00
    2.04900002e+00 2.10800004e+00 2.32999992e+00 2.51900005e+00
    2.56800008e+00 2.63100004e+00 2.73499990e+00 2.80100012e+00
    2.80100012e+00 2.18700004e+00 2.16499996e+00 2.15899992e+00
    2.15899992e+00 2.09200001e+00 2.00900006e+00 2. 2. 1.98000002e+00
    1.96099997e+00 1.96099997e+00 1.96399999e+00 1.98500001e+00 2. 2. 2.
    2. 2.00799990e+00 2.02800012e+00 2.02800012e+00 2.00799990e+00 2. 2.
    2. 2. 2. 2. 2. 2. 2. 2. 2.01999998e+00 2.04900002e+00 2.15899992e+00
    2.25300002e+00 2.27800012e+00 2.32100010e+00 2.41400003e+00
    2.52500010e+00 2.67000008e+00 2.23699999e+00 2.19499993e+00
    2.18300009e+00 2.18300009e+00 2.10599995e+00 2.01099992e+00 2. 2.
    1.96099997e+00 1.92400002e+00 1.92400002e+00 1.92999995e+00
    1.97000003e+00 2. 1.99800003e+00 1.99800003e+00 1.99800003e+00
    1.99800003e+00 1.99899995e+00 2. 2. 2. 2. 2. 2. 2. 2. 2. 2. 2. 2. 2.
    2. 1.99899995e+00 1.99800003e+00 1.99800003e+00 2.01900005e+00
    2.09999990e+00 2.25099993e+00 2.52699995e+00 2.59800005e+00
    2.57900000e+00 2.57399988e+00 2.57399988e+00 2.33299994e+00
    2.03299999e+00 2. 2. 1.96099997e+00 1.92400002e+00 1.92400002e+00
    1.92999995e+00 1.97000003e+00 1.99500000e+00 1.97300005e+00
    1.95799994e+00 1.95799994e+00 1.96700001e+00 1.98899996e+00 2. 2. 2.
    2. 2. 2. 2. 2. 2. 2. 2. 2. 2. 1.99800003e+00 1.97599995e+00
    1.95799994e+00 1.95799994e+00 1.96800005e+00 2.00500011e+00
    2.08999991e+00 2.25999999e+00 2.90599990e+00 2.90599990e+00
    2.90599990e+00 2.90599990e+00 2.56299996e+00 2.13499999e+00
    2.08800006e+00 2.08800006e+00 2.00699997e+00 1.92999995e+00
    1.92999995e+00 1.93499994e+00 1.96800005e+00 1.98500001e+00
    1.94500005e+00 1.91799998e+00 1.91799998e+00 1.93400002e+00
    1.97399998e+00 1.99600005e+00 1.99899995e+00 2. 2. 2.00200009e+00
    2.00500011e+00 2.00399995e+00 2.00099993e+00 2. 2. 2. 2. 2.
    1.99600005e+00 1.95599997e+00 1.92400002e+00 1.92400002e+00
    1.92400002e+00 1.92400002e+00 1.95200002e+00 2.02900004e+00
    2.90599990e+00 2.90599990e+00 2.90599990e+00 2.90599990e+00
    2.80999994e+00 2.69000006e+00 2.67700005e+00 2.67700005e+00
    2.31599998e+00 1.97000003e+00 1.97000003e+00 1.96800005e+00
    1.96000004e+00 1.94500005e+00 1.90600002e+00 1.88000000e+00
    1.88000000e+00 1.89600003e+00 1.93499994e+00 1.96599996e+00
    1.99000001e+00 2. 2. 2.01600003e+00 2.04099989e+00 2.02800012e+00
    2.00399995e+00 2. 2. 2. 2. 2. 1.99600005e+00 1.95599997e+00
    1.92400002e+00 1.92400002e+00 1.92400002e+00 1.92400002e+00
    1.94400001e+00 2. 2.91899991e+00 2.91899991e+00 2.91899991e+00
    2.91899991e+00 0. 0. 0. 0. 2.54500008e+00 2. 2. 1.99399996e+00
    1.95400000e+00 1.91499996e+00 1.87699997e+00 1.85099995e+00
    1.85099995e+00 1.86699998e+00 1.90499997e+00 1.94400001e+00
    1.98300004e+00 2. 2. 2.02399993e+00 2.05999994e+00 2.04099989e+00
    2.00600004e+00 2. 2. 2. 2. 2. 1.99699998e+00 1.96200001e+00
    1.93299997e+00 1.93299997e+00 1.93299997e+00 1.93299997e+00
    1.94599998e+00 1.98099995e+00 2.97600007e+00 2.97600007e+00
    2.97600007e+00 2.97600007e+00 0. 0. 0. 0. 2.51699996e+00 2. 2.
    1.99399996e+00 1.95400000e+00 1.91499996e+00 1.87699997e+00
    1.85099995e+00 1.85099995e+00 1.86699998e+00 1.90499997e+00
    1.94400001e+00 1.98300004e+00 2. 2. 2.00999999e+00 2.02399993e+00
    2.01699996e+00 2.00200009e+00 2. 2. 2. 2. 2. 1.99899995e+00
    1.98500001e+00 1.97300005e+00 1.97300005e+00 1.97300005e+00
    1.97300005e+00 1.97800004e+00 1.99199998e+00 0. 0. 0. 0. 0. 0. 0. 0.
    2.58400011e+00 2.17100000e+00 2.18099999e+00 2.18600011e+00
    2.16300011e+00 2.13800001e+00 2.10700011e+00 2.08500004e+00
    2.08500004e+00 2.05299997e+00 1.97599995e+00 1.95299995e+00
    1.98599994e+00 2. 2. 2. 2. 2. 2. 2. 2. 2. 2. 2. 2. 2. 2.00099993e+00
    2.00799990e+00 2.01099992e+00 2.00399995e+00 1.99800003e+00
    1.99100006e+00 0. 0. 0. 0. 0. 0. 0. 0. 2.85400009e+00 2.70300007e+00
    2.74399996e+00 2.78299999e+00 2.81200004e+00 2.83200002e+00
    2.82100010e+00 2.81299996e+00 2.81299996e+00 2.63400006e+00
    2.19700003e+00 1.98300004e+00 1.99500000e+00 2. 2. 2. 2. 2. 2. 2. 2.
    2. 2. 2. 2. 2. 2.00500011e+00 2.03299999e+00 2.04600000e+00
    2.01799989e+00 1.99000001e+00 1.96300006e+00 0. 0. 0. 0. 0. 0. 0. 0.
    0. 0. 0. 0. 0. 0. 0. 0. 0. 2.96199989e+00 2.45099998e+00
    2.14299989e+00 2.04200006e+00 2. 2. 2. 2. 2.00699997e+00
    2.01500010e+00 2.01699996e+00 2.01699996e+00 2.01699996e+00
    2.01699996e+00 2.01699996e+00 2.01699996e+00 2.01699996e+00
    2.02099991e+00 2.04399991e+00 2.04999995e+00 2.00999999e+00
    1.97300005e+00 1.94099998e+00 0. 0. 0. 0. 0. 0. 0. 0. 0. 0. 0. 0. 0.
    0. 0. 0. 0. 2.92499995e+00 2.75300002e+00 2.49399996e+00
    2.14599991e+00 2. 2. 2. 2. 2.02300000e+00 2.05299997e+00
    2.05699992e+00 2.05699992e+00 2.05699992e+00 2.05699992e+00
    2.05699992e+00 2.05699992e+00 2.05699992e+00 2.05399990e+00
    2.03500009e+00 2.00999999e+00 1.97000003e+00 1.94000006e+00
    1.92999995e+00 0. 0. 0. 0. 0. 0. 0. 0. 0. 0. 0. 0. 0. 0. 0. 0.
    2.98300004e+00 2.90599990e+00 2.90599990e+00 2.74000001e+00
    2.40300012e+00 2.26200008e+00 2.26200008e+00 2.26200008e+00
    2.26200008e+00 2.19000006e+00 2.09299994e+00 2.07800007e+00
    2.07800007e+00 2.07800007e+00 2.07800007e+00 2.07800007e+00
    2.07699990e+00 2.06599998e+00 2.05200005e+00 2.02200007e+00
    1.98899996e+00 1.94900000e+00 1.92400002e+00 1.92400002e+00 0. 0. 0.
    0. 0. 0. 0. 0. 0. 0. 0. 0. 0. 0. 0. 2.96700001e+00 2.92899990e+00
    2.90599990e+00 2.90599990e+00 2.87700009e+00 2.81699991e+00
    2.79200006e+00 2.79200006e+00 2.79200006e+00 2.79200006e+00
    2.51099992e+00 2.13700008e+00 2.07800007e+00 2.07800007e+00
    2.07800007e+00 2.07800007e+00 2.07800007e+00 2.07500005e+00
    2.04299998e+00 2.01500010e+00 2.00600004e+00 1.98899996e+00
    1.94900000e+00 1.92400002e+00 1.92400002e+00 0. 0. 0. 0. 0. 0. 0. 0.
    0. 0. 0. 0. 0. 0. 2.94400001e+00 2.90599990e+00 2.90599990e+00
    2.90599990e+00 2.90599990e+00 2.93400002e+00 2.99000001e+00 0. 0. 0.
    0. 2.77099991e+00 2.44799995e+00 2.39700007e+00 2.39700007e+00
    2.24200010e+00 2.07800007e+00 2.07800007e+00 2.07399988e+00
    2.03299999e+00 2. 2. 1.98899996e+00 1.94900000e+00 1.92400002e+00
    1.92400002e+00 0. 0. 0. 0. 0. 0. 0. 0. 0. 0. 0. 0. 0. 0.
    2.94400001e+00 2.90599990e+00 2.90599990e+00 2.90599990e+00
    2.90599990e+00 2.93400002e+00 2.99000001e+00 0. 0. 0. 0.
    2.98699999e+00 2.95099998e+00 2.94499993e+00 2.94499993e+00
    2.52500010e+00 2.07800007e+00 2.07800007e+00 2.07399988e+00
    2.03299999e+00 2. 2. 1.98899996e+00 1.94900000e+00 1.92400002e+00
    1.92400002e+00 0. 0. 0. 0. 2.99799991e+00 2.97799993e+00
    2.97600007e+00 2.97600007e+00 2.99600005e+00 0. 2.99300003e+00
    2.97600007e+00 2.97600007e+00 2.96799994e+00 2.93099999e+00
    2.90599990e+00 2.90599990e+00 2.90599990e+00 2.90599990e+00
    2.92400002e+00 2.96099997e+00 2.97600007e+00 2.97600007e+00
    2.97600007e+00 2.97600007e+00 0. 0. 0. 0. 2.75699997e+00
    2.40199995e+00 2.21700001e+00 2.04800010e+00 2.02200007e+00 2. 2.
    1.98899996e+00 1.94900000e+00 1.92400002e+00 1.92400002e+00 0. 0. 0.
    0. 2.97499990e+00 2.92499995e+00 2.92000008e+00 2.92000008e+00
    2.96799994e+00 0. 2.96199989e+00 2.92000008e+00 2.92000008e+00
    2.91799998e+00 2.91100001e+00 2.90599990e+00 2.90599990e+00
    2.90599990e+00 2.90599990e+00 2.91000009e+00 2.91700006e+00
    2.92000008e+00 2.92000008e+00 2.92000008e+00 2.92000008e+00
    2.96300006e+00 0. 0. 0. 2.96300006e+00 2.88700008e+00 2.42600012e+00
    2.00900006e+00 2.00399995e+00 2. 2. 1.98899996e+00 1.94900000e+00
    1.92400002e+00 1.92400002e+00 0. 0. 0. 0. 2.96900010e+00
    2.91199994e+00 2.90599990e+00 2.90599990e+00 2.96099997e+00 0.
    2.95400000e+00 2.90599990e+00 2.90599990e+00 2.90599990e+00
    2.90599990e+00 2.90599990e+00 2.90599990e+00 2.90599990e+00
    2.90599990e+00 2.90599990e+00 2.90599990e+00 2.90599990e+00
    2.90599990e+00 2.90599990e+00 2.90599990e+00 2.94899988e+00 0. 0. 0.
    0. 0. 2.47700000e+00 2. 2. 2. 2. 1.98899996e+00 1.94900000e+00
    1.92400002e+00 1.92400002e+00 0. 0. 0. 0. 0. 0. 0. 0. 0. 0. 0. 0. 0.
    0. 0. 0. 0. 0. 0. 0. 0. 0. 0. 0. 0. 0. 0. 0. 0. 0. 0. 0. 0. 0. 0. 0.
    0. 0. 0. 0. 0. 0. 0. 0. 0. 0. 0. 0. 0. 0. 0. 0. 0. 0. 0. 0. 0. 0. 0.
    0. 0. 0. 0. 0. 0. 0. 0. 0. 0. 0. 0. 0. 0. 0. 0. 0. 0. 0. 0. 0. 0. 0.
    0. 0. 0. 0. 0. 0. 0. 0. 0. 0. 0. 0. 0. 0. 0. 0. 0. 0. 0. 0. 0. 0. 0.
    0. 0. 0. 0. 0. 0. 0. 0. 0. 0. 0. 0. 0. 0. 0. 0. 0. 0. 0. 0. 0. 0. 0.
    0. 0. 0. 0. 0. 0. 0. 0. 0. 0. 0. 0. 0. 0. 0. 0. 0. 0. 0. 0. 0. 0. 0.
    0. 0. 0. 0. 0. 0. 0. 0. 0. 0. 0. 0. 0. 0. 0. 0. 0. 0. 0. 0. 0. 0. 0.
    0. 0. 0. 0. 0. 0. 0. 0. 0. 0. 0. 0. 0. 0. 0. 0. 0. 0. 0. 0. 0. 0. 0.
    0. 0. 0. 0. 0. 0. 0. 0. 0. 0. 0. 0. 0. 0. 0. 0. 0. 0. 0. 0. 0. 0. 0.
    0. 0. 0. 0. 0. 0. 0. 0. 0. 0. 0. 0. 0. 0. 0. 0. 0. 0. 0. 0.</data></Depth>
</opencv_storage>
