<?xml version="1.0"?>
<opencv_storage>
<Depth type_id="opencv-matrix">
  <rows>40</rows>
  <cols>40</cols>
  <dt>f</dt>
  <data>
    0. 0. 0. 0. 0. 1.09000003e+00 1.09300005e+00 1.14100003e+00
    1.18799996e+00 1.22599995e+00 1.22599995e+00 1.22599995e+00
    1.22599995e+00 1.22700000e+00 1.22800004e+00 1.18200004e+00
    1.09000003e+00 0. 0. 0. 0. 0. 0. 0. 1.24899995e+00 1.55299997e+00
    1.83200002e+00 1.83200002e+00 1.83200002e+00 1.83200002e+00
    1.83200002e+00 1.83200002e+00 1.83200002e+00 1.83200002e+00 0. 0. 0.
    0. 0. 0. 0. 0. 0. 0. 0. 1.04400003e+00 1.04700005e+00 1.09399998e+00
    1.14100003e+00 1.17799997e+00 1.17799997e+00 1.17799997e+00
    1.18400002e+00 1.20200002e+00 1.22000003e+00 1.19099998e+00
    1.11399996e+00 1.03799999e+00 1.01100004e+00 1.01100004e+00
    1.01100004e+00 1.01100004e+00 1.01100004e+00 1.01100004e+00
    1.27999997e+00 1.56700003e+00 1.83200002e+00 1.83200002e+00
    1.83200002e+00 1.83200002e+00 1.83200002e+00 1.83200002e+00
    1.83200002e+00 1.83200002e+00 0. 0. 0. 0. 0. 0. 0. 0. 0. 0. 0. 0.
    1.00100005e+00 1.04799998e+00 1.09399998e+00 1.13000000e+00
    1.13000000e+00 1.13000000e+00 1.14300001e+00 1.17700005e+00
    1.21200001e+00 1.19900000e+00 1.13800001e+00 1.07799995e+00
    1.05700004e+00 1.05700004e+00 1.05700004e+00 1.05700004e+00
    1.05700004e+00 1.05700004e+00 1.31099999e+00 1.58200002e+00
    1.83200002e+00 1.83200002e+00 1.83200002e+00 1.83200002e+00
    1.83200002e+00 1.83200002e+00 1.83200002e+00 1.83200002e+00 0. 0. 0.
    0. 0. 0. 0. 0. 0. 0. 0. 0. 0. 1.01100004e+00 1.05700004e+00
    1.09300005e+00 1.09300005e+00 1.09300005e+00 1.11000001e+00
    1.15799999e+00 1.20500004e+00 1.20700002e+00 1.16299999e+00
    1.11899996e+00 1.10599995e+00 1.10899997e+00 1.11300004e+00
    1.13100004e+00 1.15199995e+00 1.17299998e+00 1.39400005e+00
    1.62899995e+00 1.84500003e+00 1.84500003e+00 1.84500003e+00
    1.84500003e+00 1.84500003e+00 1.84500003e+00 1.84500003e+00
    1.84500003e+00 0. 0. 0. 0. 0. 0. 0. 0. 0. 0. 0. 0. 0. 1.01100004e+00
    1.05700004e+00 1.09300005e+00 1.09300005e+00 1.09300005e+00
    1.11000001e+00 1.15799999e+00 1.20500004e+00 1.21500003e+00
    1.18799996e+00 1.16100001e+00 1.16499996e+00 1.18599999e+00
    1.20700002e+00 1.30599999e+00 1.42600000e+00 1.54600000e+00
    1.66799998e+00 1.79100001e+00 1.90400004e+00 1.90400004e+00
    1.90400004e+00 1.90400004e+00 1.90400004e+00 1.90400004e+00
    1.90400004e+00 1.90400004e+00 0. 0. 0. 0. 0. 0. 0. 0. 0. 0. 0. 0. 0.
    1.01100004e+00 1.05700004e+00 1.09300005e+00 1.09300005e+00
    1.09300005e+00 1.11000001e+00 1.15799999e+00 1.20500004e+00
    1.22399998e+00 1.21300006e+00 1.20200002e+00 1.22300005e+00
    1.26199996e+00 1.29999995e+00 1.48099995e+00 1.70000005e+00
    1.91799998e+00 1.94200003e+00 1.95299995e+00 1.96200001e+00
    1.96200001e+00 1.96200001e+00 1.96200001e+00 1.96200001e+00
    1.96200001e+00 1.96200001e+00 1.96200001e+00 0. 0. 0. 0. 0. 0. 0. 0.
    0. 0. 0. 0. 0. 1.02100003e+00 1.06200004e+00 1.09399998e+00
    1.10000002e+00 1.10599995e+00 1.13000000e+00 1.18400002e+00
    1.23800004e+00 1.26499999e+00 1.26499999e+00 1.26499999e+00
    1.30200005e+00 1.35899997e+00 1.41600001e+00 1.62899995e+00
    1.88300002e+00 2.13700008e+00 2.10299993e+00 2.04900002e+00 2. 2. 2.
    2. 2. 2. 2. 2. 0. 0. 0. 0. 0. 0. 0. 0. 0. 0. 0. 1.02400005e+00
    1.02600002e+00 1.04999995e+00 1.07400000e+00 1.09800005e+00
    1.12100005e+00 1.14300001e+00 1.18400002e+00 1.25699997e+00
    1.33000004e+00 1.36699998e+00 1.36699998e+00 1.36699998e+00
    1.41700006e+00 1.49500000e+00 1.57400000e+00 1.72899997e+00
    1.90499997e+00 2.07999992e+00 2.06200004e+00 2.02999997e+00 2. 2. 2.
    2. 2. 2. 2. 2. 0. 0. 0. 0. 0. 0. 0. 0. 0. 0. 0. 1.07000005e+00
    1.07099998e+00 1.07900000e+00 1.08700001e+00 1.10099995e+00
    1.14100003e+00 1.17999995e+00 1.23800004e+00 1.33000004e+00
    1.42200005e+00 1.46800005e+00 1.46800005e+00 1.46800005e+00
    1.53199995e+00 1.63199997e+00 1.73099995e+00 1.82900000e+00
    1.92700005e+00 2.02399993e+00 2.01999998e+00 2.00999999e+00 2. 2. 2.
    2. 2. 2. 2. 2. 0. 0. 0. 0. 0. 0. 0. 0. 0. 0. 0. 1.09300005e+00
    1.09300005e+00 1.09300005e+00 1.09300005e+00 1.10500002e+00
    1.16100001e+00 1.21800005e+00 1.28699994e+00 1.38000000e+00
    1.47200000e+00 1.52800000e+00 1.54700005e+00 1.56700003e+00
    1.63199997e+00 1.72300005e+00 1.81299996e+00 1.87899995e+00
    1.93700004e+00 1.99600005e+00 2. 2. 2. 2. 2. 2.00500011e+00
    2.02699995e+00 2.04900002e+00 2.06299996e+00 2.06299996e+00 0. 0. 0.
    0. 0. 0. 0. 0. 0. 0. 0. 1.09300005e+00 1.09300005e+00 1.09300005e+00
    1.09300005e+00 1.10899997e+00 1.18299997e+00 1.25600004e+00
    1.33000004e+00 1.40499997e+00 1.48099995e+00 1.54700005e+00
    1.60500002e+00 1.66299999e+00 1.71700001e+00 1.76900005e+00
    1.82099998e+00 1.87899995e+00 1.93700004e+00 1.99600005e+00 2. 2. 2.
    2. 2. 2.01500010e+00 2.08100009e+00 2.14700007e+00 2.18899989e+00
    2.18899989e+00 0. 0. 0. 0. 0. 0. 0. 0. 0. 0. 0. 1.09300005e+00
    1.09300005e+00 1.09300005e+00 1.09300005e+00 1.11300004e+00
    1.20400000e+00 1.29400003e+00 1.37300003e+00 1.43099999e+00
    1.48899996e+00 1.56700003e+00 1.66299999e+00 1.75899994e+00
    1.80200005e+00 1.81599998e+00 1.82900000e+00 1.87899995e+00
    1.93700004e+00 1.99600005e+00 2. 2. 2. 2. 2. 2.02500010e+00
    2.13499999e+00 2.24499989e+00 2.31500006e+00 2.31500006e+00 0. 0. 0.
    0. 0. 0. 0. 0. 0. 0. 0. 1.09300005e+00 1.09399998e+00 1.10500002e+00
    1.11500001e+00 1.14499998e+00 1.24300003e+00 1.34099996e+00
    1.43200004e+00 1.50999999e+00 1.58800006e+00 1.66999996e+00
    1.75500000e+00 1.84000003e+00 1.87000000e+00 1.87000000e+00
    1.87000000e+00 1.90600002e+00 1.95200002e+00 1.99699998e+00 2. 2. 2.
    2. 2. 2.02800012e+00 2.15400004e+00 2.27900004e+00 2.35899997e+00
    2.35899997e+00 0. 0. 0. 0. 0. 0. 0. 0. 0. 0. 0. 1.09300005e+00
    1.09500003e+00 1.12199998e+00 1.14999998e+00 1.19299996e+00
    1.29200006e+00 1.39199996e+00 1.49800003e+00 1.61800003e+00
    1.73699999e+00 1.81900001e+00 1.86600006e+00 1.91299999e+00
    1.92900002e+00 1.92900002e+00 1.92900002e+00 1.94900000e+00
    1.97399998e+00 1.99800003e+00 2. 2. 2. 2. 2. 2.02800012e+00
    2.15400004e+00 2.27900004e+00 2.35899997e+00 2.35899997e+00 0. 0. 0.
    0. 0. 0. 0. 0. 0. 0. 0. 1.09300005e+00 1.09599996e+00 1.13999999e+00
    1.18400002e+00 1.24100006e+00 1.34200001e+00 1.44299996e+00
    1.56500006e+00 1.72500002e+00 1.88499999e+00 1.96899998e+00
    1.97700000e+00 1.98500001e+00 1.98800004e+00 1.98800004e+00
    1.98800004e+00 1.99100006e+00 1.99500000e+00 2. 2. 2. 2. 2. 2.
    2.02800012e+00 2.15400004e+00 2.27900004e+00 2.35899997e+00
    2.35899997e+00 0. 0. 0. 0. 0. 0. 0. 0. 0. 0. 0. 1.13100004e+00
    1.13399994e+00 1.18200004e+00 1.23000002e+00 1.29400003e+00
    1.41199994e+00 1.52900004e+00 1.66100001e+00 1.81599998e+00
    1.97099996e+00 2.03999996e+00 2.02300000e+00 2.00600004e+00 2. 2. 2.
    2. 2. 2. 2. 2. 2. 2. 2. 2.02800012e+00 2.15400004e+00 2.27900004e+00
    2.35899997e+00 2.35899997e+00 0. 0. 0. 0. 0. 0. 0. 0. 0. 0. 0.
    1.17799997e+00 1.18200004e+00 1.23099995e+00 1.27900004e+00
    1.34700000e+00 1.48699999e+00 1.62600005e+00 1.76499999e+00
    1.90300000e+00 2.04099989e+00 2.08999991e+00 2.05200005e+00
    2.01399994e+00 2. 2. 2. 2. 2. 2. 2. 2. 2. 2. 2. 2.02800012e+00
    2.15400004e+00 2.27900004e+00 2.35899997e+00 2.35899997e+00 0. 0. 0.
    0. 0. 0. 0. 0. 0. 0. 0. 1.22599995e+00 1.22899997e+00 1.27900004e+00
    1.32799995e+00 1.40100002e+00 1.56200004e+00 1.72200000e+00
    1.86899996e+00 1.99000001e+00 2.11100006e+00 2.14100003e+00
    2.08100009e+00 2.02099991e+00 2. 2. 2. 2. 2. 2. 2. 2. 2. 2. 2.
    2.02800012e+00 2.15400004e+00 2.27900004e+00 2.35899997e+00
    2.35899997e+00 0. 0. 0. 0. 0. 0. 0. 0. 0. 0. 0. 1.22899997e+00
    1.23300004e+00 1.28199995e+00 1.33099997e+00 1.40900004e+00
    1.59000003e+00 1.77100003e+00 1.92299998e+00 2.02399993e+00
    2.12500000e+00 2.15400004e+00 2.11299992e+00 2.07200003e+00
    2.04399991e+00 2.02399993e+00 2.00399995e+00 2. 2. 2. 2. 2. 2. 2. 2.
    2.02800012e+00 2.15400004e+00 2.27900004e+00 2.35899997e+00
    2.35899997e+00 0. 0. 0. 0. 0. 0. 0. 0. 0. 0. 0. 1.22899997e+00
    1.23300004e+00 1.28199995e+00 1.33099997e+00 1.41400003e+00
    1.61500001e+00 1.81700003e+00 1.97500002e+00 2.05500007e+00
    2.13499999e+00 2.16499996e+00 2.14499998e+00 2.12599993e+00
    2.09200001e+00 2.04999995e+00 2.00900006e+00 2. 2. 2. 2. 2. 2. 2. 2.
    2.02800012e+00 2.15400004e+00 2.27900004e+00 2.35899997e+00
    2.35899997e+00 0. 0. 0. 0. 0. 0. 0. 0. 0. 0. 0. 1.22500002e+00
    1.22899997e+00 1.28100002e+00 1.33299994e+00 1.42100000e+00
    1.64100003e+00 1.86000001e+00 2.02200007e+00 2.08299994e+00
    2.14499998e+00 2.17499995e+00 2.17499995e+00 2.17499995e+00
    2.13599992e+00 2.07699990e+00 2.01699996e+00 2.00500011e+00
    2.00500011e+00 2.00500011e+00 2.00500011e+00 2.00500011e+00
    2.00500011e+00 2.00699997e+00 2.00900006e+00 2.03800011e+00
    2.16199994e+00 2.28600001e+00 2.36400008e+00 2.36400008e+00 0. 0. 0.
    0. 0. 0. 0. 0. 0. 0. 0. 1.17799997e+00 1.18400002e+00 1.27100003e+00
    1.35800004e+00 1.46899998e+00 1.66999996e+00 1.87100005e+00
    2.02200007e+00 2.08299994e+00 2.14499998e+00 2.17499995e+00
    2.17499995e+00 2.17499995e+00 2.15000010e+00 2.11199999e+00
    2.07399988e+00 2.06599998e+00 2.06599998e+00 2.06599998e+00
    2.06599998e+00 2.06599998e+00 2.06800008e+00 2.09200001e+00
    2.11700010e+00 2.15899992e+00 2.26300001e+00 2.36599994e+00
    2.43199992e+00 2.43199992e+00 0. 0. 0. 0. 0. 0. 0. 0. 0. 0. 0.
    1.13000000e+00 1.13900006e+00 1.26100004e+00 1.38199997e+00
    1.51699996e+00 1.70000005e+00 1.88300002e+00 2.02200007e+00
    2.08299994e+00 2.14499998e+00 2.17499995e+00 2.17499995e+00
    2.17499995e+00 2.16400003e+00 2.14800000e+00 2.13100004e+00
    2.12700009e+00 2.12700009e+00 2.12700009e+00 2.12700009e+00
    2.12700009e+00 2.13100004e+00 2.17799997e+00 2.22499990e+00
    2.27999997e+00 2.36299992e+00 2.44700003e+00 2.50000000e+00
    2.50000000e+00 0. 0. 0. 0. 0. 0. 0. 0. 0. 0. 0. 1.09300005e+00
    1.10500002e+00 1.26699996e+00 1.42900002e+00 1.58899999e+00
    1.74500000e+00 1.89999998e+00 2.02200007e+00 2.08299994e+00
    2.14499998e+00 2.17499995e+00 2.17499995e+00 2.17499995e+00
    2.17499995e+00 2.17499995e+00 2.17499995e+00 2.17899990e+00
    2.18400002e+00 2.18899989e+00 2.18899989e+00 2.18899989e+00
    2.19499993e+00 2.25900006e+00 2.32399988e+00 2.38899994e+00
    2.45700002e+00 2.52500010e+00 2.56800008e+00 2.56800008e+00 0. 0. 0.
    0. 0. 0. 0. 0. 0. 0. 0. 1.09300005e+00 1.10899997e+00 1.33000004e+00
    1.55100000e+00 1.74500000e+00 1.84200001e+00 1.93799996e+00
    2.02200007e+00 2.08299994e+00 2.14499998e+00 2.17499995e+00
    2.17499995e+00 2.17499995e+00 2.17499995e+00 2.17499995e+00
    2.17499995e+00 2.19700003e+00 2.22399998e+00 2.25200009e+00
    2.25399995e+00 2.25399995e+00 2.25900006e+00 2.32500005e+00
    2.39100003e+00 2.45700002e+00 2.52600002e+00 2.59500003e+00
    2.63800001e+00 2.63800001e+00 0. 0. 0. 0. 0. 0. 0. 0. 0. 0. 0.
    1.09300005e+00 1.11300004e+00 1.39300001e+00 1.67400002e+00
    1.90100002e+00 1.93900001e+00 1.97599995e+00 2.02200007e+00
    2.08299994e+00 2.14499998e+00 2.17499995e+00 2.17499995e+00
    2.17499995e+00 2.17499995e+00 2.17499995e+00 2.17499995e+00
    2.21499991e+00 2.26500010e+00 2.31500006e+00 2.31800008e+00
    2.31800008e+00 2.32399988e+00 2.39000010e+00 2.45700002e+00
    2.52500010e+00 2.59500003e+00 2.66400003e+00 2.70799994e+00
    2.70799994e+00 0. 0. 0. 0. 0. 0. 0. 0. 0. 0. 0. 1.18799996e+00
    1.20899999e+00 1.50100005e+00 1.79299998e+00 2.02300000e+00
    2.02300000e+00 2.02300000e+00 2.04200006e+00 2.09500003e+00
    2.14899993e+00 2.17499995e+00 2.17499995e+00 2.17499995e+00
    2.17499995e+00 2.17499995e+00 2.17499995e+00 2.22600007e+00
    2.28999996e+00 2.35500002e+00 2.36700010e+00 2.37599993e+00
    2.38800001e+00 2.44700003e+00 2.50600004e+00 2.56800008e+00
    2.63800001e+00 2.70799994e+00 2.75300002e+00 2.75300002e+00 0. 0. 0.
    0. 0. 0. 0. 0. 0. 0. 0. 1.44700003e+00 1.46300006e+00 1.68599999e+00
    1.90900004e+00 2.08400011e+00 2.08400011e+00 2.08400011e+00
    2.09500003e+00 2.12700009e+00 2.15899992e+00 2.17499995e+00
    2.17499995e+00 2.17499995e+00 2.17499995e+00 2.17499995e+00
    2.17499995e+00 2.22600007e+00 2.28999996e+00 2.35500002e+00
    2.38899994e+00 2.42199993e+00 2.45400000e+00 2.48900008e+00
    2.52500010e+00 2.56800008e+00 2.63800001e+00 2.70799994e+00
    2.75300002e+00 2.75300002e+00 0. 0. 0. 0. 0. 0. 0. 0. 0. 0. 0.
    1.70599997e+00 1.71700001e+00 1.87000000e+00 2.02399993e+00
    2.14499998e+00 2.14499998e+00 2.14499998e+00 2.14899993e+00
    2.15899992e+00 2.17000008e+00 2.17499995e+00 2.17499995e+00
    2.17499995e+00 2.17499995e+00 2.17499995e+00 2.17499995e+00
    2.22600007e+00 2.28999996e+00 2.35500002e+00 2.41100001e+00
    2.46700001e+00 2.51999998e+00 2.53099990e+00 2.54299998e+00
    2.56800008e+00 2.63800001e+00 2.70799994e+00 2.75300002e+00
    2.75300002e+00 0. 0. 0. 0. 0. 0. 0. 0. 0. 0. 0. 1.83200002e+00
    1.84099996e+00 1.96099997e+00 2.08100009e+00 2.17499995e+00
    2.17499995e+00 2.17499995e+00 2.17499995e+00 2.17499995e+00
    2.17499995e+00 2.17499995e+00 2.17499995e+00 2.17499995e+00
    2.19000006e+00 2.21399999e+00 2.23799992e+00 2.28399992e+00
    2.33699989e+00 2.39000010e+00 2.45700002e+00 2.52500010e+00
    2.58800006e+00 2.58800006e+00 2.58800006e+00 2.60400009e+00
    2.67499995e+00 2.74600005e+00 2.79099989e+00 2.79099989e+00 0. 0. 0.
    0. 0. 0. 0. 0. 0. 0. 0. 1.83200002e+00 1.84099996e+00 1.96099997e+00
    2.08100009e+00 2.17499995e+00 2.17499995e+00 2.17499995e+00
    2.17499995e+00 2.17499995e+00 2.17499995e+00 2.17499995e+00
    2.17499995e+00 2.17499995e+00 2.22000003e+00 2.28999996e+00
    2.35999990e+00 2.39800000e+00 2.42899990e+00 2.45900011e+00
    2.52600002e+00 2.59500003e+00 2.65799999e+00 2.65799999e+00
    2.65799999e+00 2.67499995e+00 2.74699998e+00 2.81999993e+00
    2.86599994e+00 2.86599994e+00 0. 0. 0. 0. 0. 0. 0. 0. 0. 0. 0.
    1.83200002e+00 1.84099996e+00 1.96099997e+00 2.08100009e+00
    2.17499995e+00 2.17499995e+00 2.17499995e+00 2.17499995e+00
    2.17499995e+00 2.17499995e+00 2.17499995e+00 2.17499995e+00
    2.17499995e+00 2.25000000e+00 2.36599994e+00 2.48200011e+00
    2.51300001e+00 2.51999998e+00 2.52800012e+00 2.59400010e+00
    2.66400003e+00 2.72900009e+00 2.72900009e+00 2.72900009e+00
    2.74499989e+00 2.81900001e+00 2.89299989e+00 2.94000006e+00
    2.94000006e+00 0. 0. 0. 0. 0. 0. 0. 0. 0. 0. 0. 1.87100005e+00
    1.87699997e+00 1.97000003e+00 2.06200004e+00 2.13800001e+00
    2.15199995e+00 2.16599989e+00 2.17499995e+00 2.17499995e+00
    2.17499995e+00 2.18199992e+00 2.19700003e+00 2.21199989e+00
    2.29299998e+00 2.41000009e+00 2.52800012e+00 2.56500006e+00
    2.58100009e+00 2.59699988e+00 2.64899993e+00 2.70300007e+00
    2.75399995e+00 2.77099991e+00 2.78900003e+00 2.81900001e+00
    2.89400005e+00 2.96900010e+00 0. 0. 0. 0. 0. 0. 0. 0. 0. 0. 0. 0. 0.
    1.92900002e+00 1.93299997e+00 1.98300004e+00 2.03399992e+00
    2.08100009e+00 2.11700010e+00 2.15199995e+00 2.17499995e+00
    2.17499995e+00 2.17499995e+00 2.19400001e+00 2.23099995e+00
    2.26799989e+00 2.34299994e+00 2.43799996e+00 2.53200006e+00
    2.58400011e+00 2.62500000e+00 2.66599989e+00 2.69600010e+00
    2.72600007e+00 2.75600004e+00 2.79999995e+00 2.84299994e+00
    2.89400005e+00 2.97000003e+00 0. 0. 0. 0. 0. 0. 0. 0. 0. 0. 0. 0. 0.
    0. 1.98800004e+00 1.98899996e+00 1.99699998e+00 2.00600004e+00
    2.02500010e+00 2.08200002e+00 2.13899994e+00 2.17499995e+00
    2.17499995e+00 2.17499995e+00 2.20499992e+00 2.26500010e+00
    2.32500005e+00 2.39299989e+00 2.46499991e+00 2.53699994e+00
    2.60400009e+00 2.66899991e+00 2.73499990e+00 2.74300003e+00
    2.74799991e+00 2.75900006e+00 2.82800007e+00 2.89700007e+00
    2.96799994e+00 0. 0. 0. 0. 0. 0. 0. 0. 0. 0. 0. 0. 0. 0. 0. 2. 2. 2.
    2. 2.01300001e+00 2.07399988e+00 2.13599992e+00 2.17499995e+00
    2.17499995e+00 2.17499995e+00 2.20700002e+00 2.27200007e+00
    2.33599997e+00 2.40300012e+00 2.47000003e+00 2.53800011e+00
    2.60800004e+00 2.67799997e+00 2.74799991e+00 2.75300002e+00
    2.75300002e+00 2.75900006e+00 2.83400011e+00 2.90799999e+00
    2.98300004e+00 0. 0. 0. 0. 0. 0. 0. 0. 0. 0. 0. 0. 0. 0. 0. 2. 2. 2.
    2. 2.01300001e+00 2.07500005e+00 2.13599992e+00 2.17499995e+00
    2.17499995e+00 2.17499995e+00 2.20700002e+00 2.27200007e+00
    2.33599997e+00 2.40300012e+00 2.47000003e+00 2.53800011e+00
    2.60800004e+00 2.67799997e+00 2.74799991e+00 2.75300002e+00
    2.75300002e+00 2.75900006e+00 2.83400011e+00 2.90799999e+00
    2.98300004e+00 0. 0. 0. 0. 0. 0. 0. 0. 0. 0. 0. 0. 0. 0. 0. 2. 2. 2.
    2. 2.01300001e+00 2.07500005e+00 2.13599992e+00 2.17499995e+00
    2.17499995e+00 2.17499995e+00 2.20700002e+00 2.27200007e+00
    2.33599997e+00 2.40300012e+00 2.47000003e+00 2.53800011e+00
    2.60800004e+00 2.67799997e+00 2.74799991e+00 2.75300002e+00
    2.75300002e+00 2.75900006e+00 2.83400011e+00 2.90799999e+00
    2.98300004e+00 0. 0. 0. 0. 0. 0. 0. 0. 0. 0. 0. 0. 0. 0. 0. 2. 2. 2.
    2. 2.01300001e+00 2.07500005e+00 2.13599992e+00 2.17499995e+00
    2.17499995e+00 2.17499995e+00 2.21900010e+00 2.30500007e+00
    2.39199996e+00 2.45199990e+00 2.49699998e+00 2.54299998e+00
    2.60800004e+00 2.67799997e+00 2.74799991e+00 2.75300002e+00
    2.75300002e+00 2.76099992e+00 2.86100006e+00 2.96199989e+00 0. 0. 0.
    0. 0. 0. 0. 0. 0. 0. 0. 0. 0. 0. 0. 0. 2. 2. 2. 2. 2.01300001e+00
    2.07500005e+00 2.13599992e+00 2.17499995e+00 2.17499995e+00
    2.17499995e+00 2.23099995e+00 2.34100008e+00 2.45099998e+00
    2.50399995e+00 2.52600002e+00 2.54699993e+00 2.60800004e+00
    2.67799997e+00 2.74799991e+00 2.75300002e+00 2.75300002e+00
    2.76300001e+00 2.89100003e+00 0. 0. 0. 0. 0. 0. 0. 0. 0. 0. 0. 0.</data></Depth>
</opencv_storage>
