<?xml version="1.0"?>
<opencv_storage>
<Depth type_id="opencv-matrix">
  <rows>40</rows>
  <cols>40</cols>
  <dt>f</dt>
  <data>
    0. 0. 0. 0. 0. 0. 0. 0. 0. 0. 0. 0. 0. 0. 0. 0. 0. 0. 0. 0. 0. 0. 0.
    0. 0. 0. 0. 0. 0. 0. 0. 0. 0. 0. 0. 0. 0. 0. 0. 0. 0. 0. 0. 0. 0. 0.
    0. 0. 0. 0. 0. 0. 0. 0. 0. 0. 0. 0. 0. 0. 0. 0. 0. 0. 0. 0. 0. 0. 0.
    0. 0. 0. 0. 0. 0. 0. 0. 0. 0. 0. 0. 0. 0. 0. 0. 0. 0. 0. 0. 0. 0. 0.
    0. 0. 0. 0. 0. 2.08500004e+00 2.08100009e+00 2.05500007e+00
    2.05500007e+00 2.02900004e+00 2.02099991e+00 2.00099993e+00
    1.98800004e+00 2.34899998e+00 0. 0. 0. 0. 0. 0. 0. 0. 0. 0. 0. 0. 0.
    0. 0. 0. 0. 0. 0. 0. 0. 0. 2.06999993e+00 0. 2.12599993e+00
    2.10999990e+00 2.10800004e+00 2.10200000e+00 2.09100008e+00
    2.08299994e+00 2.07599998e+00 2.05100012e+00 2.00900006e+00
    2.00399995e+00 2.00200009e+00 1.99699998e+00 1.99300003e+00
    1.98399997e+00 1.97899997e+00 1.97399998e+00 1.97099996e+00
    1.96800005e+00 1.97300005e+00 0. 0. 0. 0. 0. 0. 0. 0. 0. 0. 0. 0. 0.
    0. 0. 0. 0. 0. 2.05999994e+00 2.05399990e+00 2.05999994e+00
    2.08299994e+00 2.07800007e+00 2.05299997e+00 2.02300000e+00
    2.02300000e+00 2.01699996e+00 2.01200008e+00 2.00799990e+00
    2.00099993e+00 1.99500000e+00 1.99399996e+00 1.99300003e+00
    1.98599994e+00 1.98399997e+00 1.97899997e+00 1.97599995e+00
    1.97000003e+00 1.96399999e+00 1.97000003e+00 0. 0. 0. 0. 0. 0. 0. 0.
    0. 0. 0. 0. 0. 0. 0. 0. 2.72000003e+00 2.06299996e+00 2.05299997e+00
    2.04399991e+00 2.04399991e+00 2.03900003e+00 2.03500009e+00
    2.02699995e+00 2.02300000e+00 2.01900005e+00 2.01300001e+00
    2.00799990e+00 2.00699997e+00 1.99800003e+00 1.99600005e+00
    1.99699998e+00 1.99399996e+00 1.98599994e+00 1.98399997e+00
    1.98000002e+00 1.97500002e+00 1.97200000e+00 1.96399999e+00
    1.97099996e+00 0. 0. 0. 0. 0. 0. 0. 0. 0. 0. 0. 0. 0. 0. 0. 0.
    2.05900002e+00 2.05800009e+00 2.05100012e+00 2.04399991e+00
    2.04299998e+00 2.03900003e+00 2.03500009e+00 2.02699995e+00
    2.02099991e+00 2.01900005e+00 2.01500010e+00 2.01200008e+00
    2.00799990e+00 2.00200009e+00 1.99800003e+00 1.99699998e+00
    1.99000001e+00 1.98199999e+00 1.98199999e+00 1.97899997e+00
    1.97200000e+00 1.97099996e+00 1.96800005e+00 1.96899998e+00
    1.08899999e+00 1.06500006e+00 0. 0. 0. 0. 0. 0. 0. 0. 0. 0. 0. 0. 0.
    0. 2.05500007e+00 2.05500007e+00 2.04900002e+00 2.04500008e+00
    2.04299998e+00 2.03999996e+00 2.03500009e+00 2.02999997e+00
    2.02399993e+00 2.01900005e+00 2.01500010e+00 2.01200008e+00
    2.00799990e+00 2.00500011e+00 1.99699998e+00 1.99500000e+00
    1.99000001e+00 1.98199999e+00 1.98000002e+00 1.97899997e+00
    1.97800004e+00 1.97500002e+00 1.96800005e+00 1.96800005e+00
    2.01200008e+00 2.02300000e+00 0. 0. 0. 0. 0. 0. 0. 0. 0. 0. 0. 0. 0.
    0. 2.05500007e+00 2.05500007e+00 2.05100012e+00 2.04399991e+00
    2.04200006e+00 2.03900003e+00 2.03500009e+00 2.02699995e+00
    2.02300000e+00 2.01500010e+00 2.01200008e+00 2.01200008e+00
    2.00799990e+00 2.00500011e+00 1.99699998e+00 1.99699998e+00
    1.99000001e+00 1.98500001e+00 1.98199999e+00 1.98199999e+00
    1.97599995e+00 1.96899998e+00 1.96399999e+00 1.96599996e+00
    2.01200008e+00 2.02300000e+00 1.32299995e+00 0. 0. 0. 0. 0. 0. 0. 0.
    0. 0. 0. 0. 0. 2.05500007e+00 2.05500007e+00 2.05299997e+00
    2.04399991e+00 2.04200006e+00 2.03900003e+00 2.03500009e+00
    2.02699995e+00 2.02399993e+00 2.01600003e+00 2.01200008e+00
    2.01200008e+00 2.00799990e+00 2.00300002e+00 2. 1.99500000e+00
    1.99000001e+00 1.98599994e+00 1.98199999e+00 1.98099995e+00
    1.97800004e+00 1.97000003e+00 1.96399999e+00 1.96399999e+00
    1.96800005e+00 2.02300000e+00 2.02300000e+00 0. 0. 0. 0. 0. 0. 0. 0.
    0. 0. 0. 0. 0. 1.44599998e+00 2.05500007e+00 2.05299997e+00
    2.04699993e+00 2.04200006e+00 2.03900003e+00 2.03500009e+00
    2.02900004e+00 2.02699995e+00 2.01900005e+00 2.01399994e+00
    2.01200008e+00 2.00999999e+00 2.00099993e+00 2. 1.99500000e+00
    1.99199998e+00 1.98599994e+00 1.98199999e+00 1.97899997e+00
    1.97800004e+00 1.97000003e+00 1.96399999e+00 1.96399999e+00
    1.96800005e+00 2.02300000e+00 2.02300000e+00 0. 0. 0. 0. 0. 0. 0. 0.
    0. 0. 0. 0. 0. 0. 2.05500007e+00 2.05500007e+00 2.04699993e+00
    2.04200006e+00 2.03699994e+00 2.03500009e+00 2.02999997e+00
    2.02699995e+00 2.01999998e+00 2.01699996e+00 2.01200008e+00
    2.01099992e+00 2.00799990e+00 2.00399995e+00 1.99500000e+00
    1.99300003e+00 1.98800004e+00 1.98399997e+00 1.97899997e+00
    1.97800004e+00 1.97000003e+00 1.96500003e+00 1.96399999e+00
    1.96399999e+00 2.01500010e+00 2.02200007e+00 0. 0. 0. 0. 0. 0. 0. 0.
    0. 0. 0. 0. 0. 0. 2.05500007e+00 2.05299997e+00 2.04699993e+00
    2.04299998e+00 2.03800011e+00 2.03099990e+00 2.02999997e+00
    2.02699995e+00 2.02300000e+00 2.01399994e+00 2.01200008e+00
    2.00900006e+00 2.00799990e+00 2. 1.99600005e+00 1.99300003e+00
    1.99100006e+00 1.98399997e+00 1.97899997e+00 1.97899997e+00
    1.97200000e+00 1.96599996e+00 1.96399999e+00 1.96399999e+00 2.
    1.30799997e+00 0. 0. 0. 0. 0. 0. 0. 0. 0. 0. 0. 0. 0. 0.
    2.05800009e+00 2.05500007e+00 2.04800010e+00 2.04299998e+00
    2.04099989e+00 2.03500009e+00 2.02999997e+00 2.02699995e+00
    2.02200007e+00 2.01699996e+00 2.01200008e+00 2.00799990e+00
    2.00799990e+00 2. 1.99699998e+00 1.99300003e+00 1.98899996e+00
    1.98599994e+00 1.98199999e+00 1.97899997e+00 1.97099996e+00
    1.96700001e+00 1.96300006e+00 1.96099997e+00 1.97899997e+00
    1.94599998e+00 0. 0. 0. 0. 0. 0. 0. 0. 0. 0. 0. 0. 0. 2.63100004e+00
    2.05500007e+00 2.05500007e+00 2.04800010e+00 2.04299998e+00
    2.03900003e+00 2.03800011e+00 2.02999997e+00 2.02699995e+00
    2.02300000e+00 2.02200007e+00 2.01200008e+00 2.01200008e+00
    2.00500011e+00 2.00399995e+00 1.99699998e+00 1.99300003e+00
    1.98599994e+00 1.98300004e+00 1.98199999e+00 1.98000002e+00
    1.97099996e+00 1.96800005e+00 1.96399999e+00 1.96399999e+00
    1.97300005e+00 2.02099991e+00 0. 2.58599997e+00 0. 0. 0. 0. 0. 0. 0.
    0. 0. 0. 0. 2.61800003e+00 2.57500005e+00 2.05399990e+00
    2.04699993e+00 2.04299998e+00 2.04099989e+00 2.03500009e+00
    2.03299999e+00 2.02699995e+00 2.02300000e+00 2.02099991e+00
    2.01500010e+00 2.01099992e+00 2.00500011e+00 2.00399995e+00
    1.99699998e+00 1.99300003e+00 1.99100006e+00 1.98399997e+00
    1.98199999e+00 1.97800004e+00 1.97000003e+00 1.96800005e+00
    1.96500003e+00 1.96200001e+00 1.96599996e+00 2.00799990e+00 0.
    1.46399999e+00 0. 0. 0. 0. 0. 0. 0. 0. 0. 0. 0. 2.60700011e+00
    2.54500008e+00 2.05500007e+00 2.04800010e+00 2.04299998e+00
    2.04099989e+00 2.03500009e+00 2.03500009e+00 2.02800012e+00
    2.02300000e+00 2.01699996e+00 2.01200008e+00 2.01099992e+00
    2.00500011e+00 2. 1.99699998e+00 1.99300003e+00 1.98800004e+00
    1.98199999e+00 1.98199999e+00 1.97899997e+00 1.97200000e+00
    1.96800005e+00 1.96599996e+00 1.96099997e+00 1.96500003e+00
    1.99500000e+00 0. 0. 0. 0. 0. 0. 0. 0. 0. 0. 0. 0. 0. 2.60700011e+00
    2.03900003e+00 2.04699993e+00 2.04800010e+00 2.04299998e+00
    2.04299998e+00 2.03900003e+00 2.03600001e+00 2.02800012e+00
    2.02300000e+00 2.01699996e+00 2.01300001e+00 2.01099992e+00
    2.00699997e+00 2.00399995e+00 1.99899995e+00 1.99300003e+00
    1.98800004e+00 1.98399997e+00 1.98199999e+00 1.97800004e+00
    1.97200000e+00 1.97099996e+00 1.96599996e+00 1.96399999e+00
    1.96300006e+00 1.97500002e+00 2.03600001e+00 1.53999996e+00
    1.37600005e+00 0. 0. 0. 0. 0. 0. 0. 0. 0. 0. 0. 2.04299998e+00
    2.04500008e+00 2.04999995e+00 2.04299998e+00 2.04099989e+00
    2.03900003e+00 2.03500009e+00 2.02800012e+00 2.02300000e+00
    2.02099991e+00 2.01500010e+00 2.01099992e+00 2.00699997e+00
    2.00399995e+00 2.00200009e+00 1.99600005e+00 1.98899996e+00
    1.98699999e+00 1.98199999e+00 1.97800004e+00 1.97200000e+00
    1.97099996e+00 1.96599996e+00 1.96399999e+00 1.96200001e+00
    1.97300005e+00 2.02300000e+00 2.18000007e+00 2.41899991e+00 0. 0. 0.
    0. 0. 0. 0. 0. 0. 0. 0. 0. 1.93400002e+00 2.05100012e+00
    2.04600000e+00 2.04299998e+00 2.03900003e+00 2.03600001e+00
    2.03099990e+00 2.02600002e+00 2.02300000e+00 2.01900005e+00
    2.01099992e+00 2.00799990e+00 2.00799990e+00 1.99699998e+00
    1.99699998e+00 1.99000001e+00 1.98899996e+00 1.98599994e+00
    1.97899997e+00 1.97599995e+00 1.97500002e+00 1.96800005e+00
    1.96399999e+00 1.96200001e+00 1.96800005e+00 2.01699996e+00
    2.16300011e+00 2.39599991e+00 0. 0. 0. 0. 0. 0. 0. 0. 0. 0. 0. 0.
    1.40799999e+00 2.05100012e+00 2.04600000e+00 2.04299998e+00
    2.04099989e+00 2.03800011e+00 2.03200006e+00 2.02699995e+00
    2.02500010e+00 2.01900005e+00 2.01200008e+00 2.00799990e+00
    2.00799990e+00 1.99899995e+00 1.99300003e+00 1.99300003e+00
    1.98800004e+00 1.98199999e+00 1.97899997e+00 1.97599995e+00
    1.97300005e+00 1.96599996e+00 1.96399999e+00 1.96099997e+00
    1.96099997e+00 2.01399994e+00 2.08100009e+00 2.38100004e+00 0. 0. 0.
    0. 0. 0. 0. 0. 0. 0. 0. 0. 1.41299999e+00 2.05200005e+00
    2.04999995e+00 2.04500008e+00 2.03900003e+00 2.03900003e+00
    2.03200006e+00 2.02699995e+00 2.02500010e+00 2.02300000e+00
    2.01399994e+00 2.01200008e+00 2.00799990e+00 2.00600004e+00
    1.99800003e+00 1.99199998e+00 1.98699999e+00 1.98199999e+00
    1.97899997e+00 1.97599995e+00 1.97099996e+00 1.96800005e+00
    1.96399999e+00 1.96099997e+00 1.96099997e+00 1.97099996e+00
    2.02300000e+00 2.35800004e+00 0. 0. 0. 0. 0. 0. 0. 0. 0. 0. 0. 0.
    1.04900002e+00 2.04699993e+00 2.04999995e+00 2.04399991e+00
    2.03999996e+00 2.03800011e+00 2.02900004e+00 2.02699995e+00
    2.02300000e+00 2.01799989e+00 2.01500010e+00 2.01200008e+00
    2.00799990e+00 2.00200009e+00 1.99800003e+00 1.99300003e+00
    1.98899996e+00 1.98599994e+00 1.97899997e+00 1.97700000e+00
    1.97099996e+00 1.96800005e+00 1.96399999e+00 1.96200001e+00
    1.96099997e+00 1.96899998e+00 2.13800001e+00 2.34200001e+00 0. 0. 0.
    0. 0. 0. 0. 0. 0. 0. 0. 0. 1.02800000e+00 2.04999995e+00
    2.05100012e+00 2.04500008e+00 2.04299998e+00 2.03900003e+00
    2.03099990e+00 2.02600002e+00 2.02300000e+00 2.01500010e+00
    2.01500010e+00 2.01200008e+00 2.00799990e+00 2.00200009e+00 2.
    1.99500000e+00 1.98899996e+00 1.98599994e+00 1.98199999e+00
    1.97899997e+00 1.97099996e+00 1.96800005e+00 1.96399999e+00
    1.96399999e+00 1.96099997e+00 1.96899998e+00 2.12199998e+00
    2.33299994e+00 0. 0. 0. 0. 0. 0. 0. 0. 0. 0. 0. 0. 0. 1.85800004e+00
    2.04699993e+00 2.04500008e+00 2.04299998e+00 2.03900003e+00
    2.03299999e+00 2.02699995e+00 2.02500010e+00 2.01999998e+00
    2.01399994e+00 2.01200008e+00 2.00799990e+00 2.00099993e+00
    1.99699998e+00 1.99600005e+00 1.98899996e+00 1.98599994e+00
    1.98199999e+00 1.97899997e+00 1.97500002e+00 1.97000003e+00
    1.96800005e+00 1.96099997e+00 1.95799994e+00 1.96099997e+00
    2.01500010e+00 2.34400010e+00 0. 0. 0. 0. 0. 0. 0. 0. 0. 0. 0. 0. 0.
    1.48099995e+00 2.04699993e+00 2.04500008e+00 2.04299998e+00
    2.03900003e+00 2.03200006e+00 2.02699995e+00 2.02300000e+00
    2.02300000e+00 2.01500010e+00 2.01200008e+00 2.00799990e+00
    2.00200009e+00 1.99699998e+00 1.99600005e+00 1.99100006e+00
    1.98599994e+00 1.98099995e+00 1.97899997e+00 1.97500002e+00
    1.97000003e+00 1.96500003e+00 1.96099997e+00 1.95899999e+00
    1.96099997e+00 2.01099992e+00 2.26799989e+00 0. 0. 0. 0. 0. 0. 0. 0.
    0. 0. 0. 0. 0. 0. 2.05399990e+00 2.05100012e+00 2.04299998e+00
    2.03900003e+00 2.03500009e+00 2.02699995e+00 2.02300000e+00
    2.02300000e+00 2.01799989e+00 2.00900006e+00 2.00799990e+00 2.
    1.99800003e+00 1.99600005e+00 1.99300003e+00 1.98599994e+00
    1.98199999e+00 1.97700000e+00 1.97399998e+00 1.96800005e+00
    1.96500003e+00 1.96000004e+00 1.95599997e+00 1.95500004e+00
    1.99800003e+00 2.26200008e+00 0. 0. 0. 0. 0. 0. 0. 0. 0. 0. 0. 0. 0.
    1.39300001e+00 2.05100012e+00 2.04999995e+00 2.04299998e+00
    2.03999996e+00 2.03600001e+00 2.02699995e+00 2.02300000e+00
    2.02300000e+00 2.01799989e+00 2.00900006e+00 2.00799990e+00
    2.00500011e+00 1.99800003e+00 1.99399996e+00 1.99300003e+00
    1.98699999e+00 1.97899997e+00 1.97899997e+00 1.97500002e+00
    1.97000003e+00 1.96500003e+00 1.96000004e+00 1.95599997e+00
    1.95799994e+00 1.98800004e+00 2.01999998e+00 0. 0. 0. 0. 0. 0. 0. 0.
    0. 0. 0. 0. 0. 1.40900004e+00 2.04999995e+00 2.04699993e+00
    2.04299998e+00 2.04200006e+00 2.03299999e+00 2.02699995e+00
    2.02500010e+00 2.02300000e+00 2.01900005e+00 2.01200008e+00
    2.00799990e+00 2.00500011e+00 2. 1.99600005e+00 1.99300003e+00
    1.98899996e+00 1.98199999e+00 1.97899997e+00 1.97200000e+00
    1.96399999e+00 1.96800005e+00 1.96099997e+00 1.95599997e+00
    1.95599997e+00 1.97300005e+00 2.01399994e+00 0. 0. 0. 0. 0. 0. 0. 0.
    0. 0. 0. 0. 0. 0. 1.13199997e+00 2.04900002e+00 2.04299998e+00
    2.03800011e+00 2.03200006e+00 2.02999997e+00 2.02300000e+00
    2.02300000e+00 2.02200007e+00 2.01300001e+00 2.00799990e+00
    2.00399995e+00 2. 1.99699998e+00 1.99500000e+00 1.98899996e+00
    1.98500001e+00 1.98000002e+00 1.97500002e+00 1.97000003e+00
    1.96800005e+00 1.96099997e+00 1.95400000e+00 1.95400000e+00
    1.97399998e+00 2.00900006e+00 0. 0. 0. 0. 0. 0. 0. 0. 0. 0. 0. 0. 0.
    0. 0. 1.76100004e+00 2.04699993e+00 2.03800011e+00 2.03500009e+00
    2.03399992e+00 2.02500010e+00 2.02300000e+00 2.01699996e+00
    2.01099992e+00 2.00799990e+00 2.00300002e+00 2. 1.99699998e+00
    1.99300003e+00 1.98899996e+00 1.98199999e+00 1.97899997e+00
    1.97599995e+00 1.96899998e+00 1.96399999e+00 1.96200001e+00
    1.95400000e+00 1.95400000e+00 1.96099997e+00 2. 0. 0. 0. 0. 0. 0. 0.
    0. 0. 0. 0. 0. 2.58299994e+00 0. 0. 2.05100012e+00 2.04299998e+00
    2.03900003e+00 2.03600001e+00 2.03399992e+00 2.02699995e+00
    2.02300000e+00 2.01799989e+00 2.01099992e+00 2.00799990e+00
    2.00600004e+00 1.99800003e+00 1.99300003e+00 1.99300003e+00
    1.98599994e+00 1.98099995e+00 1.97899997e+00 1.97500002e+00
    1.96899998e+00 1.96399999e+00 1.96300006e+00 1.95599997e+00
    1.95400000e+00 1.95599997e+00 1.99000001e+00 0. 0. 0. 0. 0. 0. 0. 0.
    0. 0. 0. 0. 0. 1.38399994e+00 0. 1.58000004e+00 2.04299998e+00
    2.03900003e+00 2.03600001e+00 2.02999997e+00 2.02699995e+00
    2.02300000e+00 2.01900005e+00 2.01300001e+00 2.00699997e+00
    2.00600004e+00 1.99800003e+00 1.99699998e+00 1.99300003e+00
    1.99300003e+00 1.98199999e+00 1.97899997e+00 1.97500002e+00
    1.97300005e+00 1.96500003e+00 1.96099997e+00 1.95700002e+00
    1.95400000e+00 1.95500004e+00 1.97000003e+00 0. 0. 0. 0. 0. 0. 0. 0.
    0. 0. 0. 0. 2.57500005e+00 0. 0. 1.57799995e+00 2.04299998e+00
    2.04099989e+00 2.03800011e+00 2.03099990e+00 2.02699995e+00
    2.02300000e+00 2.01900005e+00 2.01399994e+00 2.00600004e+00
    2.00399995e+00 2. 1.99699998e+00 1.99300003e+00 1.99300003e+00
    1.98300004e+00 1.98000002e+00 1.97700000e+00 1.97000003e+00
    1.96500003e+00 1.96300006e+00 1.95700002e+00 1.95400000e+00
    1.95200002e+00 1.96200001e+00 0. 0. 0. 0. 0. 0. 0. 0. 0. 0. 0. 0. 0.
    0. 0. 1.57599998e+00 2.04299998e+00 2.03900003e+00 2.03500009e+00
    2.02699995e+00 2.02500010e+00 2.02300000e+00 2.01500010e+00
    2.01300001e+00 2.00799990e+00 2.00600004e+00 2.00099993e+00
    1.99600005e+00 1.99100006e+00 1.98599994e+00 1.98500001e+00
    1.97899997e+00 1.97500002e+00 1.97000003e+00 1.96500003e+00
    1.96300006e+00 1.95700002e+00 1.95400000e+00 1.95200002e+00
    1.95700002e+00 0. 0. 0. 0. 0. 0. 0. 0. 0. 0. 1.53199995e+00 0. 0. 0.
    0. 0. 2.03900003e+00 2.04099989e+00 2.03399992e+00 2.02900004e+00
    2.02600002e+00 2.02300000e+00 2.01799989e+00 2.01200008e+00
    2.00399995e+00 2.00200009e+00 1.99800003e+00 1.99600005e+00
    1.99100006e+00 1.98599994e+00 1.98199999e+00 1.97899997e+00
    1.97099996e+00 1.96800005e+00 1.96800005e+00 1.96000004e+00
    1.95599997e+00 1.95400000e+00 1.95299995e+00 1.95700002e+00 0. 0. 0.
    0. 0. 0. 0. 0. 0. 0. 0. 0. 0. 0. 0. 0. 2.02200007e+00 2.03800011e+00
    2.03399992e+00 2.02699995e+00 2.02300000e+00 2.01999998e+00
    2.01799989e+00 2.01200008e+00 2.00799990e+00 2.00399995e+00
    1.99800003e+00 1.99600005e+00 1.99300003e+00 1.98599994e+00
    1.98500001e+00 1.98000002e+00 1.97399998e+00 1.96800005e+00
    1.96800005e+00 1.96099997e+00 1.95799994e+00 1.95400000e+00
    1.95099998e+00 1.95400000e+00 0. 0. 0. 0. 0. 0. 0. 0. 0. 0. 0. 0. 0.
    0. 0. 0. 2.02200007e+00 2.03800011e+00 2.03200006e+00 2.02999997e+00
    2.02500010e+00 2.01900005e+00 2.01799989e+00 2.01200008e+00
    2.00799990e+00 2.00799990e+00 2.00200009e+00 1.99699998e+00
    1.99500000e+00 1.98599994e+00 1.98599994e+00 1.98199999e+00
    1.97500002e+00 1.97099996e+00 1.96800005e+00 1.96300006e+00
    1.96099997e+00 1.95799994e+00 1.95299995e+00 1.95099998e+00 0. 0. 0.
    0. 0. 0. 0. 0. 0. 0. 0. 0. 0. 0. 0. 0. 0. 0. 0. 0. 0. 0. 0. 0. 0. 0.
    0. 0. 0. 0. 0. 0. 0. 0. 0. 0. 0. 0. 0. 0. 0. 0. 0. 0. 0. 0. 0. 0. 0.
    0. 0. 0. 0. 0. 0. 0. 0. 0. 0. 0. 0. 0. 0. 0. 0. 0. 0. 0. 0. 0. 0. 0.
    0. 0. 0. 0. 0. 0. 0. 0. 0. 0. 0. 0. 0.</data></Depth>
</opencv_storage>
