<?xml version="1.0"?>
<opencv_storage>
<Depth type_id="opencv-matrix">
  <rows>40</rows>
  <cols>40</cols>
  <dt>f</dt>
  <data>
    0. 0. 0. 0. 2. 2. 2. 2. 2. 2. 2. 2. 2. 2. 1.99899995e+00
    1.97399998e+00 1.96899998e+00 1.96599996e+00 1.96300006e+00
    1.96300006e+00 1.96300006e+00 0. 0. 0. 0. 0. 0. 0. 0. 0. 0. 0. 0. 0.
    0. 0. 0. 0. 0. 0. 0. 0. 0. 0. 2.01300001e+00 2.01300001e+00
    2.00600004e+00 2. 2. 2. 2. 2. 2. 2. 1.99899995e+00 1.97399998e+00
    1.96899998e+00 1.95400000e+00 1.93799996e+00 1.93799996e+00
    1.93799996e+00 0. 0. 0. 0. 0. 0. 0. 0. 0. 0. 0. 0. 0. 0. 0. 0. 0. 0.
    0. 0. 0. 0. 0. 2.03299999e+00 2.03299999e+00 2.01900005e+00
    2.00500011e+00 2. 2. 2. 2.00399995e+00 2.00699997e+00 2.00699997e+00
    2.00600004e+00 1.97500002e+00 1.96899998e+00 1.95400000e+00
    1.93799996e+00 1.93799996e+00 1.93799996e+00 1.93799996e+00 0. 0. 0.
    0. 0. 0. 0. 0. 0. 0. 0. 0. 0. 0. 0. 0. 0. 0. 0. 0. 0. 0.
    2.00399995e+00 2.02500010e+00 2.03299999e+00 2.02200007e+00
    2.00099993e+00 2.00099993e+00 2.00099993e+00 2.01900005e+00
    2.03200006e+00 2.03200006e+00 2.02999997e+00 1.98000002e+00
    1.97000003e+00 1.95500004e+00 1.93900001e+00 1.93799996e+00
    1.93799996e+00 1.93799996e+00 0. 0. 0. 0. 0. 0. 0. 0. 0. 0. 0. 0. 0.
    0. 0. 0. 0. 0. 0. 0. 0. 0. 1.31500006e+00 1.83099997e+00
    2.03299999e+00 2.03099990e+00 2.02800012e+00 2.02800012e+00
    2.02800012e+00 2.01399994e+00 2.00500011e+00 2.00500011e+00
    2.00500011e+00 1.99699998e+00 1.99500000e+00 1.98099995e+00
    1.95700002e+00 1.93799996e+00 1.93799996e+00 1.93799996e+00 0. 0. 0.
    0. 0. 0. 0. 0. 0. 0. 0. 0. 0. 0. 0. 0. 0. 0. 0. 0. 0. 0.
    1.18499994e+00 1.79499996e+00 2.03299999e+00 2.03299999e+00
    2.03299999e+00 2.03299999e+00 2.03299999e+00 2.01300001e+00 2. 2. 2.
    2. 2. 1.98500001e+00 1.96000004e+00 1.93799996e+00 1.93799996e+00
    1.93799996e+00 1.50399995e+00 0. 0. 0. 0. 0. 0. 0. 0. 0. 0. 0. 0. 0.
    0. 0. 0. 0. 0. 0. 0. 0. 1.19299996e+00 1.52199996e+00 1.85399997e+00
    2.03299999e+00 2.03299999e+00 2.03299999e+00 2.02099991e+00
    1.99800003e+00 1.98500001e+00 1.98500001e+00 1.98599994e+00
    1.99800003e+00 2. 1.98500001e+00 1.96000004e+00 1.93799996e+00
    1.93799996e+00 1.93799996e+00 1.93799996e+00 1.10899997e+00 0. 0. 0.
    0. 0. 0. 0. 0. 0. 0. 0. 0. 0. 0. 0. 0. 0. 0. 0. 0. 1.20299995e+00
    1.21700001e+00 1.65300000e+00 2.03299999e+00 2.03299999e+00
    2.03299999e+00 2.00699997e+00 1.98199999e+00 1.96899998e+00
    1.96899998e+00 1.97000003e+00 1.99500000e+00 2. 1.99000001e+00
    1.96899998e+00 1.94700003e+00 1.94700003e+00 1.94700003e+00
    1.94700003e+00 1.35300004e+00 0. 0. 0. 0. 0. 0. 0. 0. 0. 0. 0. 0. 0.
    0. 0. 0. 0. 0. 0. 0. 1.20099998e+00 1.21500003e+00 1.65199995e+00
    2.03200006e+00 2.02999997e+00 2.02999997e+00 2.00600004e+00
    1.98300004e+00 1.97200000e+00 1.97200000e+00 1.97300005e+00
    1.99600005e+00 2. 2. 1.99100006e+00 1.96899998e+00 1.96899998e+00
    1.96899998e+00 1.96899998e+00 1.96899998e+00 1.61899996e+00 0. 0. 0.
    0. 0. 0. 0. 0. 0. 0. 0. 0. 0. 0. 0. 0. 0. 0. 0. 1.18700004e+00
    1.20000005e+00 1.64499998e+00 2.02300000e+00 2.00300002e+00
    2.00300002e+00 2.00099993e+00 1.99800003e+00 1.99699998e+00
    1.99699998e+00 1.99699998e+00 2. 2. 2. 1.99100006e+00 1.96899998e+00
    1.96899998e+00 1.96899998e+00 1.96899998e+00 1.96899998e+00
    1.93900001e+00 1.78499997e+00 0. 0. 0. 0. 0. 0. 0. 0. 0. 0. 0. 0. 0.
    0. 0. 0. 0. 0. 1.18499994e+00 1.18900001e+00 1.63800001e+00
    2.02200007e+00 2. 2. 2. 2. 2. 2. 2. 2. 2. 2. 1.99800003e+00
    1.99100006e+00 1.99100006e+00 1.97500002e+00 1.96899998e+00
    1.97700000e+00 1.99300003e+00 2. 0. 0. 0. 0. 0. 0. 0. 0. 0. 0. 0. 0.
    0. 0. 0. 0. 0. 0. 1.18499994e+00 1.18499994e+00 1.62699997e+00
    2.00999999e+00 2. 2. 2. 2. 2. 2. 2. 2. 2. 2. 2. 1.99800003e+00
    1.98500001e+00 1.97300005e+00 1.96899998e+00 1.97399998e+00
    1.98300004e+00 1.98300004e+00 0. 0. 0. 0. 0. 0. 0. 0. 0. 0. 0. 0. 0.
    0. 0. 0. 0. 0. 1.18499994e+00 1.18499994e+00 1.47099996e+00
    1.81799996e+00 2. 2. 2. 2. 2. 2. 2. 2. 2. 2. 2. 1.99699998e+00
    1.97200000e+00 1.96899998e+00 1.96899998e+00 1.96899998e+00
    1.96899998e+00 1.96899998e+00 0. 0. 0. 0. 0. 0. 0. 0. 0. 0. 0. 0. 0.
    0. 0. 0. 0. 0. 1.18499994e+00 1.18499994e+00 1.19299996e+00
    1.47800004e+00 2.00500011e+00 2.00500011e+00 2.00500011e+00
    2.00500011e+00 2.00300002e+00 2. 2. 2. 2. 2. 2. 1.99699998e+00
    1.97599995e+00 1.97000003e+00 1.96899998e+00 1.96899998e+00
    1.96899998e+00 1.96899998e+00 0. 0. 0. 0. 0. 0. 0. 0. 0. 0. 0. 0. 0.
    0. 0. 0. 0. 0. 1.18499994e+00 1.18499994e+00 1.18499994e+00
    1.47700000e+00 2.03200006e+00 2.03200006e+00 2.03200006e+00
    2.03200006e+00 2.01900005e+00 2. 2. 2. 2. 2. 2. 2. 1.99899995e+00
    1.97700000e+00 1.96899998e+00 1.96899998e+00 1.96899998e+00
    1.96899998e+00 0. 0. 0. 0. 0. 0. 0. 0. 0. 0. 0. 0. 0. 0. 0. 0. 0. 0.
    1.18499994e+00 1.18499994e+00 1.18499994e+00 1.47700000e+00
    2.03299999e+00 2.03299999e+00 2.03299999e+00 2.03299999e+00
    2.01999998e+00 2. 2. 2. 2. 2. 2. 2. 2. 1.97800004e+00 1.96899998e+00
    1.96899998e+00 1.96899998e+00 1.96899998e+00 1.56500006e+00 0. 0. 0.
    0. 0. 0. 0. 0. 0. 0. 0. 0. 0. 0. 0. 0. 0. 1.17400002e+00
    1.17400002e+00 1.17999995e+00 1.47700000e+00 2.03299999e+00
    2.03299999e+00 2.03299999e+00 2.03299999e+00 2.02800012e+00
    2.01500010e+00 2. 2. 2. 2. 2. 2. 2. 1.97800004e+00 1.96899998e+00
    1.96899998e+00 1.96899998e+00 1.96899998e+00 2.01399994e+00 0. 0. 0.
    0. 0. 0. 0. 0. 0. 0. 0. 0. 0. 0. 0. 0. 0. 1.16700006e+00
    1.16700006e+00 1.17299998e+00 1.47200000e+00 2.03299999e+00
    2.03299999e+00 2.03299999e+00 2.03299999e+00 2.03299999e+00
    2.02600002e+00 2. 2. 2. 2. 2.00399995e+00 2.01200008e+00
    2.00099993e+00 1.98699999e+00 1.98199999e+00 1.98199999e+00
    1.98599994e+00 2.00799990e+00 2.05299997e+00 0. 0. 0. 0. 0. 0. 0. 0.
    0. 0. 0. 0. 0. 0. 0. 0. 0. 1.16700006e+00 1.16700006e+00
    1.16700006e+00 1.46800005e+00 2.03900003e+00 2.03299999e+00
    2.03299999e+00 2.03299999e+00 2.03299999e+00 2.02600002e+00 2. 2. 2.
    2. 2.00900006e+00 2.02999997e+00 2.00300002e+00 2. 2. 2.
    2.00900006e+00 2.05599999e+00 2.05800009e+00 0. 0. 0. 0. 0. 0. 0. 0.
    0. 0. 0. 0. 0. 0. 0. 0. 0. 1.16700006e+00 1.16700006e+00
    1.16700006e+00 1.47599995e+00 2.05999994e+00 2.03399992e+00
    2.03299999e+00 2.03299999e+00 2.03299999e+00 2.02600002e+00
    2.00099993e+00 2.00099993e+00 2. 2. 2.00900006e+00 2.02900004e+00
    2.00300002e+00 2. 2. 2. 2.00500011e+00 2.03200006e+00 2.03399992e+00
    2.05299997e+00 1.03299999e+00 0. 0. 0. 0. 0. 0. 0. 0. 0. 0. 0. 0. 0.
    0. 0. 1.16700006e+00 1.16700006e+00 1.16700006e+00 1.47599995e+00
    2.05999994e+00 2.03399992e+00 2.03299999e+00 2.03299999e+00
    2.03299999e+00 2.03200006e+00 2.02800012e+00 2.02800012e+00
    2.00999999e+00 2. 2.00099993e+00 2.00399995e+00 2. 2. 2. 2.
    2.00500011e+00 2.03200006e+00 2.05399990e+00 2.06299996e+00
    1.03400004e+00 0. 0. 0. 0. 0. 0. 0. 0. 0. 0. 0. 0. 0. 0. 0.
    1.16700006e+00 1.16700006e+00 1.16700006e+00 1.27100003e+00
    1.55799997e+00 2.01600003e+00 2.03299999e+00 2.03299999e+00
    2.03299999e+00 2.03299999e+00 2.03200006e+00 2.01399994e+00
    2.00399995e+00 2. 2. 2. 2. 2. 2. 2. 2.00500011e+00 2.03200006e+00
    2.04099989e+00 2.04399991e+00 1.69599998e+00 0. 0. 0. 0. 0. 0. 0. 0.
    0. 0. 0. 0. 0. 0. 0. 1.16700006e+00 1.16700006e+00 1.16700006e+00
    1.16700006e+00 1.24000001e+00 1.61600006e+00 1.94500005e+00
    2.03299999e+00 2.03299999e+00 2.03299999e+00 2.03200006e+00
    2.00500011e+00 2. 2. 2. 2. 2. 2. 1.99199998e+00 1.98500001e+00
    1.99000001e+00 2.01600003e+00 2.02999997e+00 2.03299999e+00
    2.03299999e+00 1.47800004e+00 0. 0. 0. 0. 0. 0. 0. 0. 0. 0. 0. 0. 0.
    0. 1.17200005e+00 1.17200005e+00 1.17200005e+00 1.17200005e+00
    1.17400002e+00 1.18499994e+00 1.84899998e+00 2.03299999e+00
    2.03299999e+00 2.03299999e+00 2.03200006e+00 2.00500011e+00 2. 2. 2.
    2. 2. 2. 1.98300004e+00 1.96899998e+00 1.97399998e+00 1.99899995e+00
    2.02600002e+00 2.03299999e+00 2.03299999e+00 1.63800001e+00 0. 0. 0.
    0. 0. 0. 0. 0. 0. 0. 0. 0. 0. 0. 1.18499994e+00 1.18499994e+00
    1.18499994e+00 1.18499994e+00 1.18499994e+00 1.18499994e+00
    1.78199995e+00 1.99800003e+00 2.03299999e+00 2.03299999e+00
    2.03200006e+00 2.00500011e+00 2. 2. 2. 2. 2. 2. 1.98500001e+00
    1.97200000e+00 1.97700000e+00 2.00300002e+00 2.02699995e+00
    2.03299999e+00 2.03299999e+00 1.95700002e+00 1.61699998e+00 0. 0. 0.
    0. 0. 0. 0. 0. 0. 0. 0. 0. 0. 1.18499994e+00 1.18499994e+00
    1.18499994e+00 1.18499994e+00 1.18499994e+00 1.18499994e+00
    1.24199998e+00 1.72000003e+00 2.03299999e+00 2.03299999e+00
    2.03200006e+00 2.00500011e+00 2. 2. 2. 2. 2. 2. 1.99899995e+00
    1.99699998e+00 2.00300002e+00 2.02900004e+00 2.03200006e+00
    2.03299999e+00 2.03299999e+00 1.34899998e+00 0. 0. 0. 0. 0. 0. 0. 0.
    0. 0. 0. 0. 0. 0. 1.18499994e+00 1.18499994e+00 1.18499994e+00
    1.18499994e+00 1.18499994e+00 1.18499994e+00 1.18499994e+00
    1.70400000e+00 2.03699994e+00 2.00900006e+00 2.00900006e+00
    2.00099993e+00 2. 2. 2.00699997e+00 2.02399993e+00 2.02399993e+00
    2.00699997e+00 2. 2. 2.00500011e+00 2.03200006e+00 2.03299999e+00
    2.03299999e+00 2.03299999e+00 1.82299995e+00 1.03999996e+00 0. 0. 0.
    0. 0. 0. 0. 0. 0. 0. 0. 0. 0. 1.18499994e+00 1.18499994e+00
    1.18499994e+00 1.18499994e+00 1.18499994e+00 1.18499994e+00
    1.18499994e+00 1.70899999e+00 2.03800011e+00 2. 2. 2. 2. 2.
    2.00900006e+00 2.03299999e+00 2.03299999e+00 2.00900006e+00 2. 2.
    2.00500011e+00 2.03200006e+00 2.01900005e+00 2.01500010e+00
    2.01500010e+00 2.01200008e+00 1.90900004e+00 0. 0. 0. 0. 0. 0. 0. 0.
    0. 0. 0. 0. 0. 1.17900002e+00 1.18299997e+00 1.18499994e+00
    1.18499994e+00 1.18499994e+00 1.18499994e+00 1.18499994e+00
    1.70200002e+00 2.03200006e+00 2. 2. 2. 2. 2. 2.00900006e+00
    2.03299999e+00 2.03299999e+00 2.00900006e+00 2. 2. 2.00300002e+00
    2.02099991e+00 2.00500011e+00 1.99300003e+00 1.98899996e+00
    1.98899996e+00 1.88699996e+00 0. 0. 0. 0. 0. 0. 0. 0. 0. 0. 0. 0. 0.
    1.16700006e+00 1.17999995e+00 1.18499994e+00 1.18499994e+00
    1.18499994e+00 1.18499994e+00 1.18499994e+00 1.60699999e+00
    1.93700004e+00 2. 2. 2. 2. 2. 2.00799990e+00 2.02800012e+00
    2.02800012e+00 2.00799990e+00 1.99699998e+00 1.99500000e+00
    1.99600005e+00 2. 1.99600005e+00 1.97899997e+00 1.96899998e+00
    1.96899998e+00 1.86699998e+00 0. 0. 0. 0. 0. 0. 0. 0. 0. 0. 0. 0. 0.
    1.16700006e+00 1.17999995e+00 1.18499994e+00 1.18499994e+00
    1.18499994e+00 1.18499994e+00 1.18499994e+00 1.19599998e+00
    1.52900004e+00 2. 2. 2. 2. 2. 2. 2.00099993e+00 2.00099993e+00 2.
    1.98399997e+00 1.97000003e+00 1.97500002e+00 1.99899995e+00
    1.97599995e+00 1.96899998e+00 1.96899998e+00 1.96899998e+00
    1.96599996e+00 1.90600002e+00 1.90799999e+00 0. 0. 0. 0. 0. 0. 0. 0.
    0. 0. 0. 1.18099999e+00 1.18400002e+00 1.18499994e+00 1.18499994e+00
    1.18499994e+00 1.18499994e+00 1.18499994e+00 1.18499994e+00
    1.52800000e+00 2.01999998e+00 2. 2. 2. 2. 2. 2. 2. 1.98199999e+00
    1.97200000e+00 1.96899998e+00 1.97000003e+00 1.97500002e+00
    1.97000003e+00 1.96899998e+00 1.96899998e+00 1.96899998e+00
    1.96899998e+00 1.96899998e+00 0. 0. 0. 0. 0. 0. 0. 0. 0. 0. 0. 0.
    1.18499994e+00 1.18499994e+00 1.18499994e+00 1.18499994e+00
    1.18499994e+00 1.18499994e+00 1.18499994e+00 1.18499994e+00
    1.53100002e+00 2.02600002e+00 2. 2. 2. 2. 1.99500000e+00
    1.98099995e+00 1.98099995e+00 1.95899999e+00 1.95000005e+00
    1.95000005e+00 1.95299995e+00 1.96899998e+00 1.96899998e+00
    1.96899998e+00 1.96899998e+00 1.96899998e+00 1.96899998e+00
    1.96899998e+00 0. 0. 0. 0. 0. 0. 0. 0. 0. 0. 0. 0. 1.18499994e+00
    1.18499994e+00 1.18499994e+00 1.18499994e+00 1.18499994e+00
    1.18499994e+00 1.18499994e+00 1.18499994e+00 1.38999999e+00
    1.75699997e+00 2. 2.01200008e+00 2.00500011e+00 1.99399996e+00
    1.97800004e+00 1.95599997e+00 1.95599997e+00 1.94299996e+00
    1.93799996e+00 1.93799996e+00 1.94299996e+00 1.96800005e+00
    1.96899998e+00 1.96899998e+00 1.96899998e+00 1.96899998e+00
    1.97000003e+00 1.99199998e+00 0. 0. 0. 0. 0. 0. 0. 0. 0. 0. 0. 0.
    1.18099999e+00 1.18099999e+00 1.18299997e+00 1.18499994e+00
    1.18499994e+00 1.18499994e+00 1.18499994e+00 1.18700004e+00
    1.19500005e+00 1.37899995e+00 2.00099993e+00 2.02800012e+00
    2.00699997e+00 1.97800004e+00 1.95500004e+00 1.93799996e+00
    1.93799996e+00 1.93799996e+00 1.93799996e+00 1.93799996e+00
    1.94299996e+00 1.96800005e+00 1.96899998e+00 1.96899998e+00
    1.96899998e+00 1.97099996e+00 1.97800004e+00 2.02399993e+00
    2.03299999e+00 0. 0. 0. 0. 0. 0. 0. 0. 0. 0. 0. 1.16700006e+00
    1.16700006e+00 1.17700005e+00 1.18499994e+00 1.18499994e+00
    1.18499994e+00 1.18599999e+00 1.19599998e+00 1.20299995e+00
    1.37199998e+00 1.96800005e+00 1.99399996e+00 1.95899999e+00
    1.93700004e+00 1.93700004e+00 1.93700004e+00 1.93700004e+00
    1.93700004e+00 1.93700004e+00 1.93700004e+00 1.94299996e+00
    1.96800005e+00 1.96899998e+00 1.96899998e+00 1.97000003e+00
    1.97700000e+00 2.00099993e+00 2.02800012e+00 2.03399992e+00 0. 0. 0.
    0. 0. 0. 0. 0. 0. 0. 0. 1.16700006e+00 1.16700006e+00 1.17700005e+00
    1.18499994e+00 1.18499994e+00 1.18499994e+00 1.19700003e+00
    1.20200002e+00 1.20299995e+00 1.22899997e+00 1.32000005e+00
    1.32400000e+00 1.31799996e+00 1.59700000e+00 1.91199994e+00
    1.91199994e+00 1.91199994e+00 1.91199994e+00 1.91199994e+00
    1.92100000e+00 1.94299996e+00 1.96800005e+00 1.96899998e+00
    1.96899998e+00 1.98000002e+00 1.99600005e+00 2.00099993e+00
    2.02800012e+00 2.05100012e+00 1.88800001e+00 1.69799995e+00 0. 0. 0.
    0. 0. 0. 0. 0. 0. 1.16700006e+00 1.16700006e+00 1.17700005e+00
    1.18499994e+00 1.18499994e+00 1.18499994e+00 1.19900000e+00
    1.20299995e+00 1.19799995e+00 1.19099998e+00 1.19099998e+00
    1.19099998e+00 1.19099998e+00 1.52900004e+00 1.90799999e+00
    1.90799999e+00 1.90799999e+00 1.90799999e+00 1.90799999e+00
    1.91799998e+00 1.94299996e+00 1.96800005e+00 1.96899998e+00
    1.96899998e+00 1.99100006e+00 2.02200007e+00 2.02300000e+00
    2.04900002e+00 2.06100011e+00 2.06500006e+00 2.06500006e+00 0. 0. 0.
    0. 0. 0. 0. 0. 0. 1.16700006e+00 1.16700006e+00 1.17700005e+00
    1.18799996e+00 1.19400001e+00 1.19400001e+00 1.20099998e+00
    1.20299995e+00 1.19599998e+00 1.18499994e+00 1.18499994e+00
    1.18499994e+00 1.18499994e+00 1.52600002e+00 1.90799999e+00
    1.90900004e+00 1.92100000e+00 1.92200005e+00 1.92200005e+00
    1.92799997e+00 1.94299996e+00 1.96800005e+00 1.98099995e+00
    1.98399997e+00 2.00399995e+00 2.03600001e+00 2.04900002e+00
    2.06200004e+00 2.06500006e+00 2.06500006e+00 2.06500006e+00 0. 0. 0.
    0. 0. 0. 0. 0. 0. 1.17200005e+00 1.17200005e+00 1.18200004e+00
    1.19500005e+00 1.20299995e+00 1.20299995e+00 1.20299995e+00
    1.20299995e+00 1.19799995e+00 1.19000006e+00 1.19000006e+00
    1.19000006e+00 1.19000006e+00 1.53299999e+00 1.91700006e+00
    1.91900003e+00 1.93599999e+00 1.93799996e+00 1.93799996e+00
    1.93799996e+00 1.94299996e+00 1.96800005e+00 1.99300003e+00 2.
    2.01699996e+00 2.04699993e+00 2.06500006e+00 2.06500006e+00
    2.06500006e+00 2.06500006e+00 2.06500006e+00 0. 0. 0. 0. 0.</data></Depth>
</opencv_storage>
