<?xml version="1.0"?>
<opencv_storage>
<Depth type_id="opencv-matrix">
  <rows>40</rows>
  <cols>40</cols>
  <dt>f</dt>
  <data>
    0. 0. 0. 0. 0. 0. 0. 0. 0. 0. 0. 0. 0. 0. 0. 0. 0. 0. 0. 0. 0. 0. 0.
    0. 0. 0. 0. 0. 0. 0. 0. 0. 0. 0. 0. 0. 0. 0. 0. 0. 0. 0. 0. 0. 0. 0.
    0. 0. 1.17100000e+00 0. 0. 1.97800004e+00 1.26699996e+00
    2.04600000e+00 0. 0. 0. 0. 0. 0. 0. 0. 0. 0. 0. 0. 0. 0. 0. 0. 0. 0.
    0. 0. 0. 0. 0. 0. 0. 0. 0. 0. 0. 0. 0. 0. 1.74500000e+00
    1.17100000e+00 1.17100000e+00 1.70700002e+00 1.98399997e+00
    1.98599994e+00 1.98399997e+00 1.17100000e+00 1.17100000e+00
    2.55800009e+00 0. 0. 0. 0. 0. 0. 0. 0. 0. 0. 0. 0. 0. 0. 0. 0. 0. 0.
    0. 0. 0. 0. 0. 0. 0. 0. 0. 0. 0. 0. 1.40699995e+00 1.17100000e+00
    1.28499997e+00 1.98800004e+00 1.98500001e+00 1.98599994e+00
    1.98399997e+00 1.98599994e+00 1.17100000e+00 1.17100000e+00 0. 0. 0.
    0. 0. 0. 0. 0. 0. 0. 0. 0. 0. 0. 0. 0. 0. 0. 0. 0. 0. 0. 0. 0. 0. 0.
    0. 0. 0. 2.58100009e+00 1.17100000e+00 1.17100000e+00 1.99600005e+00
    1.99000001e+00 1.98800004e+00 1.98800004e+00 1.98500001e+00
    1.98399997e+00 1.98199999e+00 1.25000000e+00 1.17100000e+00
    1.31900001e+00 2.68899989e+00 0. 0. 0. 0. 0. 0. 0. 0. 0. 0. 0. 0. 0.
    0. 0. 0. 0. 0. 0. 0. 0. 0. 0. 0. 0. 0. 1.17100000e+00 1.17100000e+00
    1.99800003e+00 1.99699998e+00 1.99199998e+00 1.99000001e+00
    1.99000001e+00 1.98599994e+00 1.98399997e+00 1.98399997e+00
    1.97800004e+00 1.88999999e+00 1.21800005e+00 1.17100000e+00
    2.95199990e+00 0. 0. 0. 0. 0. 0. 0. 0. 0. 0. 0. 0. 0. 0. 0. 0. 0. 0.
    0. 0. 0. 0. 0. 0. 1.17100000e+00 1.17100000e+00 1.17100000e+00 2.
    1.99800003e+00 1.99600005e+00 1.99300003e+00 1.99300003e+00
    1.99000001e+00 1.98699999e+00 1.98399997e+00 1.98199999e+00
    1.98000002e+00 1.97800004e+00 1.40799999e+00 1.40900004e+00 0. 0. 0.
    0. 0. 0. 0. 2.63000011e+00 2.62299991e+00 2.63000011e+00 0. 0. 0. 0.
    0. 0. 0. 0. 0. 0. 0. 0. 0. 0. 1.17100000e+00 1.17100000e+00
    1.80799997e+00 2.00200009e+00 2. 1.99800003e+00 1.99600005e+00
    1.99399996e+00 1.99300003e+00 1.99100006e+00 1.98699999e+00
    1.98399997e+00 1.98399997e+00 1.98199999e+00 1.97800004e+00
    1.97800004e+00 1.92999995e+00 1.17100000e+00 1.17100000e+00
    2.02099991e+00 0. 0. 2.63499999e+00 2.62500000e+00 2.62299991e+00
    2.64499998e+00 2.64800000e+00 2.64800000e+00 0. 0. 0. 0. 0. 0. 0. 0.
    0. 0. 0. 1.17100000e+00 1.17100000e+00 1.17100000e+00 2.00600004e+00
    2.00600004e+00 2.00099993e+00 2. 1.99800003e+00 1.99699998e+00
    1.99399996e+00 1.99199998e+00 1.98800004e+00 1.98599994e+00
    1.98399997e+00 1.98300004e+00 1.98000002e+00 1.97800004e+00
    1.97800004e+00 1.92100000e+00 1.79499996e+00 1.17100000e+00
    1.17100000e+00 1.51400006e+00 2.63499999e+00 2.62500000e+00
    2.63299990e+00 2.64800000e+00 2.64499998e+00 2.64100003e+00 0. 0. 0.
    0. 0. 0. 0. 0. 0. 0. 0. 1.17100000e+00 1.17100000e+00 2.01399994e+00
    2.00799990e+00 2.00799990e+00 2.00399995e+00 2.00099993e+00
    1.99800003e+00 2. 1.99399996e+00 1.99300003e+00 1.99199998e+00
    1.98800004e+00 1.98800004e+00 1.98399997e+00 1.98199999e+00
    1.98000002e+00 1.97800004e+00 1.97599995e+00 1.97599995e+00
    1.17100000e+00 1.17100000e+00 1.17100000e+00 2.62899995e+00
    2.62299991e+00 2.63499999e+00 2.64800000e+00 2.63499999e+00 0. 0. 0.
    0. 0. 0. 0. 0. 0. 0. 0. 1.17100000e+00 1.17100000e+00 2.01799989e+00
    2.01399994e+00 2.01200008e+00 2.00999999e+00 2.00799990e+00
    2.00500011e+00 2.00399995e+00 2.00200009e+00 2. 1.99600005e+00
    1.99399996e+00 1.99199998e+00 1.98800004e+00 1.98599994e+00
    1.98399997e+00 1.98199999e+00 1.97800004e+00 1.97599995e+00
    1.97399998e+00 1.97399998e+00 1.97099996e+00 1.31500006e+00
    1.17100000e+00 1.95299995e+00 2.62899995e+00 2.64100003e+00
    2.64100003e+00 0. 0. 0. 0. 0. 0. 0. 0. 0. 0. 1.17100000e+00
    1.17100000e+00 1.22099996e+00 2.01900005e+00 2.01699996e+00
    2.01399994e+00 2.01099992e+00 2.00999999e+00 2.00699997e+00
    2.00600004e+00 2.00399995e+00 2.00099993e+00 2. 1.99600005e+00
    1.99399996e+00 1.99100006e+00 1.99000001e+00 1.98500001e+00
    1.98399997e+00 1.98199999e+00 1.97700000e+00 1.97599995e+00
    1.97399998e+00 1.97099996e+00 1.96899998e+00 1.77199996e+00
    1.17100000e+00 1.17100000e+00 1.95000005e+00 2.61700010e+00 0. 0. 0.
    0. 0. 0. 0. 0. 0. 1.83299994e+00 1.17100000e+00 1.17100000e+00
    1.78900003e+00 2.02200007e+00 2.01999998e+00 2.01600003e+00
    2.01399994e+00 2.00999999e+00 2.00799990e+00 2.00799990e+00
    2.00799990e+00 2.00500011e+00 2.00099993e+00 1.99899995e+00
    1.99600005e+00 1.99399996e+00 1.99199998e+00 1.98899996e+00
    1.98599994e+00 1.98399997e+00 1.98399997e+00 1.97700000e+00
    1.97599995e+00 1.97399998e+00 1.96899998e+00 1.97200000e+00
    1.97200000e+00 1.17100000e+00 1.17100000e+00 1.17100000e+00
    2.97600007e+00 0. 0. 0. 0. 0. 0. 0. 0. 1.17100000e+00 1.17100000e+00
    1.17100000e+00 2.02699995e+00 2.02399993e+00 2.02200007e+00
    2.01799989e+00 2.01600003e+00 2.01399994e+00 2.01300001e+00
    2.00799990e+00 2.00999999e+00 2.00799990e+00 2.00399995e+00
    2.00200009e+00 1.99800003e+00 1.99600005e+00 1.99399996e+00
    1.99199998e+00 1.98800004e+00 1.98599994e+00 1.98399997e+00
    1.98099995e+00 1.97599995e+00 1.97599995e+00 1.97500002e+00
    1.97300005e+00 1.97099996e+00 1.96899998e+00 1.91900003e+00
    1.17100000e+00 1.17100000e+00 1.17100000e+00 0. 0. 0. 0. 0. 0. 0.
    1.17100000e+00 1.17100000e+00 2.03500009e+00 2.03099990e+00
    2.02800012e+00 2.02500010e+00 2.02300000e+00 2.01799989e+00
    2.01600003e+00 2.01399994e+00 2.01200008e+00 2.00999999e+00
    2.00799990e+00 2.00799990e+00 2.00300002e+00 2. 1.99800003e+00
    1.99800003e+00 1.99399996e+00 1.99199998e+00 1.99000001e+00
    1.98599994e+00 1.98300004e+00 1.97899997e+00 1.97800004e+00
    1.97399998e+00 1.97300005e+00 1.97099996e+00 1.96899998e+00
    1.96700001e+00 1.96500003e+00 1.54400003e+00 1.17100000e+00
    1.18799996e+00 2.01399994e+00 0. 0. 0. 0. 0. 1.17100000e+00
    1.83099997e+00 2.03800011e+00 2.03299999e+00 2.03200006e+00
    2.02800012e+00 2.02500010e+00 2.02200007e+00 2.01900005e+00
    2.01600003e+00 2.01399994e+00 2.01300001e+00 2.00999999e+00
    2.00799990e+00 2.00500011e+00 2.00300002e+00 2. 1.99899995e+00
    1.99500000e+00 1.99300003e+00 1.99199998e+00 1.98699999e+00
    1.98399997e+00 1.98199999e+00 1.97800004e+00 1.97599995e+00
    1.97399998e+00 1.97300005e+00 1.97099996e+00 1.96899998e+00
    1.96500003e+00 1.96500003e+00 1.96700001e+00 1.99300003e+00
    2.00900006e+00 2.87500000e+00 2.93600011e+00 0. 0. 0. 1.17100000e+00
    2.04200006e+00 2.04099989e+00 2.03699994e+00 2.03299999e+00
    2.03099990e+00 2.02800012e+00 2.02600002e+00 2.02200007e+00
    2.01999998e+00 2.01600003e+00 2.01600003e+00 2.01500010e+00
    2.01099992e+00 2.00799990e+00 2.00399995e+00 2.00300002e+00
    2.00099993e+00 1.99899995e+00 1.99600005e+00 1.99199998e+00
    1.99000001e+00 1.98599994e+00 1.98399997e+00 1.98199999e+00
    1.97800004e+00 1.97599995e+00 1.97399998e+00 1.97300005e+00
    1.97099996e+00 1.96899998e+00 1.96599996e+00 1.96300006e+00
    1.96599996e+00 1.96500003e+00 1.99899995e+00 2.01999998e+00
    1.47300005e+00 2.35999990e+00 0. 2.04800010e+00 2.04600000e+00
    2.04299998e+00 2.03999996e+00 2.03299999e+00 2.03299999e+00
    2.03099990e+00 2.02699995e+00 2.02500010e+00 2.02200007e+00
    2.01799989e+00 2.01799989e+00 2.01600003e+00 2.01300001e+00
    2.00999999e+00 2.00799990e+00 2.00399995e+00 2.00300002e+00
    2.00099993e+00 1.99800003e+00 1.99399996e+00 1.99199998e+00
    1.98800004e+00 1.98599994e+00 1.98399997e+00 1.98000002e+00
    1.97800004e+00 1.97800004e+00 1.97599995e+00 1.97300005e+00
    1.97099996e+00 1.96800005e+00 1.96500003e+00 1.96300006e+00
    1.96099997e+00 1.96300006e+00 1.97500002e+00 1.88399994e+00
    1.17100000e+00 0. 2.05200005e+00 2.04999995e+00 2.04399991e+00
    2.04200006e+00 2.03900003e+00 2.03500009e+00 2.03299999e+00
    2.02900004e+00 2.02699995e+00 2.02200007e+00 2.02200007e+00
    2.02200007e+00 2.01799989e+00 2.01600003e+00 2.01399994e+00
    2.00999999e+00 2.00799990e+00 2.00500011e+00 2.00099993e+00 2.
    1.99800003e+00 1.99399996e+00 1.99199998e+00 1.99000001e+00
    1.98599994e+00 1.98399997e+00 1.98000002e+00 1.97800004e+00
    1.97800004e+00 1.97300005e+00 1.97099996e+00 1.97099996e+00
    1.96700001e+00 1.96500003e+00 1.96099997e+00 1.96099997e+00
    1.96000004e+00 1.96000004e+00 1.96500003e+00 0. 2.05399990e+00
    2.05200005e+00 2.04900002e+00 2.04500008e+00 2.04099989e+00
    2.03800011e+00 2.03399992e+00 2.03299999e+00 2.02900004e+00
    2.02600002e+00 2.02300000e+00 2.02500010e+00 2.01999998e+00
    2.01600003e+00 2.01600003e+00 2.01200008e+00 2.00999999e+00
    2.00799990e+00 2.00500011e+00 2.00200009e+00 2. 1.99699998e+00
    1.99300003e+00 1.99000001e+00 1.98699999e+00 1.98599994e+00
    1.98500001e+00 1.98000002e+00 1.98000002e+00 1.97599995e+00
    1.97399998e+00 1.97200000e+00 1.96899998e+00 1.96800005e+00
    1.96500003e+00 1.96300006e+00 1.96000004e+00 1.95899999e+00
    1.95899999e+00 1.96399999e+00 2.05699992e+00 2.05399990e+00
    2.04999995e+00 2.04800010e+00 2.04500008e+00 2.04200006e+00
    2.03900003e+00 2.03699994e+00 2.03200006e+00 2.02999997e+00
    2.02500010e+00 2.02500010e+00 2.02099991e+00 2.01900005e+00
    2.01699996e+00 2.01399994e+00 2.01099992e+00 2.00900006e+00
    2.00799990e+00 2.00300002e+00 2.00200009e+00 1.99699998e+00
    1.99399996e+00 1.99199998e+00 1.99100006e+00 1.98699999e+00
    1.98800004e+00 1.98399997e+00 1.98000002e+00 1.97899997e+00
    1.97599995e+00 1.97300005e+00 1.97099996e+00 1.97000003e+00
    1.96599996e+00 1.96500003e+00 1.96300006e+00 1.96099997e+00
    1.95899999e+00 1.95799994e+00 2.06100011e+00 2.05900002e+00
    2.05299997e+00 2.05100012e+00 2.04800010e+00 2.04399991e+00
    2.03999996e+00 2.03999996e+00 2.03399992e+00 2.03299999e+00
    2.03099990e+00 2.02900004e+00 2.02699995e+00 2.02099991e+00
    2.01900005e+00 2.01600003e+00 2.01500010e+00 2.01200008e+00
    2.00999999e+00 2.00600004e+00 2.00399995e+00 2. 1.99699998e+00
    1.99399996e+00 1.99199998e+00 1.99000001e+00 1.98800004e+00
    1.98599994e+00 1.98199999e+00 1.98000002e+00 1.97800004e+00
    1.97399998e+00 1.97300005e+00 1.97099996e+00 1.97000003e+00
    1.96500003e+00 1.96500003e+00 1.96300006e+00 1.96000004e+00
    1.95799994e+00 0. 2.11999989e+00 2.05800009e+00 2.05299997e+00
    2.04900002e+00 2.04800010e+00 2.04299998e+00 2.03999996e+00
    2.03800011e+00 2.03500009e+00 2.03299999e+00 2.03099990e+00
    2.02699995e+00 2.02500010e+00 2.02099991e+00 2.01999998e+00
    2.01600003e+00 2.01500010e+00 2.01099992e+00 2.00799990e+00
    2.00600004e+00 2.00200009e+00 1.99899995e+00 1.99500000e+00
    1.99199998e+00 1.99000001e+00 1.99100006e+00 1.98800004e+00
    1.98399997e+00 1.98199999e+00 1.97899997e+00 1.97800004e+00
    1.97599995e+00 1.97300005e+00 1.97099996e+00 1.97099996e+00
    1.96700001e+00 1.96500003e+00 1.96300006e+00 1.96099997e+00 0. 0. 0.
    2.05800009e+00 2.05100012e+00 2.05100012e+00 2.04900002e+00
    2.04299998e+00 2.03999996e+00 2.03900003e+00 2.03600001e+00
    2.03299999e+00 2.03099990e+00 2.02699995e+00 2.02500010e+00
    2.02500010e+00 2.01999998e+00 2.01600003e+00 2.01399994e+00
    2.00999999e+00 2.00799990e+00 2.00399995e+00 2.00099993e+00 2.
    1.99699998e+00 1.99399996e+00 1.99300003e+00 1.99000001e+00
    1.98800004e+00 1.98500001e+00 1.98199999e+00 1.97800004e+00
    1.97800004e+00 1.97399998e+00 1.97399998e+00 1.97200000e+00
    1.97099996e+00 1.96700001e+00 1.96300006e+00 1.96300006e+00 0. 0. 0.
    0. 2.05800009e+00 2.05399990e+00 2.04900002e+00 2.04600000e+00
    2.04200006e+00 2.03999996e+00 2.03900003e+00 2.03699994e+00
    2.03299999e+00 2.02999997e+00 2.02699995e+00 2.02500010e+00
    2.02099991e+00 2.01799989e+00 2.01500010e+00 2.01200008e+00
    2.00999999e+00 2.00799990e+00 2.00399995e+00 2.00200009e+00 2.
    1.99699998e+00 1.99500000e+00 1.99100006e+00 1.98800004e+00
    1.98699999e+00 1.98500001e+00 1.98199999e+00 1.97800004e+00
    1.97599995e+00 1.97500002e+00 1.97300005e+00 1.97200000e+00
    1.97000003e+00 1.96500003e+00 1.17100000e+00 0. 0. 0. 0. 0.
    2.76600003e+00 1.53799999e+00 2.05100012e+00 2.04600000e+00
    2.04200006e+00 2.03999996e+00 2.03999996e+00 2.03500009e+00
    2.03299999e+00 2.02900004e+00 2.02699995e+00 2.02399993e+00
    2.01999998e+00 2.01799989e+00 2.01600003e+00 2.01200008e+00
    2.00799990e+00 2.00799990e+00 2.00600004e+00 2.00200009e+00 2.
    1.99699998e+00 1.99399996e+00 1.99399996e+00 1.98800004e+00
    1.98599994e+00 1.98599994e+00 1.98199999e+00 1.98000002e+00
    1.97800004e+00 1.97599995e+00 1.97300005e+00 1.97099996e+00
    1.30400002e+00 1.17100000e+00 0. 0. 0. 0. 0. 0. 1.17100000e+00
    1.17100000e+00 2.04900002e+00 2.04800010e+00 2.04399991e+00
    2.04200006e+00 2.03699994e+00 2.03500009e+00 2.03200006e+00
    2.02699995e+00 2.02699995e+00 2.02399993e+00 2.01999998e+00
    2.01799989e+00 2.01600003e+00 2.01099992e+00 2.00900006e+00
    2.00799990e+00 2.00399995e+00 2. 2. 1.99600005e+00 1.99399996e+00
    1.99399996e+00 1.98899996e+00 1.98699999e+00 1.98399997e+00
    1.98199999e+00 1.98199999e+00 1.97899997e+00 1.97399998e+00
    1.17200005e+00 1.17100000e+00 2.06800008e+00 0. 0. 0. 0. 0. 0. 0.
    1.17100000e+00 1.17100000e+00 1.48599994e+00 2.04699993e+00
    2.04399991e+00 2.04200006e+00 2.03800011e+00 2.03600001e+00
    2.02999997e+00 2.02699995e+00 2.02600002e+00 2.02500010e+00
    2.01999998e+00 2.01600003e+00 2.01500010e+00 2.00999999e+00
    2.00799990e+00 2.00799990e+00 2.00200009e+00 2.00300002e+00
    2.00099993e+00 1.99600005e+00 1.99399996e+00 1.99199998e+00
    1.98899996e+00 1.98599994e+00 1.98399997e+00 1.98399997e+00
    1.97899997e+00 1.98399997e+00 1.17100000e+00 1.17100000e+00
    2.05299997e+00 0. 0. 0. 0. 0. 0. 0. 0. 0. 1.17100000e+00
    1.49899995e+00 1.63300002e+00 2.04399991e+00 2.04200006e+00
    2.03600001e+00 2.03399992e+00 2.03299999e+00 2.02800012e+00
    2.02600002e+00 2.02399993e+00 2.01900005e+00 2.01600003e+00
    2.01200008e+00 2.00900006e+00 2.00799990e+00 2.00600004e+00
    2.00500011e+00 2.00200009e+00 2. 1.99699998e+00 1.99399996e+00
    1.99100006e+00 1.98800004e+00 1.98699999e+00 1.98500001e+00
    1.98000002e+00 1.31599998e+00 1.99899995e+00 1.99500000e+00
    2.04399991e+00 0. 0. 0. 0. 0. 0. 0. 0. 0. 0. 0. 2.05100012e+00
    2.04299998e+00 2.04299998e+00 2.03999996e+00 2.03500009e+00
    2.03399992e+00 2.03200006e+00 2.02800012e+00 2.02500010e+00
    2.02399993e+00 2.01999998e+00 2.01699996e+00 2.01300001e+00
    2.00999999e+00 2.00600004e+00 2.00799990e+00 2.00399995e+00
    2.00200009e+00 1.99899995e+00 1.99699998e+00 1.99500000e+00
    1.99199998e+00 1.98899996e+00 1.98599994e+00 1.27100003e+00
    2.08899999e+00 2.07800007e+00 1.99399996e+00 1.99199998e+00 0. 0. 0.
    0. 0. 0. 0. 0. 0. 0. 0. 0. 0. 1.17100000e+00 2.04399991e+00
    2.04200006e+00 2.03500009e+00 2.03399992e+00 2.03099990e+00
    2.02699995e+00 2.02699995e+00 2.02099991e+00 2.01799989e+00
    2.01600003e+00 2.01399994e+00 2.00999999e+00 2.00999999e+00
    2.00600004e+00 2.00399995e+00 2.00200009e+00 1.99899995e+00
    1.99600005e+00 1.99199998e+00 1.98800004e+00 1.20299995e+00
    1.17100000e+00 2.08500004e+00 2.06500006e+00 2.04900002e+00
    2.01999998e+00 0. 0. 0. 0. 0. 0. 0. 0. 0. 0. 0. 0. 0. 1.75899994e+00
    1.17100000e+00 1.17100000e+00 2.04200006e+00 2.03900003e+00
    2.03299999e+00 2.03099990e+00 2.02699995e+00 2.02699995e+00
    2.02099991e+00 2.01799989e+00 2.01600003e+00 2.01399994e+00
    2.01200008e+00 2.00999999e+00 2.00600004e+00 2.00399995e+00
    2.00200009e+00 1.99699998e+00 1.99600005e+00 1.97200000e+00
    1.17100000e+00 1.17100000e+00 1.90600002e+00 2.05500007e+00
    2.03999996e+00 2.01500010e+00 0. 0. 0. 0. 0. 0. 0. 0. 0. 0. 0. 0. 0.
    0. 0. 1.17100000e+00 1.17100000e+00 2.04200006e+00 2.03900003e+00
    2.03299999e+00 2.03299999e+00 2.02800012e+00 2.02500010e+00
    2.02099991e+00 2.01699996e+00 2.01600003e+00 2.01600003e+00
    2.01200008e+00 2.00999999e+00 2.00699997e+00 2.00500011e+00 2.
    1.99899995e+00 2.01399994e+00 1.17100000e+00 2.08100009e+00
    2.05800009e+00 2.04299998e+00 2.02900004e+00 2.00799990e+00 0. 0. 0.
    0. 0. 0. 0. 0. 0. 0. 0. 0. 0. 0. 0. 0. 0. 1.17100000e+00
    1.80799997e+00 2.03500009e+00 2.03299999e+00 2.02900004e+00
    2.02699995e+00 2.02399993e+00 2.02099991e+00 2.01799989e+00
    2.01699996e+00 2.01200008e+00 2.01099992e+00 2.00999999e+00
    2.00699997e+00 2.00399995e+00 1.20700002e+00 1.17100000e+00
    2.01399994e+00 2.01099992e+00 2.02300000e+00 2.03299999e+00
    2.01399994e+00 1.99100006e+00 0. 0. 0. 0. 0. 0. 0. 0. 0. 0. 0. 0. 0.
    0. 0. 0. 0. 0. 2.54800010e+00 1.18900001e+00 1.31799996e+00
    2.03200006e+00 2.02800012e+00 2.02699995e+00 2.02500010e+00
    2.01999998e+00 2.01900005e+00 2.01600003e+00 2.01399994e+00
    2.01200008e+00 2.00799990e+00 1.20700002e+00 1.17100000e+00
    1.17100000e+00 1.27199996e+00 1.99500000e+00 1.99800003e+00
    2.01200008e+00 1.99899995e+00 1.98399997e+00 0. 0. 0. 0. 0. 0. 0. 0.
    0. 0. 0. 0. 0. 0. 0. 0. 0. 0. 0. 0. 1.17100000e+00 1.17100000e+00
    1.98399997e+00 2.03299999e+00 2.02699995e+00 2.02500010e+00
    2.01999998e+00 2.01999998e+00 2.01600003e+00 2.01200008e+00
    1.17100000e+00 1.17100000e+00 1.17100000e+00 1.17100000e+00
    1.47899997e+00 2.04200006e+00 2.02699995e+00 2.01200008e+00
    1.99199998e+00 1.97800004e+00 0. 0. 0. 0. 0. 0. 0. 0. 0. 0. 0. 0. 0.
    0. 0. 0. 0. 0. 0. 0. 0. 1.17100000e+00 1.17100000e+00 1.80299997e+00
    2.02800012e+00 2.02699995e+00 2.02800012e+00 2.02099991e+00
    2.01399994e+00 1.85899997e+00 1.17100000e+00 1.17100000e+00
    1.17100000e+00 1.17100000e+00 1.17100000e+00 2.03099990e+00
    2.01699996e+00 1.99800003e+00 1.98599994e+00 1.97700000e+00 0. 0. 0.
    0. 0. 0. 0. 0. 0. 0. 0. 0. 0. 0. 0. 0. 0. 0. 0. 0. 0. 0. 0.
    1.17100000e+00 0. 2.85800004e+00 2.02900004e+00 2.02300000e+00
    1.19200003e+00 1.17100000e+00 1.17100000e+00 1.17100000e+00
    1.17100000e+00 1.17100000e+00 1.17100000e+00 1.66900003e+00
    2.00799990e+00 1.99100006e+00 1.98500001e+00 1.97800004e+00 0. 0. 0.
    0. 0. 0. 0. 0. 0. 0. 0. 0. 0. 0. 0. 0. 0. 0. 0. 0. 0. 0. 0. 0. 0. 0.
    0. 0. 0. 0. 0. 0. 0. 0. 0. 0. 0. 0. 0. 0. 0. 0. 0. 0. 0. 0. 0. 0. 0.
    0. 0. 0. 0. 0. 0. 0. 0. 0. 0. 0. 0. 0. 0. 0. 0. 0. 0. 0. 0. 0. 0. 0.
    0. 0. 0. 0. 0. 0. 0. 0.</data></Depth>
</opencv_storage>
