<?xml version="1.0"?>
<opencv_storage>
<Depth type_id="opencv-matrix">
  <rows>40</rows>
  <cols>40</cols>
  <dt>f</dt>
  <data>
    0. 0. 0. 0. 0. 0. 0. 0. 0. 0. 0. 0. 0. 0. 0. 0. 0. 0. 0. 0. 0. 0. 0.
    0. 0. 0. 0. 0. 0. 0. 0. 0. 0. 0. 0. 0. 0. 0. 0. 0. 0. 0. 0. 0. 0. 0.
    0. 0. 0. 0. 0. 0. 0. 0. 0. 0. 0. 0. 0. 0. 0. 0. 0. 0. 0. 0. 0. 0. 0.
    0. 0. 0. 0. 0. 0. 0. 0. 0. 0. 0. 0. 0. 0. 0. 0. 0. 0. 0. 0. 0. 0. 0.
    0. 0. 0. 0. 0. 0. 0. 0. 0. 0. 0. 0. 0. 0. 0. 0. 0. 0. 0. 0. 0. 0. 0.
    0. 0. 0. 0. 0. 0. 0. 0. 0. 0. 0. 0. 0. 0. 0. 0. 0. 0. 0. 0. 0. 0. 0.
    0. 0. 0. 0. 0. 0. 0. 0. 0. 0. 0. 0. 0. 0. 0. 0. 0. 0. 0. 0. 0. 0. 0.
    0. 0. 0. 0. 0. 0. 0. 0. 0. 0. 0. 0. 0. 0. 0. 0. 0. 0. 0. 0. 0. 0. 0.
    0. 0. 0. 0. 0. 0. 0. 0. 0. 0. 0. 0. 0. 0. 0. 0. 0. 0. 0. 0. 0. 0. 0.
    0. 0. 0. 0. 0. 0. 0. 0. 0. 0. 0. 0. 0. 0. 0. 0. 0. 0. 0. 0. 0. 0. 0.
    0. 0. 0. 0. 0. 0. 0. 0. 0. 0. 0. 0. 0. 0. 0. 0. 0. 0. 0.
    2.96700001e+00 2.96600008e+00 2.96600008e+00 2.96600008e+00
    2.96600008e+00 2.96600008e+00 2.92199993e+00 2.87800002e+00
    2.87800002e+00 2.87800002e+00 2.87800002e+00 2.87800002e+00
    2.87800002e+00 2.87800002e+00 2.89400005e+00 2.94600010e+00
    2.96600008e+00 2.96600008e+00 2.96600008e+00 2.95600009e+00
    2.90499997e+00 2.87800002e+00 2.87800002e+00 2.37800002e+00
    1.76699996e+00 1.76699996e+00 1.76699996e+00 1.76699996e+00
    1.76699996e+00 1.76699996e+00 1.82900000e+00 0. 0. 0. 0. 0. 0. 0. 0.
    0. 2.96700001e+00 2.96600008e+00 2.96600008e+00 2.96600008e+00
    2.96600008e+00 2.96600008e+00 2.93899989e+00 2.91100001e+00
    2.91100001e+00 2.90300012e+00 2.88299990e+00 2.87800002e+00
    2.87800002e+00 2.89800000e+00 2.92100000e+00 2.95300007e+00
    2.96600008e+00 2.96600008e+00 2.74000001e+00 2.52800012e+00
    2.49600005e+00 2.48499990e+00 2.49799991e+00 2.19000006e+00
    1.80999994e+00 1.80999994e+00 1.80999994e+00 1.80999994e+00
    1.80999994e+00 1.80999994e+00 1.84899998e+00 2.99399996e+00
    2.96900010e+00 2.96900010e+00 2.96900010e+00 2.96900010e+00
    2.96900010e+00 2.96900010e+00 2.96900010e+00 2.96799994e+00
    2.96600008e+00 2.96600008e+00 2.96600008e+00 2.96600008e+00
    2.96600008e+00 2.96600008e+00 2.96399999e+00 2.96300006e+00
    2.96300006e+00 2.94099998e+00 2.89199996e+00 2.87800002e+00
    2.87899995e+00 2.92899990e+00 2.96300006e+00 2.96499991e+00
    2.96600008e+00 2.96600008e+00 2.39000010e+00 1.86500001e+00
    1.86300004e+00 1.87699997e+00 1.90999997e+00 1.89900005e+00
    1.87699997e+00 1.87699997e+00 1.87699997e+00 1.87699997e+00
    1.87699997e+00 1.87699997e+00 1.87899995e+00 2.97799993e+00
    2.96600008e+00 2.96600008e+00 2.96600008e+00 2.96600008e+00
    2.96600008e+00 2.96600008e+00 2.96600008e+00 2.96600008e+00
    2.96600008e+00 2.96600008e+00 2.96600008e+00 2.96600008e+00
    2.96600008e+00 2.96600008e+00 2.96600008e+00 2.96600008e+00
    2.96600008e+00 2.94400001e+00 2.89199996e+00 2.87800002e+00
    2.87899995e+00 2.93099999e+00 2.85800004e+00 2.50900006e+00
    2.37100005e+00 2.37100005e+00 2.08400011e+00 1.82299995e+00
    1.82299995e+00 1.83899999e+00 1.87300003e+00 1.88100004e+00
    1.88100004e+00 1.88100004e+00 1.88100004e+00 1.88100004e+00
    1.88100004e+00 1.88100004e+00 1.88100004e+00 2.96600008e+00
    2.96600008e+00 2.96600008e+00 2.96600008e+00 2.96600008e+00
    2.96600008e+00 2.96600008e+00 2.96600008e+00 2.96600008e+00
    2.96600008e+00 2.97300005e+00 2.97799993e+00 2.97799993e+00
    2.97399998e+00 2.96700001e+00 2.96000004e+00 2.95400000e+00
    2.95400000e+00 2.90100002e+00 2.77800012e+00 2.74399996e+00
    2.74499989e+00 2.79500008e+00 2.65599990e+00 2.10100007e+00
    1.88100004e+00 1.88100004e+00 1.85500002e+00 1.83099997e+00
    1.83099997e+00 1.84500003e+00 1.87399995e+00 1.88499999e+00
    1.88900006e+00 1.88900006e+00 1.88699996e+00 1.88300002e+00
    1.88100004e+00 1.88100004e+00 1.88100004e+00 2.96600008e+00
    2.96600008e+00 2.96600008e+00 2.96600008e+00 2.96600008e+00
    2.96600008e+00 2.96600008e+00 2.96600008e+00 2.96600008e+00
    2.96600008e+00 0. 0. 0. 0. 2.97199988e+00 2.93400002e+00
    2.90300012e+00 2.90300012e+00 2.71300006e+00 2.27900004e+00
    2.16100001e+00 2.16199994e+00 2.20099998e+00 2.16499996e+00
    1.96200001e+00 1.88100004e+00 1.88100004e+00 1.87199998e+00
    1.86500001e+00 1.86500001e+00 1.86899996e+00 1.87899995e+00
    1.89999998e+00 1.92299998e+00 1.92299998e+00 1.91499996e+00
    1.88999999e+00 1.88100004e+00 1.88100004e+00 1.88100004e+00
    2.96600008e+00 2.96600008e+00 2.96600008e+00 2.95300007e+00
    2.93899989e+00 2.93899989e+00 2.93899989e+00 2.93899989e+00
    2.95000005e+00 2.96600008e+00 0. 0. 2.84699988e+00 2.75300002e+00
    2.71600008e+00 2.68000007e+00 2.64400005e+00 2.61100006e+00
    2.41100001e+00 1.99399996e+00 1.88100004e+00 1.88199997e+00
    1.91600001e+00 1.93299997e+00 1.90900004e+00 1.89900005e+00
    1.89900005e+00 1.88999999e+00 1.88100004e+00 1.88100004e+00
    1.88100004e+00 1.88100004e+00 1.89900005e+00 1.92200005e+00
    1.92200005e+00 1.91400003e+00 1.88999999e+00 1.88100004e+00
    1.88100004e+00 1.88100004e+00 2.96600008e+00 2.96600008e+00
    2.96600008e+00 2.92899990e+00 2.88800001e+00 2.88800001e+00
    2.88800001e+00 2.88800001e+00 2.91899991e+00 2.96499991e+00 0.
    2.92700005e+00 2.44099998e+00 2.22499990e+00 2.21900010e+00
    2.21399999e+00 2.19499993e+00 2.09800005e+00 2.00200009e+00
    1.90699995e+00 1.88100004e+00 1.88199997e+00 1.91600001e+00
    1.93900001e+00 1.93499994e+00 1.93400002e+00 1.93400002e+00
    1.90600002e+00 1.88100004e+00 1.88100004e+00 1.88100004e+00
    1.88100004e+00 1.88399994e+00 1.88699996e+00 1.88699996e+00
    1.88600004e+00 1.88199997e+00 1.88100004e+00 1.88100004e+00
    1.88100004e+00 2.97799993e+00 2.96600008e+00 2.96600008e+00
    2.92400002e+00 2.87800002e+00 2.87800002e+00 2.87800002e+00
    2.87800002e+00 2.91300011e+00 2.96499991e+00 2.74799991e+00
    2.50799990e+00 2.22199988e+00 2.09599996e+00 2.09599996e+00
    2.09599996e+00 2.08299994e+00 1.99100006e+00 1.92499995e+00
    1.88999999e+00 1.88100004e+00 1.88199997e+00 1.91600001e+00
    1.94000006e+00 1.94000006e+00 1.94000006e+00 1.94000006e+00
    1.90900004e+00 1.88100004e+00 1.88100004e+00 1.88100004e+00
    1.88100004e+00 1.88100004e+00 1.88100004e+00 1.88100004e+00
    1.88100004e+00 1.88100004e+00 1.88100004e+00 1.88100004e+00
    1.88100004e+00 2.99600005e+00 2.97199988e+00 2.97199988e+00
    2.92700005e+00 2.87500000e+00 2.85100007e+00 2.83500004e+00
    2.82999992e+00 2.85999990e+00 2.90599990e+00 2.42199993e+00
    2.05999994e+00 2.06200004e+00 2.06299996e+00 2.06299996e+00
    2.06299996e+00 2.05299997e+00 1.98300004e+00 1.92900002e+00
    1.89400005e+00 1.88499999e+00 1.88499999e+00 1.91799998e+00
    1.94000006e+00 1.94000006e+00 1.94000006e+00 1.94000006e+00
    1.91100001e+00 1.88399994e+00 1.88199997e+00 1.88100004e+00
    1.88100004e+00 1.88100004e+00 1.88100004e+00 1.88100004e+00
    1.88100004e+00 1.88100004e+00 1.88100004e+00 1.88100004e+00
    1.88100004e+00 0. 0. 0. 2.95499992e+00 2.85100007e+00 2.59200001e+00
    2.41599989e+00 2.36700010e+00 2.34800005e+00 2.34200001e+00
    2.15899992e+00 2.02900004e+00 2.05299997e+00 2.06299996e+00
    2.06299996e+00 2.06299996e+00 2.05599999e+00 2.00699997e+00
    1.96399999e+00 1.92900002e+00 1.91900003e+00 1.91900003e+00
    1.93200004e+00 1.94000006e+00 1.94000006e+00 1.94000006e+00
    1.94000006e+00 1.92900002e+00 1.91499996e+00 1.89300001e+00
    1.88100004e+00 1.88100004e+00 1.88100004e+00 1.88100004e+00
    1.88100004e+00 1.88100004e+00 1.88100004e+00 1.88100004e+00
    1.88100004e+00 1.88100004e+00 2.88800001e+00 2.81299996e+00
    2.81299996e+00 2.75399995e+00 2.65700006e+00 2.34899998e+00
    2.13899994e+00 2.08100009e+00 2.03800011e+00 2.00099993e+00 2.
    2.00799990e+00 2.03600001e+00 2.04800010e+00 2.04800010e+00
    2.04800010e+00 2.04399991e+00 2.01600003e+00 1.98800004e+00
    1.96099997e+00 1.95400000e+00 1.95400000e+00 1.94599998e+00
    1.94000006e+00 1.94000006e+00 1.94000006e+00 1.94000006e+00
    1.94000006e+00 1.93400002e+00 1.89900005e+00 1.88100004e+00
    1.88100004e+00 1.88100004e+00 1.88100004e+00 1.87300003e+00
    1.86800003e+00 1.86800003e+00 1.86800003e+00 1.86800003e+00
    1.87500000e+00 2.45799994e+00 2.19400001e+00 2.19400001e+00
    2.20300007e+00 2.20499992e+00 2.13100004e+00 2.08100009e+00
    2.06699991e+00 2.03800011e+00 2.00099993e+00 2. 2.00200009e+00
    2.00900006e+00 2.01200008e+00 2.01200008e+00 2.01200008e+00
    2.01099992e+00 2.00399995e+00 1.99699998e+00 1.99100006e+00
    1.98899996e+00 1.98800004e+00 1.96000004e+00 1.94000006e+00
    1.94000006e+00 1.94000006e+00 1.94000006e+00 1.94000006e+00
    1.93400002e+00 1.89900005e+00 1.88100004e+00 1.88100004e+00
    1.88100004e+00 1.87899995e+00 1.85200000e+00 1.83399999e+00
    1.83399999e+00 1.83399999e+00 1.83399999e+00 1.86000001e+00
    2.19300008e+00 2. 2. 2.02999997e+00 2.06299996e+00 2.06299996e+00
    2.06299996e+00 2.06299996e+00 2.03800011e+00 2.00099993e+00 2. 2. 2.
    2. 2. 2. 2. 2. 2. 2. 2. 2. 1.97899997e+00 1.96399999e+00
    1.96399999e+00 1.95599997e+00 1.94099998e+00 1.94000006e+00
    1.93400002e+00 1.89900005e+00 1.88100004e+00 1.88100004e+00
    1.88100004e+00 1.87899995e+00 1.84500003e+00 1.82299995e+00
    1.82299995e+00 1.82299995e+00 1.82299995e+00 0. 2.00399995e+00 2. 2.
    2.02999997e+00 2.06299996e+00 2.06299996e+00 2.06299996e+00
    2.06299996e+00 2.03800011e+00 2.00099993e+00 2. 2. 2. 2. 2. 2. 2. 2.
    2. 2. 2. 2. 2. 1.99899995e+00 1.99899995e+00 1.97800004e+00
    1.94400001e+00 1.94000006e+00 1.93400002e+00 1.89900005e+00
    1.88100004e+00 1.88100004e+00 1.88100004e+00 1.87899995e+00
    1.84500003e+00 1.82299995e+00 1.82299995e+00 1.82299995e+00
    1.82299995e+00 0. 2. 2.01099992e+00 2.03200006e+00 2.04900002e+00
    2.06299996e+00 2.06299996e+00 2.06299996e+00 2.06299996e+00
    2.03800011e+00 2.00099993e+00 2. 2. 2. 2. 2. 2. 2. 2. 2. 2. 2. 2. 2.
    2. 2. 1.99100006e+00 1.97599995e+00 1.97399998e+00 1.96399999e+00
    1.90999997e+00 1.88100004e+00 1.88100004e+00 1.88100004e+00
    1.88000000e+00 1.86600006e+00 1.33000004e+00 0. 0. 0. 0.
    2.00999999e+00 2.02600002e+00 2.05699992e+00 2.06299996e+00
    2.06299996e+00 2.06299996e+00 2.06299996e+00 2.06299996e+00
    2.04200006e+00 2.01099992e+00 2.00999999e+00 2.00799990e+00
    2.00300002e+00 1.99699998e+00 1.99100006e+00 1.99100006e+00
    1.99100006e+00 1.99100006e+00 1.99500000e+00 2.00699997e+00
    2.00600004e+00 2. 1.99399996e+00 1.99100006e+00 1.99100006e+00
    1.99399996e+00 1.99899995e+00 2. 1.98699999e+00 1.91700006e+00
    1.88100004e+00 1.88100004e+00 1.88499999e+00 1.86500001e+00
    1.44700003e+00 0. 0. 0. 0. 0. 2.04699993e+00 2.05200005e+00
    2.06100011e+00 2.06299996e+00 2.06299996e+00 2.06299996e+00
    2.06299996e+00 2.06299996e+00 2.05599999e+00 2.04699993e+00
    2.04699993e+00 2.03900003e+00 2.01200008e+00 1.98500001e+00
    1.95899999e+00 1.95500004e+00 1.95500004e+00 1.95500004e+00
    1.97899997e+00 2.03200006e+00 2.02699995e+00 1.99899995e+00
    1.97300005e+00 1.95500004e+00 1.95500004e+00 1.97099996e+00
    1.99699998e+00 2. 1.98699999e+00 1.91700006e+00 1.88100004e+00
    1.88100004e+00 1.90100002e+00 1.80599999e+00 0. 0. 0. 0. 0. 0.
    2.06299996e+00 2.06299996e+00 2.06299996e+00 2.06299996e+00
    2.06299996e+00 2.06299996e+00 2.06299996e+00 2.06299996e+00
    2.06299996e+00 2.06299996e+00 2.06299996e+00 2.05299997e+00
    2.01600003e+00 1.98000002e+00 1.94500005e+00 1.94000006e+00
    1.94000006e+00 1.94000006e+00 1.97099996e+00 2.04299998e+00
    2.04500008e+00 2.01999998e+00 1.97300005e+00 1.94000006e+00
    1.94000006e+00 1.96099997e+00 1.99600005e+00 1.21200001e+00 0. 0. 0.
    0. 0. 0. 0. 0. 0. 0. 0. 0. 2.06299996e+00 2.06299996e+00
    2.06299996e+00 2.06299996e+00 2.06299996e+00 2.06299996e+00
    2.06299996e+00 2.06299996e+00 2.06299996e+00 2.06299996e+00
    2.06299996e+00 2.05299997e+00 2.01600003e+00 1.98000002e+00
    1.94500005e+00 1.94000006e+00 1.94000006e+00 1.94000006e+00
    1.97099996e+00 2.04299998e+00 2.06100011e+00 2.05599999e+00
    1.98699999e+00 1.94000006e+00 1.94000006e+00 1.96099997e+00
    1.99600005e+00 0. 0. 0. 0. 0. 0. 0. 0. 0. 0. 0. 0. 0. 2.09400010e+00
    2.08500004e+00 2.06599998e+00 2.06299996e+00 2.06299996e+00
    2.06299996e+00 2.06299996e+00 2.06299996e+00 2.06299996e+00
    2.06299996e+00 2.06299996e+00 2.05299997e+00 2.01600003e+00
    1.98000002e+00 1.94500005e+00 1.94000006e+00 1.94000006e+00
    1.94000006e+00 1.37899995e+00 0. 0. 0. 0. 0. 0. 0. 0. 0. 0. 0. 0. 0.
    0. 0. 0. 0. 0. 0. 0. 0. 2.12599993e+00 2.10700011e+00 2.06999993e+00
    2.06299996e+00 2.06299996e+00 2.06299996e+00 2.06299996e+00
    2.06299996e+00 2.06100011e+00 2.05800009e+00 2.05800009e+00
    2.04900002e+00 2.01500010e+00 1.98000002e+00 1.94500005e+00
    1.94000006e+00 1.90799999e+00 1.68299997e+00 0. 0. 0. 0. 0. 0. 0. 0.
    0. 0. 0. 0. 0. 0. 0. 0. 0. 0. 0. 0. 0. 0. 2.12599993e+00
    2.10700011e+00 2.06999993e+00 2.06299996e+00 2.06299996e+00
    2.06299996e+00 2.06299996e+00 2.06299996e+00 2.04600000e+00
    2.02099991e+00 2.02099991e+00 2.01799989e+00 2.00500011e+00
    1.98000002e+00 1.94500005e+00 1.94000006e+00 1.68299997e+00 0. 0. 0.
    0. 0. 0. 0. 0. 0. 0. 0. 0. 0. 0. 0. 0. 0. 0. 0. 0. 0. 0. 0.
    2.10999990e+00 2.09599996e+00 2.06800008e+00 2.07100010e+00
    2.07800007e+00 2.06900001e+00 2.05900002e+00 2.04999995e+00
    2.01600003e+00 1.97099996e+00 1.97000003e+00 1.97399998e+00
    1.99199998e+00 1.98500001e+00 1.95899999e+00 1.37100005e+00 0. 0. 0.
    0. 0. 0. 0. 0. 0. 0. 0. 0. 0. 0. 0. 0. 0. 0. 0. 0. 0. 0. 0. 0.
    2.07299995e+00 2.06999993e+00 2.06399989e+00 2.08800006e+00
    2.11299992e+00 2.08200002e+00 2.05100012e+00 2.01999998e+00
    1.96599996e+00 1.90100002e+00 1.89999998e+00 1.91600001e+00
    1.97399998e+00 1.99699998e+00 1.99100006e+00 0. 0. 0. 0. 0. 0. 0. 0.
    0. 0. 0. 0. 0. 0. 0. 0. 0. 0. 0. 0. 0. 0. 0. 0. 0. 2.06299996e+00
    2.06299996e+00 2.06299996e+00 2.09299994e+00 2.12100005e+00
    2.06800008e+00 2.02800012e+00 2.00699997e+00 1.95200002e+00
    1.88300002e+00 1.88100004e+00 1.59099996e+00 0. 0. 0. 0. 0. 0. 0. 0.
    0. 0. 0. 0. 0. 0. 0. 0. 0. 0. 0. 0. 0. 0. 0. 0. 0. 0. 0. 0.
    2.06299996e+00 2.06299996e+00 2.06299996e+00 2.09299994e+00
    2.11800003e+00 2.04500008e+00 2. 2. 1.95200002e+00 1.88300002e+00
    1.88100004e+00 1.17600000e+00 0. 0. 0. 0. 0. 0. 0. 0. 0. 0. 0. 0. 0.
    0. 0. 0. 0. 0. 0. 0. 0. 0. 0. 0. 0. 0. 0. 0. 0. 0. 0. 0. 0. 0. 0. 0.
    0. 0. 0. 0. 0. 0. 0. 0. 0. 0. 0. 0. 0. 0. 0. 0. 0. 0. 0. 0. 0. 0. 0.
    0. 0. 0. 0. 0. 0. 0. 0. 0. 0. 0. 0. 0. 0. 0. 0. 0. 0. 0. 0. 0. 0. 0.
    0. 0. 0. 0. 0. 0. 0. 0. 0. 0. 0. 0. 0. 0. 0. 0. 0. 0. 0. 0. 0. 0. 0.
    0. 0. 0. 0. 0. 0. 0. 0. 0. 0. 0. 0. 0. 0. 0. 0. 0. 0. 0. 0. 0. 0. 0.
    0. 0. 0. 0. 0. 0. 0. 0. 0. 0. 0. 0. 0. 0. 0. 0. 0. 0. 0. 0. 0. 0. 0.
    0. 0. 0. 0. 0. 0. 0. 0. 0. 0. 0. 0. 0. 0. 0. 0. 0. 0. 0. 0. 0. 0. 0.
    0. 0. 0. 0. 0. 0. 0. 0. 0. 0. 0. 0. 0. 0. 0. 0. 0. 0. 0. 0. 0. 0. 0.
    0. 0. 0. 0. 0. 0. 0. 0. 0. 0. 0. 0. 0. 0. 0. 0. 0. 0. 0. 0. 0. 0. 0.
    0. 0. 0. 0. 0. 0. 0. 0. 0. 0. 0. 0. 0. 0. 0. 0. 0. 0. 0. 0. 0. 0. 0.
    0. 0. 0. 0. 0. 0. 0. 0. 0. 0. 0. 0. 0. 0. 0. 0. 0. 0. 0. 0. 0. 0. 0.
    0. 0. 0. 0. 0. 0. 0. 0. 0. 0. 0. 0. 0. 0. 0. 0. 0. 0. 0. 0. 0. 0. 0.
    0. 0. 0. 0. 0. 0. 0. 0. 0. 0. 0. 0. 0. 0. 0. 0. 0. 0. 0.</data></Depth>
</opencv_storage>
