<?xml version="1.0"?>
<opencv_storage>
<Depth type_id="opencv-matrix">
  <rows>40</rows>
  <cols>40</cols>
  <dt>f</dt>
  <data>
    0. 0. 0. 0. 0. 0. 0. 0. 0. 2.03500009e+00 2.03099990e+00
    2.03099990e+00 2.02800012e+00 2.02200007e+00 2.02099991e+00
    2.02600002e+00 2.02099991e+00 0. 0. 0. 0. 0. 0. 0. 0. 0. 0. 0. 0. 0.
    0. 0. 0. 0. 0. 0. 0. 0. 0. 0. 0. 0. 0. 0. 0. 0. 0. 0. 2.03699994e+00
    2.03299999e+00 2.02900004e+00 2.02600002e+00 2.02600002e+00
    2.02099991e+00 2.02099991e+00 2.02099991e+00 2.01600003e+00
    2.01600003e+00 2.01500010e+00 2.00399995e+00 2.00500011e+00
    2.00500011e+00 2.25999999e+00 0. 0. 0. 0. 1.99500000e+00
    1.99500000e+00 0. 0. 0. 2.33999991e+00 1.62699997e+00 0. 0. 0. 0. 0.
    0. 0. 0. 0. 0. 0. 0. 0. 0. 2.75900006e+00 2.03099990e+00
    2.02800012e+00 2.02600002e+00 2.02300000e+00 2.02099991e+00
    2.02099991e+00 2.01600003e+00 2.01600003e+00 2.01600003e+00
    2.00699997e+00 2.00699997e+00 2.00600004e+00 2. 2. 2. 2.
    1.99300003e+00 1.99399996e+00 1.99500000e+00 1.99500000e+00
    1.99199998e+00 1.99000001e+00 1.99000001e+00 1.99000001e+00
    1.98699999e+00 0. 0. 0. 0. 0. 0. 0. 0. 0. 0. 0. 0. 0. 0.
    1.26400006e+00 2.03099990e+00 2.02600002e+00 2.02600002e+00
    2.02099991e+00 2.02099991e+00 2.01600003e+00 2.01600003e+00
    2.01600003e+00 2.01600003e+00 2.00500011e+00 2.00500011e+00
    2.00399995e+00 2. 2. 2. 1.99600005e+00 1.99500000e+00 1.99500000e+00
    1.99300003e+00 1.99000001e+00 1.99000001e+00 1.99000001e+00
    1.99000001e+00 1.98500001e+00 1.98500001e+00 0. 0. 0. 0. 0. 0. 0. 0.
    0. 0. 0. 0. 0. 0. 0. 2.03299999e+00 2.02600002e+00 2.02600002e+00
    2.02200007e+00 2.02099991e+00 2.01999998e+00 2.01600003e+00
    2.01600003e+00 2.00999999e+00 2.00500011e+00 2.00500011e+00 2. 2. 2.
    1.99500000e+00 1.99500000e+00 1.99500000e+00 1.99500000e+00
    1.99300003e+00 1.99000001e+00 1.99000001e+00 1.98699999e+00
    1.98599994e+00 1.98500001e+00 1.98500001e+00 0. 0. 0. 0. 0. 0. 0. 0.
    0. 0. 0. 0. 0. 2.52300000e+00 0. 2.03099990e+00 2.02600002e+00
    2.02300000e+00 2.02099991e+00 2.02099991e+00 2.01699996e+00
    2.01600003e+00 2.01600003e+00 2.00999999e+00 2.00500011e+00
    2.00500011e+00 2.00500011e+00 2. 2. 1.99600005e+00 1.99500000e+00
    1.99500000e+00 1.99500000e+00 1.99300003e+00 1.99000001e+00
    1.99199998e+00 1.98899996e+00 1.98899996e+00 1.98300004e+00
    1.98399997e+00 0. 0. 0. 0. 0. 0. 0. 0. 0. 0. 0. 0. 0. 2.18099999e+00
    1.37000000e+00 2.02800012e+00 2.02300000e+00 2.02099991e+00
    2.02099991e+00 2.02099991e+00 2.01600003e+00 2.01600003e+00
    2.01600003e+00 2.00999999e+00 2.00500011e+00 2.00500011e+00
    2.00399995e+00 2. 2. 1.99500000e+00 1.99500000e+00 1.99500000e+00
    1.99500000e+00 1.99300003e+00 1.98599994e+00 1.98899996e+00
    1.99300003e+00 1.99199998e+00 1.98599994e+00 1.98399997e+00 0. 0. 0.
    0. 0. 0. 0. 0. 0. 0. 0. 0. 0. 0. 1.50500000e+00 2.02600002e+00
    2.02300000e+00 2.02099991e+00 2.02099991e+00 2.02099991e+00
    2.01699996e+00 2.01600003e+00 2.00999999e+00 2.00999999e+00
    2.00999999e+00 2.00600004e+00 2.00399995e+00 2. 2. 1.99899995e+00
    1.99500000e+00 1.99000001e+00 1.99199998e+00 1.99300003e+00
    1.98899996e+00 1.99000001e+00 1.99000001e+00 1.99000001e+00
    1.97899997e+00 1.97599995e+00 0. 0. 0. 0. 0. 0. 0. 0. 0. 0. 0. 0. 0.
    0. 1.51100004e+00 2.02600002e+00 2.02300000e+00 2.02099991e+00
    2.02099991e+00 2.02099991e+00 2.02099991e+00 2.01600003e+00
    2.01600003e+00 2.00999999e+00 2.00999999e+00 2.00500011e+00
    2.00399995e+00 2. 2. 1.99500000e+00 1.99500000e+00 1.99500000e+00
    1.99000001e+00 1.99500000e+00 1.99500000e+00 1.99199998e+00
    1.99000001e+00 1.99000001e+00 1.98500001e+00 1.98500001e+00 0. 0. 0.
    0. 0. 0. 0. 0. 0. 0. 0. 0. 0. 0. 1.51199996e+00 2.02800012e+00
    2.02600002e+00 2.02600002e+00 2.02099991e+00 2.01600003e+00
    2.01600003e+00 2.01600003e+00 2.01600003e+00 2.00999999e+00
    2.00999999e+00 2.00500011e+00 2. 2. 1.99899995e+00 1.99500000e+00
    1.99500000e+00 1.99500000e+00 1.99000001e+00 1.99500000e+00
    1.99300003e+00 1.99000001e+00 1.98500001e+00 1.99000001e+00
    1.98500001e+00 1.98500001e+00 0. 0. 0. 0. 0. 0. 0. 0. 0. 0. 0. 0. 0.
    0. 1.51600003e+00 2.03099990e+00 2.02600002e+00 2.02600002e+00
    2.02099991e+00 2.01600003e+00 2.01600003e+00 2.01600003e+00
    2.01600003e+00 2.00500011e+00 2.00999999e+00 2.00500011e+00 2. 2.
    1.99899995e+00 1.99500000e+00 1.99699998e+00 1.99800003e+00
    1.99500000e+00 1.99500000e+00 1.98800004e+00 1.98500001e+00
    1.98500001e+00 1.99000001e+00 1.98500001e+00 1.98500001e+00 0. 0. 0.
    0. 0. 0. 0. 0. 0. 0. 0. 0. 0. 2.50500011e+00 2.02099991e+00
    2.02099991e+00 2.02200007e+00 2.02500010e+00 2.02099991e+00
    2.01600003e+00 2.01600003e+00 2.01600003e+00 2.01600003e+00
    2.00500011e+00 2.00999999e+00 2.00500011e+00 2.00099993e+00 2. 2.
    1.99500000e+00 1.99500000e+00 1.99500000e+00 1.99500000e+00
    1.99300003e+00 1.98800004e+00 1.98500001e+00 1.98500001e+00
    1.98500001e+00 1.98000002e+00 2.08999991e+00 0. 0. 0. 0. 0. 0. 0. 0.
    0. 0. 0. 0. 0. 1.44900000e+00 2.02200007e+00 2.02399993e+00
    2.02099991e+00 2.02099991e+00 2.02099991e+00 2.01600003e+00
    2.01600003e+00 2.01500010e+00 2.01500010e+00 2.00999999e+00
    2.00999999e+00 2.00500011e+00 2.00500011e+00 2. 2. 1.99500000e+00
    1.99500000e+00 1.99500000e+00 1.99500000e+00 1.99300003e+00
    1.98699999e+00 1.98800004e+00 1.98500001e+00 1.98199999e+00
    1.98000002e+00 0. 0. 0. 0. 0. 0. 0. 0. 0. 0. 0. 0. 0. 0.
    2.02399993e+00 2.02099991e+00 2.02600002e+00 2.02099991e+00
    2.02099991e+00 2.02099991e+00 2.01699996e+00 2.01600003e+00
    2.01099992e+00 2.00999999e+00 2.00999999e+00 2.00999999e+00
    2.00500011e+00 2. 2. 2. 1.99600005e+00 1.99500000e+00 1.99500000e+00
    1.99500000e+00 1.99300003e+00 1.98500001e+00 1.98500001e+00
    1.98500001e+00 1.98199999e+00 1.97599995e+00 1.05400002e+00 0. 0. 0.
    0. 0. 0. 0. 0. 0. 0. 0. 0. 0. 0. 2.02900004e+00 2.02600002e+00
    2.02300000e+00 2.02099991e+00 2.02099991e+00 2.01699996e+00
    2.01600003e+00 2.01600003e+00 2.00999999e+00 2.00900006e+00
    2.00399995e+00 2. 2. 2. 2. 2. 1.99800003e+00 1.99300003e+00
    1.99000001e+00 1.99300003e+00 1.98800004e+00 1.98500001e+00
    1.98500001e+00 1.98199999e+00 1.97700000e+00 1.98300004e+00 0. 0. 0.
    0. 0. 0. 0. 0. 0. 0. 0. 0. 0. 0. 2.02900004e+00 2.02600002e+00
    2.02300000e+00 2.01999998e+00 2.01699996e+00 2.01600003e+00
    2.01600003e+00 2.01500010e+00 2.00999999e+00 2.00500011e+00
    2.00099993e+00 2. 2. 2. 2. 2. 1.99600005e+00 1.99100006e+00
    1.99000001e+00 1.98500001e+00 1.98500001e+00 1.98899996e+00
    1.98500001e+00 1.98500001e+00 1.98500001e+00 1.98500001e+00 0. 0. 0.
    0. 0. 0. 0. 0. 0. 0. 0. 0. 0. 2.76600003e+00 2.02600002e+00
    2.02699995e+00 2.02300000e+00 2.01699996e+00 2.01600003e+00
    2.01600003e+00 2.01600003e+00 2.01200008e+00 2.00999999e+00
    2.00600004e+00 2.00500011e+00 2. 2. 2. 1.99899995e+00 1.99500000e+00
    1.99500000e+00 1.99300003e+00 1.98800004e+00 1.98500001e+00
    1.98500001e+00 1.98500001e+00 1.98500001e+00 1.98500001e+00
    1.98500001e+00 1.98500001e+00 0. 0. 0. 0. 0. 0. 0. 0. 0. 0. 0. 0. 0.
    1.63000000e+00 2.02600002e+00 2.02300000e+00 2.02099991e+00
    2.01699996e+00 2.01600003e+00 2.01600003e+00 2.01600003e+00
    2.01600003e+00 2.01200008e+00 2.00500011e+00 2.00500011e+00 2. 2. 2.
    1.99500000e+00 1.99500000e+00 1.99500000e+00 1.99300003e+00
    1.98800004e+00 1.98599994e+00 1.98599994e+00 1.98500001e+00
    1.98500001e+00 1.98500001e+00 1.98500001e+00 0. 0. 0. 0. 0. 0. 0. 0.
    0. 0. 0. 0. 0. 0. 2.02399993e+00 2.02099991e+00 2.02399993e+00
    2.02200007e+00 2.01699996e+00 2.01600003e+00 2.01600003e+00
    2.01600003e+00 2.01600003e+00 2.00999999e+00 2.00500011e+00
    2.00300002e+00 2. 2. 2. 1.99899995e+00 1.99500000e+00 1.99500000e+00
    1.99300003e+00 1.98899996e+00 1.98500001e+00 1.98399997e+00
    1.98399997e+00 1.98199999e+00 1.98000002e+00 1.98300004e+00 0. 0. 0.
    0. 0. 0. 0. 0. 0. 0. 0. 0. 0. 0. 2.02099991e+00 2.02099991e+00
    2.02399993e+00 2.02200007e+00 2.02099991e+00 2.01600003e+00
    2.01600003e+00 2.01600003e+00 2.00999999e+00 2.00999999e+00
    2.00699997e+00 2. 2. 2. 2. 2. 1.99899995e+00 1.99500000e+00
    1.99399996e+00 1.99100006e+00 1.98800004e+00 1.98300004e+00
    1.98300004e+00 1.98000002e+00 1.98000002e+00 1.98000002e+00 0. 0. 0.
    0. 0. 0. 0. 0. 0. 0. 0. 0. 0. 0. 2.02099991e+00 2.02099991e+00
    2.02099991e+00 2.02099991e+00 2.01900005e+00 2.01699996e+00
    2.01600003e+00 2.01600003e+00 2.00999999e+00 2.00999999e+00
    2.00999999e+00 2.00200009e+00 2. 2. 2. 2. 1.99899995e+00
    1.99500000e+00 1.99500000e+00 1.99500000e+00 1.99399996e+00
    1.98800004e+00 1.98500001e+00 1.98199999e+00 1.98000002e+00
    1.98000002e+00 0. 0. 0. 0. 0. 0. 0. 0. 0. 0. 0. 0. 0. 0.
    2.01999998e+00 2.01999998e+00 2.02300000e+00 2.02099991e+00
    2.01900005e+00 2.01600003e+00 2.01600003e+00 2.01600003e+00
    2.00999999e+00 2.00999999e+00 2.00999999e+00 2.00699997e+00
    2.00200009e+00 2. 2. 1.99800003e+00 1.99899995e+00 1.99500000e+00
    1.99500000e+00 1.99500000e+00 1.99000001e+00 1.98599994e+00
    1.98500001e+00 1.98500001e+00 1.98000002e+00 1.98500001e+00 0. 0. 0.
    0. 0. 0. 0. 0. 0. 0. 0. 0. 0. 0. 2.01900005e+00 2.01999998e+00
    2.02300000e+00 2.02099991e+00 2.02099991e+00 2.02099991e+00
    2.01600003e+00 2.01600003e+00 2.01300001e+00 2.00999999e+00
    2.00500011e+00 2. 2. 2. 1.99899995e+00 1.99500000e+00 1.99500000e+00
    1.99500000e+00 1.99500000e+00 1.99300003e+00 1.98500001e+00
    1.98000002e+00 1.98300004e+00 1.98500001e+00 1.98300004e+00
    1.98500001e+00 0. 0. 0. 0. 0. 0. 0. 0. 0. 0. 0. 0. 0. 2.69000006e+00
    2.02099991e+00 2.02099991e+00 2.02099991e+00 2.02099991e+00
    2.02099991e+00 2.02099991e+00 2.01600003e+00 2.01600003e+00
    2.01600003e+00 2.00999999e+00 2.00500011e+00 2. 2. 2. 1.99899995e+00
    1.99500000e+00 1.99500000e+00 1.99399996e+00 1.99000001e+00
    1.98699999e+00 1.98500001e+00 1.98300004e+00 1.98399997e+00
    1.98199999e+00 1.98000002e+00 1.98500001e+00 0. 0. 0. 0. 0. 0. 0. 0.
    0. 0. 0. 0. 0. 2.12599993e+00 2.02500010e+00 2.02200007e+00
    2.02099991e+00 2.02099991e+00 2.02099991e+00 2.02099991e+00
    2.01600003e+00 2.01600003e+00 2.01600003e+00 2.00999999e+00
    2.00500011e+00 2.00300002e+00 2. 2. 1.99699998e+00 1.99699998e+00
    1.99500000e+00 1.99300003e+00 1.98899996e+00 1.98500001e+00
    1.98500001e+00 1.98500001e+00 1.98500001e+00 1.98199999e+00
    1.98000002e+00 1.98399997e+00 0. 0. 0. 0. 0. 0. 0. 0. 0. 0. 0. 0. 0.
    2.01399994e+00 2.02600002e+00 2.02099991e+00 2.02099991e+00
    2.02099991e+00 2.02099991e+00 2.02099991e+00 2.01600003e+00
    2.01600003e+00 2.01200008e+00 2.00999999e+00 2.00999999e+00
    2.00500011e+00 2. 2. 1.99500000e+00 1.99500000e+00 1.99500000e+00
    1.99300003e+00 1.99000001e+00 1.98800004e+00 1.98500001e+00
    1.98500001e+00 1.98500001e+00 1.98300004e+00 1.98000002e+00
    1.98500001e+00 0. 0. 0. 0. 0. 0. 0. 0. 0. 0. 0. 0. 0. 1.85399997e+00
    2.02900004e+00 2.02099991e+00 2.02099991e+00 2.02099991e+00
    2.02099991e+00 2.02099991e+00 2.01699996e+00 2.01600003e+00
    2.00999999e+00 2.00999999e+00 2.00999999e+00 2.00500011e+00
    2.00099993e+00 2. 1.99899995e+00 1.99500000e+00 1.99500000e+00
    1.99500000e+00 1.99300003e+00 1.98800004e+00 1.98500001e+00
    1.98500001e+00 1.98500001e+00 1.98500001e+00 1.98099995e+00
    1.98500001e+00 0. 0. 0. 0. 0. 0. 0. 0. 0. 0. 0. 0. 0. 1.86800003e+00
    2.02399993e+00 2.02099991e+00 2.02099991e+00 2.02099991e+00
    2.02099991e+00 2.02099991e+00 2.01600003e+00 2.01099992e+00
    2.00500011e+00 2.00999999e+00 2.00600004e+00 2. 2. 2. 1.99899995e+00
    1.99500000e+00 1.99500000e+00 1.99399996e+00 1.98599994e+00
    1.98099995e+00 1.98300004e+00 1.98500001e+00 1.98500001e+00
    1.98099995e+00 1.98000002e+00 1.98500001e+00 0. 0. 0. 0. 0. 0. 0. 0.
    0. 0. 0. 0. 0. 1.38699996e+00 2.02500010e+00 2.02500010e+00
    2.02099991e+00 2.02099991e+00 2.02099991e+00 2.01799989e+00
    2.01600003e+00 2.01600003e+00 2.00999999e+00 2.00999999e+00
    2.00500011e+00 2. 2. 2. 2. 1.99500000e+00 1.99500000e+00
    1.99300003e+00 1.98800004e+00 1.98399997e+00 1.98399997e+00
    1.98500001e+00 1.98500001e+00 1.98000002e+00 1.98000002e+00 0. 0. 0.
    0. 0. 0. 0. 0. 0. 0. 0. 0. 0. 0. 2.02200007e+00 2.02200007e+00
    2.02300000e+00 2.02099991e+00 2.02099991e+00 2.01799989e+00
    2.01600003e+00 2.01600003e+00 2.01600003e+00 2.00999999e+00
    2.00999999e+00 2.00500011e+00 2.00399995e+00 2. 2. 1.99899995e+00
    1.99500000e+00 1.99399996e+00 1.99100006e+00 1.98500001e+00
    1.98500001e+00 1.98500001e+00 1.98500001e+00 1.98500001e+00
    1.98399997e+00 1.98500001e+00 0. 0. 0. 0. 0. 0. 0. 0. 0. 0. 0. 0. 0.
    0. 2.02800012e+00 2.02399993e+00 2.02300000e+00 2.02099991e+00
    2.01600003e+00 2.01600003e+00 2.01600003e+00 2.01600003e+00
    2.01099992e+00 2.00999999e+00 2.00500011e+00 2.00500011e+00
    2.00500011e+00 2. 1.99500000e+00 1.99500000e+00 1.99500000e+00
    1.98899996e+00 1.98500001e+00 1.98500001e+00 1.98300004e+00
    1.98000002e+00 1.98000002e+00 1.98500001e+00 1.98500001e+00
    1.98500001e+00 2.20099998e+00 0. 0. 0. 0. 0. 0. 0. 0. 0. 0. 0. 0. 0.
    2.85200000e+00 2.02300000e+00 2.02099991e+00 2.02099991e+00
    2.01600003e+00 2.01600003e+00 2.01600003e+00 2.01600003e+00
    2.00999999e+00 2.00999999e+00 2.00500011e+00 2.00500011e+00 2. 2. 2.
    1.99899995e+00 1.99500000e+00 1.99000001e+00 1.99000001e+00
    1.98500001e+00 1.98500001e+00 1.98500001e+00 1.98199999e+00
    1.98000002e+00 1.98000002e+00 1.98000002e+00 0. 0. 0. 0. 0. 0. 0. 0.
    0. 0. 0. 0. 0. 0. 2.03600001e+00 2.02300000e+00 2.01799989e+00
    2.01600003e+00 2.01600003e+00 2.01600003e+00 2.01099992e+00
    2.00999999e+00 2.00600004e+00 2.00500011e+00 2.00500011e+00 2. 2. 2.
    1.99500000e+00 1.99500000e+00 1.99500000e+00 1.99399996e+00
    1.99000001e+00 1.99000001e+00 1.98800004e+00 1.98000002e+00
    1.98000002e+00 1.98000002e+00 1.98000002e+00 1.98000002e+00
    2.78299999e+00 0. 0. 0. 0. 0. 0. 0. 0. 0. 0. 0. 0. 0. 1.38699996e+00
    2.02300000e+00 2.01799989e+00 2.01600003e+00 2.01600003e+00
    2.01200008e+00 2.00999999e+00 2.00999999e+00 2.00500011e+00
    2.00500011e+00 2. 2. 2. 2. 1.99500000e+00 1.99500000e+00
    1.99000001e+00 1.98899996e+00 1.98500001e+00 1.98500001e+00
    1.98500001e+00 1.98000002e+00 1.98000002e+00 1.98500001e+00
    1.98000002e+00 1.16999996e+00 0. 0. 0. 0. 0. 0. 0. 0. 0. 0. 0. 0. 0.
    0. 0. 2.02600002e+00 2.02099991e+00 2.02099991e+00 2.01600003e+00
    2.01600003e+00 2.00999999e+00 2.00999999e+00 2.00500011e+00
    2.00500011e+00 2. 2. 2. 2. 1.99500000e+00 1.99500000e+00
    1.99000001e+00 1.98899996e+00 1.98699999e+00 1.98500001e+00
    1.98500001e+00 1.98300004e+00 1.98000002e+00 1.98000002e+00
    1.98000002e+00 1.16999996e+00 0. 0. 0. 0. 0. 0. 0. 0. 0. 0. 0. 0. 0.
    0. 0. 0. 1.41199994e+00 1.09800005e+00 1.87100005e+00 2.00500011e+00
    2.00399995e+00 2.00099993e+00 2.00399995e+00 2.00500011e+00
    2.00099993e+00 2. 2. 2. 2. 1.99500000e+00 1.99100006e+00
    1.99300003e+00 1.99000001e+00 1.98500001e+00 1.98399997e+00
    1.98199999e+00 1.98000002e+00 1.98000002e+00 1.98000002e+00
    1.16999996e+00 2.54500008e+00 0. 0. 0. 0. 0. 0. 0. 0. 0. 0. 0. 0. 0.
    0. 0. 0. 0. 0. 0. 1.55499995e+00 1.79200006e+00 1.97599995e+00
    2.01200008e+00 2.02300000e+00 0. 1.99899995e+00 1.99899995e+00 2.
    1.99899995e+00 1.99500000e+00 1.98399997e+00 1.99000001e+00
    1.98599994e+00 1.98099995e+00 1.98000002e+00 1.97599995e+00
    1.98000002e+00 1.98300004e+00 1.09500003e+00 0. 0. 0. 0. 0. 0. 0. 0.
    0. 0. 0. 0. 0. 0. 0. 0. 0. 0. 0. 0. 0. 0. 1.85500002e+00
    2.02999997e+00 2.03099990e+00 0. 2.01300001e+00 2.01200008e+00
    2.00200009e+00 2.00099993e+00 1.99300003e+00 1.91100001e+00
    1.98699999e+00 1.98399997e+00 1.98500001e+00 1.98099995e+00
    1.97700000e+00 1.98000002e+00 1.83000004e+00 0. 0. 0. 0. 0. 0. 0. 0.
    0. 0. 0. 0. 0. 0. 0. 0. 0. 0. 0. 0. 0. 0. 0. 0. 1.70500004e+00
    2.05699992e+00 2.09200001e+00 2.08599997e+00 1.03400004e+00
    2.02699995e+00 2.00500011e+00 1.70500004e+00 0. 0. 1.97099996e+00
    1.66600001e+00 1.12800002e+00 1.66600001e+00 1.66199994e+00 0. 0. 0.
    0. 0. 0. 0. 0. 0. 0. 0. 0. 0. 0. 0. 0. 0. 0. 0. 0. 0. 0. 0. 0. 0. 0.
    2.09599996e+00 2.08999991e+00 2.08599997e+00 2.09200001e+00
    2.07900000e+00 2.00900006e+00 1.71000004e+00 0. 0. 0. 0. 0. 0. 0. 0.
    0. 0. 0. 0. 0. 0. 0. 0. 0.</data></Depth>
</opencv_storage>
