<?xml version="1.0"?>
<opencv_storage>
<Depth type_id="opencv-matrix">
  <rows>40</rows>
  <cols>40</cols>
  <dt>f</dt>
  <data>
    0. 0. 0. 0. 0. 0. 0. 2.05900002e+00 1.99600005e+00 2.00300002e+00 2.
    2. 2.11100006e+00 2.39700007e+00 2.40000010e+00 2.00600004e+00
    2.00300002e+00 2.28200006e+00 2.38599992e+00 2.36800003e+00
    2.37599993e+00 2.00300002e+00 2.00300002e+00 0. 0. 2.35500002e+00
    2.34800005e+00 2.35200000e+00 2.34699988e+00 2.33899999e+00
    2.33500004e+00 0. 0. 0. 0. 0. 0. 0. 0. 0. 0. 0. 0. 0. 0. 0. 0.
    1.99399996e+00 1.99199998e+00 1.99699998e+00 1.99699998e+00
    1.99699998e+00 2. 2.00099993e+00 2.00200009e+00 2.00399995e+00
    2.00300002e+00 2.00600004e+00 2.00600004e+00 2.00600004e+00
    2.00600004e+00 2.00600004e+00 2.00600004e+00 2.00500011e+00
    2.00600004e+00 2.00600004e+00 2.00600004e+00 2.00799990e+00
    2.00999999e+00 2.00900006e+00 2.01200008e+00 2.01200008e+00 0. 0. 0.
    0. 0. 0. 0. 0. 0. 0. 0. 0. 0. 0. 0. 1.65600002e+00 1.99399996e+00
    1.99600005e+00 1.99600005e+00 1.99800003e+00 1.99699998e+00
    1.99699998e+00 2.00300002e+00 2.00300002e+00 2.00300002e+00
    2.00600004e+00 2.00300002e+00 2.00600004e+00 2.00600004e+00
    2.00600004e+00 2.00900006e+00 2.00900006e+00 2.00699997e+00
    2.00900006e+00 2.00799990e+00 2.00799990e+00 2.00900006e+00
    2.01200008e+00 2.00999999e+00 2.01200008e+00 0. 0. 0. 0. 0. 0. 0. 0.
    0. 0. 0. 0. 0. 0. 0. 1.83899999e+00 1.99399996e+00 1.99600005e+00
    1.99399996e+00 1.99600005e+00 2.00099993e+00 2.00300002e+00
    2.00300002e+00 2.00300002e+00 2.00300002e+00 2.00600004e+00
    2.00600004e+00 2.00600004e+00 2.00600004e+00 2.00600004e+00
    2.00600004e+00 2.00900006e+00 2.00600004e+00 2.00600004e+00
    2.00600004e+00 2.00600004e+00 2.00900006e+00 2.01200008e+00
    2.00699997e+00 1.00199997e+00 0. 0. 0. 0. 0. 0. 0. 0. 0. 0. 0. 0. 0.
    0. 0. 1.99399996e+00 1.99399996e+00 1.99800003e+00 1.99699998e+00
    1.99899995e+00 2. 2. 2.00300002e+00 2.00300002e+00 2.00300002e+00
    2.00399995e+00 2.00600004e+00 2.00600004e+00 2.00500011e+00
    2.00500011e+00 2.00600004e+00 2.00699997e+00 2.00600004e+00
    2.00300002e+00 2.00600004e+00 2.00900006e+00 2.00799990e+00
    2.00900006e+00 2.00799990e+00 1.59899998e+00 0. 0. 0. 0. 0. 0. 0. 0.
    0. 0. 0. 0. 0. 0. 0. 1.95099998e+00 1.99399996e+00 1.99500000e+00
    1.99500000e+00 1.99800003e+00 1.99800003e+00 2.00300002e+00
    2.00300002e+00 2.00300002e+00 2.00300002e+00 2.00399995e+00
    2.00300002e+00 2.00600004e+00 2.00399995e+00 2.00399995e+00
    2.00600004e+00 2.00600004e+00 2.00600004e+00 2.00300002e+00
    2.00300002e+00 2.00799990e+00 2.00799990e+00 2.00600004e+00
    2.00900006e+00 1.72200000e+00 0. 0. 0. 0. 0. 0. 0. 0. 0. 0. 0. 0. 0.
    0. 0. 1.84099996e+00 1.99500000e+00 1.99500000e+00 1.99699998e+00 2.
    2. 2.00300002e+00 2.00300002e+00 2.00300002e+00 2.00300002e+00
    2.00600004e+00 2.00500011e+00 2.00300002e+00 2.00600004e+00
    2.00600004e+00 2.00600004e+00 2.00600004e+00 2.00600004e+00
    2.00500011e+00 2.00300002e+00 2.00600004e+00 2.00600004e+00
    2.00600004e+00 2.00900006e+00 1.00199997e+00 0. 0. 0. 0. 0. 0. 0. 0.
    0. 0. 0. 0. 0. 0. 0. 1.83899999e+00 1.99399996e+00 1.99600005e+00
    1.99699998e+00 1.99699998e+00 2. 2.00300002e+00 2. 2.00300002e+00
    2.00300002e+00 2.00300002e+00 2.00300002e+00 2.00600004e+00
    2.00600004e+00 2.00600004e+00 2.00600004e+00 2.00600004e+00
    2.00300002e+00 2.00600004e+00 2.00600004e+00 2.00600004e+00
    2.00600004e+00 2.00900006e+00 2.00699997e+00 1.65999997e+00 0. 0. 0.
    0. 0. 0. 0. 0. 0. 0. 0. 0. 0. 0. 0. 1.99500000e+00 1.99399996e+00
    1.99500000e+00 1.99699998e+00 1.99699998e+00 2. 2.00200009e+00
    2.00300002e+00 2.00300002e+00 2.00300002e+00 2.00300002e+00
    2.00399995e+00 2.00600004e+00 2.00500011e+00 2.00399995e+00
    2.00600004e+00 2.00600004e+00 2.00600004e+00 2.00600004e+00
    2.00600004e+00 2.00600004e+00 2.00600004e+00 2.00900006e+00
    2.00799990e+00 1.00199997e+00 0. 0. 0. 0. 0. 0. 0. 0. 0. 0. 0. 0. 0.
    0. 0. 1.83899999e+00 1.99300003e+00 1.99399996e+00 1.99399996e+00
    1.99699998e+00 1.99800003e+00 2. 2.00300002e+00 2.00300002e+00
    2.00300002e+00 2.00300002e+00 2.00600004e+00 2.00300002e+00
    2.00300002e+00 2.00600004e+00 2.00600004e+00 2.00600004e+00
    2.00300002e+00 2.00300002e+00 2.00600004e+00 2.00600004e+00
    2.00600004e+00 2.00600004e+00 2.00900006e+00 2.00900006e+00 0. 0. 0.
    0. 0. 0. 0. 0. 0. 0. 0. 0. 0. 0. 0. 1.83899999e+00 1.99399996e+00
    1.99399996e+00 1.99399996e+00 1.99699998e+00 1.99800003e+00 2.
    2.00099993e+00 2.00200009e+00 2.00300002e+00 2.00300002e+00
    2.00500011e+00 2.00600004e+00 2.00300002e+00 2.00300002e+00
    2.00600004e+00 2.00600004e+00 2.00300002e+00 2.00300002e+00
    2.00600004e+00 2.00600004e+00 2.00600004e+00 2.00600004e+00
    2.00799990e+00 2.00699997e+00 0. 0. 0. 0. 0. 0. 0. 0. 0. 0. 0. 0. 0.
    0. 0. 1.99399996e+00 1.99399996e+00 1.99199998e+00 1.99699998e+00
    1.99699998e+00 1.99800003e+00 2. 2. 2. 2. 2.00300002e+00
    2.00300002e+00 2.00300002e+00 2.00500011e+00 2.00500011e+00
    2.00500011e+00 2.00600004e+00 2.00300002e+00 2.00300002e+00
    2.00300002e+00 2.00300002e+00 2.00300002e+00 2.00600004e+00
    2.00600004e+00 1.59800005e+00 0. 0. 0. 0. 0. 0. 0. 0. 0. 0. 0. 0. 0.
    0. 0. 1.99699998e+00 1.99399996e+00 1.99399996e+00 1.99399996e+00
    1.99399996e+00 1.99699998e+00 2. 2.00300002e+00 2. 2. 2.00300002e+00
    2.00300002e+00 2.00300002e+00 2.00300002e+00 2.00300002e+00
    2.00300002e+00 2.00600004e+00 2.00300002e+00 2.00300002e+00
    2.00300002e+00 2.00300002e+00 2.00300002e+00 2.00300002e+00
    2.00500011e+00 2.01099992e+00 0. 0. 0. 0. 0. 0. 0. 0. 0. 0. 0. 0. 0.
    0. 0. 1.83899999e+00 1.99399996e+00 1.99699998e+00 1.99399996e+00
    1.99600005e+00 1.99699998e+00 1.99699998e+00 2. 2. 2. 2.00300002e+00
    2.00300002e+00 2.00300002e+00 2.00300002e+00 2.00300002e+00
    2.00300002e+00 2.00399995e+00 2.00300002e+00 2.00300002e+00
    2.00300002e+00 2.00300002e+00 2.00300002e+00 2.00300002e+00
    2.00399995e+00 2.00300002e+00 0. 0. 0. 0. 0. 0. 0. 0. 0. 0. 0. 0. 0.
    0. 0. 1.98300004e+00 1.99300003e+00 1.99399996e+00 1.99399996e+00
    1.99699998e+00 1.99699998e+00 2. 2. 2. 2.00300002e+00 2.00300002e+00
    2.00300002e+00 2.00300002e+00 2.00300002e+00 2.00300002e+00
    2.00500011e+00 2.00300002e+00 2.00300002e+00 2.00300002e+00
    2.00300002e+00 2.00300002e+00 2.00300002e+00 2.00300002e+00
    2.00399995e+00 2.00300002e+00 0. 0. 0. 0. 0. 0. 0. 0. 0. 0. 0. 0. 0.
    0. 0. 1.83500004e+00 1.99100006e+00 1.99399996e+00 1.99399996e+00
    1.99600005e+00 1.99699998e+00 2. 2. 2. 2.00300002e+00 2.00300002e+00
    2.00300002e+00 2.00300002e+00 2.00300002e+00 2.00399995e+00
    2.00300002e+00 2.00300002e+00 2.00300002e+00 2.00300002e+00
    2.00300002e+00 2.00300002e+00 2.00300002e+00 2.00300002e+00
    2.00600004e+00 2.00300002e+00 0. 0. 0. 0. 0. 0. 0. 0. 0. 0. 0. 0. 0.
    0. 0. 1.83899999e+00 1.99399996e+00 1.99399996e+00 1.99399996e+00
    1.99399996e+00 1.99500000e+00 1.99699998e+00 1.99899995e+00
    2.00099993e+00 2. 2. 2. 2.00300002e+00 2.00300002e+00 2.00300002e+00
    2.00399995e+00 2.00600004e+00 2.00300002e+00 2.00200009e+00
    2.00300002e+00 2.00300002e+00 2.00300002e+00 2.00300002e+00
    2.00300002e+00 2. 0. 0. 0. 0. 0. 0. 0. 0. 0. 0. 0. 0. 0. 0. 0.
    1.84099996e+00 1.99399996e+00 1.99399996e+00 1.99399996e+00
    1.99399996e+00 1.99500000e+00 1.99699998e+00 1.99699998e+00
    2.00300002e+00 2. 2.00099993e+00 2. 2.00300002e+00 2.00300002e+00
    2.00300002e+00 2.00300002e+00 2.00399995e+00 2.00099993e+00
    2.00200009e+00 2. 2.00200009e+00 2.00300002e+00 2. 2.00300002e+00
    2.00200009e+00 0. 0. 0. 0. 0. 0. 0. 0. 0. 0. 0. 0. 0. 0. 0.
    1.83800006e+00 1.99399996e+00 1.99399996e+00 1.99399996e+00
    1.99399996e+00 1.99699998e+00 1.99699998e+00 1.99699998e+00 2. 2.
    2.00200009e+00 2. 2.00300002e+00 2.00300002e+00 2.00300002e+00
    2.00300002e+00 2.00300002e+00 2. 2. 2. 2. 2.00300002e+00
    2.00300002e+00 2.00099993e+00 2.00300002e+00 0. 0. 0. 0. 0. 0. 0. 0.
    0. 0. 0. 0. 0. 0. 0. 1.83599997e+00 1.99399996e+00 1.99399996e+00
    1.99399996e+00 1.99399996e+00 1.99399996e+00 1.99699998e+00
    1.99899995e+00 2. 2. 2. 2.00099993e+00 2.00300002e+00 2.00300002e+00
    2.00300002e+00 2.00300002e+00 2.00300002e+00 2. 2. 2. 2. 2.
    2.00300002e+00 2.00300002e+00 2.00300002e+00 0. 0. 0. 0. 0. 0. 0. 0.
    0. 0. 0. 0. 0. 0. 0. 1.83899999e+00 1.99300003e+00 1.99399996e+00
    1.99399996e+00 1.99399996e+00 1.99399996e+00 1.99699998e+00
    1.99699998e+00 1.99800003e+00 2.00300002e+00 2. 2. 2.00099993e+00
    2.00300002e+00 2.00099993e+00 2.00300002e+00 2.00300002e+00 2. 2.
    2.00099993e+00 2. 2.00099993e+00 2. 2.00300002e+00 1.41100001e+00 0.
    0. 0. 0. 0. 0. 0. 0. 0. 0. 0. 0. 0. 0. 0. 1.84099996e+00
    1.99100006e+00 1.99199998e+00 1.99399996e+00 1.99399996e+00
    1.99399996e+00 1.99600005e+00 1.99399996e+00 1.99699998e+00
    1.99899995e+00 2. 2. 2. 2. 2. 2.00300002e+00 2.00300002e+00 2. 2. 2.
    2. 2. 2. 2.00300002e+00 2.00200009e+00 0. 0. 0. 0. 0. 0. 0. 0. 0. 0.
    0. 0. 0. 0. 0. 1.83899999e+00 1.99399996e+00 1.99399996e+00
    1.99399996e+00 1.99399996e+00 1.99399996e+00 1.99399996e+00
    1.99600005e+00 1.99699998e+00 1.99699998e+00 1.99899995e+00 2. 2. 2.
    2. 2. 2.00300002e+00 2. 2. 2. 2. 2. 2. 2.00300002e+00 2. 0. 0. 0. 0.
    0. 0. 0. 0. 0. 0. 0. 0. 0. 0. 0. 1.83599997e+00 1.99199998e+00
    1.99199998e+00 1.99399996e+00 1.99399996e+00 1.99399996e+00
    1.99399996e+00 1.99399996e+00 1.99699998e+00 1.99399996e+00
    1.99899995e+00 1.99699998e+00 2.00099993e+00 2.00300002e+00
    2.00300002e+00 2. 2.00300002e+00 2. 2. 2. 2. 2. 2. 2. 1.65600002e+00
    0. 0. 0. 0. 0. 0. 0. 0. 0. 0. 0. 0. 0. 0. 0. 1.83899999e+00
    1.99100006e+00 1.99100006e+00 1.99300003e+00 1.99399996e+00
    1.99600005e+00 1.99500000e+00 1.99699998e+00 1.99699998e+00
    1.99699998e+00 1.99899995e+00 1.99899995e+00 2. 1.99899995e+00
    1.99899995e+00 2.00200009e+00 2.00300002e+00 2. 2. 2.00099993e+00 2.
    2. 2.00300002e+00 2. 2.00200009e+00 0. 0. 0. 0. 0. 0. 0. 0. 0. 0. 0.
    0. 0. 0. 0. 1.83500004e+00 1.99100006e+00 1.99100006e+00
    1.99100006e+00 1.99100006e+00 1.99399996e+00 1.99399996e+00
    1.99399996e+00 1.99600005e+00 1.99399996e+00 1.99899995e+00 2. 2.
    1.99800003e+00 1.99800003e+00 2.00300002e+00 2.00300002e+00 2. 2. 2.
    2. 2. 2. 2. 2. 0. 0. 0. 0. 0. 0. 0. 0. 0. 0. 0. 0. 0. 0. 0.
    1.94299996e+00 1.99000001e+00 1.99100006e+00 1.99100006e+00
    1.99100006e+00 1.99399996e+00 1.99399996e+00 1.99500000e+00
    1.99699998e+00 1.99399996e+00 1.99699998e+00 2. 2. 1.99800003e+00 2.
    2.00300002e+00 2. 2. 2. 2. 2. 2. 2.00200009e+00 2.00099993e+00 2. 0.
    0. 0. 0. 0. 0. 0. 0. 0. 0. 0. 0. 0. 0. 0. 1.83500004e+00
    1.98899996e+00 1.99100006e+00 1.99100006e+00 1.99199998e+00
    1.99399996e+00 1.99399996e+00 1.99399996e+00 1.99699998e+00
    1.99500000e+00 1.99500000e+00 1.99899995e+00 2. 2. 2. 2.00300002e+00
    2.00099993e+00 2. 2. 2. 2. 2. 2. 2. 2.00099993e+00 0. 0. 0. 0. 0. 0.
    0. 0. 0. 0. 0. 0. 0. 0. 0. 1.00199997e+00 1.99000001e+00
    1.99199998e+00 1.99100006e+00 1.99100006e+00 1.99399996e+00
    1.99399996e+00 1.99600005e+00 1.99399996e+00 1.99699998e+00
    1.99399996e+00 1.99699998e+00 2. 1.99800003e+00 1.99699998e+00 2.
    2.00300002e+00 2. 2. 2. 2. 2. 2. 2.00099993e+00 2.00300002e+00 0. 0.
    0. 0. 0. 0. 0. 0. 0. 0. 0. 0. 0. 0. 0. 1.83500004e+00 1.99100006e+00
    1.99199998e+00 1.99100006e+00 1.99100006e+00 1.99399996e+00
    1.99399996e+00 1.99399996e+00 1.99500000e+00 1.99699998e+00
    1.99699998e+00 2. 1.99699998e+00 1.99699998e+00 1.99800003e+00 2.
    2.00300002e+00 2. 2. 2. 2. 2. 2. 2.00200009e+00 1.22399998e+00 0. 0.
    0. 0. 0. 0. 0. 0. 0. 0. 0. 0. 0. 0. 0. 1.83599997e+00 1.99100006e+00
    1.99100006e+00 1.99100006e+00 1.99300003e+00 1.99399996e+00
    1.99399996e+00 1.99399996e+00 1.99399996e+00 1.99600005e+00
    1.99399996e+00 1.99699998e+00 1.99699998e+00 1.99800003e+00
    1.99800003e+00 2.00200009e+00 2.00300002e+00 2. 2. 2. 2. 2. 2. 2.
    1.46599996e+00 0. 0. 0. 0. 0. 0. 0. 0. 0. 0. 0. 0. 0. 0. 0.
    1.83899999e+00 1.99100006e+00 1.99100006e+00 1.99100006e+00
    1.99100006e+00 1.99100006e+00 1.99399996e+00 1.99399996e+00
    1.99399996e+00 1.99399996e+00 1.99399996e+00 1.99699998e+00
    1.99699998e+00 1.99699998e+00 1.99699998e+00 2. 2. 2. 2. 2. 2. 2. 2.
    2. 2. 0. 0. 0. 0. 0. 0. 0. 0. 0. 0. 0. 0. 0. 0. 0. 1.83700001e+00
    1.99100006e+00 1.99100006e+00 1.99100006e+00 1.99100006e+00
    1.99399996e+00 1.99399996e+00 1.99399996e+00 1.99399996e+00
    1.99600005e+00 1.99399996e+00 1.99399996e+00 1.99500000e+00
    1.99699998e+00 1.99699998e+00 2. 1.99699998e+00 1.99699998e+00
    1.99699998e+00 1.99699998e+00 2. 2.00099993e+00 2.00300002e+00
    2.00300002e+00 2. 0. 0. 0. 0. 0. 0. 0. 0. 0. 0. 0. 0. 0. 0. 0.
    1.99000001e+00 1.98899996e+00 1.99100006e+00 1.99100006e+00
    1.99100006e+00 1.99100006e+00 1.99399996e+00 1.99399996e+00
    1.99399996e+00 1.99500000e+00 1.99399996e+00 1.99399996e+00
    1.99399996e+00 1.99899995e+00 1.99899995e+00 2. 2. 1.99699998e+00
    1.99800003e+00 1.99800003e+00 2. 2. 2. 2. 1.99699998e+00 0. 0. 0. 0.
    0. 0. 0. 0. 0. 0. 0. 0. 0. 0. 0. 1.96000004e+00 1.98699999e+00
    1.99100006e+00 1.98899996e+00 1.99000001e+00 1.99100006e+00
    1.99399996e+00 1.99399996e+00 1.99399996e+00 1.99500000e+00
    1.99300003e+00 1.99699998e+00 1.99699998e+00 1.99699998e+00 2. 2.
    2.00300002e+00 1.99699998e+00 2. 2. 2. 2. 2. 2. 2.00600004e+00 0. 0.
    0. 0. 0. 0. 0. 0. 0. 0. 0. 0. 0. 0. 0. 2.42600012e+00 1.98699999e+00
    1.98699999e+00 0. 0. 1.99100006e+00 1.99100006e+00 1.99399996e+00 0.
    2.00500011e+00 1.99399996e+00 2. 2.00200009e+00 2. 1.99800003e+00
    2.00600004e+00 2.00099993e+00 2. 0. 0. 0. 0. 0. 0. 0. 0. 0. 0. 0. 0.
    0. 0. 0. 0. 0. 0. 0. 0. 0. 0. 0. 0. 0. 0. 0. 0. 0. 0. 0. 0. 0. 0. 0.
    0. 0. 2.01799989e+00 0. 0. 0. 0. 0. 0. 0. 0. 0. 0. 0. 0. 0. 0. 0. 0.
    0. 0. 0. 0. 0. 0. 0. 0. 0. 0. 0. 0. 0. 0. 1.11699998e+00 0. 0. 0. 0.
    1.00199997e+00 2.07299995e+00 0. 0. 2.01799989e+00 0. 0. 0. 0. 0. 0.
    0. 0. 0. 0. 0. 0. 0. 0. 0. 0. 0. 0. 0. 0. 0. 0. 0. 0. 0. 0. 0. 0. 0.
    0. 0. 0. 0. 0. 0. 1.00199997e+00 1.00199997e+00 0. 0. 2.01799989e+00
    0. 0. 0. 0. 0. 0. 0. 0. 0. 0. 0. 0. 0. 0. 0. 0. 0. 0. 0. 0. 0. 0. 0.
    0. 0. 0. 0. 0. 0. 0. 1.00199997e+00 0. 0. 0. 0. 1.00199997e+00
    1.00199997e+00 0. 0. 2.01799989e+00 0. 0. 0. 0. 0. 0. 0. 0. 0. 0. 0.
    0. 0. 0. 0. 0. 0.</data></Depth>
</opencv_storage>
