<?xml version="1.0"?>
<opencv_storage>
<Depth type_id="opencv-matrix">
  <rows>40</rows>
  <cols>40</cols>
  <dt>f</dt>
  <data>
    0. 0. 0. 0. 0. 0. 0. 0. 0. 0. 0. 0. 0. 0. 0. 0. 0. 0. 0. 0. 0. 0. 0.
    0. 0. 0. 0. 0. 0. 0. 0. 0. 0. 0. 0. 0. 0. 0. 0. 0. 1.97599995e+00
    1.97599995e+00 1.97800004e+00 1.98000002e+00 0. 0. 0. 0. 0. 0.
    2.71099997e+00 1.99500000e+00 1.99800003e+00 2. 2.76500010e+00 0. 0.
    0. 0. 0. 0. 0. 0. 0. 0. 0. 0. 0. 0. 0. 0. 0. 0. 0. 0. 0. 0. 0. 0. 0.
    1.97599995e+00 1.97599995e+00 1.98000002e+00 2.00200009e+00 0. 0. 0.
    0. 0. 1.99500000e+00 1.99699998e+00 1.99500000e+00 2. 2. 2. 2.
    2.78999996e+00 0. 0. 0. 0. 0. 0. 0. 0. 0. 0. 0. 0. 0. 0. 0. 0. 0. 0.
    0. 0. 0. 0. 0. 1.97599995e+00 1.98199999e+00 2. 1.72000003e+00 0. 0.
    0. 1.80999994e+00 1.99500000e+00 1.99500000e+00 1.99600005e+00
    1.99500000e+00 2. 2. 2. 2. 1.99500000e+00 2. 2.71900010e+00 0. 0. 0.
    0. 0. 0. 0. 0. 0. 0. 0. 0. 0. 0. 0. 0. 0. 0. 0. 0. 0. 1.97399998e+00
    1.98800004e+00 2.00099993e+00 1.78600001e+00 0. 0. 0. 0.
    1.77699995e+00 1.99399996e+00 1.99100006e+00 1.99699998e+00 2. 2. 2.
    2. 2. 2. 2. 2.00999999e+00 2.90199995e+00 0. 0. 0. 0. 0. 0. 0. 0. 0.
    0. 0. 0. 0. 0. 0. 0. 0. 0. 0. 1.98199999e+00 1.99500000e+00
    2.00300002e+00 2.00300002e+00 0. 1.20099998e+00 0. 0. 1.99500000e+00
    1.99000001e+00 1.99000001e+00 1.99699998e+00 2. 2. 2. 2. 2. 2. 2.
    2.00399995e+00 2.00399995e+00 2.89700007e+00 0. 0. 0. 0. 0. 0. 0. 0.
    0. 0. 0. 0. 0. 0. 0. 0. 0. 0. 1.99699998e+00 2.04800010e+00
    2.07800007e+00 2.00500011e+00 0. 0. 0. 1.94599998e+00 1.99500000e+00
    1.99500000e+00 1.99500000e+00 1.99500000e+00 2. 2. 2. 2. 2. 2. 2.
    2.00399995e+00 2.00900006e+00 2.01200008e+00 2.13800001e+00 0. 0. 0.
    0. 0. 0. 0. 0. 0. 0. 0. 0. 0. 0. 0. 0. 0. 2.00999999e+00
    2.07100010e+00 2.03800011e+00 0. 0. 0. 2. 1.99500000e+00
    1.99500000e+00 1.99500000e+00 1.99500000e+00 1.99500000e+00
    1.99500000e+00 1.99500000e+00 1.99500000e+00 2. 2.00300002e+00
    2.00399995e+00 2. 2. 2.00099993e+00 2.00900006e+00 2.00900006e+00
    2.01300001e+00 0. 0. 0. 0. 0. 0. 0. 0. 0. 0. 0. 0. 0. 0. 0. 0.
    2.04900002e+00 2.06900001e+00 1.11399996e+00 0. 0. 0. 1.98899996e+00
    1.98599994e+00 1.99000001e+00 1.99500000e+00 1.99000001e+00
    1.99199998e+00 1.99500000e+00 1.99500000e+00 1.99600005e+00 2. 2.
    2.00399995e+00 2.00399995e+00 2. 2. 2.00399995e+00 2.00900006e+00
    2.01099992e+00 2.01399994e+00 2.01399994e+00 0. 0. 0. 0. 0. 0. 0. 0.
    0. 0. 0. 0. 0. 0. 1.88699996e+00 0. 0. 0. 0. 1.94099998e+00
    1.98399997e+00 1.98599994e+00 1.99000001e+00 1.99399996e+00
    1.99000001e+00 1.99500000e+00 1.99500000e+00 1.99500000e+00 2. 2. 2.
    2. 2.00300002e+00 2.00399995e+00 2.00500011e+00 2.00500011e+00
    2.00600004e+00 2.01099992e+00 2.01399994e+00 2.01500010e+00
    2.01799989e+00 2.02399993e+00 0. 0. 0. 0. 0. 0. 0. 0. 0. 0. 0. 0.
    1.29799998e+00 0. 0. 0. 1.02400005e+00 1.98399997e+00 1.98000002e+00
    1.98599994e+00 1.99100006e+00 1.99300003e+00 1.99000001e+00
    1.99500000e+00 1.99500000e+00 1.99500000e+00 1.99500000e+00
    1.99899995e+00 2. 1.99899995e+00 2. 2.00300002e+00 2.00799990e+00
    2.00799990e+00 2.00900006e+00 2.01099992e+00 2.01399994e+00
    2.01799989e+00 2.01900005e+00 2.01900005e+00 2.02200007e+00 0. 0. 0.
    0. 0. 0. 0. 0. 0. 0. 0. 0. 0. 0. 0. 1.88000000e+00 1.98199999e+00
    1.98199999e+00 1.98699999e+00 1.99000001e+00 1.99000001e+00
    1.99399996e+00 1.99500000e+00 1.99500000e+00 1.99500000e+00
    1.99500000e+00 1.99500000e+00 2. 1.99500000e+00 2. 2. 2.00399995e+00
    2.00399995e+00 2.00900006e+00 2.01099992e+00 2.01399994e+00
    2.01399994e+00 2.01699996e+00 2.01900005e+00 2.01999998e+00
    2.01900005e+00 0. 0. 0. 0. 0. 0. 0. 0. 0. 0. 0. 0. 0. 1.98500001e+00
    1.98000002e+00 1.98000002e+00 1.98500001e+00 1.98300004e+00
    1.98800004e+00 1.99000001e+00 1.99199998e+00 1.99500000e+00
    1.99500000e+00 1.99500000e+00 1.99500000e+00 1.99500000e+00
    1.99500000e+00 2. 2. 2. 2. 2.00200009e+00 2.00699997e+00
    2.00999999e+00 2.01399994e+00 2.01399994e+00 2.01399994e+00
    2.01900005e+00 2.02200007e+00 2.01900005e+00 2.01600003e+00
    2.02399993e+00 0. 0. 0. 0. 0. 0. 0. 0. 0. 0. 1.61399996e+00
    1.98099995e+00 1.98000002e+00 1.98000002e+00 1.98500001e+00
    1.98300004e+00 1.98500001e+00 1.98599994e+00 1.99199998e+00
    1.99199998e+00 1.99399996e+00 1.99500000e+00 1.99500000e+00
    1.99500000e+00 1.99699998e+00 2. 2. 2. 2.00399995e+00 2.00200009e+00
    2.00399995e+00 2.00699997e+00 2.01300001e+00 2.01399994e+00
    2.01399994e+00 2.01900005e+00 2.01900005e+00 2.02200007e+00
    2.02399993e+00 2.02399993e+00 2.02399993e+00 2.02399993e+00 0. 0. 0.
    0. 0. 0. 0. 0. 1.60699999e+00 1.98000002e+00 1.98000002e+00
    1.98000002e+00 1.98500001e+00 1.98399997e+00 1.98099995e+00
    1.98599994e+00 1.99199998e+00 1.99000001e+00 1.99100006e+00
    1.99500000e+00 1.99500000e+00 1.99500000e+00 1.99500000e+00
    1.99699998e+00 1.99699998e+00 2. 2.00399995e+00 2.00500011e+00
    2.00799990e+00 2.00799990e+00 2.00900006e+00 2.01500010e+00
    2.01699996e+00 2.01900005e+00 2.01900005e+00 2.01900005e+00
    2.02099991e+00 2.02099991e+00 2.02399993e+00 2.02399993e+00
    2.02900004e+00 2.43300009e+00 0. 0. 0. 0. 0. 0. 1.86600006e+00
    1.98000002e+00 1.98000002e+00 1.98000002e+00 1.98500001e+00
    1.98000002e+00 1.98500001e+00 1.98500001e+00 1.98699999e+00
    1.99000001e+00 1.99000001e+00 1.99000001e+00 1.99500000e+00
    1.99500000e+00 1.99500000e+00 1.99500000e+00 1.99500000e+00 2.
    2.00099993e+00 2.00399995e+00 2.00900006e+00 2.01099992e+00
    2.00900006e+00 2.01300001e+00 2.01399994e+00 2.01500010e+00
    2.01900005e+00 2.01900005e+00 2.01900005e+00 2.02300000e+00
    2.02399993e+00 2.02399993e+00 2.02399993e+00 2.02399993e+00
    2.02399993e+00 0. 0. 0. 0. 1.97599995e+00 1.97899997e+00
    1.98000002e+00 1.98000002e+00 1.98000002e+00 1.98000002e+00
    1.98000002e+00 1.98399997e+00 1.98099995e+00 1.98300004e+00
    1.98599994e+00 1.99000001e+00 1.99300003e+00 1.99500000e+00
    1.99500000e+00 1.99600005e+00 1.99899995e+00 1.99899995e+00 2.
    2.00099993e+00 2.00399995e+00 2.00500011e+00 2.00900006e+00
    2.01300001e+00 2.00999999e+00 2.01399994e+00 2.01699996e+00
    2.01900005e+00 2.01900005e+00 2.01900005e+00 2.01900005e+00
    2.02399993e+00 2.02399993e+00 2.02399993e+00 2.02399993e+00
    2.02399993e+00 2.02699995e+00 2.39400005e+00 2.58200002e+00
    1.39600003e+00 1.97599995e+00 1.97599995e+00 1.97899997e+00
    1.98000002e+00 1.98000002e+00 1.98000002e+00 1.98000002e+00
    1.98000002e+00 1.98000002e+00 1.98000002e+00 1.98500001e+00
    1.99000001e+00 1.99500000e+00 1.99500000e+00 1.99500000e+00
    1.99500000e+00 1.99500000e+00 1.99600005e+00 2. 2. 2.00399995e+00
    2.00399995e+00 2.00799990e+00 2.01399994e+00 2.00900006e+00
    2.01399994e+00 2.01900005e+00 2.01900005e+00 2.01900005e+00
    2.01900005e+00 2.02399993e+00 2.02399993e+00 2.02399993e+00
    2.02399993e+00 2.02399993e+00 2.02399993e+00 2.02699995e+00
    2.02900004e+00 2.03399992e+00 1.97300005e+00 1.97099996e+00
    1.97500002e+00 1.97599995e+00 1.97599995e+00 1.97599995e+00
    1.98000002e+00 1.98000002e+00 1.98000002e+00 1.98300004e+00
    1.98000002e+00 1.98500001e+00 1.99000001e+00 1.99500000e+00
    1.99000001e+00 1.99500000e+00 1.99500000e+00 1.99500000e+00
    1.99500000e+00 1.99600005e+00 2. 2.00399995e+00 2.00399995e+00
    2.00600004e+00 2.00900006e+00 2.01399994e+00 2.01399994e+00
    2.01399994e+00 2.01900005e+00 2.01900005e+00 2.01900005e+00
    2.02399993e+00 2.02399993e+00 2.02399993e+00 2.02399993e+00
    2.02399993e+00 2.02399993e+00 2.02399993e+00 2.02699995e+00
    2.02900004e+00 1.97599995e+00 1.97599995e+00 1.97599995e+00
    1.97599995e+00 1.97599995e+00 1.97599995e+00 1.98000002e+00
    1.98000002e+00 1.98000002e+00 1.98000002e+00 1.98000002e+00
    1.98500001e+00 1.99000001e+00 1.99300003e+00 1.99000001e+00
    1.99000001e+00 1.99000001e+00 1.99500000e+00 2. 2. 2. 2.00099993e+00
    2.00399995e+00 2.00600004e+00 2.00900006e+00 2.01399994e+00
    2.01099992e+00 2.01300001e+00 2.01900005e+00 2.01900005e+00
    2.01900005e+00 2.02300000e+00 2.01999998e+00 2.02399993e+00
    2.02399993e+00 2.02399993e+00 2.02399993e+00 2.02399993e+00
    2.02699995e+00 2.02900004e+00 1.98000002e+00 1.97599995e+00
    1.97599995e+00 1.97599995e+00 1.97599995e+00 1.97599995e+00
    1.97700000e+00 1.98000002e+00 1.98000002e+00 1.98000002e+00
    1.98099995e+00 1.98500001e+00 1.98800004e+00 1.99000001e+00
    1.99000001e+00 1.99000001e+00 1.99100006e+00 1.99100006e+00 2. 2. 2.
    2. 2.00099993e+00 2.00600004e+00 2.00900006e+00 2.00900006e+00
    2.00900006e+00 2.01200008e+00 2.01399994e+00 2.01900005e+00
    2.01900005e+00 2.01900005e+00 2.01900005e+00 2.01900005e+00
    2.01900005e+00 2.02099991e+00 2.02399993e+00 2.02099991e+00
    2.02200007e+00 2.03299999e+00 1.99800003e+00 1.98599994e+00
    1.98099995e+00 1.98000002e+00 1.98000002e+00 1.97599995e+00
    1.98000002e+00 1.98000002e+00 1.98000002e+00 1.98099995e+00
    1.98000002e+00 1.98199999e+00 1.98699999e+00 1.99000001e+00
    1.99000001e+00 1.99399996e+00 1.99500000e+00 1.99500000e+00 2.
    1.99899995e+00 1.99899995e+00 2. 2. 2.00399995e+00 2.00900006e+00
    2.00900006e+00 2.00900006e+00 2.00999999e+00 2.01399994e+00
    2.01799989e+00 2.01900005e+00 2.01900005e+00 2.01900005e+00
    2.01900005e+00 2.01900005e+00 2.02200007e+00 2.02399993e+00
    2.02399993e+00 2.02699995e+00 2.03299999e+00 1.87600005e+00
    2.02200007e+00 2.00799990e+00 1.99800003e+00 1.98199999e+00
    1.98000002e+00 1.98000002e+00 1.98000002e+00 1.98000002e+00
    1.98099995e+00 1.98000002e+00 1.98000002e+00 1.98300004e+00
    1.99000001e+00 1.99100006e+00 1.99399996e+00 1.99500000e+00
    1.99500000e+00 1.99500000e+00 1.99500000e+00 1.99600005e+00 2. 2.
    2.00200009e+00 2.00900006e+00 2.00900006e+00 2.00900006e+00
    2.01200008e+00 2.01399994e+00 2.01399994e+00 2.01900005e+00
    2.01900005e+00 2.01900005e+00 2.01900005e+00 2.01900005e+00
    2.02399993e+00 2.02399993e+00 2.02399993e+00 2.02699995e+00
    2.03200006e+00 2.73399997e+00 0. 2.02399993e+00 2.01600003e+00
    1.99199998e+00 1.98899996e+00 1.98199999e+00 1.98000002e+00
    1.98000002e+00 1.98000002e+00 1.98599994e+00 1.98199999e+00
    1.98500001e+00 1.98699999e+00 1.99199998e+00 1.99500000e+00
    1.99500000e+00 1.99500000e+00 1.99500000e+00 1.99500000e+00
    1.99600005e+00 2. 2. 2.00200009e+00 2.00799990e+00 2.00799990e+00
    2.00900006e+00 2.00900006e+00 2.00900006e+00 2.01399994e+00
    2.01900005e+00 2.01900005e+00 2.01900005e+00 2.01900005e+00
    2.01900005e+00 2.02099991e+00 2.02399993e+00 2.02200007e+00
    2.02900004e+00 2.70000005e+00 0. 0. 0. 2.30200005e+00 2.05500007e+00
    2.01099992e+00 1.99600005e+00 1.98000002e+00 1.98000002e+00
    1.98300004e+00 1.98899996e+00 1.98599994e+00 1.98500001e+00
    1.98500001e+00 1.98800004e+00 1.99000001e+00 1.99399996e+00
    1.99500000e+00 1.99500000e+00 1.99500000e+00 1.99600005e+00 2. 2.
    2.00200009e+00 2.00399995e+00 2.00699997e+00 2.00900006e+00
    2.00999999e+00 2.00900006e+00 2.01399994e+00 2.01900005e+00
    2.01900005e+00 2.01900005e+00 2.01799989e+00 2.01600003e+00
    2.02099991e+00 2.02300000e+00 2.01699996e+00 2.76399994e+00 0. 0. 0.
    0. 0. 2.23200011e+00 2.05299997e+00 2.04699993e+00 2.01099992e+00
    1.99500000e+00 1.99300003e+00 1.99000001e+00 1.98899996e+00
    1.98800004e+00 1.99000001e+00 1.99000001e+00 1.99000001e+00
    1.99500000e+00 1.99500000e+00 1.99500000e+00 1.99500000e+00
    1.99600005e+00 2. 2. 2.00200009e+00 2.00399995e+00 2.00699997e+00
    2.00900006e+00 2.01399994e+00 2.01399994e+00 2.01900005e+00
    2.01600003e+00 2.01399994e+00 2.01699996e+00 2.01799989e+00
    2.01699996e+00 2.02099991e+00 2.02300000e+00 2.01900005e+00 0. 0. 0.
    0. 0. 0. 0. 0. 2.06900001e+00 2.05200005e+00 2.03399992e+00
    2.00500011e+00 1.99600005e+00 1.99300003e+00 1.99300003e+00
    1.99000001e+00 1.98699999e+00 1.99000001e+00 1.99500000e+00
    1.99500000e+00 1.99500000e+00 1.99500000e+00 1.99600005e+00 2. 2.
    2.00200009e+00 2.00399995e+00 2.00799990e+00 2.00900006e+00
    2.00900006e+00 2.01099992e+00 2.01099992e+00 2.01399994e+00
    2.01399994e+00 2.01399994e+00 2.01399994e+00 2.01600003e+00
    2.01900005e+00 2.02500010e+00 0. 0. 0. 0. 0. 0. 0. 0. 0. 0. 0.
    2.05200005e+00 2.02999997e+00 2.01500010e+00 2.00999999e+00
    1.99899995e+00 1.99000001e+00 1.98500001e+00 1.99000001e+00
    1.99500000e+00 1.99500000e+00 1.99500000e+00 1.99500000e+00
    1.99600005e+00 2. 2. 2.00200009e+00 2.00399995e+00 2.00699997e+00
    2.00900006e+00 2.00900006e+00 2.00999999e+00 2.00900006e+00
    2.00900006e+00 2.01399994e+00 2.01399994e+00 2.01399994e+00
    2.01600003e+00 2.01600003e+00 2.92499995e+00 0. 0. 0. 0. 0. 0. 0. 0.
    0. 0. 0. 0. 0. 2.05200005e+00 2.04500008e+00 2.02099991e+00
    1.99899995e+00 1.99399996e+00 1.99500000e+00 1.99500000e+00
    1.99500000e+00 1.99500000e+00 1.99500000e+00 1.99500000e+00 2. 2.
    2.00200009e+00 2.00399995e+00 2.00399995e+00 2.00900006e+00
    2.00900006e+00 2.01300001e+00 2.00900006e+00 2.00900006e+00
    2.01399994e+00 2.01399994e+00 2.01799989e+00 2.01900005e+00
    2.01799989e+00 0. 0. 0. 0. 0. 0. 0. 0. 0. 0. 0. 0. 0. 0. 0.
    2.07100010e+00 2.06299996e+00 2.04900002e+00 2.01999998e+00
    2.00300002e+00 1.99899995e+00 1.99500000e+00 1.99500000e+00
    1.99500000e+00 1.99500000e+00 1.99699998e+00 1.99600005e+00
    2.00200009e+00 2.00399995e+00 2.00399995e+00 2.00500011e+00
    2.00900006e+00 2.01300001e+00 2.01399994e+00 2.01300001e+00
    2.01399994e+00 2.01399994e+00 2.01900005e+00 2.01900005e+00
    2.97700000e+00 0. 0. 0. 0. 0. 0. 0. 0. 0. 0. 0. 0. 0. 0. 0. 0. 0.
    2.06100011e+00 2.06200004e+00 2.04600000e+00 2.02099991e+00
    2.00900006e+00 2. 1.99500000e+00 1.99500000e+00 1.99600005e+00 2. 2.
    2.00399995e+00 2.00399995e+00 2.00399995e+00 2.00399995e+00
    2.00900006e+00 2.01399994e+00 2.01399994e+00 2.01399994e+00
    2.01399994e+00 2.01399994e+00 2.01900005e+00 0. 0. 0. 0. 0. 0. 0. 0.
    0. 0. 0. 0. 0. 0. 0. 0. 0. 0. 0. 2.09200001e+00 2.08800006e+00
    2.05200005e+00 2.03500009e+00 2.01399994e+00 2. 1.99500000e+00
    1.99600005e+00 2. 2.00399995e+00 2.00399995e+00 2.00399995e+00
    2.00399995e+00 2.00399995e+00 2.00900006e+00 2.00900006e+00
    2.00900006e+00 2.01399994e+00 2.01399994e+00 2.01399994e+00
    2.92700005e+00 0. 0. 0. 0. 0. 0. 0. 0. 0. 0. 0. 0. 0. 0. 0. 0. 0. 0.
    0. 0. 0. 0. 2.06200004e+00 2.04600000e+00 2.02800012e+00
    2.00399995e+00 2. 2. 2.00399995e+00 2.00399995e+00 2.00399995e+00
    2.00399995e+00 2.00799990e+00 2.00900006e+00 2.00900006e+00
    2.00900006e+00 2.00900006e+00 2.01399994e+00 2.08400011e+00 0. 0. 0.
    0. 0. 0. 0. 0. 0. 0. 0. 0. 0. 0. 0. 0. 0. 0. 0. 0. 0. 0. 0. 0.
    2.51300001e+00 2.05399990e+00 2.04200006e+00 2.01699996e+00
    2.00099993e+00 2.00399995e+00 2.00399995e+00 2.00399995e+00
    2.00399995e+00 2.00699997e+00 2.00900006e+00 2.00399995e+00
    2.00399995e+00 2.00900006e+00 2.01399994e+00 2.71799994e+00 0. 0. 0.
    0. 0. 0. 0. 0. 0. 0. 0. 0. 0. 0. 0. 0. 0. 0. 0. 0. 0. 0. 0. 0. 0.
    2.69300008e+00 2.07100010e+00 2.06100011e+00 2.01699996e+00
    2.01300001e+00 2.00500011e+00 2.00399995e+00 2.00399995e+00
    2.00399995e+00 2.00799990e+00 2.00399995e+00 2.00399995e+00
    2.00900006e+00 2.00900006e+00 0. 0. 0. 0. 0. 0. 0. 0. 0. 0. 0. 0. 0.
    0. 0. 0. 0. 0. 0. 0. 0. 0. 0. 0. 0. 0. 0. 0. 2.07100010e+00
    2.06999993e+00 2.05699992e+00 2.03099990e+00 2.01500010e+00
    2.00600004e+00 2.00399995e+00 2.00399995e+00 2.00699997e+00
    2.00399995e+00 2.00399995e+00 2.94000006e+00 0. 0. 0. 0. 0. 0. 0. 0.
    0. 0. 0. 0. 0. 0. 0. 0. 0. 0. 0. 0. 0. 0. 0. 0. 0. 0. 0. 0. 0. 0.
    2.08200002e+00 2.06299996e+00 2.04099989e+00 2.01999998e+00
    2.01099992e+00 2.00600004e+00 2.00399995e+00 2.00200009e+00
    2.10899997e+00 0. 0. 0. 0. 0. 0. 0. 0. 0. 0. 0. 0. 0. 0. 0. 0. 0. 0.
    0. 0. 0. 0. 0. 0. 0. 0. 0. 0. 0. 0. 0. 0. 0. 2.07999992e+00
    2.05900002e+00 2.03600001e+00 2.01999998e+00 2.00399995e+00
    2.00200009e+00 2.88199997e+00 0. 0. 0. 0. 0. 0. 0. 0. 0. 0. 0. 0. 0.
    0. 0. 0. 0. 0. 0. 0. 0. 0. 0. 0. 0. 0. 0. 0. 0. 0. 0. 0. 0. 0. 0. 0.
    0. 0. 0. 0. 0. 0. 0. 0. 0. 0. 0. 0. 0. 0. 0. 0. 0. 0. 0. 0. 0. 0. 0.
    0. 0. 0. 0. 0. 0. 0. 0. 0. 0. 0. 0. 0. 0. 0. 0. 0. 0. 0. 0. 0. 0. 0.
    0. 0. 0. 0. 0. 0.</data></Depth>
</opencv_storage>
