<?xml version="1.0"?>
<opencv_storage>
<Depth type_id="opencv-matrix">
  <rows>40</rows>
  <cols>40</cols>
  <dt>f</dt>
  <data>
    0. 0. 0. 0. 0. 0. 0. 0. 0. 0. 0. 0. 0. 0. 0. 0. 0. 0. 2.66899991e+00
    2.06399989e+00 2.06299996e+00 2.06100011e+00 2.05800009e+00 2.
    1.99600005e+00 1.98899996e+00 1.99000001e+00 0. 0. 0. 0. 0. 0. 0. 0.
    0. 0. 0. 0. 0. 0. 0. 0. 0. 0. 0. 0. 0. 0. 0. 0. 0. 0. 0. 0.
    2.77300000e+00 2.70799994e+00 2.05299997e+00 2.04999995e+00
    2.05299997e+00 2.05200005e+00 2.00399995e+00 1.99300003e+00
    1.99000001e+00 1.98800004e+00 1.98800004e+00 1.98800004e+00
    1.98800004e+00 1.08200002e+00 1.14400005e+00 0. 0. 0. 0. 0. 0. 0. 0.
    0. 0. 0. 0. 0. 0. 0. 0. 0. 0. 0. 0. 0. 0. 2.05200005e+00
    2.37199998e+00 2.04099989e+00 2.03900003e+00 2.03699994e+00
    2.00300002e+00 1.98699999e+00 1.98000002e+00 1.98199999e+00
    1.98399997e+00 1.98399997e+00 1.98399997e+00 1.98500001e+00
    1.98599994e+00 1.98800004e+00 1.99000001e+00 1.08200002e+00
    1.08200002e+00 0. 0. 0. 0. 0. 0. 0. 0. 0. 0. 0. 0. 0. 0. 0. 0. 0. 0.
    2.04399991e+00 2.03999996e+00 2.02800012e+00 2.02900004e+00
    2.02500010e+00 2.01900005e+00 1.98599994e+00 1.98099995e+00
    1.97899997e+00 1.97899997e+00 1.98000002e+00 1.97800004e+00
    1.97800004e+00 1.98000002e+00 1.98300004e+00 1.98500001e+00
    1.98800004e+00 1.98800004e+00 1.98800004e+00 1.99000001e+00
    1.57799995e+00 1.08200002e+00 0. 0. 0. 0. 0. 0. 0. 0. 0. 0. 0. 0. 0.
    0. 0. 1.97599995e+00 1.97700000e+00 2.02099991e+00 2.01999998e+00
    2.01500010e+00 2.00500011e+00 1.97399998e+00 1.97099996e+00
    1.97099996e+00 1.97399998e+00 1.97599995e+00 1.97800004e+00
    1.97800004e+00 1.97899997e+00 1.98000002e+00 1.98099995e+00
    1.98300004e+00 1.98500001e+00 1.98699999e+00 1.98800004e+00
    1.98800004e+00 1.98899996e+00 1.99100006e+00 1.84800005e+00
    1.08200002e+00 0. 0. 0. 0. 0. 0. 0. 0. 0. 0. 0. 0. 0. 0. 0.
    1.97200000e+00 1.97099996e+00 1.96300006e+00 1.96300006e+00
    1.96899998e+00 1.96899998e+00 1.96899998e+00 1.96899998e+00
    1.97000003e+00 1.97500002e+00 1.97599995e+00 1.97800004e+00
    1.98000002e+00 1.97800004e+00 1.98099995e+00 1.98300004e+00
    1.98500001e+00 1.98699999e+00 1.98800004e+00 1.98800004e+00
    1.99000001e+00 1.99000001e+00 1.99199998e+00 1.84800005e+00
    1.08200002e+00 0. 0. 0. 0. 0. 0. 0. 0. 0. 0. 0. 0. 0. 0. 0.
    1.96200001e+00 1.96300006e+00 1.96200001e+00 1.96599996e+00
    1.96700001e+00 1.96899998e+00 1.97000003e+00 1.97099996e+00
    1.97200000e+00 1.97700000e+00 1.97800004e+00 1.97800004e+00
    1.98000002e+00 1.98000002e+00 1.98300004e+00 1.98500001e+00
    1.98599994e+00 1.98800004e+00 1.98899996e+00 1.98899996e+00
    1.99000001e+00 1.99199998e+00 1.99399996e+00 1.91199994e+00
    1.08200002e+00 0. 0. 0. 0. 0. 0. 0. 0. 0. 0. 0. 0. 0. 0. 0.
    1.96200001e+00 1.96200001e+00 1.96300006e+00 1.96700001e+00
    1.96899998e+00 1.96899998e+00 1.96899998e+00 1.97399998e+00
    1.97399998e+00 1.97800004e+00 1.97800004e+00 1.98000002e+00
    1.98000002e+00 1.98000002e+00 1.98300004e+00 1.98800004e+00
    1.98800004e+00 1.98800004e+00 1.99000001e+00 1.99000001e+00
    1.99199998e+00 1.99500000e+00 1.99699998e+00 1.99800003e+00
    1.08200002e+00 1.08200002e+00 0. 0. 0. 0. 0. 0. 0. 0. 0. 0. 0. 0. 0.
    0. 1.96200001e+00 1.96200001e+00 1.96899998e+00 1.96700001e+00
    1.96800005e+00 1.96899998e+00 1.97000003e+00 1.97300005e+00
    1.97399998e+00 1.97800004e+00 1.98000002e+00 1.98000002e+00
    1.98300004e+00 1.98300004e+00 1.98500001e+00 1.98800004e+00
    1.98800004e+00 1.98899996e+00 1.99000001e+00 1.99199998e+00
    1.99500000e+00 1.99699998e+00 1.99699998e+00 2. 1.92799997e+00
    1.08200002e+00 0. 0. 0. 0. 0. 0. 0. 0. 0. 0. 0. 0. 0. 0.
    1.96200001e+00 1.96700001e+00 1.96700001e+00 1.96899998e+00
    1.96899998e+00 1.97099996e+00 1.97300005e+00 1.97599995e+00
    1.97700000e+00 1.97899997e+00 1.98000002e+00 1.98000002e+00
    1.98199999e+00 1.98500001e+00 1.98500001e+00 1.98800004e+00
    1.98800004e+00 1.99000001e+00 1.99199998e+00 1.99399996e+00
    1.99500000e+00 1.99699998e+00 1.99699998e+00 2. 1.92799997e+00
    1.08200002e+00 0. 0. 0. 0. 0. 0. 0. 0. 0. 0. 0. 0. 0. 0.
    1.93200004e+00 1.96700001e+00 1.96899998e+00 1.96899998e+00
    1.97099996e+00 1.97099996e+00 1.97300005e+00 1.97599995e+00
    1.97700000e+00 1.97899997e+00 1.98000002e+00 1.98300004e+00
    1.98300004e+00 1.98500001e+00 1.98800004e+00 1.98800004e+00
    1.99000001e+00 1.99100006e+00 1.99000001e+00 1.99500000e+00
    1.99699998e+00 1.99699998e+00 2. 2. 2.00200009e+00 1.08200002e+00
    1.08200002e+00 0. 0. 0. 0. 0. 0. 0. 0. 0. 0. 0. 0. 0. 1.93599999e+00
    1.96899998e+00 1.96899998e+00 1.96899998e+00 1.97099996e+00
    1.97099996e+00 1.97300005e+00 1.97700000e+00 1.97899997e+00
    1.98000002e+00 1.98099995e+00 1.98500001e+00 1.98800004e+00
    1.98800004e+00 1.98800004e+00 1.98800004e+00 1.99199998e+00
    1.99199998e+00 1.99600005e+00 1.99600005e+00 1.99800003e+00 2. 2.
    2.00200009e+00 2.00500011e+00 2.00500011e+00 1.08200002e+00 0. 0. 0.
    0. 0. 0. 0. 0. 0. 0. 0. 0. 0. 1.94099998e+00 1.96899998e+00
    1.96899998e+00 1.97099996e+00 1.97300005e+00 1.97300005e+00
    1.97399998e+00 1.97800004e+00 1.97899997e+00 1.98099995e+00
    1.98300004e+00 1.98800004e+00 1.98800004e+00 1.98800004e+00
    1.99000001e+00 1.99000001e+00 1.99100006e+00 1.99199998e+00
    1.99699998e+00 1.99699998e+00 2. 2.00099993e+00 2.00500011e+00
    2.00500011e+00 2.00500011e+00 2.00500011e+00 1.08200002e+00 0. 0. 0.
    0. 0. 0. 0. 0. 0. 0. 0. 0. 0. 1.08200002e+00 1.97099996e+00
    1.97300005e+00 1.97300005e+00 1.97300005e+00 1.97599995e+00
    1.97700000e+00 1.97800004e+00 1.98000002e+00 1.98399997e+00
    1.98300004e+00 1.98800004e+00 1.98800004e+00 1.99000001e+00
    1.99000001e+00 1.99199998e+00 1.99500000e+00 1.99600005e+00
    1.99699998e+00 2. 2. 2.00099993e+00 2.00300002e+00 2.00699997e+00
    2.00699997e+00 2.00699997e+00 1.08200002e+00 0. 0. 0. 0. 0. 0. 0. 0.
    0. 0. 0. 0. 0. 1.08200002e+00 1.87100005e+00 1.97300005e+00
    1.97500002e+00 1.97599995e+00 1.97700000e+00 1.97800004e+00
    1.98000002e+00 1.98099995e+00 1.98500001e+00 1.98300004e+00
    1.99000001e+00 1.99000001e+00 1.99000001e+00 1.99199998e+00
    1.99199998e+00 1.99399996e+00 1.99699998e+00 2. 2. 2.00200009e+00
    2.00500011e+00 2.00500011e+00 2.00699997e+00 2.00699997e+00
    2.00699997e+00 1.08200002e+00 1.83500004e+00 0. 0. 0. 0. 0. 0. 0. 0.
    0. 0. 0. 0. 1.08200002e+00 1.87100005e+00 1.97300005e+00
    1.97500002e+00 1.97800004e+00 1.97800004e+00 1.97800004e+00
    1.98000002e+00 1.98099995e+00 1.98599994e+00 1.98699999e+00
    1.99000001e+00 1.99000001e+00 1.99000001e+00 1.99500000e+00
    1.99399996e+00 1.99500000e+00 1.99899995e+00 2. 2. 2.00399995e+00
    2.00600004e+00 2.00699997e+00 2.00699997e+00 2.00699997e+00
    2.00999999e+00 1.08200002e+00 1.08200002e+00 0. 0. 0. 0. 0. 0. 0. 0.
    0. 0. 0. 0. 1.08200002e+00 1.08200002e+00 1.97700000e+00
    1.97700000e+00 1.97800004e+00 1.97800004e+00 1.98000002e+00
    1.98000002e+00 1.98300004e+00 1.98599994e+00 1.98800004e+00
    1.99000001e+00 1.99199998e+00 1.99199998e+00 1.99500000e+00
    1.99699998e+00 1.99699998e+00 1.99899995e+00 2. 2.00200009e+00
    2.00500011e+00 2.00699997e+00 2.00900006e+00 2.00999999e+00
    2.00999999e+00 2.00900006e+00 1.08200002e+00 1.08200002e+00 0. 0. 0.
    0. 0. 0. 0. 0. 0. 0. 0. 0. 1.08200002e+00 1.08200002e+00
    1.88300002e+00 1.97800004e+00 1.97800004e+00 1.97899997e+00
    1.98199999e+00 1.98300004e+00 1.98500001e+00 1.98800004e+00
    1.98899996e+00 1.99000001e+00 1.99399996e+00 1.99500000e+00
    1.99500000e+00 1.99699998e+00 1.99699998e+00 1.99899995e+00
    2.00200009e+00 2.00600004e+00 2.00600004e+00 2.00699997e+00
    2.00900006e+00 2.00999999e+00 2.00999999e+00 2.01200008e+00
    1.62699997e+00 1.08200002e+00 0. 0. 0. 0. 0. 0. 0. 0. 0. 0. 0. 0.
    1.08200002e+00 1.08200002e+00 1.80499995e+00 1.97899997e+00
    1.97899997e+00 1.98000002e+00 1.98300004e+00 1.98500001e+00
    1.98500001e+00 1.98800004e+00 1.99000001e+00 1.99199998e+00
    1.99399996e+00 1.99500000e+00 1.99699998e+00 1.99699998e+00 2.
    2.00099993e+00 2.00600004e+00 2.00600004e+00 2.00699997e+00
    2.00799990e+00 2.01099992e+00 2.00999999e+00 2.01099992e+00
    2.01500010e+00 2.01500010e+00 1.08200002e+00 1.08200002e+00 0. 0. 0.
    0. 0. 0. 0. 0. 0. 0. 0. 1.08200002e+00 1.08200002e+00 1.80499995e+00
    1.97800004e+00 1.98000002e+00 1.98099995e+00 1.98500001e+00
    1.98500001e+00 1.98599994e+00 1.99000001e+00 1.99199998e+00
    1.99199998e+00 1.99199998e+00 1.99699998e+00 1.99800003e+00 2. 2.
    2.00200009e+00 2.00600004e+00 2.00699997e+00 2.00699997e+00
    2.00900006e+00 2.00999999e+00 2.01200008e+00 2.01600003e+00
    2.01699996e+00 2.01500010e+00 1.22800004e+00 1.08200002e+00 0. 0. 0.
    0. 0. 0. 0. 0. 0. 0. 0. 1.24000001e+00 1.08200002e+00 1.08200002e+00
    1.98099995e+00 1.98000002e+00 1.98500001e+00 1.98500001e+00
    1.98599994e+00 1.98899996e+00 1.99000001e+00 1.99199998e+00
    1.99500000e+00 1.99500000e+00 2. 2. 2. 2. 2.00300002e+00
    2.00600004e+00 2.00699997e+00 2.00999999e+00 2.00999999e+00
    2.01099992e+00 2.01300001e+00 2.01699996e+00 2.01699996e+00
    2.01699996e+00 1.08200002e+00 1.08200002e+00 0. 0. 0. 0. 0. 0. 0. 0.
    0. 0. 0. 0. 1.08200002e+00 1.08200002e+00 1.73300004e+00
    1.98300004e+00 1.98500001e+00 1.98500001e+00 1.98599994e+00
    1.98899996e+00 1.99199998e+00 1.99500000e+00 1.99500000e+00
    1.99600005e+00 1.99699998e+00 2. 2.00200009e+00 2.00500011e+00
    2.00500011e+00 2.00600004e+00 2.00799990e+00 2.00999999e+00
    2.01200008e+00 2.01200008e+00 2.01500010e+00 2.01699996e+00
    2.01699996e+00 2.01999998e+00 1.22899997e+00 1.08200002e+00 0. 0. 0.
    0. 0. 0. 0. 0. 0. 0. 0. 0. 1.08200002e+00 1.08200002e+00
    1.18499994e+00 1.98300004e+00 1.98500001e+00 1.98500001e+00
    1.98800004e+00 1.98899996e+00 1.99300003e+00 1.99500000e+00
    1.99699998e+00 1.99699998e+00 2. 2. 2.00399995e+00 2.00399995e+00
    2.00699997e+00 2.00699997e+00 2.00900006e+00 2.00999999e+00
    2.01300001e+00 2.01500010e+00 2.01699996e+00 2.01699996e+00
    2.01999998e+00 2.02200007e+00 2.02200007e+00 1.08200002e+00 0. 0. 0.
    0. 0. 0. 0. 0. 0. 0. 0. 0. 1.08200002e+00 1.08200002e+00
    1.08200002e+00 1.98500001e+00 1.98500001e+00 1.98800004e+00
    1.98800004e+00 1.99100006e+00 1.99199998e+00 1.99500000e+00
    1.99699998e+00 2. 2. 2.00200009e+00 2.00399995e+00 2.00500011e+00
    2.00699997e+00 2.00900006e+00 2.01099992e+00 2.01200008e+00
    2.01600003e+00 2.01699996e+00 2.01699996e+00 2.01699996e+00
    2.01999998e+00 2.02200007e+00 2.01999998e+00 1.08200002e+00
    1.08200002e+00 0. 0. 0. 0. 0. 0. 0. 0. 0. 0. 0. 1.52600002e+00
    1.08200002e+00 1.08200002e+00 1.99000001e+00 1.98800004e+00
    1.98800004e+00 1.98800004e+00 1.99199998e+00 1.99600005e+00
    1.99699998e+00 1.99699998e+00 2. 2.00200009e+00 2.00500011e+00
    2.00699997e+00 2.00699997e+00 2.00699997e+00 2.00999999e+00
    2.01200008e+00 2.01200008e+00 2.01600003e+00 2.01699996e+00
    2.01999998e+00 2.01999998e+00 2.02200007e+00 2.02200007e+00
    2.01999998e+00 1.30200005e+00 1.08200002e+00 0. 0. 0. 0. 0. 0. 0. 0.
    0. 0. 0. 0. 1.08200002e+00 1.08200002e+00 1.67299998e+00
    1.98800004e+00 1.99000001e+00 1.99100006e+00 1.99600005e+00
    1.99500000e+00 1.99800003e+00 2. 2.00200009e+00 2.00200009e+00
    2.00699997e+00 2.00699997e+00 2.00699997e+00 2.00999999e+00
    2.00999999e+00 2.01500010e+00 2.01500010e+00 2.01699996e+00
    2.01999998e+00 2.01999998e+00 2.02200007e+00 2.02500010e+00
    2.02500010e+00 2.02500010e+00 1.30499995e+00 1.08200002e+00 0. 0. 0.
    0. 0. 0. 0. 0. 0. 0. 0. 0. 1.08200002e+00 1.08200002e+00
    1.17499995e+00 1.98800004e+00 1.98899996e+00 1.99300003e+00
    1.99600005e+00 1.99699998e+00 2. 2. 2.00200009e+00 2.00200009e+00
    2.00699997e+00 2.00900006e+00 2.00999999e+00 2.01200008e+00
    2.01300001e+00 2.01399994e+00 2.01699996e+00 2.01799989e+00
    2.01999998e+00 2.02200007e+00 2.02500010e+00 2.02500010e+00
    2.02500010e+00 2.02800012e+00 2.02800012e+00 1.08200002e+00 0. 0. 0.
    0. 0. 0. 0. 0. 0. 0. 0. 0. 1.08200002e+00 1.08200002e+00
    1.08200002e+00 1.99000001e+00 1.99100006e+00 1.99500000e+00
    1.99600005e+00 1.99800003e+00 2. 2.00200009e+00 2.00500011e+00
    2.00699997e+00 2.00900006e+00 2.00999999e+00 2.00999999e+00
    2.00999999e+00 2.01500010e+00 2.01500010e+00 2.01799989e+00
    2.01999998e+00 2.02200007e+00 2.02500010e+00 2.02500010e+00
    2.02800012e+00 2.02800012e+00 2.02800012e+00 2.02800012e+00
    1.08200002e+00 0. 0. 0. 0. 0. 0. 0. 0. 0. 0. 0. 0. 2.83899999e+00
    1.08200002e+00 1.08200002e+00 1.99500000e+00 1.99399996e+00
    1.99500000e+00 1.99600005e+00 1.99899995e+00 2.00200009e+00
    2.00500011e+00 2.00600004e+00 2.00699997e+00 2.00999999e+00
    2.01099992e+00 2.01399994e+00 2.01300001e+00 2.01600003e+00
    2.01699996e+00 2.01999998e+00 2.01999998e+00 2.02200007e+00
    2.02300000e+00 2.02500010e+00 2.02800012e+00 2.02999997e+00
    2.02999997e+00 2.02800012e+00 1.08200002e+00 0. 0. 0. 0. 0. 0. 0. 0.
    0. 0. 0. 0. 0. 1.08200002e+00 1.08200002e+00 1.99699998e+00
    1.99500000e+00 1.99600005e+00 1.99699998e+00 2. 2.00500011e+00
    2.00600004e+00 2.00699997e+00 2.00900006e+00 2.00999999e+00
    2.01200008e+00 2.01500010e+00 2.01699996e+00 2.01699996e+00
    2.01799989e+00 2.01999998e+00 2.02200007e+00 2.02500010e+00
    2.02500010e+00 2.02800012e+00 2.02999997e+00 2.02999997e+00
    2.03099990e+00 2.03099990e+00 1.37899995e+00 0. 0. 0. 0. 0. 0. 0. 0.
    0. 0. 0. 0. 0. 1.08200002e+00 1.08200002e+00 1.60300004e+00
    1.99500000e+00 1.99600005e+00 1.99800003e+00 2.00300002e+00
    2.00699997e+00 2.00699997e+00 2.00900006e+00 2.00999999e+00
    2.00999999e+00 2.01399994e+00 2.01699996e+00 2.01699996e+00
    2.01699996e+00 2.01999998e+00 2.01999998e+00 2.02300000e+00
    2.02800012e+00 2.02800012e+00 2.02800012e+00 2.02999997e+00
    2.03099990e+00 2.03299999e+00 2.03600001e+00 2.02800012e+00 0. 0. 0.
    0. 0. 0. 0. 0. 0. 0. 0. 0. 0. 2.56599998e+00 1.08200002e+00
    1.08200002e+00 1.99699998e+00 1.99699998e+00 1.99800003e+00
    2.00399995e+00 2.00699997e+00 2.00699997e+00 2.00999999e+00
    2.00999999e+00 2.01300001e+00 2.01699996e+00 2.01699996e+00
    2.01900005e+00 2.01999998e+00 2.01999998e+00 2.02200007e+00
    2.02600002e+00 2.02800012e+00 2.02800012e+00 2.02800012e+00
    2.02999997e+00 2.03299999e+00 2.03600001e+00 2.03500009e+00
    2.03800011e+00 0. 0. 0. 0. 0. 0. 0. 0. 0. 0. 2.56500006e+00
    2.57100010e+00 2.56900001e+00 2.56500006e+00 2.56500006e+00
    1.32000005e+00 1.99699998e+00 1.99899995e+00 2.00300002e+00
    2.00699997e+00 2.00799990e+00 2.00999999e+00 2.00999999e+00
    2.01099992e+00 2.01699996e+00 2.01699996e+00 2.01699996e+00
    2.01699996e+00 2.01900005e+00 2.01999998e+00 2.02200007e+00
    2.02800012e+00 2.02800012e+00 2.02999997e+00 2.02900004e+00
    2.03299999e+00 2.03600001e+00 2.03800011e+00 2.03600001e+00
    2.03900003e+00 0. 0. 0. 0. 0. 0. 0. 0. 0. 0. 2.56500006e+00
    2.56500006e+00 2.56399989e+00 2.55900002e+00 2.55100012e+00
    1.95700002e+00 2.00200009e+00 2.00200009e+00 2.00600004e+00
    2.00699997e+00 2.00999999e+00 2.00999999e+00 2.00999999e+00
    2.01200008e+00 2.01600003e+00 2.01699996e+00 2.01699996e+00
    2.01799989e+00 2.01999998e+00 2.02300000e+00 2.02600002e+00
    2.02800012e+00 2.02800012e+00 2.02800012e+00 2.02900004e+00
    2.02800012e+00 2.02800012e+00 2.03699994e+00 1.82200003e+00
    2.14700007e+00 0. 0. 0. 0. 0. 0. 0. 0. 0. 0. 0. 2.56699991e+00
    2.55900002e+00 2.55399990e+00 2.54600000e+00 2.54699993e+00
    2.00500011e+00 2.00500011e+00 2.00600004e+00 2.00999999e+00
    2.00999999e+00 2.00999999e+00 2.01200008e+00 2.01200008e+00
    2.01200008e+00 2.01699996e+00 2.01999998e+00 2.02099991e+00
    2.02500010e+00 2.02800012e+00 2.02800012e+00 2.02800012e+00
    2.02800012e+00 2.02800012e+00 2.00900006e+00 1.81799996e+00
    2.17499995e+00 0. 0. 0. 0. 0. 0. 0. 0. 0. 0. 0. 0. 0. 0. 0. 0.
    2.54699993e+00 2.53900003e+00 2.56800008e+00 1.84399998e+00
    2.00699997e+00 2.00799990e+00 2.00999999e+00 2.00999999e+00
    2.00999999e+00 2.01200008e+00 2.01200008e+00 2.01500010e+00
    2.01900005e+00 2.01999998e+00 2.02099991e+00 2.02500010e+00
    2.02500010e+00 2.03200006e+00 2.03600001e+00 2.03600001e+00
    2.13499999e+00 1.08200002e+00 1.08200002e+00 2.98000002e+00 0. 0. 0.
    0. 0. 0. 0. 0. 0. 0. 0. 0. 0. 0. 0. 2.71499991e+00 2.53600001e+00
    2.53399992e+00 2.56500006e+00 1.08200002e+00 2.00699997e+00
    2.00600004e+00 2.00799990e+00 2.01200008e+00 2.01200008e+00
    2.01699996e+00 2.01699996e+00 2.01999998e+00 2.01699996e+00
    2.01999998e+00 2.01699996e+00 2.13599992e+00 2.13599992e+00
    2.12700009e+00 2.05599999e+00 2.07100010e+00 2.10899997e+00
    2.02500010e+00 1.08200002e+00 0. 0. 0. 0. 0. 0. 0. 0. 0. 0. 0. 0. 0.
    0. 0. 0. 2.53999996e+00 2.52900004e+00 2.54200006e+00 2.56500006e+00
    1.08200002e+00 1.63499999e+00 2.01099992e+00 2.01099992e+00
    2.00999999e+00 2.01200008e+00 2.01500010e+00 2.01699996e+00
    2.01999998e+00 2.01500010e+00 2.04399991e+00 2.11899996e+00
    2.11599994e+00 2.10999990e+00 2.10500002e+00 2.10100007e+00
    2.05699992e+00 2.08400011e+00 2.08299994e+00 1.08200002e+00 0. 0. 0.
    0. 0. 0. 0. 0. 0. 0. 0. 0. 0. 0. 1.09099996e+00 1.08200002e+00
    2.52200007e+00 2.52600002e+00 2.54999995e+00 1.72200000e+00
    1.08200002e+00 1.97700000e+00 2.01099992e+00 2.00900006e+00
    2.00699997e+00 2.00699997e+00 2.00999999e+00 2.12199998e+00
    2.12100005e+00 2.11599994e+00 2.04600000e+00 2.09200001e+00
    2.09899998e+00 2.09299994e+00 2.08400011e+00 2.07500005e+00
    2.06299996e+00 2.06800008e+00 2.06599998e+00 2.05999994e+00
    2.95099998e+00 2.98799992e+00 2.97700000e+00 2.97700000e+00 0. 0. 0.
    0. 0. 0. 0. 0. 0. 0. 1.08200002e+00 2.12800002e+00 2.51500010e+00
    2.51900005e+00 2.54699993e+00 2.91199994e+00 0. 2.68300009e+00
    2.01399994e+00 2.00699997e+00 2.00500011e+00 1.08200002e+00
    1.08200002e+00 2.10899997e+00 2.10200000e+00 2.09400010e+00
    2.04900002e+00 2.05399990e+00 2.07599998e+00 2.07100010e+00
    2.06999993e+00 2.06399989e+00 2.05800009e+00 2.05200005e+00
    2.04299998e+00 2.03999996e+00 1.88499999e+00 2.96700001e+00
    2.95700002e+00 2.96199989e+00 0. 0. 0. 0. 0.</data></Depth>
</opencv_storage>
