<?xml version="1.0"?>
<opencv_storage>
<Depth type_id="opencv-matrix">
  <rows>40</rows>
  <cols>40</cols>
  <dt>f</dt>
  <data>
    0. 0. 0. 0. 0. 0. 0. 0. 0. 0. 0. 0. 0. 0. 0. 0. 0. 0. 0. 0. 0. 0. 0.
    0. 0. 0. 0. 0. 0. 0. 0. 0. 0. 0. 0. 0. 0. 0. 0. 0. 0. 0. 0. 0. 0. 0.
    0. 0. 0. 0. 0. 0. 0. 0. 0. 0. 0. 0. 0. 0. 0. 0. 0. 0. 0. 0. 0. 0. 0.
    0. 0. 0. 0. 0. 0. 0. 0. 0. 0. 0. 0. 0. 0. 0. 0. 0. 0. 0. 0. 0. 0. 0.
    0. 0. 0. 0. 0. 0. 0. 0. 0. 0. 0. 0. 0. 0. 0. 0. 0. 0. 0. 0. 0. 0. 0.
    0. 0. 0. 0. 0. 0. 0. 0. 0. 0. 0. 2.08400011e+00 2.08400011e+00
    2.08400011e+00 2.08400011e+00 2.08400011e+00 2.08200002e+00
    2.05699992e+00 2.01799989e+00 2. 2.00300002e+00 2.01999998e+00
    2.02399993e+00 2.04500008e+00 2.06200004e+00 2.06200004e+00
    2.06200004e+00 2.06200004e+00 2.06800008e+00 2.08400011e+00
    2.09100008e+00 2.10500002e+00 2.10500002e+00 2.10500002e+00
    2.10500002e+00 2.10500002e+00 2.10500002e+00 2.10500002e+00
    2.10500002e+00 0. 0. 0. 0. 0. 0. 0. 0. 0. 0. 0. 0. 2.08400011e+00
    2.08299994e+00 2.06200004e+00 2.06100011e+00 2.06100011e+00
    2.05999994e+00 2.03900003e+00 2.01799989e+00 2. 2.00300002e+00
    2.01999998e+00 2.02399993e+00 2.04500008e+00 2.05699992e+00
    2.04099989e+00 2.04600000e+00 2.06200004e+00 2.06800008e+00
    2.08400011e+00 2.08400011e+00 2.08400011e+00 2.09100008e+00
    2.10400009e+00 2.10400009e+00 2.10500002e+00 2.10500002e+00
    2.10500002e+00 2.10500002e+00 0. 0. 0. 0. 0. 0. 0. 0. 0. 0. 0. 0.
    2.08400011e+00 2.08100009e+00 2.05900002e+00 2.03999996e+00
    2.03999996e+00 2.03999996e+00 2.03800011e+00 2.01799989e+00 2.
    2.00300002e+00 2.01999998e+00 2.01999998e+00 2.02399993e+00
    2.04099989e+00 2.03999996e+00 2.03999996e+00 2.04600000e+00
    2.06800008e+00 2.08400011e+00 2.08400011e+00 2.08400011e+00
    2.08400011e+00 2.08400011e+00 2.08400011e+00 2.09200001e+00
    2.10500002e+00 2.10500002e+00 2.10500002e+00 0. 0. 0. 0. 0. 0. 0. 0.
    0. 0. 0. 0. 2.08299994e+00 2.01999998e+00 2.01999998e+00
    2.01999998e+00 2.01999998e+00 2.01999998e+00 2.01999998e+00
    2.01799989e+00 2.00099993e+00 2.00399995e+00 2.01999998e+00
    2.01999998e+00 2.02399993e+00 2.03600001e+00 2.01999998e+00
    2.01999998e+00 2.02600002e+00 2.05299997e+00 2.08400011e+00
    2.08400011e+00 2.08400011e+00 2.08400011e+00 2.08299994e+00
    2.08299994e+00 2.09200001e+00 2.10500002e+00 2.10500002e+00
    2.10500002e+00 0. 0. 0. 0. 0. 0. 0. 0. 0. 0. 0. 0. 2.08400011e+00
    2.02500010e+00 2.02099991e+00 2.01999998e+00 2.01999998e+00
    2.01999998e+00 2.01999998e+00 2.01999998e+00 2.01999998e+00
    2.01999998e+00 2.01999998e+00 2.01999998e+00 2.02399993e+00
    2.03699994e+00 2.02200007e+00 2.02200007e+00 2.02699995e+00
    2.05299997e+00 2.08400011e+00 2.08500004e+00 2.08400011e+00
    2.07599998e+00 2.06200004e+00 2.06999993e+00 2.09200001e+00
    2.10500002e+00 2.10500002e+00 2.10500002e+00 0. 0. 0. 0. 0. 0. 0. 0.
    0. 0. 0. 0. 2.08200002e+00 2.07900000e+00 2.03999996e+00
    2.01999998e+00 2.01999998e+00 2.01999998e+00 2.02200007e+00
    2.01999998e+00 2.01999998e+00 2.01999998e+00 2.01999998e+00
    2.01999998e+00 2.02399993e+00 2.04099989e+00 2.04099989e+00
    2.04099989e+00 2.04099989e+00 2.05299997e+00 2.08999991e+00
    2.09800005e+00 2.08500004e+00 2.07699990e+00 2.06399989e+00
    2.07200003e+00 2.09400010e+00 2.10500002e+00 2.10500002e+00
    2.10500002e+00 0. 0. 0. 0. 0. 0. 0. 0. 0. 0. 0. 0. 2.05999994e+00
    2.04099989e+00 2.03999996e+00 2.01999998e+00 2.01999998e+00
    2.02200007e+00 2.03900003e+00 2.02200007e+00 2.01999998e+00
    2.01999998e+00 2.01999998e+00 2.01999998e+00 2.02399993e+00
    2.03900003e+00 2.04099989e+00 2.04099989e+00 2.04099989e+00
    2.05299997e+00 2.08400011e+00 2.09100008e+00 2.09899998e+00
    2.08599997e+00 2.08599997e+00 2.09299994e+00 2.10500002e+00
    2.10500002e+00 2.10599995e+00 2.10700011e+00 0. 0. 0. 0. 0. 0. 0. 0.
    0. 0. 0. 0. 2.03800011e+00 2.03800011e+00 2.03999996e+00
    2.02300000e+00 2.02300000e+00 2.02399993e+00 2.04099989e+00
    2.03800011e+00 2.01999998e+00 2.01999998e+00 2.01999998e+00
    2.01999998e+00 2.01999998e+00 2.02500010e+00 2.04099989e+00
    2.04200006e+00 2.04399991e+00 2.05500007e+00 2.08400011e+00
    2.09100008e+00 2.10500002e+00 2.10500002e+00 2.10500002e+00
    2.10500002e+00 2.10500002e+00 2.10599995e+00 2.11700010e+00
    2.12800002e+00 0. 0. 0. 0. 0. 0. 0. 0. 0. 0. 0. 0. 2.01999998e+00
    2.02099991e+00 2.04099989e+00 2.04099989e+00 2.04099989e+00
    2.04099989e+00 2.04099989e+00 2.03800011e+00 2.01999998e+00
    2.01999998e+00 2.01999998e+00 2.01900005e+00 2.01699996e+00
    2.02200007e+00 2.03800011e+00 2.04299998e+00 2.05999994e+00
    2.06800008e+00 2.08400011e+00 2.09100008e+00 2.10500002e+00
    2.10500002e+00 2.10400009e+00 2.10200000e+00 2.10299993e+00
    2.11500001e+00 2.12800002e+00 2.12800002e+00 0. 0. 0. 0. 0. 0. 0. 0.
    0. 0. 0. 0. 2.01999998e+00 2.02099991e+00 2.04099989e+00
    2.04099989e+00 2.04099989e+00 2.04099989e+00 2.04099989e+00
    2.03800011e+00 2.01999998e+00 2.01999998e+00 2.01999998e+00
    2.01600003e+00 2. 2.00399995e+00 2.01999998e+00 2.02500010e+00
    2.04699993e+00 2.06800008e+00 2.08400011e+00 2.09100008e+00
    2.10500002e+00 2.10500002e+00 2.09699988e+00 2.08400011e+00
    2.09200001e+00 2.11500001e+00 2.12800002e+00 2.12800002e+00 0. 0. 0.
    0. 0. 0. 0. 0. 0. 0. 0. 0. 2.01999998e+00 2.02099991e+00
    2.04099989e+00 2.04099989e+00 2.04099989e+00 2.03699994e+00
    2.03800011e+00 2.03800011e+00 2.01999998e+00 2.01900005e+00
    2.01699996e+00 2.01300001e+00 2. 2.00399995e+00 2.01999998e+00
    2.02500010e+00 2.04699993e+00 2.06800008e+00 2.08500004e+00
    2.09299994e+00 2.10500002e+00 2.10500002e+00 2.09899998e+00
    2.08800006e+00 2.09500003e+00 2.11500001e+00 2.12800002e+00
    2.12800002e+00 0. 0. 0. 0. 0. 0. 0. 0. 0. 0. 0. 0. 2.01999998e+00
    2.01999998e+00 2.03699994e+00 2.03699994e+00 2.03600001e+00
    2.01999998e+00 2.02200007e+00 2.03800011e+00 2.01999998e+00
    2.01699996e+00 2. 2. 2. 2.00399995e+00 2.01699996e+00 2.02399993e+00
    2.04299998e+00 2.06500006e+00 2.08999991e+00 2.10500002e+00
    2.10500002e+00 2.10400009e+00 2.10100007e+00 2.10299993e+00
    2.10500002e+00 2.11500001e+00 2.12800002e+00 2.12800002e+00 0. 0. 0.
    0. 0. 0. 0. 0. 0. 0. 0. 0. 2.01999998e+00 2.01999998e+00
    2.01999998e+00 2.01999998e+00 2.01999998e+00 2.01999998e+00
    2.02200007e+00 2.03399992e+00 2.01600003e+00 2.01300001e+00 2. 2. 2.
    2. 2.00500011e+00 2.01999998e+00 2.02600002e+00 2.05299997e+00
    2.08999991e+00 2.10500002e+00 2.10500002e+00 2.09800005e+00
    2.08400011e+00 2.09200001e+00 2.10500002e+00 2.11500001e+00
    2.12800002e+00 2.12800002e+00 0. 0. 0. 0. 0. 0. 0. 0. 0. 0. 0. 0.
    2.01999998e+00 2.01999998e+00 2.01600003e+00 2.01600003e+00
    2.01999998e+00 2.01999998e+00 2.01999998e+00 2.01799989e+00 2. 2. 2.
    2. 2.00099993e+00 2.00399995e+00 2.00799990e+00 2.02099991e+00
    2.02900004e+00 2.05299997e+00 2.08999991e+00 2.10500002e+00
    2.10500002e+00 2.09800005e+00 2.08400011e+00 2.09200001e+00
    2.10500002e+00 2.11500001e+00 2.12800002e+00 2.12800002e+00 0. 0. 0.
    0. 0. 0. 0. 0. 0. 0. 0. 0. 2.01999998e+00 2.01999998e+00 2.
    2.00099993e+00 2.01999998e+00 2.01999998e+00 2.01999998e+00
    2.01799989e+00 2. 2. 2. 2. 2.00399995e+00 2.01999998e+00
    2.01999998e+00 2.02500010e+00 2.04099989e+00 2.04999995e+00
    2.08200002e+00 2.10200000e+00 2.10500002e+00 2.09899998e+00
    2.08899999e+00 2.09500003e+00 2.10700011e+00 2.11800003e+00
    2.12800002e+00 2.12800002e+00 0. 0. 0. 0. 0. 0. 0. 0. 0. 0. 0. 0.
    2.01999998e+00 2.01999998e+00 2.00500011e+00 2.00600004e+00
    2.01999998e+00 2.02500010e+00 2.02500010e+00 2.01799989e+00
    2.00500011e+00 2.00399995e+00 2. 2. 2.00399995e+00 2.01999998e+00
    2.01999998e+00 2.02500010e+00 2.04099989e+00 2.04099989e+00
    2.05399990e+00 2.09100008e+00 2.10500002e+00 2.10500002e+00
    2.10500002e+00 2.10500002e+00 2.11400008e+00 2.12800002e+00
    2.12800002e+00 2.12800002e+00 0. 0. 0. 0. 0. 0. 0. 0. 0. 0. 0. 0.
    2.01500010e+00 2.01999998e+00 2.01999998e+00 2.01999998e+00
    2.01600003e+00 2.02999997e+00 2.03399992e+00 2.02500010e+00
    2.01999998e+00 2.01799989e+00 2.00399995e+00 2. 2.00300002e+00
    2.01500010e+00 2.01600003e+00 2.02399993e+00 2.03699994e+00
    2.04099989e+00 2.05399990e+00 2.08899999e+00 2.09899998e+00
    2.09899998e+00 2.10100007e+00 2.10500002e+00 2.11199999e+00
    2.12199998e+00 2.12400007e+00 2.12800002e+00 0. 0. 0. 0. 0. 0. 0. 0.
    0. 0. 0. 0. 2. 2.01399994e+00 2.01399994e+00 2.01300001e+00 2.
    2.00099993e+00 2.01600003e+00 2.03299999e+00 2.01999998e+00
    2.01999998e+00 2.01699996e+00 2. 2. 2. 2.00500011e+00 2.01999998e+00
    2.02600002e+00 2.04299998e+00 2.05599999e+00 2.07999992e+00
    2.08400011e+00 2.08400011e+00 2.09200001e+00 2.10500002e+00
    2.10500002e+00 2.10500002e+00 2.11500001e+00 2.12800002e+00 0. 0. 0.
    0. 0. 0. 0. 0. 0. 0. 0. 0. 2. 2. 2. 2. 1.99399996e+00 1.99399996e+00
    2.00200009e+00 2.01999998e+00 2.01999998e+00 2.01999998e+00
    2.01699996e+00 2. 2. 2. 2.00500011e+00 2.01999998e+00 2.02600002e+00
    2.04699993e+00 2.06200004e+00 2.06900001e+00 2.08400011e+00
    2.08400011e+00 2.09200001e+00 2.10800004e+00 2.11199999e+00
    2.11199999e+00 2.11899996e+00 2.12800002e+00 0. 0. 0. 0. 0. 0. 0. 0.
    0. 0. 0. 0. 2. 2. 2. 1.99899995e+00 1.97899997e+00 1.98099995e+00
    2.00200009e+00 2.01999998e+00 2.01999998e+00 2.01999998e+00
    2.01799989e+00 2.00600004e+00 2.00600004e+00 2.00600004e+00
    2.00999999e+00 2.01999998e+00 2.02600002e+00 2.04900002e+00
    2.06900001e+00 2.07399988e+00 2.08400011e+00 2.08599997e+00
    2.09599996e+00 2.11400008e+00 2.12800002e+00 2.12800002e+00
    2.12800002e+00 2.12800002e+00 0. 0. 0. 0. 0. 0. 0. 0. 0. 0. 0. 0. 2.
    2. 2. 1.99899995e+00 1.98599994e+00 1.98800004e+00 2.00799990e+00
    2.01999998e+00 2.01999998e+00 2.01999998e+00 2.01999998e+00
    2.01999998e+00 2.01900005e+00 2.01300001e+00 2.01300001e+00
    2.01699996e+00 2.03099990e+00 2.05299997e+00 2.08400011e+00
    2.08400011e+00 2.08400011e+00 2.08899999e+00 2.10100007e+00
    2.11400008e+00 2.12800002e+00 2.12800002e+00 2.12800002e+00
    2.12800002e+00 0. 0. 0. 0. 0. 0. 0. 0. 0. 0. 0. 0. 1.99300003e+00 2.
    2. 2. 2. 2.00200009e+00 2.01999998e+00 2.01999998e+00 2.01999998e+00
    2.01999998e+00 2.01999998e+00 2.01900005e+00 2.00999999e+00 2. 2.
    2.00799990e+00 2.03600001e+00 2.05100012e+00 2.07900000e+00
    2.08599997e+00 2.08899999e+00 2.08400011e+00 2.09200001e+00
    2.10800004e+00 2.11299992e+00 2.11599994e+00 2.11999989e+00
    2.11999989e+00 0. 0. 0. 0. 0. 0. 0. 0. 0. 0. 0. 0. 1.97899997e+00 2.
    2. 2. 2. 2.00200009e+00 2.01999998e+00 2.01999998e+00 2.01999998e+00
    2.01999998e+00 2.01999998e+00 2.01600003e+00 2. 2. 2. 2.00500011e+00
    2.02600002e+00 2.04699993e+00 2.06900001e+00 2.09100008e+00
    2.10100007e+00 2.09200001e+00 2.09699988e+00 2.09699988e+00
    2.08400011e+00 2.09299994e+00 1.96200001e+00 1.77499998e+00 0. 0. 0.
    0. 0. 0. 0. 0. 0. 0. 0. 0. 1.98699999e+00 2. 2. 2. 2. 2.00099993e+00
    2.01300001e+00 2.01999998e+00 2.01999998e+00 2.01999998e+00
    2.01999998e+00 2.01600003e+00 2. 2. 2. 2.00500011e+00 2.02600002e+00
    2.04699993e+00 2.06900001e+00 2.08800006e+00 2.09999990e+00
    2.10500002e+00 2.10500002e+00 2.09999990e+00 2.09599996e+00
    2.10599995e+00 1.72099996e+00 1.20400000e+00 0. 0. 0. 0. 0. 0. 0. 0.
    0. 0. 0. 0. 2. 2. 2. 2. 2. 2. 2.00200009e+00 2.01999998e+00
    2.01999998e+00 2.01999998e+00 2.01999998e+00 2.01799989e+00
    2.00799990e+00 2.00799990e+00 2.00799990e+00 2.01099992e+00
    2.02600002e+00 2.04699993e+00 2.06599998e+00 2.07500005e+00
    2.08200002e+00 2.09999990e+00 2.10500002e+00 2.10500002e+00
    2.11100006e+00 2.11899996e+00 1.72200000e+00 1.20000005e+00 0. 0. 0.
    0. 0. 0. 0. 0. 0. 0. 0. 0. 2. 2. 2. 2. 2. 2. 2.00200009e+00
    2.01999998e+00 2.02099991e+00 2.02900004e+00 2.02699995e+00
    2.01999998e+00 2.01999998e+00 2.01999998e+00 2.01999998e+00
    2.01999998e+00 2.02800012e+00 2.05299997e+00 2.06200004e+00
    2.06200004e+00 2.06900001e+00 2.09100008e+00 2.10500002e+00
    2.10500002e+00 2.10500002e+00 1.95099998e+00 1.50100005e+00
    1.19400001e+00 0. 0. 0. 0. 0. 0. 0. 0. 0. 0. 0. 0. 1.99100006e+00 2.
    2. 2. 2. 2. 2.00200009e+00 2.01999998e+00 2.02200007e+00
    2.03099990e+00 2.02099991e+00 2.01099992e+00 2.01300001e+00
    2.01999998e+00 2.01999998e+00 2.01999998e+00 2.03099990e+00
    2.06200004e+00 2.06200004e+00 2.06200004e+00 2.06900001e+00
    1.94500005e+00 1.68700004e+00 1.69799995e+00 1.71599996e+00
    1.50699997e+00 1.20500004e+00 1.19400001e+00 0. 0. 0. 0. 0. 0. 0. 0.
    0. 0. 0. 0. 1.97899997e+00 2. 2. 2. 2. 2. 2.00200009e+00
    2.02099991e+00 2.02800012e+00 2.01699996e+00 2. 2. 2.00200009e+00
    2.01099992e+00 2.01300001e+00 2.01999998e+00 2.03099990e+00
    2.06200004e+00 2.06200004e+00 2.06200004e+00 1.93299997e+00
    1.48699999e+00 1.13699996e+00 1.16100001e+00 1.20000005e+00
    1.20200002e+00 1.19799995e+00 1.19000006e+00 0. 0. 0. 0. 0. 0. 0. 0.
    0. 0. 0. 0. 1.97899997e+00 1.99000001e+00 2. 2. 2. 2. 2.00200009e+00
    2.02099991e+00 2.02999997e+00 2.01699996e+00 2. 2. 2. 2.
    2.00500011e+00 2.01999998e+00 2.02900004e+00 1.93700004e+00
    1.64999998e+00 1.64999998e+00 1.49100006e+00 1.16700006e+00
    1.15400004e+00 1.16799998e+00 1.18900001e+00 1.18900001e+00
    1.18700004e+00 1.18400002e+00 0. 0. 0. 0. 0. 0. 0. 0. 0. 0. 0. 0.
    1.97899997e+00 1.98000002e+00 2. 2.00099993e+00 2.00999999e+00
    2.00999999e+00 2.01099992e+00 2.01999998e+00 2.01999998e+00
    2.01699996e+00 2. 2. 2. 2. 2.00500011e+00 1.91299999e+00
    1.59800005e+00 1.47899997e+00 1.16299999e+00 1.16999996e+00
    1.16999996e+00 1.17100000e+00 1.17400002e+00 1.17600000e+00
    1.17900002e+00 1.17900002e+00 1.18099999e+00 1.18400002e+00 0. 0. 0.
    0. 0. 0. 0. 0. 0. 0. 0. 0. 1.97899997e+00 1.99000001e+00 2.
    2.00099993e+00 2.01099992e+00 2.01900005e+00 2.00999999e+00
    2.00999999e+00 2.00999999e+00 1.94099998e+00 1.56599998e+00
    1.56400001e+00 1.55299997e+00 1.55499995e+00 1.56500006e+00
    1.46500003e+00 1.13699996e+00 1.13999999e+00 1.14999998e+00
    1.15999997e+00 1.15999997e+00 1.16299999e+00 1.17100000e+00
    1.17400002e+00 1.17400002e+00 1.17400002e+00 1.17600000e+00
    1.17900002e+00 0. 0. 0. 0. 0. 0. 0. 0. 0. 0. 0. 0. 1.97899997e+00
    1.98899996e+00 2. 2. 2.00099993e+00 2.00900006e+00 2. 2.
    1.93799996e+00 1.48599994e+00 1.12600005e+00 1.11800003e+00
    1.10000002e+00 1.10399997e+00 1.12000000e+00 1.13000000e+00
    1.13800001e+00 1.14300001e+00 1.14699996e+00 1.15199995e+00
    1.15499997e+00 1.15699995e+00 1.16299999e+00 1.16900003e+00
    1.17100000e+00 1.17400002e+00 1.17400002e+00 1.17400002e+00 0. 0. 0.
    0. 0. 0. 0. 0. 0. 0. 0. 0. 1.97899997e+00 1.98000002e+00 2.
    1.98899996e+00 1.99000001e+00 1.95700002e+00 1.51900005e+00
    1.51900005e+00 1.46300006e+00 1.11300004e+00 1.11300004e+00
    1.11199999e+00 1.10500002e+00 1.10899997e+00 1.12399995e+00
    1.13000000e+00 1.13800001e+00 1.14100003e+00 1.14300001e+00
    1.14699996e+00 1.14999998e+00 1.14999998e+00 1.15400004e+00
    1.16199994e+00 1.16900003e+00 1.17400002e+00 1.17400002e+00
    1.17400002e+00 0. 0. 0. 0. 0. 0. 0. 0. 0. 0. 0. 0. 1.97899997e+00
    1.97899997e+00 1.98800004e+00 1.95099998e+00 1.49600005e+00
    1.46700001e+00 1.09200001e+00 1.09200001e+00 1.09300005e+00
    1.09599996e+00 1.09700000e+00 1.10399997e+00 1.10399997e+00
    1.10800004e+00 1.12199998e+00 1.12600005e+00 1.13699996e+00
    1.13699996e+00 1.13999999e+00 1.14600003e+00 1.14600003e+00
    1.14600003e+00 1.14900005e+00 1.15900004e+00 1.16900003e+00
    1.17400002e+00 1.17400002e+00 1.17400002e+00 0. 0. 0. 0. 0. 0. 0. 0.
    0. 0. 0. 0. 0. 0. 0. 0. 0. 0. 0. 0. 0. 0. 0. 0. 0. 0. 0. 0. 0. 0. 0.
    0. 0. 0. 0. 0. 0. 0. 0. 0. 0. 0. 0. 0. 0. 0. 0. 0. 0. 0. 0. 0. 0. 0.
    0. 0. 0. 0. 0. 0. 0. 0. 0. 0. 0. 0. 0. 0. 0. 0. 0. 0. 0. 0. 0. 0. 0.
    0. 0. 0. 0. 0. 0. 0. 0. 0. 0. 0. 0. 0. 0. 0. 0. 0. 0. 0. 0. 0. 0. 0.
    0. 0. 0. 0. 0. 0. 0. 0. 0. 0. 0. 0. 0. 0. 0. 0. 0. 0. 0. 0. 0. 0. 0.
    0. 0. 0.</data></Depth>
</opencv_storage>
