<?xml version="1.0"?>
<opencv_storage>
<Depth type_id="opencv-matrix">
  <rows>40</rows>
  <cols>40</cols>
  <dt>f</dt>
  <data>
    0. 0. 0. 0. 1.66799998e+00 1.70299995e+00 1.70599997e+00
    1.72099996e+00 1.72500002e+00 1.73800004e+00 1.74399996e+00
    1.74399996e+00 1.94900000e+00 2.12299991e+00 2.11199999e+00
    2.09800005e+00 2.09800005e+00 2.09800005e+00 1.46000004e+00 0. 0. 0.
    0. 0. 0. 0. 0. 0. 0. 0. 0. 0. 0. 0. 0. 0. 0. 0. 0. 0. 0. 0. 0. 0.
    1.66799998e+00 1.68700004e+00 1.70400000e+00 1.70700002e+00
    1.70799994e+00 1.73300004e+00 1.74399996e+00 1.74399996e+00
    1.92400002e+00 2.07699990e+00 2.08599997e+00 2.09800005e+00
    2.09800005e+00 2.09800005e+00 1.46000004e+00 0. 0. 0. 0. 0.
    1.57400000e+00 1.86099994e+00 1.86099994e+00 1.86099994e+00
    1.86099994e+00 0. 0. 0. 0. 0. 0. 0. 0. 0. 0. 0. 0. 0. 0. 0.
    1.66799998e+00 1.68499994e+00 1.70299995e+00 1.70599997e+00
    1.70599997e+00 1.72099996e+00 1.72800004e+00 1.90699995e+00
    2.04099989e+00 2.05100012e+00 2.06200004e+00 2.07599998e+00
    2.08299994e+00 2.09800005e+00 2.00699997e+00 1.68099999e+00
    1.68299997e+00 1.70200002e+00 1.70200002e+00 1.70200002e+00
    2.03699994e+00 2.07599998e+00 2.07599998e+00 2.07599998e+00
    2.07599998e+00 0. 0. 0. 0. 0. 0. 0. 0. 0. 0. 0. 0. 0. 0. 0.
    1.66799998e+00 1.67100000e+00 1.67499995e+00 1.68799996e+00
    1.70200002e+00 1.71899998e+00 1.72500002e+00 1.90799999e+00
    2.01999998e+00 2.00900006e+00 2.01999998e+00 2.03299999e+00
    2.02800012e+00 2.01900005e+00 2.02999997e+00 2.07299995e+00
    2.07399988e+00 2.07800007e+00 2.07800007e+00 2.07800007e+00
    2.07399988e+00 2.07299995e+00 2.05699992e+00 2.05299997e+00
    2.05299997e+00 0. 0. 0. 0. 0. 0. 0. 0. 0. 0. 0. 0. 0. 0. 0.
    1.66799998e+00 1.66799998e+00 1.66799998e+00 1.68299997e+00
    1.69000006e+00 1.88699996e+00 1.97000003e+00 2.00200009e+00
    2.01099992e+00 2. 2.00300002e+00 2.00600004e+00 2.00399995e+00 2.
    2.01600003e+00 2.07299995e+00 2.07299995e+00 2.07299995e+00
    2.07299995e+00 2.07299995e+00 2.07299995e+00 2.07299995e+00
    2.05299997e+00 2.02099991e+00 2.01200008e+00 2.61899996e+00 0. 0. 0.
    0. 0. 0. 0. 0. 0. 0. 0. 0. 0. 0. 1.65499997e+00 1.65499997e+00
    1.66600001e+00 1.84899998e+00 1.89100003e+00 1.97800004e+00
    2.01399994e+00 2.00999999e+00 2.01200008e+00 2.01699996e+00
    2.00999999e+00 2. 2.00500011e+00 2.01699996e+00 2.02500010e+00
    2.05500007e+00 2.05500007e+00 2.05599999e+00 2.07299995e+00
    2.07299995e+00 2.07299995e+00 2.05800009e+00 2.04999995e+00
    2.01300001e+00 2. 2. 0. 0. 0. 0. 0. 0. 0. 0. 0. 0. 0. 0. 0. 0.
    1.64999998e+00 1.64999998e+00 1.83899999e+00 1.95700002e+00
    1.97700000e+00 1.99300003e+00 2. 2. 2.01300001e+00 2.02399993e+00
    2.01399994e+00 2. 2.00799990e+00 2.02399993e+00 2.02900004e+00
    2.04800010e+00 2.04800010e+00 2.04800010e+00 2.05699992e+00
    2.05699992e+00 2.07100010e+00 2.05200005e+00 2.04800010e+00
    2.01300001e+00 2. 2. 0. 0. 0. 0. 0. 0. 0. 0. 0. 0. 0. 0. 0. 0.
    1.63900006e+00 1.64900005e+00 1.93299997e+00 1.97700000e+00
    1.97700000e+00 1.99300003e+00 2. 2. 2.01300001e+00 2.01699996e+00
    2.00600004e+00 2. 2.00799990e+00 2.02399993e+00 2.02900004e+00
    2.04600000e+00 2.03399992e+00 2.03399992e+00 2.03399992e+00
    2.03399992e+00 2.05599999e+00 2.06200004e+00 2.06299996e+00
    2.02699995e+00 2.01399994e+00 2.01399994e+00 0. 0. 0. 0. 0. 0. 0. 0.
    0. 0. 0. 0. 0. 0. 1.63199997e+00 1.84700000e+00 1.97300005e+00
    1.97899997e+00 1.97700000e+00 1.99300003e+00 2. 2. 2.00600004e+00
    2.00600004e+00 2. 2. 2.00799990e+00 2.02399993e+00 2.02600002e+00
    2.03299999e+00 2.02399993e+00 2.02399993e+00 2.02399993e+00
    2.02399993e+00 2.04500008e+00 2.05800009e+00 2.06999993e+00
    2.05699992e+00 2.05100012e+00 2.05100012e+00 0. 0. 0. 0. 0. 0. 0. 0.
    0. 0. 0. 0. 0. 0. 1.84700000e+00 2.03200006e+00 2.00600004e+00
    1.98099995e+00 1.97700000e+00 1.99300003e+00 2. 2. 2. 2. 2. 2.
    2.00399995e+00 2.01500010e+00 2.02399993e+00 2.02399993e+00
    2.02399993e+00 2.02399993e+00 2.02399993e+00 2.02399993e+00
    2.04500008e+00 2.04800010e+00 2.06800008e+00 2.07299995e+00
    2.07299995e+00 2.07299995e+00 2.07299995e+00 0. 0. 0. 0. 0. 0. 0. 0.
    0. 0. 0. 0. 0. 2.07299995e+00 2.04999995e+00 2.00600004e+00
    1.98099995e+00 1.97700000e+00 1.99300003e+00 2. 2. 2. 2. 2. 2. 2.
    2.00699997e+00 2.02399993e+00 2.02600002e+00 2.03299999e+00
    2.02399993e+00 2.02399993e+00 2.02399993e+00 2.03600001e+00
    2.04600000e+00 2.06800008e+00 2.07299995e+00 2.07299995e+00
    2.07299995e+00 2.07299995e+00 0. 0. 0. 0. 0. 0. 0. 0. 0. 0. 0. 0. 0.
    2.07299995e+00 2.04999995e+00 2.00600004e+00 1.98099995e+00
    1.97700000e+00 1.98699999e+00 1.99100006e+00 1.99600005e+00 2. 2. 2.
    2. 2.00300002e+00 2.01300001e+00 2.02399993e+00 2.02800012e+00
    2.04500008e+00 2.02399993e+00 2.02399993e+00 2.02399993e+00
    2.02399993e+00 2.04399991e+00 2.06800008e+00 2.07299995e+00
    2.07299995e+00 2.07299995e+00 2.07299995e+00 0. 0. 0. 0. 0. 0. 0. 0.
    0. 0. 0. 0. 0. 2.07299995e+00 2.04999995e+00 2.00600004e+00
    1.98099995e+00 1.97700000e+00 1.97700000e+00 1.97700000e+00
    1.99100006e+00 2. 2. 2. 2. 2.00799990e+00 2.02399993e+00
    2.02399993e+00 2.02800012e+00 2.04600000e+00 2.03200006e+00
    2.03200006e+00 2.02399993e+00 2.02399993e+00 2.04399991e+00
    2.06800008e+00 2.07299995e+00 2.07299995e+00 2.07299995e+00
    2.07299995e+00 2.07299995e+00 0. 0. 0. 0. 0. 0. 0. 0. 0. 0. 0. 0.
    2.06599998e+00 2.04900002e+00 2.00600004e+00 1.98099995e+00
    1.97700000e+00 1.97700000e+00 1.97700000e+00 1.99100006e+00 2. 2. 2.
    2. 2.00799990e+00 2.02399993e+00 2.02399993e+00 2.02800012e+00
    2.04800010e+00 2.04800010e+00 2.04800010e+00 2.03099990e+00
    2.03099990e+00 2.04500008e+00 2.06800008e+00 2.07299995e+00
    2.07299995e+00 2.07299995e+00 2.07299995e+00 2.07299995e+00 0. 0. 0.
    0. 0. 0. 0. 0. 0. 0. 0. 0. 2.04800010e+00 2.04800010e+00
    2.01099992e+00 1.98199999e+00 1.97700000e+00 1.97700000e+00
    1.97700000e+00 1.99100006e+00 2. 2. 2. 2. 2.00600004e+00
    2.01999998e+00 2.02399993e+00 2.02699995e+00 2.04299998e+00
    2.04800010e+00 2.04800010e+00 2.04800010e+00 2.04800010e+00
    2.04800010e+00 2.06800008e+00 2.07299995e+00 2.07299995e+00
    2.07299995e+00 2.07299995e+00 2.07299995e+00 0. 0. 0. 0. 0. 0. 0. 0.
    0. 0. 0. 0. 2.04800010e+00 2.04800010e+00 2.02699995e+00
    1.98899996e+00 1.98099995e+00 1.97800004e+00 1.97700000e+00
    1.99100006e+00 2. 2. 2. 2. 2. 2.00699997e+00 2.02399993e+00
    2.02399993e+00 2.02699995e+00 2.04800010e+00 2.04800010e+00
    2.04800010e+00 2.04800010e+00 2.04800010e+00 2.06800008e+00
    2.07299995e+00 2.07299995e+00 2.07299995e+00 2.07299995e+00
    2.07299995e+00 0. 0. 0. 0. 0. 0. 0. 0. 0. 0. 0. 0. 2.44400001e+00
    2.07999992e+00 2.02999997e+00 2.00500011e+00 2. 1.98599994e+00
    1.98000002e+00 1.99199998e+00 2. 2. 2. 2. 2. 2.00699997e+00
    2.02399993e+00 2.02399993e+00 2.02600002e+00 2.04600000e+00
    2.04800010e+00 2.04800010e+00 2.04800010e+00 2.04999995e+00
    2.06800008e+00 2.07299995e+00 2.07299995e+00 2.07299995e+00
    2.07299995e+00 2.07299995e+00 2.07299995e+00 0. 0. 0. 0. 0. 0. 0. 0.
    0. 0. 0. 0. 2.34100008e+00 2.04800010e+00 2.00999999e+00 2. 2. 2. 2.
    2. 2. 2. 2. 2. 2.00600004e+00 2.02300000e+00 2.02399993e+00
    2.02399993e+00 2.02500010e+00 2.04800010e+00 2.04800010e+00
    2.04800010e+00 2.06800008e+00 2.07299995e+00 2.07299995e+00
    2.07299995e+00 2.07299995e+00 2.07299995e+00 2.07299995e+00
    2.07299995e+00 0. 0. 0. 0. 0. 0. 0. 0. 0. 0. 0. 0. 2.33999991e+00
    2.04800010e+00 2.02900004e+00 2.00600004e+00 2. 2. 2. 2. 2. 2. 2. 2.
    2. 2.00500011e+00 2.02399993e+00 2.02399993e+00 2.02500010e+00
    2.04800010e+00 2.04800010e+00 2.04800010e+00 2.04800010e+00
    2.06800008e+00 2.07299995e+00 2.07299995e+00 2.07299995e+00
    2.07299995e+00 2.07299995e+00 2.07299995e+00 0. 0. 0. 0. 0. 0. 0. 0.
    0. 0. 0. 2.23699999e+00 2.06299996e+00 2.04800010e+00 2.02900004e+00
    2.02300000e+00 2.00699997e+00 2. 1.98699999e+00 1.97800004e+00
    1.97800004e+00 1.98800004e+00 2. 2. 2. 2.00500011e+00 2.02399993e+00
    2.02600002e+00 2.04600000e+00 2.02500010e+00 2.02500010e+00
    2.02500010e+00 2.04399991e+00 2.04900002e+00 2.06699991e+00
    2.07299995e+00 2.07299995e+00 2.05999994e+00 2.04900002e+00
    2.04900002e+00 0. 0. 0. 0. 0. 0. 0. 0. 0. 0. 0. 2.04800010e+00
    2.04800010e+00 2.04800010e+00 2.02900004e+00 2.00799990e+00
    2.00099993e+00 2. 1.98599994e+00 1.97700000e+00 1.97700000e+00
    1.98699999e+00 2. 2. 2. 2.00099993e+00 2.00600004e+00 2.02399993e+00
    2.02600002e+00 2.02399993e+00 2.02399993e+00 2.02399993e+00
    2.04399991e+00 2.04800010e+00 2.06599998e+00 2.07299995e+00
    2.07299995e+00 2.05900002e+00 2.02600002e+00 2.00500011e+00 0. 0. 0.
    0. 0. 0. 0. 0. 0. 0. 0. 0. 2.30200005e+00 2.04800010e+00
    2.02900004e+00 2.00600004e+00 2. 2. 1.99800003e+00 1.99600005e+00
    1.98699999e+00 1.97899997e+00 1.98800004e+00 2. 2. 2. 2.00399995e+00
    2.02399993e+00 2.02399993e+00 2.02399993e+00 2.02399993e+00
    2.02399993e+00 2.04399991e+00 2.04800010e+00 2.06599998e+00
    2.07299995e+00 2.07299995e+00 2.05900002e+00 2.02300000e+00 2.
    2.29399991e+00 2.72099996e+00 0. 0. 0. 0. 0. 0. 0. 0. 0. 0.
    2.36899996e+00 2.05100012e+00 2.04399991e+00 2.02500010e+00
    2.00600004e+00 2. 2. 2. 1.98899996e+00 1.97700000e+00 1.98599994e+00
    2. 2. 2. 2.00099993e+00 2.00699997e+00 2.02500010e+00 2.04299998e+00
    2.04299998e+00 2.04299998e+00 2.04699993e+00 2.04800010e+00
    2.06599998e+00 2.07299995e+00 2.07299995e+00 2.05900002e+00
    2.03299999e+00 2.01900005e+00 2.01900005e+00 2.01900005e+00 0. 0. 0.
    0. 0. 0. 0. 0. 0. 0. 2.36599994e+00 2.06699991e+00 2.05100012e+00
    2.04299998e+00 2.01200008e+00 2. 1.99000001e+00 1.98300004e+00
    1.98000002e+00 1.97700000e+00 1.98599994e+00 2. 2. 2. 2.
    2.00300002e+00 2.02500010e+00 2.04800010e+00 2.04800010e+00
    2.04800010e+00 2.04800010e+00 2.04800010e+00 2.06599998e+00
    2.07299995e+00 2.07299995e+00 2.05900002e+00 2.03600001e+00
    2.02399993e+00 2.02399993e+00 2.02399993e+00 0. 0. 0. 0. 0. 0. 0. 0.
    0. 0. 2.35700011e+00 2.07299995e+00 2.05299997e+00 2.04800010e+00
    2.01399994e+00 2. 1.98599994e+00 1.97700000e+00 1.97700000e+00
    1.97700000e+00 1.98599994e+00 2. 2. 2. 2. 2.00300002e+00
    2.02500010e+00 2.04800010e+00 2.04800010e+00 2.04800010e+00
    2.04800010e+00 2.04800010e+00 2.06599998e+00 2.07299995e+00
    2.07299995e+00 2.06800008e+00 2.05200005e+00 2.03999996e+00
    2.03999996e+00 2.03999996e+00 0. 0. 0. 0. 0. 0. 0. 0. 0. 0.
    2.35400009e+00 2.07299995e+00 2.05299997e+00 2.04800010e+00
    2.01399994e+00 2. 1.99500000e+00 1.98399997e+00 1.97700000e+00
    1.97700000e+00 1.98599994e+00 2. 2. 2. 2. 2.00300002e+00
    2.02500010e+00 2.04800010e+00 2.03399992e+00 2.03299999e+00
    2.03299999e+00 2.03299999e+00 2.05100012e+00 2.06800008e+00
    2.07299995e+00 2.07299995e+00 2.05999994e+00 2.04800010e+00
    2.04800010e+00 2.04800010e+00 0. 0. 0. 0. 0. 0. 0. 0. 0. 0.
    2.34800005e+00 2.06100011e+00 2.04999995e+00 2.04800010e+00
    2.02399993e+00 2.00500011e+00 2. 1.98800004e+00 1.97700000e+00
    1.97700000e+00 1.98599994e+00 2. 2. 2. 2. 2.00300002e+00
    2.02500010e+00 2.04800010e+00 2.02500010e+00 2.02399993e+00
    2.02399993e+00 2.02399993e+00 2.04200006e+00 2.06500006e+00
    2.07299995e+00 2.07299995e+00 2.05999994e+00 2.04200006e+00
    2.03399992e+00 2.03399992e+00 0. 0. 0. 0. 0. 0. 0. 0. 0. 0. 0.
    2.26900005e+00 2.04800010e+00 2.04800010e+00 2.03099990e+00
    2.00799990e+00 2. 1.98800004e+00 1.97700000e+00 1.98199999e+00
    1.99300003e+00 2. 2. 2. 2. 2.00300002e+00 2.02500010e+00
    2.03600001e+00 2.02500010e+00 2.02399993e+00 2.02399993e+00
    2.02399993e+00 2.04200006e+00 2.06500006e+00 2.07299995e+00
    2.07299995e+00 2.05999994e+00 2.03699994e+00 2.02399993e+00
    2.02399993e+00 0. 0. 0. 0. 0. 0. 0. 0. 0. 0. 0. 2.46700001e+00
    2.04800010e+00 2.04800010e+00 2.03099990e+00 2.00799990e+00 2.
    1.99300003e+00 1.98800004e+00 1.99300003e+00 2. 2. 2. 2. 2.
    2.00099993e+00 2.01399994e+00 2.02399993e+00 2.02399993e+00
    2.02399993e+00 2.02399993e+00 2.02399993e+00 2.03299999e+00
    2.05399990e+00 2.06100011e+00 2.06100011e+00 2.05500007e+00
    2.03699994e+00 2.02399993e+00 2.02399993e+00 0. 0. 0. 0. 0. 0. 0. 0.
    0. 0. 0. 2.46000004e+00 2.04800010e+00 2.04800010e+00 2.03099990e+00
    2.01500010e+00 2.00399995e+00 2. 2. 2. 2. 2. 2. 2. 2. 2.
    2.00099993e+00 2.02399993e+00 2.02399993e+00 2.02399993e+00
    2.02399993e+00 2.02399993e+00 2.02399993e+00 2.03999996e+00
    2.04800010e+00 2.04800010e+00 2.04800010e+00 2.03699994e+00
    2.01999998e+00 2.01399994e+00 0. 0. 0. 0. 0. 0. 0. 0. 0. 0. 0. 0.
    2.25200009e+00 2.04800010e+00 2.03699994e+00 2.02699995e+00
    2.00999999e+00 2. 2. 1.99600005e+00 1.99199998e+00 1.99500000e+00 2.
    2. 2. 2. 2.00099993e+00 2.01600003e+00 2.02399993e+00 2.02399993e+00
    2.02399993e+00 2.02399993e+00 2.02399993e+00 2.03999996e+00
    2.04800010e+00 2.04800010e+00 2.04800010e+00 2.03699994e+00
    2.01399994e+00 2. 0. 0. 0. 0. 0. 0. 0. 0. 0. 0. 0. 0. 2.61800003e+00
    2.04800010e+00 2.04800010e+00 2.03200006e+00 2.00999999e+00 2. 2.
    1.99000001e+00 1.97700000e+00 1.98399997e+00 2. 2. 2. 2. 2. 2.
    2.02300000e+00 2.02399993e+00 2.02399993e+00 2.02399993e+00
    2.02399993e+00 2.03999996e+00 2.04800010e+00 2.04800010e+00
    2.04800010e+00 2.03999996e+00 2.02099991e+00 2.00699997e+00 0. 0. 0.
    0. 0. 0. 0. 0. 0. 0. 0. 0. 2.60999990e+00 2.05399990e+00
    2.05399990e+00 2.03500009e+00 2.00999999e+00 2. 1.99699998e+00
    1.98699999e+00 1.97700000e+00 1.98399997e+00 2. 2. 2. 2. 2. 2.
    2.02300000e+00 2.02399993e+00 2.02399993e+00 2.02399993e+00
    2.02800012e+00 2.04200006e+00 2.04800010e+00 2.04800010e+00
    2.04800010e+00 2.04800010e+00 2.04299998e+00 2.03600001e+00 0. 0. 0.
    0. 0. 0. 0. 0. 0. 0. 0. 0. 2.62500000e+00 2.07299995e+00
    2.07299995e+00 2.04399991e+00 2.01200008e+00 2. 1.98899996e+00
    1.97700000e+00 1.97700000e+00 1.98399997e+00 2. 2. 2. 2. 2.
    2.00500011e+00 2.02300000e+00 2.02399993e+00 2.02399993e+00
    2.02399993e+00 2.04200006e+00 2.04500008e+00 2.04299998e+00
    2.04299998e+00 2.04600000e+00 2.04800010e+00 2.05800009e+00
    2.07299995e+00 0. 0. 0. 0. 0. 0. 0. 0. 0. 0. 0. 0. 2.93899989e+00
    2.17000008e+00 2.07399988e+00 2.05699992e+00 2.02099991e+00
    2.00200009e+00 1.99000001e+00 1.97899997e+00 1.97700000e+00
    1.98399997e+00 2. 2. 2. 2. 2.00099993e+00 2.02399993e+00
    2.02399993e+00 2.02399993e+00 2.02399993e+00 2.02399993e+00
    2.04200006e+00 2.03200006e+00 2.02399993e+00 2.02399993e+00
    2.03600001e+00 2.04800010e+00 2.05800009e+00 2.07299995e+00 0. 0. 0.
    0. 0. 0. 0. 0. 0. 0. 0. 0. 0. 2.77999997e+00 2.08299994e+00
    2.05900002e+00 2.03500009e+00 2.01099992e+00 2. 1.99000001e+00
    1.97700000e+00 1.98399997e+00 2. 2. 2. 2. 2.00099993e+00
    2.02399993e+00 2.02200007e+00 2.02200007e+00 2.02200007e+00
    2.02200007e+00 2.03800011e+00 2.03200006e+00 2.02600002e+00
    2.02600002e+00 2.03699994e+00 2.04900002e+00 2.05900002e+00
    2.07299995e+00 0. 0. 0. 0. 0. 0. 0. 0. 0. 0. 0. 0. 0. 2.79900002e+00
    2.10500002e+00 2.08200002e+00 2.04399991e+00 2.01099992e+00 2.
    1.99000001e+00 1.97700000e+00 1.98399997e+00 1.99899995e+00
    1.99899995e+00 1.99899995e+00 2. 2.00099993e+00 2.02399993e+00
    2.00099993e+00 2. 2. 2. 2. 2.03299999e+00 2.04800010e+00
    2.04800010e+00 2.04800010e+00 2.05999994e+00 2.03699994e+00
    1.98500001e+00 0. 0. 0. 0. 0. 0. 0. 0. 0. 0. 0. 0. 0. 2.84400010e+00
    2.10500002e+00 2.08200002e+00 2.05800009e+00 2.02200007e+00 2.
    1.99000001e+00 1.97700000e+00 1.97700000e+00 1.97800004e+00
    1.97800004e+00 1.98099995e+00 2. 2.00099993e+00 2.02399993e+00
    2.00099993e+00 2. 2. 2. 2. 2.03299999e+00 2.04800010e+00
    2.04800010e+00 2.06100011e+00 2.07299995e+00 0. 0. 0. 0. 0. 0. 0. 0.
    0. 0. 0. 0. 0. 0. 0. 2.82299995e+00 2.10500002e+00 2.08200002e+00
    2.07200003e+00 2.03299999e+00 2. 1.99000001e+00 1.97700000e+00
    1.97700000e+00 1.97700000e+00 1.97700000e+00 1.98099995e+00 2.
    2.00099993e+00 2.02399993e+00 2.02200007e+00 2.00200009e+00 2. 2. 2.
    0. 0. 0. 0. 0. 0. 0. 0. 0. 0. 0. 0. 0. 0. 0. 0. 0. 0. 0. 0. 0.
    2.84599996e+00 2.09599996e+00 2.08200002e+00 2.04500008e+00
    2.01099992e+00 1.99000001e+00 1.97700000e+00 1.97700000e+00
    1.97700000e+00 1.97700000e+00 1.98099995e+00 2.00699997e+00
    2.06399989e+00 2.06699991e+00 2.06699991e+00 2.00699997e+00 2. 0. 0.
    0. 0. 0. 0. 0. 0. 0. 0. 0. 0. 0. 0.</data></Depth>
</opencv_storage>
