<?xml version="1.0"?>
<opencv_storage>
<Depth type_id="opencv-matrix">
  <rows>40</rows>
  <cols>40</cols>
  <dt>f</dt>
  <data>
    0. 0. 0. 0. 0. 0. 0. 0. 0. 0. 0. 0. 0. 0. 0. 0. 0. 0. 0. 0. 0. 0. 0.
    0. 0. 0. 0. 0. 0. 0. 0. 0. 0. 0. 0. 0. 0. 0. 0. 0. 0. 0. 0. 0. 0. 0.
    0. 0. 0. 0. 0. 0. 0. 0. 0. 0. 0. 0. 0. 0. 0. 0. 0. 0. 0. 0. 0. 0. 0.
    0. 0. 0. 0. 0. 0. 0. 0. 0. 0. 0. 0. 0. 0. 0. 0. 0. 0. 0. 0. 0. 0. 0.
    0. 0. 0. 0. 0. 0. 0. 0. 0. 0. 0. 0. 0. 0. 0. 0. 0. 0. 0. 0. 0. 0. 0.
    0. 0. 0. 0. 0. 0. 0. 0. 0. 0. 0. 0. 0. 0. 0. 0. 0. 0. 0. 0. 0. 0. 0.
    0. 0. 0. 0. 0. 0. 0. 0. 0. 0. 0. 0. 0. 0. 0. 0. 0. 0. 0. 0. 0. 0.
    1.21899998e+00 1.21899998e+00 1.21899998e+00 1.21899998e+00
    1.21899998e+00 1.21899998e+00 1.81299996e+00 1.98899996e+00
    1.99199998e+00 1.99100006e+00 1.99199998e+00 1.99199998e+00
    1.99199998e+00 1.99000001e+00 0. 0. 0. 0. 0. 0. 0. 0. 0. 0. 0. 0. 0.
    0. 0. 0. 0. 0. 0. 0. 0. 0. 0. 0. 0. 0. 1.21899998e+00 1.21899998e+00
    1.21899998e+00 1.21899998e+00 1.21899998e+00 1.21899998e+00
    1.99199998e+00 1.99000001e+00 1.99000001e+00 1.99199998e+00
    1.99199998e+00 1.99199998e+00 1.99199998e+00 1.99199998e+00
    1.99199998e+00 2.55999994e+00 0. 0. 0. 0. 0. 0. 0. 0. 0. 0. 0. 0. 0.
    0. 0. 0. 0. 0. 0. 0. 0. 0. 0. 0. 1.21899998e+00 1.21899998e+00
    1.21899998e+00 1.21899998e+00 1.21899998e+00 1.21899998e+00
    1.99000001e+00 1.99199998e+00 1.99199998e+00 1.99199998e+00
    1.99199998e+00 1.99199998e+00 1.99300003e+00 1.99199998e+00
    1.99199998e+00 1.99300003e+00 1.99300003e+00 1.99300003e+00
    2.05699992e+00 0. 0. 0. 0. 0. 0. 0. 0. 0. 0. 0. 0. 0. 0. 0. 0. 0. 0.
    0. 0. 0. 1.21899998e+00 1.21899998e+00 1.21899998e+00 1.21899998e+00
    1.21899998e+00 1.37399995e+00 1.98800004e+00 1.99100006e+00
    1.99000001e+00 1.99199998e+00 1.99199998e+00 1.99199998e+00
    1.99300003e+00 1.99300003e+00 1.99300003e+00 1.99300003e+00
    1.99300003e+00 1.99300003e+00 1.99699998e+00 1.99699998e+00
    1.99899995e+00 0. 0. 0. 0. 0. 0. 0. 0. 0. 0. 0. 0. 0. 0. 0. 0. 0. 0.
    0. 1.21899998e+00 1.21899998e+00 1.21899998e+00 1.21899998e+00
    1.21899998e+00 1.97000003e+00 1.99000001e+00 1.99199998e+00
    1.99000001e+00 1.99199998e+00 1.99199998e+00 1.99199998e+00
    1.99199998e+00 1.99300003e+00 1.99300003e+00 1.99300003e+00
    1.99300003e+00 1.99300003e+00 1.99899995e+00 1.99800003e+00 2.
    1.99899995e+00 1.99899995e+00 2.10500002e+00 0. 0. 0. 0. 0. 0. 0. 0.
    0. 0. 0. 0. 0. 0. 0. 0. 1.21899998e+00 1.21899998e+00 1.21899998e+00
    1.21899998e+00 1.21899998e+00 1.99100006e+00 1.99000001e+00
    1.99100006e+00 1.99100006e+00 1.99199998e+00 1.99199998e+00
    1.99199998e+00 1.99199998e+00 1.99300003e+00 1.99300003e+00
    1.99300003e+00 1.99300003e+00 1.99500000e+00 1.99600005e+00
    1.99500000e+00 1.99800003e+00 1.99800003e+00 2. 2. 2. 2. 2. 0. 0. 0.
    0. 0. 0. 0. 0. 0. 0. 0. 0. 0. 1.87899995e+00 1.21899998e+00
    1.21899998e+00 2.00799990e+00 1.99300003e+00 1.99000001e+00
    1.98800004e+00 1.99000001e+00 1.99199998e+00 1.99199998e+00
    1.99199998e+00 1.99199998e+00 1.99300003e+00 1.99300003e+00
    1.99300003e+00 1.99300003e+00 1.99300003e+00 1.99699998e+00
    1.99699998e+00 1.99699998e+00 1.99699998e+00 1.99899995e+00 2.
    1.99899995e+00 2. 2. 2.00200009e+00 2. 2.00200009e+00 2.40300012e+00
    0. 0. 0. 0. 0. 0. 0. 0. 0. 0. 1.89199996e+00 1.21899998e+00
    1.21899998e+00 1.21899998e+00 1.99000001e+00 1.99199998e+00
    1.99000001e+00 1.99000001e+00 1.99199998e+00 1.99199998e+00
    1.99199998e+00 1.99199998e+00 1.99199998e+00 1.99300003e+00
    1.99300003e+00 1.99300003e+00 1.99300003e+00 1.99300003e+00
    1.99699998e+00 1.99899995e+00 1.99899995e+00 1.99899995e+00 2. 2.
    2.00099993e+00 2. 2.00099993e+00 2. 2.00099993e+00 2.00200009e+00
    2.00099993e+00 2.00399995e+00 0. 0. 0. 0. 0. 0. 0. 0. 1.95799994e+00
    1.21899998e+00 1.21899998e+00 1.49600005e+00 1.99000001e+00
    1.99000001e+00 1.99199998e+00 1.99199998e+00 1.99199998e+00
    1.99199998e+00 1.99199998e+00 1.99199998e+00 1.99300003e+00
    1.99300003e+00 1.99300003e+00 1.99300003e+00 1.99300003e+00
    1.99500000e+00 1.99699998e+00 1.99699998e+00 1.99800003e+00
    1.99899995e+00 1.99899995e+00 2. 2. 2. 2.00099993e+00 2.00200009e+00
    2.00200009e+00 2.00200009e+00 2.00200009e+00 2.00500011e+00
    2.00500011e+00 2.00300002e+00 2.70199990e+00 0. 0. 0. 0. 0.
    1.21899998e+00 1.21899998e+00 1.21899998e+00 1.99199998e+00
    1.99000001e+00 1.99000001e+00 1.99000001e+00 1.99199998e+00
    1.99199998e+00 1.99199998e+00 1.99199998e+00 1.99300003e+00
    1.99300003e+00 1.99300003e+00 1.99300003e+00 1.99300003e+00
    1.99500000e+00 1.99500000e+00 1.99699998e+00 2. 1.99899995e+00
    1.99899995e+00 2. 2. 2. 2.00200009e+00 2. 2.00200009e+00
    2.00200009e+00 2.00200009e+00 2.00200009e+00 2.00399995e+00
    2.00200009e+00 2.00200009e+00 2.00399995e+00 2.00600004e+00
    2.00799990e+00 0. 0. 0. 1.21899998e+00 1.21899998e+00 1.21899998e+00
    1.99000001e+00 1.98800004e+00 1.99000001e+00 1.99100006e+00
    1.99100006e+00 1.99000001e+00 1.99199998e+00 1.99199998e+00
    1.99199998e+00 1.99300003e+00 1.99300003e+00 1.99300003e+00
    1.99500000e+00 1.99500000e+00 1.99500000e+00 1.99699998e+00
    1.99899995e+00 2. 1.99899995e+00 2. 2. 2. 2. 2.00099993e+00 2.
    2.00200009e+00 2.00200009e+00 2.00200009e+00 2.00300002e+00
    2.00200009e+00 2.00500011e+00 2.00799990e+00 2.00600004e+00
    2.00799990e+00 2.00600004e+00 2.00799990e+00 2.98699999e+00
    1.21899998e+00 1.21899998e+00 1.98500001e+00 1.99000001e+00
    1.99000001e+00 1.99199998e+00 1.99199998e+00 1.99100006e+00
    1.99199998e+00 1.99199998e+00 1.99199998e+00 1.99199998e+00
    1.99300003e+00 1.99199998e+00 1.99399996e+00 1.99500000e+00
    1.99500000e+00 1.99500000e+00 1.99699998e+00 1.99899995e+00
    1.99899995e+00 2. 2. 2. 2. 2. 2.00200009e+00 2.00200009e+00
    2.00200009e+00 2.00200009e+00 2.00399995e+00 2.00200009e+00
    2.00399995e+00 2.00399995e+00 2.00399995e+00 2.00699997e+00
    2.00600004e+00 2.00600004e+00 2.00699997e+00 2.00799990e+00
    1.21899998e+00 1.21899998e+00 1.98800004e+00 1.99199998e+00
    1.99199998e+00 1.99000001e+00 1.99199998e+00 1.99199998e+00
    1.99199998e+00 1.99199998e+00 1.99199998e+00 1.99300003e+00
    1.99300003e+00 1.99300003e+00 1.99500000e+00 1.99300003e+00
    1.99399996e+00 1.99600005e+00 1.99800003e+00 1.99800003e+00
    1.99899995e+00 2. 2. 2. 2.00099993e+00 2.00099993e+00 2.00200009e+00
    2.00200009e+00 2.00200009e+00 2.00200009e+00 2.00399995e+00
    2.00399995e+00 2.00399995e+00 2.00399995e+00 2.00600004e+00
    2.00799990e+00 2.00600004e+00 2.00500011e+00 2.00799990e+00
    2.00900006e+00 1.21899998e+00 1.21899998e+00 1.98800004e+00
    1.99000001e+00 1.99000001e+00 1.99000001e+00 1.99199998e+00
    1.99199998e+00 1.99199998e+00 1.99199998e+00 1.99300003e+00
    1.99300003e+00 1.99300003e+00 1.99300003e+00 1.99300003e+00
    1.99399996e+00 1.99600005e+00 1.99500000e+00 1.99899995e+00 2. 2. 2.
    2. 2.00200009e+00 2. 2.00200009e+00 2.00200009e+00 2.00200009e+00
    2.00200009e+00 2.00200009e+00 2.00300002e+00 2.00200009e+00
    2.00399995e+00 2.00200009e+00 2.00799990e+00 2.00600004e+00
    2.00600004e+00 2.00799990e+00 2.00799990e+00 1.21899998e+00
    1.21899998e+00 1.79799998e+00 1.98899996e+00 1.99000001e+00
    1.99100006e+00 1.99199998e+00 1.99199998e+00 1.99199998e+00
    1.99199998e+00 1.99199998e+00 1.99300003e+00 1.99300003e+00
    1.99300003e+00 1.99300003e+00 1.99399996e+00 1.99500000e+00
    1.99699998e+00 1.99800003e+00 1.99899995e+00 2. 2. 2. 2. 2. 2.
    2.00200009e+00 2.00200009e+00 2.00200009e+00 2.00300002e+00
    2.00200009e+00 2.00200009e+00 2.00600004e+00 2.00500011e+00
    2.00399995e+00 2.00600004e+00 2.00699997e+00 2.00600004e+00
    2.00600004e+00 2.00600004e+00 1.21899998e+00 1.21899998e+00
    1.99000001e+00 1.99199998e+00 1.99199998e+00 1.99199998e+00
    1.99199998e+00 1.99199998e+00 1.99199998e+00 1.99199998e+00
    1.99199998e+00 1.99300003e+00 1.99500000e+00 1.99500000e+00
    1.99500000e+00 1.99500000e+00 1.99500000e+00 1.99699998e+00
    1.99699998e+00 1.99899995e+00 2. 2. 2.00099993e+00 2. 2. 2.
    2.00200009e+00 2.00200009e+00 2.00200009e+00 2.00300002e+00
    2.00200009e+00 2.00200009e+00 2.00399995e+00 2.00399995e+00
    2.00399995e+00 2.00500011e+00 2.00500011e+00 2.00600004e+00
    2.00600004e+00 2.00799990e+00 1.21899998e+00 1.24600005e+00
    1.98899996e+00 1.99199998e+00 1.99199998e+00 1.99199998e+00
    1.99199998e+00 1.99199998e+00 1.99199998e+00 1.99199998e+00
    1.99300003e+00 1.99300003e+00 1.99500000e+00 1.99500000e+00
    1.99699998e+00 1.99699998e+00 1.99699998e+00 1.99699998e+00
    1.99800003e+00 2. 2. 2. 2. 2. 2. 2.00099993e+00 2. 2.00200009e+00
    2.00200009e+00 2.00399995e+00 2.00399995e+00 2.00200009e+00
    2.00600004e+00 2.00399995e+00 2.00500011e+00 2.00399995e+00
    2.00399995e+00 2.00799990e+00 2.00799990e+00 1.44599998e+00
    1.21899998e+00 1.99199998e+00 1.99000001e+00 1.99000001e+00
    1.99199998e+00 1.99000001e+00 1.99199998e+00 1.99199998e+00
    1.99199998e+00 1.99300003e+00 1.99300003e+00 1.99300003e+00
    1.99500000e+00 1.99500000e+00 1.99699998e+00 1.99699998e+00
    1.99699998e+00 1.99899995e+00 1.99899995e+00 2. 2. 2. 2.
    2.00099993e+00 2. 2.00200009e+00 2.00200009e+00 2.00200009e+00
    2.00200009e+00 2.00399995e+00 2.00399995e+00 2.00300002e+00
    2.00399995e+00 2.00500011e+00 2.00500011e+00 2.00600004e+00
    2.00699997e+00 2.00799990e+00 2.00500011e+00 1.21899998e+00
    1.67400002e+00 1.99199998e+00 1.99000001e+00 1.99199998e+00
    1.99199998e+00 1.99199998e+00 1.99199998e+00 1.99300003e+00
    1.99300003e+00 1.99300003e+00 1.99300003e+00 1.99300003e+00
    1.99699998e+00 1.99699998e+00 1.99699998e+00 1.99699998e+00
    1.99899995e+00 1.99899995e+00 1.99899995e+00 2. 2. 2. 2.00099993e+00
    2.00200009e+00 2. 2.00200009e+00 2.00200009e+00 2.00200009e+00
    2.00399995e+00 2.00399995e+00 2.00399995e+00 2.00399995e+00
    2.00399995e+00 2.00600004e+00 2.00500011e+00 2.00600004e+00
    2.00799990e+00 2.00799990e+00 1.76699996e+00 1.21899998e+00 0.
    1.99100006e+00 1.99199998e+00 1.99199998e+00 1.99199998e+00
    1.99199998e+00 1.99199998e+00 1.99300003e+00 1.99300003e+00
    1.99300003e+00 1.99399996e+00 1.99500000e+00 1.99800003e+00
    1.99800003e+00 1.99699998e+00 1.99899995e+00 1.99899995e+00
    1.99899995e+00 1.99899995e+00 2. 2.00099993e+00 2. 2.00099993e+00
    2.00200009e+00 2.00200009e+00 2.00200009e+00 2.00200009e+00
    2.00200009e+00 2.00200009e+00 2.00399995e+00 2.00399995e+00
    2.00500011e+00 2.00600004e+00 2.00600004e+00 2.00500011e+00
    2.00399995e+00 2.00399995e+00 2.00600004e+00 1.21899998e+00
    1.21899998e+00 0. 1.99199998e+00 1.99199998e+00 1.99199998e+00
    1.99199998e+00 1.99199998e+00 1.99300003e+00 1.99300003e+00
    1.99300003e+00 1.99399996e+00 1.99500000e+00 1.99699998e+00
    1.99899995e+00 1.99899995e+00 1.99699998e+00 1.99899995e+00
    1.99899995e+00 1.99899995e+00 1.99899995e+00 2. 2.00099993e+00
    2.00200009e+00 2.00200009e+00 2.00200009e+00 2.00200009e+00
    2.00200009e+00 2.00200009e+00 2.00200009e+00 2.00399995e+00
    2.00399995e+00 2.00399995e+00 2.00600004e+00 2.00799990e+00
    2.00600004e+00 2.00600004e+00 2.00600004e+00 2.00600004e+00
    2.00399995e+00 1.21899998e+00 0. 0. 0. 2.28999996e+00 1.99199998e+00
    1.99300003e+00 1.99300003e+00 1.99300003e+00 1.99300003e+00
    1.99300003e+00 1.99600005e+00 1.99500000e+00 1.99699998e+00
    1.99899995e+00 1.99899995e+00 1.99699998e+00 1.99899995e+00
    1.99899995e+00 1.99899995e+00 1.99899995e+00 2.00200009e+00
    2.00200009e+00 2.00200009e+00 2.00200009e+00 2.00200009e+00
    2.00200009e+00 2.00200009e+00 2.00200009e+00 2.00399995e+00
    2.00600004e+00 2.00500011e+00 2.00600004e+00 2.00799990e+00
    2.00699997e+00 2.00600004e+00 2.00600004e+00 2.00600004e+00
    2.00799990e+00 1.34300005e+00 1.21899998e+00 0. 0. 0. 0. 0. 0.
    1.99500000e+00 1.99500000e+00 1.99300003e+00 1.99500000e+00
    1.99500000e+00 1.99500000e+00 1.99699998e+00 1.99699998e+00
    1.99899995e+00 1.99899995e+00 1.99899995e+00 1.99899995e+00 2.
    1.99899995e+00 2. 2.00200009e+00 2.00200009e+00 2.00200009e+00
    2.00200009e+00 2.00200009e+00 2.00200009e+00 2.00200009e+00
    2.00200009e+00 2.00399995e+00 2.00399995e+00 2.00600004e+00
    2.00600004e+00 2.00600004e+00 2.00600004e+00 2.00600004e+00
    2.00799990e+00 2.00500011e+00 1.21899998e+00 1.89999998e+00 0. 0. 0.
    0. 0. 0. 0. 0. 0. 1.53400004e+00 1.99699998e+00 1.99600005e+00
    1.99699998e+00 1.99699998e+00 1.99899995e+00 1.99899995e+00
    1.99899995e+00 1.99899995e+00 2. 1.99899995e+00 2. 2.00200009e+00
    2.00200009e+00 2.00200009e+00 2.00200009e+00 2.00200009e+00
    2.00200009e+00 2.00200009e+00 2.00200009e+00 2.00399995e+00
    2.00500011e+00 2.00600004e+00 2.00600004e+00 2.00399995e+00
    2.00799990e+00 2.00799990e+00 2.00799990e+00 2. 1.21899998e+00
    2.58599997e+00 0. 0. 0. 0. 0. 0. 0. 0. 0. 0. 0. 1.99899995e+00
    1.99899995e+00 1.99699998e+00 1.99899995e+00 1.99899995e+00
    1.99899995e+00 2. 2. 2. 2.00099993e+00 2.00200009e+00 2.
    2.00200009e+00 2.00200009e+00 2.00200009e+00 2.00300002e+00
    2.00399995e+00 2.00399995e+00 2.00399995e+00 2.00600004e+00
    2.00600004e+00 2.00500011e+00 2.00500011e+00 2.00699997e+00
    2.00799990e+00 2.00799990e+00 1.21899998e+00 1.21899998e+00 0. 0. 0.
    0. 0. 0. 0. 0. 0. 0. 0. 0. 0. 0. 1.47899997e+00 1.21899998e+00
    1.94599998e+00 1.73099995e+00 1.94599998e+00 2. 2. 2.00200009e+00
    2.00200009e+00 2.00200009e+00 2.00200009e+00 2.00200009e+00
    2.00200009e+00 2.00300002e+00 2.00200009e+00 2.00399995e+00
    2.00399995e+00 2.00300002e+00 2.00600004e+00 2.00600004e+00
    2.00600004e+00 2.00600004e+00 2.00799990e+00 2.00799990e+00
    1.21899998e+00 1.40600002e+00 0. 0. 0. 0. 0. 0. 0. 0. 0. 0. 0. 0. 0.
    0. 0. 0. 1.21899998e+00 1.21899998e+00 1.21899998e+00 2. 2.
    2.00200009e+00 2.00200009e+00 2.00200009e+00 2.00200009e+00
    2.00200009e+00 2.00200009e+00 2.00200009e+00 2.00200009e+00
    2.00200009e+00 2.00399995e+00 2.00399995e+00 2.00399995e+00
    2.00600004e+00 2.00799990e+00 2.00699997e+00 2.00799990e+00
    1.62199998e+00 1.21899998e+00 0. 0. 0. 0. 0. 0. 0. 0. 0. 0. 0. 0. 0.
    0. 0. 0. 0. 0. 0. 0. 1.21899998e+00 1.70500004e+00 2. 2.
    2.00200009e+00 2.00200009e+00 2.00200009e+00 2.00200009e+00
    2.00200009e+00 2.00399995e+00 2.00399995e+00 2.00399995e+00
    2.00500011e+00 2.00600004e+00 2.00600004e+00 2.00799990e+00
    2.00799990e+00 2.00799990e+00 1.23899996e+00 1.21899998e+00 0. 0. 0.
    0. 0. 0. 0. 0. 0. 0. 0. 0. 0. 0. 0. 0. 0. 0. 0. 0. 0. 0. 0. 0.
    2.99600005e+00 2.65100002e+00 2.00200009e+00 2.00300002e+00
    2.00399995e+00 2.00500011e+00 2.00399995e+00 2.00399995e+00
    2.00500011e+00 2.00600004e+00 2.00799990e+00 2.00600004e+00
    2.00799990e+00 2.00799990e+00 1.21899998e+00 1.72399998e+00 0. 0. 0.
    0. 0. 0. 0. 0. 0. 0. 0. 0. 0. 0. 0. 0. 0. 0. 0. 0. 0. 0. 0. 0. 0. 0.
    0. 2.00200009e+00 2.00500011e+00 2.00600004e+00 2.00399995e+00
    2.00399995e+00 2.00600004e+00 2.00600004e+00 2.00600004e+00
    2.00600004e+00 2.00799990e+00 2.00600004e+00 1.21899998e+00
    2.57999992e+00 0. 0. 0. 0. 0. 0. 0. 0. 0. 0. 0. 0. 0. 0. 0. 0. 0. 0.
    0. 0. 0. 0. 0. 0. 0. 0. 0. 0. 0. 2.63000011e+00 2.31100011e+00
    2.00600004e+00 2.00699997e+00 2.00600004e+00 2.00600004e+00
    2.00799990e+00 2.00799990e+00 1.58099997e+00 1.21899998e+00 0. 0. 0.
    0. 0. 0. 0. 0. 0. 0. 0. 0. 0. 0. 0. 0. 0. 0. 0. 0. 0. 0. 0. 0. 0. 0.
    0. 0. 0. 0. 0. 0. 0. 0. 2.35100007e+00 2.00600004e+00 2.00799990e+00
    2.00799990e+00 1.21899998e+00 1.21899998e+00 0. 0. 0. 0. 0. 0. 0. 0.
    0. 0. 0. 0. 0. 0. 0. 0. 0. 0. 0. 0. 0. 0. 0. 0. 0. 0. 0. 0. 0. 0. 0.
    0. 0. 0. 0. 0. 0. 0. 0. 0. 0. 0. 0. 0. 0. 0. 0. 0. 0. 0. 0. 0. 0. 0.
    0. 0. 0. 0. 0. 0. 0. 0. 0. 0. 0. 0. 0. 0. 0. 0. 0. 0. 0. 0. 0. 0. 0.
    0. 0. 0. 0. 0. 0. 0. 0. 0. 0. 0. 0. 0. 0. 0. 0. 0. 0. 0. 0. 0. 0. 0.
    0. 0. 0. 0. 0. 0. 0. 0. 0. 0. 0. 0. 0. 0. 0. 0. 0. 0. 0. 0. 0. 0. 0.
    0. 0. 0. 0. 0. 0. 0. 0. 0. 0. 0. 0. 0. 0. 0. 0. 0. 0. 0. 0. 0. 0. 0.
    0. 0. 0. 0. 0. 0. 0. 0. 0. 0. 0. 0. 0. 0. 0. 0. 0. 0. 0.</data></Depth>
</opencv_storage>
