<?xml version="1.0"?>
<opencv_storage>
<Depth type_id="opencv-matrix">
  <rows>40</rows>
  <cols>40</cols>
  <dt>f</dt>
  <data>
    0. 0. 0. 0. 0. 0. 0. 0. 0. 0. 0. 0. 0. 0. 0. 0. 0. 0. 0. 0. 0. 0. 0.
    0. 0. 0. 0. 0. 0. 0. 0. 0. 0. 0. 0. 0. 0. 0. 0. 0. 0. 0. 0. 0. 0. 0.
    0. 0. 0. 0. 0. 0. 0. 0. 0. 0. 0. 0. 0. 0. 0. 0. 0. 0. 0.
    2.92100000e+00 2.09400010e+00 2.07699990e+00 2.04399991e+00
    2.03600001e+00 0. 0. 0. 0. 0. 0. 0. 0. 0. 0. 0. 0. 0. 0. 0. 0. 0. 0.
    0. 1.99399996e+00 1.99600005e+00 1.99500000e+00 2.00300002e+00
    1.99899995e+00 1.99699998e+00 2.00600004e+00 2.01200008e+00
    2.01200008e+00 2.00600004e+00 2.00500011e+00 2.00699997e+00
    2.01200008e+00 2.01500010e+00 2.01500010e+00 2.01600003e+00
    2.01600003e+00 2.01600003e+00 2.01699996e+00 2.01999998e+00
    2.02200007e+00 2.02399993e+00 2.15799999e+00 0. 0. 0. 0. 0. 0. 0. 0.
    0. 0. 0. 0. 0. 0. 0. 0. 1.88699996e+00 1.98699999e+00 1.99100006e+00
    1.99100006e+00 1.99500000e+00 2. 1.99899995e+00 2. 2.00099993e+00
    2.00099993e+00 2.00099993e+00 2. 2. 2.00500011e+00 2.00600004e+00
    2.00999999e+00 2.00999999e+00 2.01500010e+00 2.01500010e+00
    2.01500010e+00 2.01500010e+00 2.01600003e+00 2.02399993e+00
    2.02099991e+00 2.73699999e+00 0. 0. 0. 0. 0. 0. 0. 0. 0. 0. 0. 0. 0.
    0. 1.34500003e+00 1.99000001e+00 1.98699999e+00 1.99000001e+00
    1.99100006e+00 1.99100006e+00 1.99600005e+00 2. 2. 2. 2. 2. 2. 2.
    2.00500011e+00 2.00500011e+00 2.01099992e+00 2.01399994e+00
    2.01500010e+00 2.01500010e+00 2.01500010e+00 2.01500010e+00
    2.01500010e+00 2.01600003e+00 2.01600003e+00 2.72799993e+00 0. 0. 0.
    0. 0. 0. 0. 0. 0. 0. 0. 0. 0. 0. 1.99800003e+00 1.98599994e+00
    1.98599994e+00 1.99000001e+00 1.99100006e+00 1.99100006e+00 2. 2.
    1.99800003e+00 1.99500000e+00 1.99500000e+00 1.99899995e+00 2. 2. 2.
    2.00099993e+00 2.01099992e+00 2.01300001e+00 2.00999999e+00
    2.01500010e+00 2.01500010e+00 2.01500010e+00 2.01500010e+00
    2.01500010e+00 2.00999999e+00 1.74100006e+00 0. 0. 0. 0. 0. 0. 0. 0.
    0. 0. 0. 0. 0. 0. 2.00799990e+00 1.98199999e+00 1.98199999e+00
    1.98599994e+00 1.99100006e+00 1.99100006e+00 1.99500000e+00
    1.99500000e+00 2. 2. 2. 2. 2. 2. 2.00500011e+00 2.00999999e+00
    2.00999999e+00 2.00999999e+00 2.00999999e+00 2.01500010e+00
    2.01500010e+00 2.01500010e+00 2.01500010e+00 2.01900005e+00
    2.01500010e+00 1.84200001e+00 0. 0. 0. 0. 0. 0. 0. 0. 0. 0. 0. 0. 0.
    0. 2.03699994e+00 1.98599994e+00 1.98599994e+00 1.98599994e+00
    1.99100006e+00 1.99100006e+00 1.99500000e+00 1.99500000e+00 2.
    1.99899995e+00 2. 2. 2. 2. 2.00399995e+00 2.00600004e+00
    2.00999999e+00 2.00999999e+00 2.00999999e+00 2.01500010e+00
    2.01500010e+00 2.01500010e+00 2.01500010e+00 2.01900005e+00
    2.01999998e+00 1.73300004e+00 0. 0. 0. 0. 0. 0. 0. 0. 0. 0. 0. 0. 0.
    0. 1.63600004e+00 1.99199998e+00 1.99100006e+00 1.99100006e+00
    1.99100006e+00 1.99100006e+00 1.99500000e+00 1.99699998e+00 2.
    1.99500000e+00 2. 2. 2. 2. 2. 2.00500011e+00 2.00900006e+00
    2.00999999e+00 2.00999999e+00 2.01500010e+00 2.01500010e+00
    2.01500010e+00 2.01500010e+00 2.01900005e+00 2.02300000e+00
    1.73300004e+00 0. 0. 0. 0. 0. 0. 0. 0. 0. 0. 0. 0. 0. 0. 0.
    1.99100006e+00 1.99100006e+00 1.98599994e+00 1.99100006e+00
    1.99100006e+00 1.99500000e+00 1.99600005e+00 1.99800003e+00
    1.99500000e+00 1.99899995e+00 2. 2. 2. 2. 2.00500011e+00
    2.00799990e+00 2.00900006e+00 2.00900006e+00 2.01300001e+00
    2.01500010e+00 2.01500010e+00 2.01500010e+00 2.01900005e+00
    2.01900005e+00 2.29399991e+00 0. 0. 0. 0. 0. 0. 0. 0. 0. 0. 0. 0. 0.
    0. 0. 1.99399996e+00 1.99100006e+00 1.98800004e+00 1.98599994e+00
    1.99100006e+00 1.99300003e+00 1.99500000e+00 1.99500000e+00
    1.99600005e+00 1.99800003e+00 2. 2. 2. 2. 2.00500011e+00
    2.00999999e+00 2.00900006e+00 2.00900006e+00 2.00999999e+00
    2.01500010e+00 2.01500010e+00 2.01500010e+00 2.01900005e+00
    2.01900005e+00 2.23799992e+00 0. 0. 0. 0. 0. 0. 0. 0. 0. 0. 0. 0. 0.
    0. 0. 1.98800004e+00 1.98599994e+00 1.98599994e+00 1.98599994e+00
    1.99100006e+00 1.99199998e+00 1.99500000e+00 1.99500000e+00
    1.99600005e+00 1.99800003e+00 2. 2. 2. 2.00200009e+00 2.00200009e+00
    2.00999999e+00 2.00900006e+00 2.00799990e+00 2.00999999e+00
    2.01500010e+00 2.01500010e+00 2.01500010e+00 2.01900005e+00
    2.01900005e+00 2.10800004e+00 0. 0. 0. 0. 0. 0. 0. 0. 0. 0. 0. 0. 0.
    0. 1.69500005e+00 1.98599994e+00 1.98599994e+00 1.98599994e+00
    1.98599994e+00 1.99100006e+00 1.99500000e+00 1.99500000e+00
    1.99500000e+00 1.99500000e+00 1.99500000e+00 2. 2. 2. 2. 2.
    2.00200009e+00 2.00500011e+00 2.00500011e+00 2.00999999e+00
    2.01399994e+00 2.01500010e+00 2.01500010e+00 2.01900005e+00
    2.01900005e+00 1.72899997e+00 0. 0. 0. 0. 0. 0. 0. 0. 0. 0. 0. 0. 0.
    0. 1.55200005e+00 1.99199998e+00 1.98699999e+00 1.98199999e+00
    1.98199999e+00 1.99100006e+00 1.99500000e+00 1.99500000e+00
    1.99500000e+00 1.99500000e+00 1.99500000e+00 2. 2. 2. 2. 2.
    2.00399995e+00 2.00500011e+00 2.00500011e+00 2.00500011e+00
    2.01300001e+00 2.01500010e+00 2.01500010e+00 2.01900005e+00
    2.01900005e+00 2.73000002e+00 0. 0. 0. 0. 0. 0. 0. 0. 0. 0. 0. 0. 0.
    0. 1.42900002e+00 1.99300003e+00 1.98599994e+00 1.98199999e+00
    1.98199999e+00 1.99500000e+00 1.99500000e+00 1.99500000e+00
    1.99500000e+00 1.99500000e+00 1.99500000e+00 1.99500000e+00 2. 2. 2.
    2.00500011e+00 2.00500011e+00 2.00500011e+00 2.00500011e+00
    2.00799990e+00 2.00999999e+00 2.01500010e+00 2.01500010e+00
    2.01900005e+00 2.01900005e+00 1.72899997e+00 0. 0. 0. 0. 0. 0. 0. 0.
    0. 0. 0. 0. 0. 0. 0. 1.97099996e+00 1.98300004e+00 1.98199999e+00
    1.98199999e+00 1.99199998e+00 1.99100006e+00 1.99500000e+00
    1.99500000e+00 1.99500000e+00 1.99500000e+00 1.99500000e+00 2. 2. 2.
    2.00099993e+00 2.00500011e+00 2.00500011e+00 2.00699997e+00
    2.00999999e+00 2.00999999e+00 2.01500010e+00 2.01500010e+00
    2.01900005e+00 2.01900005e+00 2.73399997e+00 0. 0. 0. 0. 0. 0. 0. 0.
    0. 0. 0. 0. 0. 0. 0. 1.56400001e+00 1.98399997e+00 1.98199999e+00
    1.98599994e+00 1.99500000e+00 1.99100006e+00 1.99199998e+00
    1.99500000e+00 1.99500000e+00 1.99500000e+00 1.99800003e+00 2. 2. 2.
    2. 2.00500011e+00 2.00500011e+00 2.00699997e+00 2.00999999e+00
    2.00999999e+00 2.01500010e+00 2.01500010e+00 2.01900005e+00
    2.01900005e+00 1.97399998e+00 0. 0. 0. 0. 0. 0. 0. 0. 0. 0. 0. 0. 0.
    0. 0. 1.55799997e+00 1.98300004e+00 1.98199999e+00 1.98500001e+00
    1.99399996e+00 1.99100006e+00 1.99000001e+00 1.99399996e+00
    1.99399996e+00 1.99500000e+00 1.99500000e+00 1.99899995e+00 2. 2. 2.
    2.00099993e+00 2.00500011e+00 2.00600004e+00 2.00999999e+00
    2.01399994e+00 2.01500010e+00 2.01500010e+00 2.01900005e+00
    2.01900005e+00 1.73000002e+00 0. 0. 0. 0. 0. 0. 0. 0. 0. 0. 0. 0. 0.
    0. 0. 1.99100006e+00 1.98399997e+00 1.98199999e+00 1.98199999e+00
    1.99100006e+00 1.99000001e+00 1.98699999e+00 1.99399996e+00
    1.99300003e+00 1.99300003e+00 1.99500000e+00 2. 2. 2. 2. 2.
    2.00399995e+00 2.00399995e+00 2.00999999e+00 2.01399994e+00
    2.01500010e+00 2.01500010e+00 2.02200007e+00 2.01999998e+00
    1.09899998e+00 0. 0. 0. 0. 0. 0. 0. 0. 0. 0. 0. 0. 0. 0. 0.
    1.99300003e+00 1.98300004e+00 1.98199999e+00 1.98199999e+00
    1.99100006e+00 1.99100006e+00 1.99100006e+00 1.99300003e+00
    1.99399996e+00 1.99399996e+00 1.99500000e+00 2. 2. 2. 2.
    2.00300002e+00 2.00500011e+00 2.00699997e+00 2.00999999e+00
    2.00999999e+00 2.01500010e+00 2.01500010e+00 2.01900005e+00
    2.01900005e+00 1.72899997e+00 0. 0. 0. 0. 0. 0. 0. 0. 0. 0. 0. 0. 0.
    0. 0. 1.81900001e+00 1.98300004e+00 1.98199999e+00 1.98199999e+00
    1.99500000e+00 1.99100006e+00 1.99100006e+00 1.99300003e+00
    1.99500000e+00 1.99500000e+00 1.99800003e+00 2. 2. 2. 2. 2.
    2.00500011e+00 2.00500011e+00 2.00999999e+00 2.00999999e+00
    2.01500010e+00 2.01500010e+00 2.01900005e+00 2.01900005e+00
    2.01900005e+00 0. 0. 0. 0. 0. 0. 0. 0. 0. 0. 0. 0. 0. 0.
    2.03600001e+00 2.00200009e+00 1.97899997e+00 1.98199999e+00
    1.98599994e+00 1.99100006e+00 1.99300003e+00 1.99100006e+00
    1.99300003e+00 1.99500000e+00 1.99500000e+00 1.99699998e+00 2. 2. 2.
    2. 2.00200009e+00 2. 2.00500011e+00 2.00699997e+00 2.00999999e+00
    2.01399994e+00 2.01500010e+00 2.01900005e+00 2.01900005e+00
    2.02200007e+00 0. 0. 0. 0. 0. 0. 0. 0. 0. 0. 0. 0. 0. 0.
    2.02900004e+00 2.00200009e+00 1.98300004e+00 1.98199999e+00
    1.98599994e+00 1.99199998e+00 1.99399996e+00 1.99100006e+00
    1.99300003e+00 1.99500000e+00 1.99500000e+00 1.99800003e+00 2. 2. 2.
    2. 2.00099993e+00 2.00399995e+00 2.00500011e+00 2.00500011e+00
    2.00900006e+00 2.01399994e+00 2.01500010e+00 2.01900005e+00
    2.01900005e+00 2.01999998e+00 0. 0. 0. 0. 0. 0. 0. 0. 0. 0. 0. 0. 0.
    0. 0. 1.61000001e+00 1.98300004e+00 1.98500001e+00 1.98599994e+00
    1.99100006e+00 1.99100006e+00 1.99100006e+00 1.99500000e+00
    1.99500000e+00 1.99500000e+00 1.99899995e+00 2. 2. 2. 2.
    2.00099993e+00 2.00999999e+00 2.00500011e+00 2.00500011e+00
    2.00500011e+00 2.00999999e+00 2.01500010e+00 2.01900005e+00
    2.01600003e+00 2.01900005e+00 0. 0. 0. 0. 0. 0. 0. 0. 0. 0. 0. 0. 0.
    0. 0. 1.56099999e+00 1.98300004e+00 1.98199999e+00 1.98199999e+00
    1.99100006e+00 1.99100006e+00 1.99100006e+00 1.99100006e+00
    1.99500000e+00 1.99500000e+00 1.99899995e+00 2. 2. 2. 2.
    2.00099993e+00 2.00500011e+00 2.00699997e+00 2.00999999e+00
    2.00500011e+00 2.00999999e+00 2.01500010e+00 2.01900005e+00
    2.01500010e+00 1.72599995e+00 0. 0. 0. 0. 0. 0. 0. 0. 0. 0. 0. 0. 0.
    0. 0. 1.55200005e+00 1.98099995e+00 1.98199999e+00 1.98199999e+00
    1.99100006e+00 1.99100006e+00 1.99100006e+00 1.98599994e+00
    1.99100006e+00 1.99300003e+00 1.99800003e+00 2. 2. 2. 2. 2.
    2.00500011e+00 2.00500011e+00 2.00500011e+00 2.00799990e+00
    2.00999999e+00 2.01500010e+00 2.01900005e+00 2.01600003e+00
    1.72899997e+00 0. 0. 0. 0. 0. 0. 0. 0. 0. 0. 0. 0. 0. 0. 0.
    1.55499995e+00 1.98199999e+00 1.98199999e+00 1.98199999e+00
    1.99000001e+00 1.99100006e+00 1.99100006e+00 1.99100006e+00
    1.99300003e+00 1.99500000e+00 1.99500000e+00 1.99800003e+00 2. 2. 2.
    2. 2.00500011e+00 2.00500011e+00 2.00500011e+00 2.00799990e+00
    2.00999999e+00 2.00900006e+00 2.01399994e+00 2.01900005e+00
    1.79200006e+00 0. 0. 0. 0. 0. 0. 0. 0. 0. 0. 0. 0. 0. 0. 0.
    1.55200005e+00 1.98099995e+00 1.98300004e+00 1.98199999e+00
    1.98800004e+00 1.99100006e+00 1.99100006e+00 1.98899996e+00
    1.98599994e+00 1.99199998e+00 1.99500000e+00 1.99500000e+00
    1.99500000e+00 1.99500000e+00 1.99600005e+00 2. 2.00500011e+00
    2.00500011e+00 2.00500011e+00 2.00699997e+00 2.00999999e+00
    2.00699997e+00 2.01200008e+00 2.01500010e+00 2.01900005e+00 0. 0. 0.
    0. 0. 0. 0. 0. 0. 0. 0. 0. 0. 0. 0. 1.98199999e+00 1.98199999e+00
    1.98399997e+00 1.98199999e+00 1.98899996e+00 1.98899996e+00
    1.98599994e+00 1.98899996e+00 1.98599994e+00 1.98899996e+00
    1.99500000e+00 1.99500000e+00 1.99500000e+00 1.99699998e+00 2. 2. 2.
    2.00200009e+00 2.00900006e+00 2.00699997e+00 2.00999999e+00
    2.00999999e+00 2.01500010e+00 2.01500010e+00 2.01699996e+00 0. 0. 0.
    0. 0. 0. 0. 0. 0. 0. 0. 0. 0. 0. 0. 1.98199999e+00 1.98199999e+00
    1.98199999e+00 1.98399997e+00 1.98599994e+00 1.98599994e+00
    1.98599994e+00 1.98599994e+00 1.98599994e+00 1.98899996e+00
    1.99399996e+00 1.99500000e+00 1.99500000e+00 1.99500000e+00 2. 2. 2.
    2. 2.00200009e+00 2.00699997e+00 2.00699997e+00 2.00699997e+00
    2.01500010e+00 2.01699996e+00 2.01500010e+00 0. 0. 0. 0. 0. 0. 0. 0.
    0. 0. 0. 0. 0. 0. 0. 1.98199999e+00 1.97899997e+00 1.98199999e+00
    1.98199999e+00 1.98599994e+00 1.98599994e+00 1.98599994e+00
    1.98599994e+00 1.98599994e+00 1.98599994e+00 1.99399996e+00
    1.99500000e+00 1.99500000e+00 1.99500000e+00 1.99500000e+00
    1.99500000e+00 2. 2. 2. 2.00300002e+00 2.00500011e+00 2.00500011e+00
    2.01500010e+00 2.01500010e+00 2.01500010e+00 0. 0. 0. 0. 0. 0. 0. 0.
    0. 0. 0. 0. 0. 0. 0. 1.65900004e+00 1.97800004e+00 1.97700000e+00
    1.97800004e+00 1.98300004e+00 1.98199999e+00 1.98599994e+00
    1.98800004e+00 1.98800004e+00 1.98599994e+00 1.99399996e+00
    1.99500000e+00 1.99500000e+00 1.99500000e+00 1.99500000e+00
    1.99899995e+00 2. 2. 2.00399995e+00 2.00500011e+00 2.00500011e+00
    2.00900006e+00 2.01500010e+00 2.00999999e+00 2.01600003e+00 0. 0. 0.
    0. 0. 0. 0. 0. 0. 0. 0. 0. 0. 0. 0. 2.00699997e+00 1.97800004e+00
    1.97700000e+00 1.97700000e+00 1.98199999e+00 1.98199999e+00
    1.98599994e+00 1.98800004e+00 1.99100006e+00 1.99100006e+00
    1.99100006e+00 1.99500000e+00 1.99500000e+00 1.99500000e+00
    1.99500000e+00 2. 2. 2.00099993e+00 2.00500011e+00 2.00500011e+00
    2.00099993e+00 2.00999999e+00 2.01500010e+00 2.01099992e+00
    2.01600003e+00 0. 0. 0. 0. 0. 0. 0. 0. 0. 0. 0. 0. 0. 0. 0.
    1.56200004e+00 1.97899997e+00 1.97700000e+00 1.97700000e+00
    1.98199999e+00 1.98199999e+00 1.98599994e+00 1.98800004e+00
    1.99100006e+00 1.99500000e+00 1.99500000e+00 1.99500000e+00
    1.99500000e+00 1.99500000e+00 1.99500000e+00 2. 2. 2. 2. 2. 2.
    2.00500011e+00 2.01500010e+00 2.01500010e+00 2.01900005e+00 0. 0. 0.
    0. 0. 0. 0. 0. 0. 0. 0. 0. 0. 0. 0. 1.59200001e+00 1.97800004e+00
    1.97700000e+00 1.97700000e+00 1.98199999e+00 1.98199999e+00
    1.98599994e+00 1.98599994e+00 1.99300003e+00 1.99500000e+00
    1.99500000e+00 1.99500000e+00 1.99500000e+00 1.99500000e+00
    1.99500000e+00 1.99500000e+00 2. 2. 2. 2. 2. 2.00999999e+00
    2.01500010e+00 2.01500010e+00 2.01399994e+00 0. 0. 0. 0. 0. 0. 0. 0.
    0. 0. 0. 0. 0. 0. 0. 1.98699999e+00 1.98099995e+00 1.97700000e+00
    1.97700000e+00 1.98199999e+00 1.98199999e+00 1.98199999e+00
    1.98599994e+00 1.98899996e+00 1.99100006e+00 1.99100006e+00
    1.99500000e+00 1.99500000e+00 1.99500000e+00 1.99500000e+00
    1.99500000e+00 1.99699998e+00 1.99500000e+00 2. 2.00500011e+00
    2.00500011e+00 2.00900006e+00 2.00900006e+00 2.00500011e+00
    2.00600004e+00 0. 0. 0. 0. 0. 0. 0. 0. 0. 0. 0. 0. 0. 0. 0.
    1.85800004e+00 1.97700000e+00 1.97700000e+00 1.97700000e+00
    1.98199999e+00 1.98199999e+00 1.98199999e+00 1.98599994e+00
    1.99100006e+00 1.99100006e+00 1.99100006e+00 1.99500000e+00
    1.99500000e+00 1.99500000e+00 1.99500000e+00 1.99500000e+00 2.
    1.99500000e+00 2. 2. 2. 2. 2.00500011e+00 2.00500011e+00
    1.92200005e+00 0. 0. 0. 0. 0. 0. 0. 0. 0. 0. 0. 0. 0. 0. 0.
    1.55200005e+00 1.97700000e+00 1.97700000e+00 1.97700000e+00
    1.98199999e+00 1.98199999e+00 1.98199999e+00 1.98599994e+00
    1.99300003e+00 1.99100006e+00 1.99100006e+00 1.99100006e+00
    1.99500000e+00 1.99500000e+00 1.99500000e+00 1.99600005e+00 2.
    1.99500000e+00 2. 2. 2. 2.00500011e+00 2.00500011e+00 2.00999999e+00
    1.72899997e+00 0. 0. 0. 0. 0. 0. 0. 0. 0. 0. 0. 0. 0. 0. 0. 0. 0. 0.
    0. 0. 0. 0. 0. 0. 0. 0. 0. 0. 0. 0. 0. 0. 0. 0. 0. 0. 0. 0. 0. 0. 0.
    0. 0. 0. 0. 0. 0. 0. 0. 0. 0. 0. 0. 0. 0. 0. 0. 0. 0. 0. 0. 0. 0. 0.
    0. 0. 0. 0. 0. 0. 0. 0. 0. 0. 0. 0. 0. 0. 0. 0. 0. 0. 0. 0. 0. 0. 0.</data></Depth>
</opencv_storage>
