<?xml version="1.0"?>
<opencv_storage>
<Depth type_id="opencv-matrix">
  <rows>40</rows>
  <cols>40</cols>
  <dt>f</dt>
  <data>
    2.96199989e+00 2.95600009e+00 2.95099998e+00 2.97300005e+00
    2.99499989e+00 2.98000002e+00 2.95099998e+00 2.95099998e+00
    2.95099998e+00 2.95099998e+00 2.95099998e+00 2.95099998e+00
    2.92899990e+00 2.91199994e+00 2.90799999e+00 2.90799999e+00
    2.91499996e+00 2.93400002e+00 2.95600009e+00 2.97399998e+00
    2.99499989e+00 2.99499989e+00 2.99499989e+00 2.99499989e+00
    2.99499989e+00 2.99499989e+00 2.99499989e+00 0. 0. 0. 0. 0. 0.
    2.93199992e+00 2.37899995e+00 2.36100006e+00 2.03399992e+00
    1.98699999e+00 1.97700000e+00 1.96399999e+00 2.95099998e+00
    2.95099998e+00 2.95099998e+00 2.97300005e+00 2.99499989e+00
    2.98000002e+00 2.95099998e+00 2.95099998e+00 2.95099998e+00
    2.95099998e+00 2.95099998e+00 2.95099998e+00 2.91700006e+00
    2.90799999e+00 2.90799999e+00 2.90799999e+00 2.90799999e+00
    2.92499995e+00 2.95099998e+00 2.95600009e+00 2.97399998e+00
    2.99499989e+00 2.99499989e+00 2.99499989e+00 2.99499989e+00
    2.99499989e+00 2.99499989e+00 0. 0. 0. 0. 0. 2.95900011e+00
    2.40400004e+00 2.04800010e+00 2.02500010e+00 2.00200009e+00
    1.97899997e+00 1.97500002e+00 1.95799994e+00 2.95700002e+00
    2.95099998e+00 2.95099998e+00 2.96199989e+00 2.97300005e+00
    2.96600008e+00 2.95099998e+00 2.95099998e+00 2.95099998e+00
    2.95099998e+00 2.95099998e+00 2.95099998e+00 2.91700006e+00
    2.90799999e+00 2.90799999e+00 2.90799999e+00 2.91799998e+00
    2.93799996e+00 2.95099998e+00 2.95099998e+00 2.95900011e+00
    2.99499989e+00 2.99499989e+00 2.99499989e+00 2.99499989e+00
    2.99499989e+00 2.99499989e+00 2.99499989e+00 2.99499989e+00 0. 0.
    2.95799994e+00 2.45300007e+00 2.03800011e+00 2.03699994e+00
    2.02500010e+00 2.00200009e+00 1.98899996e+00 1.97800004e+00
    1.95799994e+00 2.95799994e+00 2.95099998e+00 2.95099998e+00
    2.95099998e+00 2.95099998e+00 2.95099998e+00 2.95099998e+00
    2.95099998e+00 2.95099998e+00 2.95099998e+00 2.95099998e+00
    2.95099998e+00 2.91700006e+00 2.90799999e+00 2.91899991e+00
    2.92600012e+00 2.93799996e+00 2.95099998e+00 2.95099998e+00
    2.95099998e+00 2.95900011e+00 2.99499989e+00 2.99499989e+00
    2.99499989e+00 2.99499989e+00 2.99499989e+00 2.99499989e+00
    2.99499989e+00 2.99499989e+00 0. 2.89800000e+00 2.47199988e+00
    2.02500010e+00 2.02500010e+00 2.02500010e+00 2.02500010e+00
    2.00200009e+00 2. 1.98099995e+00 1.96500003e+00 2.95099998e+00
    2.95099998e+00 2.95099998e+00 2.95099998e+00 2.95099998e+00
    2.95099998e+00 2.95099998e+00 2.95099998e+00 2.94899988e+00
    2.93600011e+00 2.93600011e+00 2.93600011e+00 2.91400003e+00
    2.91799998e+00 2.94099998e+00 2.95099998e+00 2.95099998e+00
    2.95099998e+00 2.95099998e+00 2.95499992e+00 2.97099996e+00
    2.99499989e+00 2.99499989e+00 2.99499989e+00 2.99499989e+00
    2.99499989e+00 2.99499989e+00 2.99499989e+00 2.99499989e+00
    2.85700011e+00 2.44499993e+00 2.04200006e+00 2.02500010e+00
    2.02500010e+00 2.02399993e+00 2.01600003e+00 2.00099993e+00 2.
    1.98099995e+00 1.97500002e+00 2.95099998e+00 2.95099998e+00
    2.95099998e+00 2.95099998e+00 2.95099998e+00 2.95099998e+00
    2.94799995e+00 2.93799996e+00 2.92499995e+00 2.89700007e+00
    2.89700007e+00 2.90700006e+00 2.90799999e+00 2.93899989e+00
    2.95099998e+00 2.95700002e+00 2.96300006e+00 2.96300006e+00
    2.96300006e+00 2.97099996e+00 2.99499989e+00 2.99499989e+00
    2.99499989e+00 2.99499989e+00 2.99499989e+00 2.99499989e+00
    2.99499989e+00 2.83100009e+00 2.73499990e+00 2.40700006e+00
    2.04299998e+00 2.03800011e+00 2.02500010e+00 2.02399993e+00
    2.01699996e+00 2. 1.99399996e+00 1.99300003e+00 1.97899997e+00
    1.97099996e+00 2.95099998e+00 2.95099998e+00 2.95099998e+00
    2.95099998e+00 2.95099998e+00 2.95099998e+00 2.94000006e+00
    2.90000010e+00 2.86599994e+00 2.86599994e+00 2.86599994e+00
    2.90300012e+00 2.91400003e+00 2.94099998e+00 2.95600009e+00
    2.97900009e+00 2.99499989e+00 2.99499989e+00 2.99499989e+00
    2.99499989e+00 2.99499989e+00 2.99499989e+00 2.99499989e+00
    2.99499989e+00 2.99499989e+00 2.99499989e+00 2.86599994e+00
    2.30100012e+00 2. 2.01200008e+00 2.02500010e+00 2.02500010e+00
    2.02500010e+00 2.02099991e+00 2. 2. 1.97700000e+00 1.97500002e+00
    1.97500002e+00 1.95799994e+00 2.95099998e+00 2.95099998e+00
    2.95099998e+00 2.95099998e+00 2.95099998e+00 2.94899988e+00
    2.93600011e+00 2.90100002e+00 2.86999989e+00 2.86599994e+00
    2.86599994e+00 2.90300012e+00 2.94199991e+00 2.95099998e+00
    2.97900009e+00 2.99499989e+00 2.99499989e+00 2.99499989e+00
    2.99499989e+00 2.99499989e+00 2.99499989e+00 2.99499989e+00
    2.99499989e+00 2.99900007e+00 0. 2.91300011e+00 2.25999999e+00 2. 2.
    2.01099992e+00 2.02200007e+00 2.02200007e+00 2.02200007e+00
    2.01900005e+00 2. 2. 1.97899997e+00 1.97500002e+00 1.97500002e+00
    1.95799994e+00 2.95099998e+00 2.95000005e+00 2.95000005e+00
    2.95000005e+00 2.95000005e+00 2.93600011e+00 2.90799999e+00
    2.90799999e+00 2.90400004e+00 2.86700010e+00 2.86700010e+00
    2.90400004e+00 2.94199991e+00 2.95099998e+00 2.97900009e+00
    2.99499989e+00 2.99499989e+00 2.99499989e+00 2.99499989e+00
    2.99499989e+00 2.99499989e+00 2.99499989e+00 2.99600005e+00 0. 0.
    2.21700001e+00 2. 2. 2. 2. 2. 2. 2. 2. 2. 2. 2. 1.97899997e+00
    1.97500002e+00 1.95899999e+00 2.95099998e+00 2.92400002e+00
    2.91000009e+00 2.91000009e+00 2.91000009e+00 2.90899992e+00
    2.90799999e+00 2.90799999e+00 2.90799999e+00 2.90599990e+00
    2.90599990e+00 2.94300008e+00 2.95099998e+00 2.95099998e+00
    2.97900009e+00 2.99499989e+00 2.99499989e+00 2.99499989e+00
    2.99499989e+00 2.99499989e+00 2.99499989e+00 2.99499989e+00
    2.99600005e+00 0. 2.18700004e+00 2.01099992e+00 2. 2. 2. 2. 2. 2. 2.
    2. 2. 2. 2. 1.97899997e+00 1.97500002e+00 1.97399998e+00
    2.95099998e+00 2.92300010e+00 2.90799999e+00 2.90799999e+00
    2.90799999e+00 2.90799999e+00 2.90799999e+00 2.91499996e+00
    2.94600010e+00 2.94600010e+00 2.94600010e+00 2.95000005e+00
    2.95099998e+00 2.97900009e+00 2.99300003e+00 2.99499989e+00
    2.99499989e+00 2.99499989e+00 2.99499989e+00 2.99499989e+00
    2.99499989e+00 2.99499989e+00 2.98000002e+00 2.20400000e+00
    2.02099991e+00 2. 2. 2. 2. 2. 2. 2. 2. 2. 2. 2. 2. 1.99699998e+00
    1.99699998e+00 1.99699998e+00 2.95099998e+00 2.92300010e+00
    2.90799999e+00 2.90799999e+00 2.90799999e+00 2.90799999e+00
    2.90799999e+00 2.91599989e+00 2.95099998e+00 2.95099998e+00
    2.95099998e+00 2.95099998e+00 2.95099998e+00 2.98300004e+00
    2.99499989e+00 2.99499989e+00 2.99499989e+00 2.99499989e+00
    2.99499989e+00 2.99499989e+00 2.99499989e+00 2.92100000e+00
    2.21900010e+00 2.01799989e+00 2.00099993e+00 2. 2. 2. 2. 2. 2. 2. 2.
    2. 2. 2. 2. 2. 2. 2. 2.95099998e+00 2.94300008e+00 2.93899989e+00
    2.93899989e+00 2.93899989e+00 2.93899989e+00 2.93899989e+00
    2.94099998e+00 2.95099998e+00 2.95099998e+00 2.95099998e+00
    2.97900009e+00 2.98300004e+00 2.99099994e+00 2.99499989e+00
    2.99499989e+00 2.99499989e+00 2.99499989e+00 0. 0. 2.87700009e+00
    2.28900003e+00 2.02500010e+00 2.00099993e+00 2. 1.98599994e+00
    1.98199999e+00 1.98199999e+00 1.98199999e+00 1.98199999e+00
    1.98899996e+00 2. 2. 2. 2. 2. 2. 2. 2. 1.98699999e+00 2.95099998e+00
    2.95099998e+00 2.95099998e+00 2.95099998e+00 2.95099998e+00
    2.95099998e+00 2.95099998e+00 2.95099998e+00 2.95400000e+00
    2.97900009e+00 2.97900009e+00 2.99300003e+00 2.99499989e+00
    2.99499989e+00 2.99499989e+00 2.99499989e+00 2.99499989e+00
    2.99499989e+00 0. 2.84699988e+00 2.29900002e+00 2.01600003e+00
    1.99300003e+00 1.98500001e+00 1.98399997e+00 1.97700000e+00
    1.97500002e+00 1.97500002e+00 1.97500002e+00 1.97500002e+00
    1.98500001e+00 2. 2. 2. 2. 2. 2. 2. 1.97599995e+00 1.95200002e+00
    2.95099998e+00 2.95099998e+00 2.95099998e+00 2.95099998e+00
    2.95099998e+00 2.95099998e+00 2.95099998e+00 2.95600009e+00
    2.97799993e+00 2.99499989e+00 2.99499989e+00 2.99499989e+00
    2.99499989e+00 2.99499989e+00 2.99499989e+00 2.99499989e+00
    2.99499989e+00 2.77300000e+00 2.44000006e+00 2.31200004e+00
    1.98599994e+00 1.98399997e+00 1.96200001e+00 1.96200001e+00
    1.96200001e+00 1.96200001e+00 1.96200001e+00 1.97000003e+00
    1.97500002e+00 1.97500002e+00 1.98500001e+00 2. 2. 2. 2.00099993e+00
    2.01399994e+00 2.00099993e+00 2. 1.96200001e+00 1.93400002e+00
    2.95099998e+00 2.95099998e+00 2.95099998e+00 2.95099998e+00
    2.95099998e+00 2.95099998e+00 2.95099998e+00 2.95900011e+00
    2.99499989e+00 2.99499989e+00 2.99499989e+00 2.99499989e+00
    2.99499989e+00 2.99499989e+00 2.99499989e+00 2.73099995e+00
    2.52500010e+00 2.31699991e+00 2. 1.97500002e+00 1.97500002e+00
    1.97300005e+00 1.95099998e+00 1.95099998e+00 1.95099998e+00
    1.95099998e+00 1.95099998e+00 1.96599996e+00 1.98199999e+00
    1.98699999e+00 1.99199998e+00 2. 2. 2. 2.00099993e+00 2.01300001e+00
    2.00099993e+00 2. 1.96200001e+00 1.94200003e+00 2.95099998e+00
    2.95099998e+00 2.96099997e+00 2.96900010e+00 2.96099997e+00
    2.95099998e+00 2.95099998e+00 2.95900011e+00 2.99499989e+00
    2.99499989e+00 2.99499989e+00 0. 2.99900007e+00 2.99499989e+00
    2.73600006e+00 2.26699996e+00 2.01500010e+00 2.00900006e+00
    1.99500000e+00 1.98300004e+00 1.97500002e+00 1.97300005e+00
    1.95099998e+00 1.95099998e+00 1.95099998e+00 1.95099998e+00
    1.95799994e+00 1.97599995e+00 1.99300003e+00 2. 2.00399995e+00
    2.00999999e+00 2.00799990e+00 2. 2. 2. 2. 2.00900006e+00
    1.06299996e+00 0. 2.95099998e+00 2.96000004e+00 2.98200011e+00
    2.99499989e+00 2.97700000e+00 2.95099998e+00 2.95099998e+00
    2.95900011e+00 2.99499989e+00 2.99499989e+00 0. 0. 0. 0.
    2.36400008e+00 2. 2. 2. 2. 1.99399996e+00 1.97500002e+00
    1.97300005e+00 1.95899999e+00 1.95899999e+00 1.95899999e+00
    1.95899999e+00 1.97599995e+00 1.99399996e+00 2. 2. 2.00999999e+00
    2.02500010e+00 2.01900005e+00 2. 2.00099993e+00 2.00099993e+00
    1.11000001e+00 1.05700004e+00 0. 0. 2.95099998e+00 2.98000002e+00
    2.99499989e+00 2.99499989e+00 2.98099995e+00 2.96199989e+00
    2.96199989e+00 2.96799994e+00 2.99499989e+00 2.99600005e+00 0. 0. 0.
    2.85700011e+00 2.28699994e+00 2.00600004e+00 2.00300002e+00 2. 2.
    1.99500000e+00 1.98099995e+00 1.98099995e+00 1.98099995e+00
    1.98099995e+00 1.97599995e+00 1.97500002e+00 1.98800004e+00
    1.99399996e+00 1.99699998e+00 2. 2.00699997e+00 2.01900005e+00
    2.01399994e+00 1.88100004e+00 1.27100003e+00 1.26999998e+00 0. 0. 0.
    0. 2.95900011e+00 2.98200011e+00 2.99499989e+00 2.99900007e+00 0.
    2.99499989e+00 2.99499989e+00 2.99499989e+00 2.99600005e+00 0. 0. 0.
    2.90100002e+00 2.26200008e+00 2.02200007e+00 2.02099991e+00
    2.01099992e+00 2. 2. 2. 2. 2. 2. 2. 1.98199999e+00 1.97599995e+00
    1.97200000e+00 1.97099996e+00 1.98199999e+00 1.99300003e+00
    1.99600005e+00 1.99600005e+00 1.99699998e+00 1.52499998e+00 0. 0. 0.
    0. 0. 0. 2.99499989e+00 2.99499989e+00 2.99499989e+00 0. 0.
    2.99499989e+00 2.99499989e+00 2.99499989e+00 2.99000001e+00
    2.94499993e+00 2.94499993e+00 2.97900009e+00 2.22099996e+00
    2.02500010e+00 2.00900006e+00 2. 2. 2. 2. 2. 2. 2. 2. 1.99800003e+00
    1.99800003e+00 1.98000002e+00 1.95799994e+00 1.95099998e+00
    1.95099998e+00 1.96200001e+00 1.97399998e+00 1.97300005e+00
    1.91199994e+00 1.29200006e+00 0. 0. 0. 0. 0. 0. 2.99499989e+00
    2.99499989e+00 2.99499989e+00 0. 0. 2.99600005e+00 2.99600005e+00
    2.99300003e+00 2.87899995e+00 2.04999995e+00 2.04999995e+00
    2.02800012e+00 2.02500010e+00 2.02500010e+00 2.00900006e+00 2. 2. 2.
    2. 2. 2. 2. 2. 1.97599995e+00 1.97500002e+00 1.97500002e+00
    1.95799994e+00 1.95099998e+00 1.95099998e+00 1.96200001e+00
    1.96500003e+00 1.95099998e+00 1.26199996e+00 0. 0. 0. 0. 0. 0. 0.
    2.99499989e+00 2.99499989e+00 2.99499989e+00 0. 0. 0. 0.
    2.86599994e+00 2.09800005e+00 2.02600002e+00 2.02600002e+00
    2.02500010e+00 2.02500010e+00 2.02500010e+00 2.02399993e+00
    2.00999999e+00 2. 2. 2. 2. 2. 2. 2. 1.97599995e+00 1.97500002e+00
    1.97500002e+00 1.97399998e+00 1.95899999e+00 1.95099998e+00
    1.96200001e+00 1.96500003e+00 1.95099998e+00 1.26199996e+00 0. 0. 0.
    0. 0. 0. 0. 0. 0. 2.99499989e+00 0. 0. 0. 0. 2.85800004e+00
    2.04699993e+00 2.02500010e+00 2.02500010e+00 2.02500010e+00
    2.02500010e+00 2.02500010e+00 2.01099992e+00 2.00200009e+00 2. 2. 2.
    2. 2. 2. 2. 1.99699998e+00 1.99699998e+00 1.99699998e+00
    1.98099995e+00 1.96000004e+00 1.95099998e+00 0. 0. 0. 0. 0. 0. 0. 0.
    0. 0. 0. 0. 2.99799991e+00 2.99499989e+00 0. 0. 0. 2.82599998e+00
    2.18400002e+00 2.00999999e+00 2.00600004e+00 2.02399993e+00
    2.02500010e+00 2.02500010e+00 2.01099992e+00 2.00200009e+00 2. 2. 2.
    2. 2. 2. 1.99800003e+00 1.98000002e+00 1.98000002e+00 1.98000002e+00
    1.99600005e+00 1.99600005e+00 2.00399995e+00 0. 0. 0. 0. 0. 0. 0. 0.
    0. 0. 0. 0. 0. 2.99499989e+00 2.99499989e+00 0. 0. 2.81800008e+00
    2.23799992e+00 2. 2. 2. 2.00699997e+00 2.00699997e+00 2.00699997e+00
    2.00200009e+00 2. 2. 2. 2. 2. 2. 2. 1.99800003e+00 1.97500002e+00
    1.97500002e+00 1.97500002e+00 1.98099995e+00 1.98199999e+00
    2.00900006e+00 0. 0. 0. 0. 0. 0. 0. 0. 0. 0. 0. 0. 0. 0. 0. 0.
    2.79099989e+00 2.26900005e+00 2.00699997e+00 2. 2. 2. 2. 2. 2. 2. 2.
    2. 1.99199998e+00 1.98399997e+00 1.98899996e+00 1.99600005e+00
    1.98399997e+00 1.98199999e+00 1.96000004e+00 1.96000004e+00
    1.96000004e+00 1.94799995e+00 1.94500005e+00 0. 0. 0. 0. 0. 0. 0. 0.
    0. 0. 0. 0. 0. 0. 0. 2.72700000e+00 2.49699998e+00 2.29200006e+00 2.
    2. 2. 2. 2. 2. 2. 2. 2.00999999e+00 2.00500011e+00 2. 1.98800004e+00
    1.97500002e+00 1.98300004e+00 1.99399996e+00 1.97500002e+00
    1.97300005e+00 1.95099998e+00 1.95099998e+00 1.95099998e+00
    1.93200004e+00 1.92700005e+00 0. 0. 0. 0. 0. 0. 0. 0. 0. 0. 0. 0. 0.
    0. 2.73499990e+00 2.26600003e+00 2.03200006e+00 2.01500010e+00 2. 2.
    2. 2. 2. 2. 2. 2. 2.01799989e+00 2.00900006e+00 2. 1.99399996e+00
    1.98699999e+00 1.99100006e+00 1.99699998e+00 1.98699999e+00
    1.98500001e+00 1.96200001e+00 1.96200001e+00 1.95299995e+00
    1.94099998e+00 0. 0. 0. 0. 0. 0. 0. 0. 0. 0. 0. 0. 0. 0.
    2.63800001e+00 2.24900007e+00 2.03099990e+00 2.02500010e+00
    2.01500010e+00 2. 2. 2. 2. 2. 2. 2. 2. 2.01799989e+00 2.01500010e+00
    2.00999999e+00 2.00500011e+00 2. 2. 2. 2. 1.99800003e+00
    1.97500002e+00 1.97500002e+00 1.95400000e+00 1.95099998e+00 0. 0. 0.
    0. 0. 0. 0. 0. 0. 0. 0. 0. 0. 0. 2.02500010e+00 2.02500010e+00
    2.02500010e+00 2.02500010e+00 2.01500010e+00 2. 2. 2. 2. 2. 2. 2. 2.
    2.01200008e+00 2.01699996e+00 2.02200007e+00 2.01300001e+00 2.
    2.00300002e+00 2.00799990e+00 2.00799990e+00 1.91700006e+00
    1.05599999e+00 1.05599999e+00 1.04200006e+00 1.03999996e+00 0. 0. 0.
    0. 0. 0. 0. 0. 0. 0. 0. 0. 0. 0. 2.02500010e+00 2.02500010e+00
    2.02500010e+00 2.02500010e+00 2.01500010e+00 2. 2. 2. 2. 2. 2. 2. 2.
    2. 1.99600005e+00 2.00500011e+00 2.00399995e+00 1.99399996e+00
    2.00200009e+00 2.01999998e+00 1.90199995e+00 1.10399997e+00 0. 0. 0.
    0. 0. 0. 0. 0. 0. 0. 0. 0. 0. 0. 0. 0. 0. 0. 2.02600002e+00
    2.02500010e+00 2.02500010e+00 2.02500010e+00 2.01600003e+00
    2.00300002e+00 2. 2. 2. 2. 2. 2. 1.99699998e+00 1.99600005e+00
    1.98000002e+00 1.97099996e+00 1.97099996e+00 1.97099996e+00
    1.98099995e+00 1.88600004e+00 1.12000000e+00 0. 0. 0. 0. 0. 0. 0. 0.
    0. 0. 0. 0. 0. 0. 0. 0. 0. 0. 0. 2.03099990e+00 2.02500010e+00
    2.02500010e+00 2.02500010e+00 2.02500010e+00 2.01699996e+00 2. 2. 2.
    2. 2. 1.99800003e+00 1.98000002e+00 1.97500002e+00 1.96000004e+00
    1.95000005e+00 1.94900000e+00 1.95000005e+00 1.88499999e+00
    1.08299994e+00 0. 0. 0. 0. 0. 0. 0. 0. 0. 0. 0. 0. 0. 0. 0. 0. 0. 0.
    0. 0. 2.02500010e+00 2.02500010e+00 2.02500010e+00 2.02500010e+00
    2.02500010e+00 2.01600003e+00 2. 2. 2. 2. 2. 1.97800004e+00
    1.97500002e+00 1.97500002e+00 1.96000004e+00 1.93799996e+00
    1.92700005e+00 1.92799997e+00 0. 0. 0. 0. 0. 0. 0. 0. 0. 0. 0. 0. 0.
    0. 0. 0. 0. 0. 0. 0. 0. 0. 2.02500010e+00 2.02500010e+00
    2.02500010e+00 2.01300001e+00 2.00200009e+00 2.00099993e+00 2. 2. 2.
    2. 2. 1.97800004e+00 1.97500002e+00 1.95899999e+00 1.95200002e+00
    1.93799996e+00 1.92700005e+00 0. 0. 0. 0. 0. 0. 0. 0. 0. 0. 0. 0. 0.
    0. 0. 0. 0. 0. 0. 0. 0. 0. 0. 2.02500010e+00 2.02500010e+00
    2.01300001e+00 2.00200009e+00 1.99100006e+00 1.97899997e+00
    1.98399997e+00 2. 2. 1.99899995e+00 1.98000002e+00 1.97500002e+00
    1.97500002e+00 1.95799994e+00 1.95099998e+00 1.94900000e+00 0. 0. 0.
    0. 0. 0. 0. 0. 0. 0. 0. 0. 0. 0. 0. 0. 0. 0. 0. 0. 0. 0. 0. 0.
    2.02500010e+00 2.02500010e+00 2.01099992e+00 2. 1.99000001e+00
    1.97500002e+00 1.98199999e+00 2. 2. 1.99899995e+00 1.97599995e+00
    1.97500002e+00 1.97500002e+00 0. 0. 0. 0. 0. 0. 0. 0. 0. 0. 0. 0. 0.
    0. 0. 0. 0. 0. 0. 0. 0. 0. 0. 0. 0. 0. 0. 2.02500010e+00
    2.02500010e+00 2.01099992e+00 2. 1.99699998e+00 1.99199998e+00
    1.99399996e+00 2. 2. 2. 1.99300003e+00 0. 0. 0. 0. 0. 0. 0. 0. 0. 0.
    0. 0. 0. 0. 0. 0. 0. 0. 0. 0. 0. 0. 0. 0. 0. 0. 0. 0. 0.
    2.02500010e+00 2.02500010e+00 2.01099992e+00 2. 2. 2. 2. 2. 2. 2.
    2.01500010e+00 0. 0. 0. 0. 0. 0. 0. 0. 0. 0. 0. 0. 0. 0. 0. 0. 0. 0.
    0. 0. 0. 0. 0. 0. 0. 0. 0. 0. 0.</data></Depth>
</opencv_storage>
