<?xml version="1.0"?>
<opencv_storage>
<Depth type_id="opencv-matrix">
  <rows>40</rows>
  <cols>40</cols>
  <dt>f</dt>
  <data>
    0. 0. 0. 0. 0. 0. 0. 0. 0. 0. 0. 0. 0. 0. 0. 0. 0. 0. 0. 0. 0. 0. 0.
    0. 0. 0. 0. 0. 0. 0. 0. 0. 0. 0. 0. 0. 0. 0. 0. 0. 0. 0. 0. 0. 0. 0.
    0. 0. 0. 2.05800009e+00 2.03099990e+00 1.98300004e+00 1.98300004e+00
    1.98500001e+00 0. 2.39400005e+00 2.13000011e+00 0. 0. 0. 0. 0. 0. 0.
    0. 0. 0. 0. 0. 0. 0. 0. 0. 0. 0. 0. 0. 0. 0. 0. 0. 0. 0. 0. 0. 0. 0.
    0. 1.05999994e+00 1.97000003e+00 1.96800005e+00 1.97500002e+00
    1.97800004e+00 1.98300004e+00 1.98300004e+00 1.98500001e+00
    1.98800004e+00 1.99100006e+00 1.99000001e+00 2.05200005e+00
    2.35700011e+00 2. 2.00399995e+00 2.39800000e+00 2.01200008e+00
    2.01399994e+00 2.00799990e+00 2.00600004e+00 2.40700006e+00
    2.41100001e+00 2.02699995e+00 2.03299999e+00 0. 0. 0. 0. 0. 0. 0. 0.
    0. 0. 0. 0. 0. 0. 0. 2.40599990e+00 1.05999994e+00 1.97099996e+00
    1.96800005e+00 1.97099996e+00 1.97500002e+00 1.97800004e+00
    1.98300004e+00 1.98300004e+00 1.98300004e+00 1.98500001e+00
    1.98500001e+00 1.98800004e+00 1.99300003e+00 1.99300003e+00
    1.99500000e+00 1.99500000e+00 1.99699998e+00 2.00200009e+00
    2.00399995e+00 2.00399995e+00 2.00900006e+00 2.01399994e+00
    2.01799989e+00 2.01799989e+00 2.01600003e+00 0. 0. 0. 0. 0. 0. 0. 0.
    0. 0. 0. 0. 0. 0. 1.21000004e+00 1.05999994e+00 1.97099996e+00
    1.97000003e+00 1.97399998e+00 1.97500002e+00 1.98000002e+00
    1.98300004e+00 1.98300004e+00 1.98500001e+00 1.98500001e+00
    1.98800004e+00 1.99000001e+00 1.99300003e+00 1.99300003e+00
    1.99399996e+00 1.99500000e+00 1.99699998e+00 2.00300002e+00
    2.00300002e+00 2.00300002e+00 2.00799990e+00 2.00900006e+00
    2.01300001e+00 2.01500010e+00 2.01600003e+00 0. 0. 0. 0. 0. 0. 0. 0.
    0. 0. 0. 0. 0. 0. 1.21099997e+00 1.05999994e+00 1.97399998e+00
    1.97000003e+00 1.97500002e+00 1.97800004e+00 1.98000002e+00
    1.98300004e+00 1.98300004e+00 1.98500001e+00 1.98699999e+00
    1.98899996e+00 1.99000001e+00 1.99300003e+00 1.99399996e+00
    1.99399996e+00 1.99500000e+00 1.99899995e+00 2.00300002e+00
    2.00300002e+00 2.00300002e+00 2.00799990e+00 2.01099992e+00
    2.01300001e+00 2.01600003e+00 2.01600003e+00 0. 0. 0. 0. 0. 0. 0. 0.
    0. 0. 0. 0. 0. 0. 1.21099997e+00 1.05999994e+00 1.97300005e+00
    1.97099996e+00 1.97399998e+00 1.97800004e+00 1.98300004e+00
    1.98300004e+00 1.98500001e+00 1.98500001e+00 1.99000001e+00
    1.99000001e+00 1.99100006e+00 1.99300003e+00 1.99500000e+00
    1.99500000e+00 1.99500000e+00 2.00099993e+00 2.00300002e+00
    2.00300002e+00 2.00399995e+00 2.00799990e+00 2.00999999e+00
    2.01399994e+00 2.01600003e+00 2.01600003e+00 0. 0. 0. 0. 0. 0. 0. 0.
    0. 0. 0. 0. 0. 0. 1.21099997e+00 1.05999994e+00 1.97099996e+00
    1.97099996e+00 1.97399998e+00 1.97599995e+00 1.98300004e+00
    1.98300004e+00 1.98500001e+00 1.98899996e+00 1.99000001e+00
    1.99300003e+00 1.99300003e+00 1.99300003e+00 1.99500000e+00
    1.99500000e+00 1.99699998e+00 2.00300002e+00 2.00300002e+00
    2.00300002e+00 2.00600004e+00 2.00799990e+00 2.01099992e+00
    2.01399994e+00 2.01600003e+00 2.01600003e+00 0. 0. 0. 0. 0. 0. 0. 0.
    0. 0. 0. 0. 0. 0. 1.05999994e+00 1.05999994e+00 1.97000003e+00
    1.97099996e+00 1.97500002e+00 1.97800004e+00 1.98300004e+00
    1.98300004e+00 1.98500001e+00 1.99000001e+00 1.98800004e+00
    1.99300003e+00 1.99300003e+00 1.99500000e+00 1.99500000e+00
    1.99699998e+00 1.99899995e+00 2.00300002e+00 2.00399995e+00
    2.00600004e+00 2.00600004e+00 2.00999999e+00 2.01099992e+00
    2.01399994e+00 2.01600003e+00 2.01600003e+00 0. 0. 0. 0. 0. 0. 0. 0.
    0. 0. 0. 0. 0. 0. 1.21000004e+00 1.97899997e+00 1.97300005e+00
    1.97300005e+00 1.97300005e+00 1.97500002e+00 1.98099995e+00
    1.98300004e+00 1.98500001e+00 1.98800004e+00 1.99000001e+00
    1.99300003e+00 1.99300003e+00 1.99500000e+00 1.99500000e+00
    1.99800003e+00 2.00200009e+00 2.00300002e+00 2.00399995e+00
    2.00600004e+00 2.00600004e+00 2.00999999e+00 2.01500010e+00
    2.01600003e+00 2.01600003e+00 2.01600003e+00 0. 0. 0. 0. 0. 0. 0. 0.
    0. 0. 0. 0. 0. 0. 1.15100002e+00 1.68900001e+00 1.97300005e+00
    1.97399998e+00 1.97500002e+00 1.97500002e+00 1.98000002e+00
    1.98500001e+00 1.98800004e+00 1.98500001e+00 1.98899996e+00
    1.99300003e+00 1.99500000e+00 1.99500000e+00 1.99800003e+00 2.
    2.00200009e+00 2.00300002e+00 2.00399995e+00 2.00600004e+00
    2.00600004e+00 2.01200008e+00 2.01500010e+00 2.01600003e+00
    2.01600003e+00 2.01600003e+00 0. 0. 0. 0. 0. 0. 0. 0. 0. 0. 0. 0. 0.
    0. 1.05999994e+00 1.88199997e+00 1.97300005e+00 1.97599995e+00
    1.97800004e+00 1.97899997e+00 1.98300004e+00 1.98500001e+00
    1.98599994e+00 1.98699999e+00 1.98899996e+00 1.99399996e+00
    1.99500000e+00 1.99600005e+00 2. 1.99800003e+00 2.00200009e+00
    2.00500011e+00 2.00600004e+00 2.00600004e+00 2.00699997e+00
    2.01399994e+00 2.01600003e+00 2.01799989e+00 2.01900005e+00
    1.77199996e+00 0. 0. 0. 0. 0. 0. 0. 0. 0. 0. 0. 0. 0. 0.
    1.05999994e+00 1.83500004e+00 1.97300005e+00 1.97399998e+00
    1.97599995e+00 1.98000002e+00 1.98300004e+00 1.98500001e+00
    1.98500001e+00 1.99000001e+00 1.99100006e+00 1.99399996e+00
    1.99500000e+00 1.99800003e+00 2. 2. 2.00500011e+00 2.00600004e+00
    2.00600004e+00 2.00799990e+00 2.01099992e+00 2.01399994e+00
    2.01600003e+00 2.01900005e+00 2.01999998e+00 1.94599998e+00 0. 0. 0.
    0. 0. 0. 0. 0. 0. 0. 0. 0. 0. 0. 1.05999994e+00 1.80499995e+00
    1.97300005e+00 1.97599995e+00 1.97899997e+00 1.98000002e+00
    1.98500001e+00 1.98500001e+00 1.98800004e+00 1.99000001e+00
    1.99199998e+00 1.99500000e+00 1.99600005e+00 1.99800003e+00
    1.99800003e+00 2. 2.00500011e+00 2.00600004e+00 2.00699997e+00
    2.00799990e+00 2.00799990e+00 2.01500010e+00 2.01600003e+00
    2.01799989e+00 2.02099991e+00 1.65699995e+00 0. 0. 0. 0. 0. 0. 0. 0.
    0. 0. 0. 0. 0. 0. 1.05999994e+00 1.97399998e+00 1.97399998e+00
    1.97800004e+00 1.98000002e+00 1.98000002e+00 1.98500001e+00
    1.98500001e+00 1.99000001e+00 1.99000001e+00 1.99399996e+00
    1.99500000e+00 1.99800003e+00 1.99800003e+00 2. 2.00300002e+00
    2.00600004e+00 2.00600004e+00 2.00799990e+00 2.00799990e+00
    2.01099992e+00 2.01500010e+00 2.01799989e+00 2.01900005e+00
    2.02099991e+00 1.07299995e+00 0. 0. 0. 0. 0. 0. 0. 0. 0. 0. 0. 0. 0.
    0. 1.05999994e+00 1.97500002e+00 1.97500002e+00 1.97800004e+00
    1.98000002e+00 1.98000002e+00 1.98500001e+00 1.98500001e+00
    1.98800004e+00 1.99300003e+00 1.99300003e+00 1.99500000e+00
    1.99800003e+00 2. 2.00300002e+00 2.00300002e+00 2.00500011e+00
    2.00799990e+00 2.00799990e+00 2.01099992e+00 2.01099992e+00
    2.01600003e+00 2.01600003e+00 2.01900005e+00 2.02200007e+00
    1.05999994e+00 0. 0. 0. 0. 0. 0. 0. 0. 0. 0. 0. 0. 0. 0.
    1.05999994e+00 1.97300005e+00 1.97500002e+00 1.97899997e+00
    1.97899997e+00 1.98000002e+00 1.98500001e+00 1.98800004e+00
    1.99199998e+00 1.99300003e+00 1.99300003e+00 1.99500000e+00
    1.99500000e+00 2. 2.00300002e+00 2.00300002e+00 2.00699997e+00
    2.00900006e+00 2.00900006e+00 2.01300001e+00 2.01399994e+00
    2.01600003e+00 2.01900005e+00 2.01999998e+00 2.02200007e+00
    1.05999994e+00 0. 0. 0. 0. 0. 0. 0. 0. 0. 0. 0. 0. 0. 0.
    1.05999994e+00 1.97500002e+00 1.97500002e+00 1.97800004e+00
    1.98000002e+00 1.98000002e+00 1.98500001e+00 1.98800004e+00
    1.99000001e+00 1.99300003e+00 1.99500000e+00 1.99500000e+00
    1.99800003e+00 2.00300002e+00 2.00300002e+00 2.00300002e+00
    2.00699997e+00 2.00799990e+00 2.00999999e+00 2.01399994e+00
    2.01399994e+00 2.01699996e+00 2.02099991e+00 2.02300000e+00
    2.02300000e+00 1.77600002e+00 0. 0. 0. 0. 0. 0. 0. 0. 0. 0. 0. 0. 0.
    0. 1.05999994e+00 1.97599995e+00 1.97399998e+00 1.97800004e+00
    1.98000002e+00 1.98000002e+00 1.98500001e+00 1.98599994e+00
    1.99000001e+00 1.99300003e+00 1.99500000e+00 1.99899995e+00
    2.00200009e+00 2.00200009e+00 2.00300002e+00 2.00600004e+00
    2.00900006e+00 2.00799990e+00 2.01099992e+00 2.01399994e+00
    2.01399994e+00 2.01900005e+00 2.01900005e+00 2.01999998e+00
    2.02200007e+00 1.37100005e+00 0. 0. 0. 0. 0. 0. 0. 0. 0. 0. 0. 0. 0.
    0. 1.05999994e+00 1.98000002e+00 1.97500002e+00 1.97899997e+00
    1.98000002e+00 1.98199999e+00 1.98500001e+00 1.98800004e+00
    1.99199998e+00 1.99300003e+00 1.99500000e+00 1.99899995e+00
    1.99899995e+00 2.00300002e+00 2.00300002e+00 2.00600004e+00
    2.00799990e+00 2.00900006e+00 2.01200008e+00 2.01399994e+00
    2.01500010e+00 2.01900005e+00 2.01900005e+00 2.02300000e+00
    1.91400003e+00 1.05999994e+00 0. 0. 0. 0. 0. 0. 0. 0. 0. 0. 0. 0. 0.
    0. 1.05999994e+00 1.97599995e+00 1.97500002e+00 1.97899997e+00
    1.98000002e+00 1.98300004e+00 1.98599994e+00 1.98800004e+00
    1.99000001e+00 1.99399996e+00 1.99500000e+00 1.99800003e+00 2.
    2.00300002e+00 2.00300002e+00 2.00600004e+00 2.00799990e+00
    2.00900006e+00 2.01399994e+00 2.01399994e+00 2.01600003e+00
    2.01900005e+00 2.02200007e+00 2.02399993e+00 2.02399993e+00
    1.67700005e+00 0. 0. 0. 0. 0. 0. 0. 0. 0. 0. 0. 0. 0. 0.
    1.91199994e+00 1.97599995e+00 1.97700000e+00 1.98000002e+00
    1.98099995e+00 1.98300004e+00 1.98800004e+00 1.99000001e+00
    1.99300003e+00 1.99300003e+00 1.99800003e+00 1.99800003e+00 2.
    2.00300002e+00 2.00600004e+00 2.00600004e+00 2.00799990e+00
    2.01099992e+00 2.01200008e+00 2.01399994e+00 2.01600003e+00
    2.01900005e+00 2.02200007e+00 2.02399993e+00 2.02399993e+00 0. 0. 0.
    0. 0. 0. 0. 0. 0. 0. 0. 0. 0. 0. 0. 1.05999994e+00 1.97800004e+00
    1.98000002e+00 1.98000002e+00 1.98099995e+00 1.98300004e+00
    1.98500001e+00 1.99000001e+00 1.99300003e+00 1.99300003e+00
    1.99800003e+00 2. 2.00300002e+00 2.00300002e+00 2.00600004e+00
    2.00600004e+00 2.00799990e+00 2.01099992e+00 2.01399994e+00
    2.01399994e+00 2.01600003e+00 2.01900005e+00 2.02200007e+00
    2.02399993e+00 1.63499999e+00 0. 0. 0. 0. 0. 0. 0. 0. 0. 0. 0. 0. 0.
    0. 0. 1.65400004e+00 1.98000002e+00 1.98000002e+00 1.98000002e+00
    1.98199999e+00 1.98300004e+00 1.99000001e+00 1.99199998e+00
    1.99399996e+00 1.99500000e+00 1.99500000e+00 1.99800003e+00
    2.00200009e+00 2.00300002e+00 2.00300002e+00 2.00699997e+00
    2.01099992e+00 2.00999999e+00 2.01099992e+00 2.01399994e+00
    2.01600003e+00 2.01900005e+00 2.02300000e+00 2.02500010e+00
    1.63499999e+00 1.78100002e+00 0. 0. 0. 0. 0. 0. 0. 0. 0. 0. 0. 0. 0.
    0. 1.95400000e+00 1.97800004e+00 1.98000002e+00 1.98000002e+00
    1.98300004e+00 1.98300004e+00 1.98800004e+00 1.99300003e+00
    1.99300003e+00 1.99600005e+00 1.99899995e+00 1.99899995e+00
    2.00300002e+00 2.00399995e+00 2.00600004e+00 2.00799990e+00
    2.01099992e+00 2.01300001e+00 2.01399994e+00 2.01399994e+00
    2.01600003e+00 2.02200007e+00 2.02500010e+00 2.02600002e+00
    1.63600004e+00 1.05999994e+00 0. 0. 0. 0. 0. 0. 0. 0. 0. 0. 0. 0. 0.
    0. 1.99300003e+00 1.98000002e+00 1.98000002e+00 1.98000002e+00
    1.98300004e+00 1.98399997e+00 1.99000001e+00 1.99300003e+00
    1.99300003e+00 1.99500000e+00 1.99699998e+00 2.00300002e+00
    2.00300002e+00 2.00600004e+00 2.00600004e+00 2.01099992e+00
    2.01200008e+00 2.01399994e+00 2.01399994e+00 2.01399994e+00
    2.01799989e+00 2.02300000e+00 2.02399993e+00 2.02699995e+00
    1.05999994e+00 2.62100005e+00 0. 0. 0. 0. 0. 0. 0. 0. 0. 0. 0. 0. 0.
    0. 1.98899996e+00 1.98000002e+00 1.98099995e+00 1.98099995e+00
    1.98399997e+00 1.98699999e+00 1.99000001e+00 1.99300003e+00
    1.99399996e+00 1.99600005e+00 1.99899995e+00 2.00099993e+00
    2.00300002e+00 2.00600004e+00 2.00600004e+00 2.00799990e+00
    2.01300001e+00 2.01399994e+00 2.01500010e+00 2.01600003e+00
    2.02099991e+00 2.02500010e+00 2.02600002e+00 2.02699995e+00
    1.48899996e+00 1.78100002e+00 0. 0. 0. 0. 0. 0. 0. 0. 0. 0. 0. 0. 0.
    0. 1.98300004e+00 1.98000002e+00 1.98000002e+00 1.98300004e+00
    1.98300004e+00 1.98800004e+00 1.99300003e+00 1.99500000e+00
    1.99500000e+00 1.99500000e+00 2. 2.00300002e+00 2.00300002e+00
    2.00600004e+00 2.00600004e+00 2.01099992e+00 2.01399994e+00
    2.01399994e+00 2.01600003e+00 2.01600003e+00 2.01900005e+00
    2.02699995e+00 2.02900004e+00 2.02999997e+00 1.05999994e+00 0. 0. 0.
    0. 0. 0. 0. 0. 0. 0. 0. 0. 0. 0. 0. 1.98300004e+00 1.98199999e+00
    1.98300004e+00 1.98300004e+00 1.98300004e+00 1.98800004e+00
    1.99300003e+00 1.99300003e+00 1.99500000e+00 1.99800003e+00
    2.00099993e+00 2.00300002e+00 2.00600004e+00 2.00600004e+00
    2.00799990e+00 2.01300001e+00 2.01399994e+00 2.01399994e+00
    2.01600003e+00 2.01600003e+00 2.01900005e+00 2.02699995e+00
    2.02999997e+00 2.02999997e+00 1.05999994e+00 0. 0. 0. 0. 0. 0. 0. 0.
    0. 0. 0. 0. 0. 0. 0. 1.98300004e+00 1.98199999e+00 1.98399997e+00
    1.98500001e+00 1.98599994e+00 1.98800004e+00 1.99300003e+00
    1.99500000e+00 1.99500000e+00 1.99899995e+00 2.00300002e+00
    2.00500011e+00 2.00600004e+00 2.00600004e+00 2.00799990e+00
    2.01300001e+00 2.01399994e+00 2.01600003e+00 2.01600003e+00
    2.01600003e+00 2.02399993e+00 2.02699995e+00 2.02999997e+00
    2.02999997e+00 1.05999994e+00 0. 0. 0. 0. 0. 0. 0. 0. 0. 0. 0. 0. 0.
    0. 0. 1.98000002e+00 1.98000002e+00 1.98399997e+00 1.98599994e+00
    1.98800004e+00 1.99000001e+00 1.99399996e+00 1.99500000e+00
    1.99500000e+00 1.99800003e+00 2.00200009e+00 2.00399995e+00
    2.00600004e+00 2.00699997e+00 2.00799990e+00 2.01300001e+00
    2.01399994e+00 2.01600003e+00 2.01600003e+00 2.02099991e+00
    2.02200007e+00 2.02699995e+00 2.03099990e+00 2.02999997e+00
    1.05999994e+00 0. 0. 0. 0. 0. 0. 0. 0. 0. 0. 0. 0. 0. 0. 0.
    1.98300004e+00 1.98300004e+00 1.98399997e+00 1.98699999e+00
    1.99000001e+00 1.99100006e+00 1.99300003e+00 1.99600005e+00
    1.99699998e+00 2.00099993e+00 2.00300002e+00 2.00500011e+00
    2.00600004e+00 2.00600004e+00 2.01200008e+00 2.01600003e+00
    2.01600003e+00 2.01600003e+00 2.01900005e+00 2.02300000e+00
    2.02300000e+00 2.02900004e+00 2.02999997e+00 2.03299999e+00
    1.05999994e+00 0. 0. 0. 0. 0. 0. 0. 0. 0. 0. 0. 0. 0. 0. 0.
    1.98300004e+00 1.98300004e+00 1.98599994e+00 1.98800004e+00
    1.99000001e+00 1.99100006e+00 1.99500000e+00 1.99699998e+00
    1.99800003e+00 1.99899995e+00 2.00399995e+00 2.00600004e+00
    2.00600004e+00 2.00600004e+00 2.01099992e+00 2.01399994e+00
    2.01699996e+00 2.01999998e+00 2.02300000e+00 2.02399993e+00
    2.02600002e+00 2.02999997e+00 2.03200006e+00 2.03600001e+00
    1.05999994e+00 0. 0. 0. 0. 0. 0. 0. 0. 0. 0. 0. 0. 0. 0. 0.
    1.98300004e+00 1.98300004e+00 1.98300004e+00 1.98800004e+00
    1.99000001e+00 1.99100006e+00 1.99500000e+00 1.99800003e+00 2. 2.
    2.00399995e+00 2.00300002e+00 2.00600004e+00 2.00900006e+00
    2.01399994e+00 2.01500010e+00 2.01600003e+00 2.01799989e+00
    2.02300000e+00 2.02399993e+00 2.02399993e+00 2.02999997e+00
    2.02999997e+00 2.03200006e+00 1.05999994e+00 0. 0. 0. 0. 0. 0. 0. 0.
    0. 0. 0. 0. 0. 0. 0. 1.98300004e+00 1.98500001e+00 1.98500001e+00
    1.98800004e+00 1.99000001e+00 1.99000001e+00 1.99500000e+00 2. 2. 2.
    2.00600004e+00 2.00600004e+00 2.00799990e+00 2.00799990e+00
    2.01399994e+00 2.01600003e+00 2.01600003e+00 2.01600003e+00
    2.01999998e+00 2.02399993e+00 2.02399993e+00 2.03299999e+00
    2.03299999e+00 1.98599994e+00 0. 0. 0. 0. 0. 0. 0. 0. 0. 0. 0. 0. 0.
    0. 0. 0. 1.98500001e+00 1.98500001e+00 1.98800004e+00 1.98800004e+00
    1.99000001e+00 1.99100006e+00 1.99800003e+00 1.99800003e+00 2.
    2.00500011e+00 2.00600004e+00 2.00699997e+00 2.00799990e+00
    2.01399994e+00 2.01600003e+00 2.01600003e+00 2.01600003e+00
    2.01900005e+00 2.02399993e+00 2.02399993e+00 2.02699995e+00
    2.02999997e+00 2.03299999e+00 2.03299999e+00 0. 0. 0. 0. 0. 0. 0. 0.
    0. 0. 0. 0. 0. 0. 0. 0. 1.98399997e+00 1.98300004e+00 1.98800004e+00
    1.98899996e+00 1.99100006e+00 1.99300003e+00 1.99500000e+00
    1.99800003e+00 2.00300002e+00 2.00300002e+00 2.00600004e+00
    2.00699997e+00 2.00799990e+00 2.01200008e+00 2.01600003e+00
    2.01399994e+00 2.01799989e+00 2.02300000e+00 2.02399993e+00
    2.02399993e+00 2.02699995e+00 2.02999997e+00 2.03299999e+00
    2.73799992e+00 0. 0. 0. 0. 0. 0. 0. 0. 0. 0. 0. 0. 0. 0. 0. 0.
    2.61599994e+00 2.64000010e+00 1.84399998e+00 1.39400005e+00
    1.28100002e+00 1.53199995e+00 0. 0. 0. 0. 2.09299994e+00
    2.11500001e+00 0. 0. 0. 1.40300000e+00 0. 0. 0. 0. 0. 0. 0. 0. 0. 0.
    0. 0. 0. 0. 0. 0. 0. 0. 0. 0. 0. 0. 0. 0. 2.99099994e+00
    2.98699999e+00 2.97499990e+00 1.05999994e+00 1.05999994e+00
    1.05999994e+00 0. 2.29800010e+00 1.05999994e+00 2.10500002e+00
    2.11100006e+00 2.11199999e+00 2.11100006e+00 2.34400010e+00
    2.36299992e+00 1.05999994e+00 1.05999994e+00 0. 0. 0. 0. 0. 0. 0. 0.
    0. 0. 0. 0. 0. 0. 0. 0. 0. 0. 0. 0. 0. 0. 0. 0. 0. 0. 0. 0. 0. 0. 0.
    0. 0. 0. 0. 0. 0. 0. 0. 0. 0. 0. 0. 0. 0. 0. 0. 0. 0. 0. 0. 0. 0. 0.
    0. 0.</data></Depth>
</opencv_storage>
