<?xml version="1.0"?>
<opencv_storage>
<Depth type_id="opencv-matrix">
  <rows>40</rows>
  <cols>40</cols>
  <dt>f</dt>
  <data>
    0. 0. 0. 0. 0. 0. 0. 0. 0. 0. 0. 0. 0. 0. 0. 0. 0. 0. 0. 0.
    2.00399995e+00 1.99199998e+00 1.98699999e+00 1.98500001e+00
    1.98099995e+00 1.98099995e+00 0. 0. 0. 0. 0. 0. 0. 0. 0. 0. 0. 0. 0.
    0. 0. 0. 0. 0. 0. 0. 0. 0. 0. 0. 0. 0. 0. 0. 0. 0. 0. 0.
    2.26200008e+00 1.99000001e+00 1.99300003e+00 1.99300003e+00
    1.98800004e+00 1.98399997e+00 1.97599995e+00 1.97800004e+00
    2.64499998e+00 0. 0. 0. 0. 0. 0. 0. 0. 0. 0. 0. 0. 0. 0. 0. 0. 0. 0.
    0. 0. 0. 0. 0. 0. 0. 0. 0. 1.99500000e+00 1.99699998e+00
    1.99899995e+00 1.99600005e+00 1.99500000e+00 1.99000001e+00
    1.99000001e+00 1.99500000e+00 1.99000001e+00 1.98500001e+00
    1.98599994e+00 1.98899996e+00 1.99000001e+00 2.54999995e+00 0. 0. 0.
    0. 0. 0. 0. 0. 0. 0. 0. 0. 0. 0. 0. 0. 0. 0. 0. 0. 0. 2.81699991e+00
    2.73699999e+00 2.00900006e+00 2.01399994e+00 2.00900006e+00
    2.00300002e+00 2. 2. 1.99500000e+00 1.99500000e+00 1.99000001e+00
    1.99000001e+00 1.99500000e+00 1.99300003e+00 1.98899996e+00
    1.98500001e+00 1.98099995e+00 1.97599995e+00 1.97599995e+00 0. 0. 0.
    0. 0. 0. 0. 0. 0. 0. 0. 0. 0. 0. 0. 0. 0. 0. 0. 2.42700005e+00
    2.42700005e+00 2.00900006e+00 2.01300001e+00 2.00900006e+00
    2.00900006e+00 2.00900006e+00 2.00699997e+00 2.00200009e+00
    1.99500000e+00 1.99500000e+00 1.99500000e+00 1.99500000e+00
    1.99000001e+00 1.99500000e+00 1.99500000e+00 1.99300003e+00
    1.98500001e+00 1.98099995e+00 1.98099995e+00 1.97599995e+00
    1.87600005e+00 0. 0. 0. 0. 0. 0. 0. 0. 0. 0. 0. 0. 0. 0. 0.
    2.02600002e+00 2.02399993e+00 2.02399993e+00 2.01500010e+00
    2.01399994e+00 2.01399994e+00 2.01399994e+00 2.00900006e+00
    2.00900006e+00 2.00900006e+00 2.00900006e+00 2.00699997e+00
    1.99699998e+00 1.99500000e+00 1.99500000e+00 1.99500000e+00
    1.99000001e+00 1.99500000e+00 1.99500000e+00 1.99399996e+00
    1.99000001e+00 1.98300004e+00 1.98099995e+00 1.98099995e+00
    1.07700002e+00 0. 0. 0. 0. 0. 0. 0. 0. 0. 0. 0. 0. 0. 0. 0.
    2.02399993e+00 2.02399993e+00 2.02399993e+00 2.01999998e+00
    2.01399994e+00 2.01399994e+00 2.01399994e+00 2.00900006e+00
    2.00900006e+00 2.00900006e+00 2.00900006e+00 2.00900006e+00
    1.99899995e+00 1.99500000e+00 1.99500000e+00 1.99500000e+00
    1.99500000e+00 1.99500000e+00 1.99500000e+00 1.99500000e+00
    1.99000001e+00 1.98800004e+00 1.98500001e+00 1.98099995e+00 0. 0. 0.
    0. 0. 0. 0. 0. 0. 0. 0. 0. 0. 0. 0. 0. 2.02399993e+00 2.02399993e+00
    2.02300000e+00 2.01500010e+00 2.01399994e+00 2.01399994e+00
    2.01399994e+00 2.01399994e+00 2.00900006e+00 2.00500011e+00
    2.00500011e+00 2.00699997e+00 2.00200009e+00 1.99600005e+00
    1.99500000e+00 1.99500000e+00 1.99500000e+00 1.99899995e+00
    1.99500000e+00 1.99500000e+00 1.99000001e+00 1.98500001e+00
    1.98099995e+00 1.97800004e+00 1.97599995e+00 0. 0. 0. 0. 0. 0. 0. 0.
    0. 0. 0. 0. 0. 0. 0. 1.86399996e+00 2.02300000e+00 2.01900005e+00
    2.01600003e+00 2.01399994e+00 2.01399994e+00 2.01399994e+00
    2.01300001e+00 2.00900006e+00 2.00900006e+00 2.00900006e+00
    2.00699997e+00 2.00200009e+00 2. 1.99899995e+00 1.99500000e+00
    1.99500000e+00 1.99500000e+00 1.99500000e+00 1.99500000e+00
    1.99000001e+00 1.98300004e+00 1.98099995e+00 1.98099995e+00
    1.98099995e+00 0. 0. 0. 0. 0. 0. 0. 0. 0. 0. 0. 0. 0. 0. 0.
    1.42999995e+00 2.01900005e+00 2.02399993e+00 2.02399993e+00
    2.01900005e+00 2.01399994e+00 2.01399994e+00 2.01300001e+00
    2.00900006e+00 2.00900006e+00 2.00900006e+00 2.00799990e+00
    2.00500011e+00 1.99899995e+00 1.99500000e+00 1.99699998e+00
    1.99500000e+00 1.99500000e+00 1.99500000e+00 1.99500000e+00
    1.99300003e+00 1.98500001e+00 1.98199999e+00 1.98300004e+00
    1.98000002e+00 1.32599998e+00 2.49600005e+00 0. 0. 0. 0. 0. 0. 0. 0.
    0. 0. 0. 0. 0. 1.10899997e+00 2.02099991e+00 2.02399993e+00
    2.02399993e+00 2.01900005e+00 2.01900005e+00 2.01399994e+00
    2.01399994e+00 2.01399994e+00 2.01099992e+00 2.00900006e+00
    2.00799990e+00 2.00600004e+00 1.99699998e+00 1.99500000e+00 2.
    1.99500000e+00 2. 1.99500000e+00 1.99500000e+00 1.99399996e+00
    1.98899996e+00 1.98500001e+00 1.98300004e+00 1.97700000e+00
    1.97599995e+00 0. 0. 0. 0. 0. 0. 0. 0. 0. 0. 0. 0. 0. 0. 0.
    2.02399993e+00 2.02399993e+00 2.02399993e+00 2.01900005e+00
    2.01900005e+00 2.01399994e+00 2.01399994e+00 2.01399994e+00
    2.01399994e+00 2.00900006e+00 2.00900006e+00 2.00799990e+00
    2.00099993e+00 1.99500000e+00 2. 1.99500000e+00 2. 1.99699998e+00
    1.99500000e+00 1.99000001e+00 1.99000001e+00 1.98500001e+00
    1.98300004e+00 1.97899997e+00 1.97899997e+00 0. 0. 0. 0. 0. 0. 0. 0.
    0. 0. 0. 0. 0. 0. 0. 1.54499996e+00 2.02300000e+00 2.02399993e+00
    2.01900005e+00 2.01900005e+00 2.01699996e+00 2.01399994e+00
    2.01399994e+00 2.01399994e+00 2.00900006e+00 2.00900006e+00
    2.00600004e+00 2.00099993e+00 1.99500000e+00 1.99699998e+00
    1.99500000e+00 2. 1.99699998e+00 1.99500000e+00 1.99500000e+00
    1.99399996e+00 1.98599994e+00 1.98500001e+00 1.98199999e+00
    1.98099995e+00 1.98099995e+00 0. 0. 0. 0. 0. 0. 0. 0. 0. 0. 0. 0. 0.
    0. 1.54700005e+00 2.01900005e+00 2.02399993e+00 2.01900005e+00
    2.01900005e+00 2.01900005e+00 2.01399994e+00 2.01399994e+00
    2.00999999e+00 2.00900006e+00 2.00900006e+00 2.00900006e+00
    2.00099993e+00 1.99600005e+00 1.99500000e+00 1.99500000e+00 2.
    1.99800003e+00 1.99500000e+00 1.99500000e+00 1.99300003e+00
    1.99000001e+00 1.98099995e+00 1.98099995e+00 1.98099995e+00
    1.98099995e+00 0. 0. 0. 0. 0. 0. 0. 0. 0. 0. 0. 0. 0. 0.
    1.54799998e+00 2.02300000e+00 2.02399993e+00 2.01900005e+00
    2.01900005e+00 2.01399994e+00 2.01399994e+00 2.01399994e+00
    2.01300001e+00 2.00900006e+00 2.00900006e+00 2.00900006e+00
    2.00200009e+00 1.99600005e+00 1.99500000e+00 1.99500000e+00 2.
    1.99899995e+00 1.99500000e+00 1.99500000e+00 1.99500000e+00
    1.99000001e+00 1.98199999e+00 1.98099995e+00 1.98399997e+00
    1.98500001e+00 2.59999990e+00 0. 0. 0. 0. 0. 0. 0. 0. 0. 0. 0. 0. 0.
    0. 2.01900005e+00 2.02399993e+00 2.01900005e+00 2.01900005e+00
    2.01900005e+00 2.01399994e+00 2.01399994e+00 2.00900006e+00
    2.00900006e+00 2.00900006e+00 2.00900006e+00 2.00500011e+00
    2.00099993e+00 2. 2. 2.00500011e+00 2. 1.99500000e+00 1.99500000e+00
    1.99500000e+00 1.99000001e+00 1.98399997e+00 1.98399997e+00
    1.98500001e+00 1.98099995e+00 1.97599995e+00 2.51900005e+00 0. 0. 0.
    0. 0. 0. 0. 0. 0. 0. 0. 0. 0. 2.01900005e+00 2.01999998e+00
    2.01900005e+00 2.01900005e+00 2.01900005e+00 2.01399994e+00
    2.01399994e+00 2.01399994e+00 2.01200008e+00 2.00900006e+00
    2.00900006e+00 2.00099993e+00 2.00399995e+00 2. 1.99500000e+00 2. 2.
    1.99500000e+00 1.99500000e+00 1.99500000e+00 1.99000001e+00
    1.98699999e+00 1.98500001e+00 1.98099995e+00 1.98099995e+00
    1.98099995e+00 0. 0. 0. 0. 0. 0. 0. 0. 0. 0. 0. 0. 0. 0.
    2.01399994e+00 2.01900005e+00 2.02399993e+00 2.02399993e+00
    2.01799989e+00 2.01399994e+00 2.01399994e+00 2.01399994e+00
    2.00900006e+00 2.00900006e+00 2.00900006e+00 2.00600004e+00
    2.00500011e+00 2.00500011e+00 1.99500000e+00 2. 2. 2. 1.99800003e+00
    1.99500000e+00 1.99500000e+00 1.99000001e+00 1.99000001e+00
    1.98500001e+00 1.98500001e+00 1.98500001e+00 0. 0. 0. 0. 0. 0. 0. 0.
    0. 0. 0. 0. 0. 0. 1.95799994e+00 2.02300000e+00 2.02800012e+00
    2.02399993e+00 2.01500010e+00 2.01399994e+00 2.01399994e+00
    2.01399994e+00 2.01399994e+00 2.00999999e+00 2.00900006e+00
    2.00999999e+00 2.00900006e+00 2. 1.99500000e+00 2. 2. 2.
    1.99800003e+00 1.99500000e+00 1.99500000e+00 1.98699999e+00
    1.98500001e+00 1.98500001e+00 1.98099995e+00 1.98099995e+00
    1.26999998e+00 0. 0. 0. 0. 0. 0. 0. 0. 0. 0. 0. 0. 0. 1.42200005e+00
    2.02900004e+00 2.02399993e+00 2.02399993e+00 2.01999998e+00
    2.01500010e+00 2.01399994e+00 2.01799989e+00 2.01399994e+00
    2.01399994e+00 2.01399994e+00 2.00999999e+00 2.00900006e+00 2. 2.
    2.00500011e+00 2. 2. 1.99800003e+00 1.99500000e+00 1.99500000e+00
    1.98699999e+00 1.98500001e+00 1.98500001e+00 1.98199999e+00
    1.98099995e+00 2.16899991e+00 0. 0. 0. 0. 0. 0. 0. 0. 0. 0. 0. 0. 0.
    0. 2.02900004e+00 2.02600002e+00 2.02399993e+00 2.02399993e+00
    2.01900005e+00 2.01900005e+00 2.01900005e+00 2.01900005e+00
    2.01500010e+00 2.01399994e+00 2.00999999e+00 2.00900006e+00
    2.00500011e+00 2.00300002e+00 2.00300002e+00 2. 1.99800003e+00
    1.99800003e+00 1.99500000e+00 1.99500000e+00 1.99100006e+00
    1.98800004e+00 1.98500001e+00 1.98399997e+00 1.98099995e+00
    1.98099995e+00 0. 0. 0. 0. 0. 0. 0. 0. 0. 0. 0. 2.05399990e+00 0. 0.
    1.78999996e+00 2.03099990e+00 2.02900004e+00 2.02399993e+00
    2.02399993e+00 2.02099991e+00 2.01900005e+00 2.01900005e+00
    2.01600003e+00 2.01300001e+00 2.00900006e+00 2.00500011e+00
    2.00699997e+00 2.00200009e+00 2. 2. 1.99500000e+00 2. 1.99500000e+00
    1.99500000e+00 1.99500000e+00 1.99000001e+00 1.98599994e+00
    1.98300004e+00 1.98300004e+00 1.98099995e+00 2.29500008e+00 0. 0. 0.
    0. 0. 0. 0. 0. 0. 0. 0. 0. 0. 1.79200006e+00 2.03399992e+00
    2.02900004e+00 2.02900004e+00 2.02900004e+00 2.02399993e+00
    2.02099991e+00 2.01699996e+00 2.01399994e+00 2.01300001e+00
    2.00900006e+00 2.00500011e+00 2.00699997e+00 2.00500011e+00
    2.00300002e+00 2. 2. 2. 2. 1.99699998e+00 1.99500000e+00
    1.99100006e+00 1.98800004e+00 1.98500001e+00 1.98500001e+00
    1.98099995e+00 1.98099995e+00 2.31900001e+00 0. 0. 0. 0. 0. 0. 0. 0.
    0. 0. 2.19600010e+00 0. 1.12199998e+00 2.02900004e+00 2.02900004e+00
    2.02900004e+00 2.02800012e+00 2.02500010e+00 2.01999998e+00
    2.01699996e+00 2.01399994e+00 2.01399994e+00 2.01300001e+00
    2.00900006e+00 2.00900006e+00 2.00500011e+00 2.00500011e+00 2. 2. 2.
    2. 1.99699998e+00 1.99500000e+00 1.99000001e+00 1.99000001e+00
    1.98599994e+00 1.98099995e+00 1.98099995e+00 1.98099995e+00
    1.88199997e+00 0. 0. 0. 0. 0. 0. 0. 0. 0. 0. 0. 0. 0. 1.94500005e+00
    2.02500010e+00 2.02900004e+00 2.02399993e+00 2.02300000e+00
    2.01900005e+00 2.01699996e+00 2.01399994e+00 2.01399994e+00
    2.01399994e+00 2.01300001e+00 2.00900006e+00 2.00500011e+00
    2.00500011e+00 2. 2.00099993e+00 2.00300002e+00 2. 1.99899995e+00
    1.99500000e+00 1.99399996e+00 1.99100006e+00 1.98599994e+00
    1.98399997e+00 1.98099995e+00 1.76699996e+00 1.38300002e+00 0. 0. 0.
    0. 0. 0. 0. 0. 0. 0. 0. 2.15100002e+00 0. 1.91100001e+00
    2.02800012e+00 2.02900004e+00 2.02399993e+00 2.02300000e+00
    2.01900005e+00 2.01900005e+00 2.01399994e+00 2.01399994e+00
    2.01399994e+00 2.01399994e+00 2.00900006e+00 2.00799990e+00
    2.00900006e+00 2. 2.00099993e+00 2.00099993e+00 1.99800003e+00
    1.99500000e+00 1.99500000e+00 1.99500000e+00 1.99000001e+00
    1.99000001e+00 1.98500001e+00 1.98099995e+00 1.97200000e+00
    1.15900004e+00 1.58500004e+00 0. 0. 0. 0. 0. 0. 0. 0. 0. 0.
    2.49699998e+00 0. 1.90699995e+00 2.02900004e+00 2.02900004e+00
    2.02900004e+00 2.02900004e+00 2.02399993e+00 2.02300000e+00
    2.02600002e+00 2.01600003e+00 2.01399994e+00 2.01399994e+00
    2.00900006e+00 2.00900006e+00 2.00900006e+00 2.00500011e+00
    2.00399995e+00 2. 2. 1.99500000e+00 1.99500000e+00 1.99500000e+00
    1.99399996e+00 1.98599994e+00 1.98500001e+00 1.98099995e+00
    1.98000002e+00 1.97599995e+00 0. 0. 0. 0. 0. 0. 0. 0. 0. 0. 0.
    2.49699998e+00 0. 0. 2.03399992e+00 2.02900004e+00 2.02900004e+00
    2.02900004e+00 2.02699995e+00 2.02600002e+00 2.02399993e+00
    2.01600003e+00 2.01399994e+00 2.00999999e+00 2.00900006e+00
    2.00900006e+00 2.00900006e+00 2.00799990e+00 2.00399995e+00
    2.00200009e+00 2. 1.99500000e+00 1.99500000e+00 1.99500000e+00
    1.99500000e+00 1.99500000e+00 1.98500001e+00 1.98099995e+00
    1.99000001e+00 1.98099995e+00 1.98099995e+00 0. 0. 0. 0. 0. 0. 0. 0.
    0. 0. 0. 0. 0. 2.03399992e+00 2.02900004e+00 2.02900004e+00
    2.02900004e+00 2.02900004e+00 2.02399993e+00 2.01900005e+00
    2.01600003e+00 2.01399994e+00 2.00900006e+00 2.00900006e+00
    2.00900006e+00 2.01399994e+00 2.00900006e+00 2.00500011e+00
    2.00500011e+00 2.00300002e+00 2. 1.99500000e+00 1.99500000e+00
    1.99000001e+00 1.99500000e+00 1.99000001e+00 1.98199999e+00
    1.98500001e+00 1.98099995e+00 1.98099995e+00 0. 0. 0. 0. 0. 0. 0. 0.
    0. 0. 0. 0. 0. 2.03299999e+00 2.02999997e+00 2.02900004e+00
    2.02900004e+00 2.02699995e+00 2.02399993e+00 2.02399993e+00
    2.01799989e+00 2.01399994e+00 2.01300001e+00 2.01399994e+00
    2.00900006e+00 2.01399994e+00 2.00799990e+00 2.00500011e+00 2. 2. 2.
    2. 1.99600005e+00 1.99100006e+00 1.99000001e+00 1.99399996e+00
    1.98500001e+00 1.98099995e+00 1.97599995e+00 1.97599995e+00 0. 0. 0.
    0. 0. 0. 0. 0. 0. 0. 0. 1.02400005e+00 0. 1.69200003e+00
    2.03399992e+00 2.02900004e+00 2.02900004e+00 2.02800012e+00
    2.02500010e+00 2.02300000e+00 2.01600003e+00 2.01399994e+00
    2.01099992e+00 2.01399994e+00 2.00900006e+00 2.00900006e+00
    2.00799990e+00 2.00399995e+00 1.99500000e+00 2. 2. 2. 1.99699998e+00
    1.99500000e+00 1.99500000e+00 1.99100006e+00 1.98599994e+00
    1.98099995e+00 1.97700000e+00 1.97599995e+00 0. 0. 0. 0. 0. 0. 0. 0.
    0. 0. 0. 1.88699996e+00 0. 0. 2.03399992e+00 2.02900004e+00
    2.02900004e+00 2.02900004e+00 2.02800012e+00 2.02099991e+00
    2.01900005e+00 2.01500010e+00 2.01399994e+00 2.01399994e+00
    2.00900006e+00 2.01399994e+00 2.01399994e+00 2.00699997e+00 2.
    2.00099993e+00 2. 1.99699998e+00 1.99500000e+00 1.99500000e+00
    1.99500000e+00 1.99500000e+00 1.99000001e+00 1.98500001e+00
    1.98399997e+00 1.97800004e+00 0. 0. 0. 0. 0. 0. 0. 0. 0. 0. 0.
    1.38699996e+00 0. 0. 2.02900004e+00 2.03099990e+00 2.02900004e+00
    2.02699995e+00 2.02399993e+00 2.02099991e+00 2.01900005e+00
    2.01500010e+00 2.01399994e+00 2.01399994e+00 2.01200008e+00
    2.01200008e+00 2.00900006e+00 2.00500011e+00 2.00099993e+00 2. 2. 2.
    1.99600005e+00 1.99500000e+00 1.99500000e+00 1.99300003e+00
    1.99000001e+00 1.98899996e+00 1.98500001e+00 1.98300004e+00 0. 0. 0.
    0. 0. 0. 0. 0. 0. 0. 0. 0. 0. 0. 1.39900005e+00 2.03399992e+00
    2.02900004e+00 2.02399993e+00 2.02399993e+00 2.02399993e+00
    2.01799989e+00 2.01500010e+00 2.01399994e+00 2.01399994e+00
    2.00900006e+00 2.01200008e+00 2.00900006e+00 2.00699997e+00
    2.00500011e+00 2.00500011e+00 2.00200009e+00 2. 1.99600005e+00
    1.99500000e+00 1.99500000e+00 1.99000001e+00 1.98000002e+00
    1.99000001e+00 1.98899996e+00 1.31400001e+00 0. 0. 0. 0. 0. 0. 0. 0.
    0. 0. 0. 0. 1.18099999e+00 0. 0. 2.03399992e+00 2.02900004e+00
    2.02800012e+00 2.02699995e+00 2.02099991e+00 2.01799989e+00
    2.01399994e+00 2.01399994e+00 2.00900006e+00 2.00900006e+00
    2.01399994e+00 2.00900006e+00 2.01099992e+00 2.00500011e+00
    2.00500011e+00 2.00200009e+00 2. 1.99899995e+00 1.99500000e+00
    1.99500000e+00 1.99500000e+00 1.19599998e+00 0. 0. 0. 0. 0. 0. 0. 0.
    0. 0. 0. 0. 0. 0. 0. 1.17400002e+00 0. 0. 2.04099989e+00
    2.03299999e+00 2.02900004e+00 2.02900004e+00 2.02399993e+00
    2.02399993e+00 2.01999998e+00 2.01799989e+00 2.01300001e+00
    2.01399994e+00 2.01399994e+00 2.00999999e+00 2.00999999e+00
    2.00699997e+00 2.00500011e+00 2. 2. 2. 1.99899995e+00 1.08800006e+00
    1.09000003e+00 0. 0. 0. 0. 0. 0. 0. 0. 0. 0. 0. 0. 0. 0.
    2.85899997e+00 1.70099998e+00 0. 0. 0. 1.17100000e+00 2.03299999e+00
    2.02399993e+00 2.02399993e+00 2.02399993e+00 2.02099991e+00
    2.01900005e+00 2.01900005e+00 2.01399994e+00 2.01399994e+00
    2.01399994e+00 2.01200008e+00 1.73000002e+00 0. 2. 2.02200007e+00
    2.01399994e+00 2.00799990e+00 0. 0. 0. 0. 0. 0. 0. 0. 0. 0. 0. 0. 0.
    0. 0. 1.26300001e+00 1.28799999e+00 0. 0. 0. 0. 0. 0. 2.02900004e+00
    2.02900004e+00 2.02900004e+00 2.02600002e+00 2.02399993e+00
    2.01900005e+00 2.01900005e+00 2.00900006e+00 2.00900006e+00 0. 0. 0.
    0. 1.24000001e+00 2.03099990e+00 2.01999998e+00 1.18900001e+00 0. 0.
    0. 0. 0. 0. 0. 0. 0. 0. 0. 0. 0. 0. 0. 0. 0. 0. 0. 0. 0. 0. 0. 0.
    2.02900004e+00 2.02900004e+00 2.02900004e+00 2.02900004e+00 0. 0. 0.
    0. 0. 0. 0. 0. 0. 1.42200005e+00 2.01399994e+00 1.08599997e+00 0. 0.
    0. 0. 0. 0. 0. 0. 0. 0. 0. 0. 0. 0. 0. 0. 0. 0. 0. 0. 0. 0. 0. 0. 0.
    0. 0. 0. 0. 0. 0. 0. 0. 0. 0. 0. 0. 0. 0. 0. 0. 0. 0. 0. 0. 0. 0. 0.
    0. 0. 0.</data></Depth>
</opencv_storage>
