<?xml version="1.0"?>
<opencv_storage>
<Depth type_id="opencv-matrix">
  <rows>40</rows>
  <cols>40</cols>
  <dt>f</dt>
  <data>
    0. 0. 0. 0. 0. 0. 0. 0. 0. 0. 2.60899997e+00 2.57900000e+00
    2.56999993e+00 2.59200001e+00 2.59699988e+00 2.59699988e+00
    2.59500003e+00 2.56999993e+00 2.56999993e+00 2.40899992e+00
    2.11999989e+00 2.13000011e+00 2.13000011e+00 2.13000011e+00
    2.13100004e+00 2.13100004e+00 2.13100004e+00 2.63100004e+00
    2.65799999e+00 2.67600012e+00 2.65300012e+00 2.64199996e+00
    2.61100006e+00 2.58200002e+00 2.56999993e+00 2.56999993e+00 0. 0. 0.
    0. 0. 0. 0. 0. 0. 0. 0. 0. 0. 0. 2.63899994e+00 2.50399995e+00
    2.49699998e+00 2.51699996e+00 2.52600002e+00 2.52900004e+00
    2.52699995e+00 2.50500011e+00 2.50500011e+00 2.36599994e+00
    2.10999990e+00 2.10999990e+00 2.11100006e+00 2.11199999e+00
    2.12700009e+00 2.13100004e+00 2.13100004e+00 2.15700006e+00
    2.68199992e+00 2.67600012e+00 2.65599990e+00 2.64199996e+00
    2.61100006e+00 2.58400011e+00 2.57100010e+00 2.56999993e+00 0. 0. 0.
    0. 0. 0. 0. 0. 0. 0. 0. 0. 0. 0. 2.65700006e+00 2. 2.01300001e+00
    2.01799989e+00 2.04399991e+00 2.06599998e+00 2.07399988e+00
    2.07399988e+00 2.07399988e+00 2.08100009e+00 2.09299994e+00
    2.09299994e+00 2.10200000e+00 2.10800004e+00 2.12299991e+00
    2.13000011e+00 2.13100004e+00 2.14800000e+00 2.57500005e+00
    2.68700004e+00 2.67300010e+00 2.64199996e+00 2.61100006e+00
    2.59699988e+00 2.57900000e+00 2.56999993e+00 0. 0. 0. 0. 0. 0. 0. 0.
    0. 0. 0. 0. 0. 2. 2. 2. 2.01300001e+00 2.01799989e+00 2.01799989e+00
    2.03600001e+00 2.06800008e+00 2.06900001e+00 2.07399988e+00
    2.07900000e+00 2.08999991e+00 2.09299994e+00 2.09299994e+00
    2.09299994e+00 2.10800004e+00 2.12899995e+00 2.13100004e+00
    2.11199999e+00 2.19300008e+00 2.70499992e+00 2.67300010e+00
    2.64199996e+00 2.61100006e+00 2.59699988e+00 2.57900000e+00
    2.56999993e+00 0. 0. 0. 0. 0. 0. 0. 0. 0. 0. 0. 0. 2.72000003e+00 2.
    2. 2. 2.01300001e+00 2.01799989e+00 2.01799989e+00 2.02900004e+00
    2.04800010e+00 2.05800009e+00 2.07399988e+00 2.07399988e+00
    2.07900000e+00 2.08899999e+00 2.09299994e+00 2.09299994e+00
    2.10800004e+00 2.12899995e+00 2.13100004e+00 2.11199999e+00
    2.19499993e+00 2.71600008e+00 2.68400002e+00 2.64899993e+00
    2.61700010e+00 2.60200000e+00 2.57900000e+00 2.56999993e+00 0. 0. 0.
    0. 0. 0. 0. 0. 0. 0. 2.80699992e+00 2.01799989e+00 2.01099992e+00 2.
    2. 2. 2.01300001e+00 2.01799989e+00 2.01799989e+00 2.01799989e+00
    2.03800011e+00 2.05800009e+00 2.07399988e+00 2.07399988e+00
    2.07399988e+00 2.07900000e+00 2.08899999e+00 2.09299994e+00
    2.10800004e+00 2.12899995e+00 2.13100004e+00 2.12100005e+00
    2.16700006e+00 2.51099992e+00 2.69199991e+00 2.66499996e+00
    2.63199997e+00 2.60899997e+00 2.58800006e+00 2.57299995e+00 0. 0. 0.
    0. 0. 0. 0. 0. 2.07299995e+00 2.05299997e+00 2.03200006e+00
    2.01799989e+00 2.01099992e+00 2. 2. 2. 2.01300001e+00 2.01799989e+00
    2.01799989e+00 2.01799989e+00 2.03699994e+00 2.04800010e+00
    2.06599998e+00 2.06999993e+00 2.06299996e+00 2.06900001e+00
    2.07900000e+00 2.08999991e+00 2.10800004e+00 2.12899995e+00
    2.13100004e+00 2.13100004e+00 2.13199997e+00 2.25999999e+00
    2.68199992e+00 2.67000008e+00 2.63899994e+00 2.61800003e+00
    2.60200000e+00 2.58800006e+00 0. 0. 0. 0. 0. 0. 0. 0. 2.07299995e+00
    2.05299997e+00 2.03200006e+00 2.01799989e+00 2.01099992e+00 2. 2. 2.
    2.00500011e+00 2.01600003e+00 2.01799989e+00 2.01799989e+00
    2.02500010e+00 2.03900003e+00 2.05699992e+00 2.05900002e+00
    2.05500007e+00 2.05800009e+00 2.06900001e+00 2.08699989e+00
    2.09800005e+00 2.11599994e+00 2.13100004e+00 2.13000011e+00
    2.11899996e+00 2.24399996e+00 2.68199992e+00 2.67000008e+00
    2.64800000e+00 2.63299990e+00 2.60700011e+00 2.59699988e+00 0. 0. 0.
    0. 0. 0. 0. 0. 2.07299995e+00 2.05299997e+00 2.03500009e+00
    2.02300000e+00 2.00300002e+00 2. 2. 2. 2. 2.01500010e+00
    2.01799989e+00 2.01799989e+00 2.01799989e+00 2.02600002e+00
    2.04099989e+00 2.04600000e+00 2.05500007e+00 2.05500007e+00
    2.06699991e+00 2.07699990e+00 2.08999991e+00 2.10999990e+00
    2.11700010e+00 2.11700010e+00 2.11199999e+00 2.23900008e+00
    2.68199992e+00 2.67000008e+00 2.65300012e+00 2.64899993e+00
    2.62700009e+00 2.60200000e+00 0. 0. 0. 0. 0. 0. 0. 0. 2.07299995e+00
    2.05299997e+00 2.03299999e+00 2.01500010e+00 2. 1.99300003e+00
    1.98599994e+00 1.99500000e+00 2.01099992e+00 2.01699996e+00
    2.01799989e+00 2.01799989e+00 2.01799989e+00 2.02099991e+00
    2.03600001e+00 2.04299998e+00 2.05500007e+00 2.06299996e+00
    2.07299995e+00 2.07399988e+00 2.08899999e+00 2.10999990e+00
    2.11199999e+00 2.11299992e+00 2.12800002e+00 2.25600004e+00
    2.69899988e+00 2.67000008e+00 2.65300012e+00 2.64000010e+00
    2.62700009e+00 2.60400009e+00 0. 0. 0. 0. 0. 0. 0. 0. 2.07299995e+00
    2.05299997e+00 2.03200006e+00 2.01300001e+00 2. 1.99199998e+00
    1.98300004e+00 1.98399997e+00 1.99699998e+00 2.00200009e+00
    2.01699996e+00 2.01799989e+00 2.01799989e+00 2.01799989e+00
    2.02399993e+00 2.04299998e+00 2.05500007e+00 2.06500006e+00
    2.07399988e+00 2.07399988e+00 2.07500005e+00 2.10700011e+00
    2.11199999e+00 2.11299992e+00 2.13100004e+00 2.25999999e+00
    2.70199990e+00 2.67000008e+00 2.65300012e+00 2.63700008e+00
    2.62500000e+00 2.60400009e+00 0. 0. 0. 0. 0. 0. 0. 0. 2.05399990e+00
    2.03600001e+00 2.03200006e+00 2.01300001e+00 2. 1.99199998e+00
    1.98300004e+00 1.98300004e+00 1.99600005e+00 2. 2.01600003e+00
    2.01799989e+00 2.01799989e+00 2.01799989e+00 2.02300000e+00
    2.03600001e+00 2.04399991e+00 2.06500006e+00 2.07399988e+00
    2.07399988e+00 2.07399988e+00 2.10700011e+00 2.11199999e+00
    2.11299992e+00 2.13100004e+00 2.25999999e+00 2.70199990e+00
    2.67000008e+00 2.65300012e+00 2.63700008e+00 2.62500000e+00
    2.60400009e+00 0. 0. 0. 0. 0. 0. 0. 0. 2.03600001e+00 2.03600001e+00
    2.03600001e+00 2.03099990e+00 2.01099992e+00 1.99300003e+00
    1.98500001e+00 1.98399997e+00 1.99399996e+00 2. 2.01500010e+00
    2.01600003e+00 2.01799989e+00 2.01799989e+00 2.02200007e+00
    2.03500009e+00 2.04399991e+00 2.06399989e+00 2.07399988e+00
    2.07399988e+00 2.07399988e+00 2.10700011e+00 2.11199999e+00
    2.11299992e+00 2.13100004e+00 2.24300003e+00 2.64800000e+00
    2.67000008e+00 2.65300012e+00 2.63700008e+00 2.60700011e+00
    2.59699988e+00 0. 0. 0. 0. 0. 0. 0. 0. 2.35700011e+00 2.03900003e+00
    2.03600001e+00 2.03099990e+00 2.01399994e+00 2.00200009e+00 2.
    1.98899996e+00 1.98300004e+00 1.99500000e+00 2. 2. 2.01799989e+00
    2.01799989e+00 2.01799989e+00 2.02300000e+00 2.03399992e+00
    2.05399990e+00 2.07299995e+00 2.07399988e+00 2.07399988e+00
    2.10700011e+00 2.11199999e+00 2.11299992e+00 2.12800002e+00
    2.13100004e+00 2.27099991e+00 2.61199999e+00 2.65300012e+00
    2.63700008e+00 2.60700011e+00 2.59699988e+00 0. 0. 0. 0. 0. 0. 0. 0.
    0. 2.05800009e+00 2.04099989e+00 2.03900003e+00 2.03099990e+00
    2.01200008e+00 2. 1.98899996e+00 1.98300004e+00 1.98300004e+00
    1.99899995e+00 2. 2.01300001e+00 2.01300001e+00 2.01500010e+00
    2.01799989e+00 2.02600002e+00 2.04600000e+00 2.06399989e+00
    2.06900001e+00 2.07299995e+00 2.10299993e+00 2.10700011e+00
    2.11199999e+00 2.11500001e+00 2.13100004e+00 2.13100004e+00
    2.28299999e+00 2.58200002e+00 2.63700008e+00 2.60700011e+00
    2.59699988e+00 0. 0. 0. 0. 0. 0. 0. 0. 0. 2.69400001e+00
    2.05500007e+00 2.05100012e+00 2.03999996e+00 2.01900005e+00 2.
    1.99300003e+00 1.98899996e+00 1.98899996e+00 1.99899995e+00 2. 2. 2.
    2.00500011e+00 2.01799989e+00 2.02300000e+00 2.03900003e+00
    2.05200005e+00 2.05500007e+00 2.06999993e+00 2.09100008e+00
    2.09299994e+00 2.11199999e+00 2.11500001e+00 2.13100004e+00
    2.13100004e+00 2.13100004e+00 2.38400006e+00 2.63700008e+00
    2.61299992e+00 2.60700011e+00 0. 0. 0. 0. 0. 0. 0. 0. 0. 0.
    2.06299996e+00 2.06100011e+00 2.04800010e+00 2.01900005e+00 2. 2. 2.
    2. 2. 2. 2. 2. 2.00500011e+00 2.01799989e+00 2.01799989e+00
    2.02699995e+00 2.04299998e+00 2.05200005e+00 2.06999993e+00
    2.09100008e+00 2.09299994e+00 2.10400009e+00 2.10599995e+00
    2.12299991e+00 2.12500000e+00 2.13100004e+00 2.39000010e+00
    2.64899993e+00 2.62899995e+00 2.62500000e+00 0. 0. 0. 0. 0. 0. 0. 0.
    0. 0. 2.07200003e+00 2.06100011e+00 2.04800010e+00 2.02300000e+00
    2.00399995e+00 2. 2. 2. 2. 2. 2. 2. 2.00500011e+00 2.01799989e+00
    2.01799989e+00 2.02200007e+00 2.03200006e+00 2.04200006e+00
    2.05999994e+00 2.08899999e+00 2.09299994e+00 2.09299994e+00
    2.09599996e+00 2.11199999e+00 2.11500001e+00 2.12500000e+00
    2.39800000e+00 2.66499996e+00 2.63499999e+00 2.62500000e+00 0. 0. 0.
    0. 0. 0. 0. 0. 0. 0. 2.06100011e+00 2.05500007e+00 2.04800010e+00
    2.02699995e+00 2.01399994e+00 2.00399995e+00 2. 1.99100006e+00
    1.99000001e+00 1.99000001e+00 2. 2. 2.00500011e+00 2.01799989e+00
    2.01799989e+00 2.01799989e+00 2.02900004e+00 2.03600001e+00
    2.05100012e+00 2.08800006e+00 2.09299994e+00 2.10500002e+00
    2.10599995e+00 2.11199999e+00 2.11199999e+00 2.11999989e+00
    2.23399997e+00 2.52099991e+00 2.64599991e+00 2.61700010e+00 0. 0. 0.
    0. 0. 0. 0. 0. 0. 1.01499999e+00 2.06800008e+00 2.06800008e+00
    2.06100011e+00 2.04699993e+00 2.02900004e+00 2.00600004e+00 2.
    1.98599994e+00 1.98300004e+00 1.98300004e+00 2. 2. 2.00099993e+00
    2.00500011e+00 2.01099992e+00 2.01799989e+00 2.02099991e+00
    2.03200006e+00 2.05100012e+00 2.07699990e+00 2.09200001e+00
    2.11199999e+00 2.11199999e+00 2.11199999e+00 2.11199999e+00
    2.11999989e+00 2.13100004e+00 2.42899990e+00 2.64000010e+00
    2.60599995e+00 0. 0. 0. 0. 0. 0. 0. 0. 0. 0. 0. 2.07399988e+00
    2.07200003e+00 2.06299996e+00 2.03399992e+00 2.00600004e+00 2.
    1.98599994e+00 1.98300004e+00 1.98300004e+00 2. 2. 2. 2.
    2.00200009e+00 2.01099992e+00 2.01799989e+00 2.03099990e+00
    2.03900003e+00 2.06999993e+00 2.07800007e+00 2.08299994e+00
    2.09699988e+00 2.09999990e+00 2.11199999e+00 2.11400008e+00
    2.10899997e+00 2.16499996e+00 2.48399997e+00 2.60400009e+00 0. 0. 0.
    0. 0. 0. 0. 0. 0. 0. 0. 2.07399988e+00 2.06699991e+00 2.04800010e+00
    2.02699995e+00 2.00600004e+00 2. 1.98599994e+00 1.98300004e+00
    1.98300004e+00 1.98500001e+00 1.98800004e+00 2. 2. 2. 2.00099993e+00
    2.01200008e+00 2.01999998e+00 2.03299999e+00 2.06900001e+00
    2.07399988e+00 2.07500005e+00 2.09299994e+00 2.09699988e+00
    2.11199999e+00 2.11199999e+00 2.10299993e+00 2.09299994e+00
    2.44300008e+00 2.60400009e+00 0. 0. 0. 0. 0. 0. 0. 0. 0. 0. 0. 0. 0.
    2.04600000e+00 2.02600002e+00 2.01799989e+00 2.00399995e+00
    1.99899995e+00 1.98399997e+00 1.98300004e+00 1.98300004e+00
    1.98599994e+00 2. 2. 2. 2. 2.01099992e+00 2.01799989e+00
    2.01900005e+00 2.05100012e+00 2.05599999e+00 2.05800009e+00
    2.09299994e+00 2.09699988e+00 2.11199999e+00 2.11199999e+00
    2.11199999e+00 2.11100006e+00 2.12500000e+00 2.49900007e+00 0. 0. 0.
    0. 0. 0. 0. 0. 0. 0. 0. 0. 0. 2.04600000e+00 2.02600002e+00
    2.01799989e+00 2.00500011e+00 2. 1.98399997e+00 1.98300004e+00
    1.96500003e+00 1.96800005e+00 1.98199999e+00 1.98899996e+00 2. 2. 2.
    2.01300001e+00 2.01799989e+00 2.03399992e+00 2.05399990e+00
    2.05800009e+00 2.09299994e+00 2.09699988e+00 2.11100006e+00
    2.11100006e+00 2.11199999e+00 2.11299992e+00 2.11299992e+00
    2.49499989e+00 0. 0. 0. 0. 0. 0. 0. 0. 0. 0. 0. 0. 0. 2.05800009e+00
    2.02800012e+00 2.01900005e+00 2.00500011e+00 2. 1.98399997e+00
    1.98300004e+00 1.96500003e+00 1.96500003e+00 1.97000003e+00
    1.98300004e+00 1.99000001e+00 2. 2. 2.01099992e+00 2.01699996e+00
    2.03399992e+00 2.05200005e+00 2.07200003e+00 2.09299994e+00
    2.09299994e+00 2.09299994e+00 2.10100007e+00 2.11199999e+00
    2.12299991e+00 2.12899995e+00 2.44700003e+00 0. 0. 0. 0. 0. 0. 0. 0.
    0. 0. 0. 0. 0. 2.28999996e+00 2.04600000e+00 2.02399993e+00
    2.00500011e+00 2. 1.98399997e+00 1.98300004e+00 1.96500003e+00
    1.96500003e+00 1.97000003e+00 1.98300004e+00 1.99000001e+00 2. 2. 2.
    2.01399994e+00 2.03399992e+00 2.03600001e+00 2.05699992e+00
    2.08899999e+00 2.09299994e+00 2.09299994e+00 2.10100007e+00
    2.11199999e+00 2.11999989e+00 2.11700010e+00 2.11199999e+00 0. 0. 0.
    0. 0. 0. 0. 0. 0. 0. 0. 0. 0. 0. 2.05299997e+00 2.02600002e+00
    2.00900006e+00 2.00099993e+00 1.98399997e+00 1.98300004e+00
    1.96500003e+00 1.96500003e+00 1.97000003e+00 1.98300004e+00
    1.98800004e+00 1.99800003e+00 2. 2. 2.01399994e+00 2.03399992e+00
    2.03600001e+00 2.05599999e+00 2.07100010e+00 2.09299994e+00
    2.09299994e+00 2.09800005e+00 2.10899997e+00 2.11199999e+00
    2.11199999e+00 2.10800004e+00 0. 0. 0. 0. 0. 0. 0. 0. 0. 0. 0. 0. 0.
    0. 2.04699993e+00 2.03299999e+00 2.01999998e+00 2.00300002e+00
    1.98399997e+00 1.98300004e+00 1.97200000e+00 1.96500003e+00
    1.96800005e+00 1.97800004e+00 1.98300004e+00 1.98800004e+00
    1.99699998e+00 2. 2.01999998e+00 2.03500009e+00 2.03600001e+00
    2.05500007e+00 2.05900002e+00 2.08699989e+00 2.09299994e+00
    2.09299994e+00 2.09899998e+00 2.10899997e+00 2.11199999e+00
    2.09800005e+00 0. 0. 0. 0. 0. 0. 0. 0. 0. 0. 0. 0. 0. 0.
    2.03600001e+00 2.03600001e+00 2.02300000e+00 2.00300002e+00
    1.99199998e+00 1.99100006e+00 1.98099995e+00 1.96500003e+00
    1.96500003e+00 1.96800005e+00 1.97800004e+00 1.98300004e+00
    1.99300003e+00 2. 2.02099991e+00 2.02699995e+00 2.02699995e+00
    2.04600000e+00 2.04999995e+00 2.07599998e+00 2.08400011e+00
    2.08699989e+00 2.09299994e+00 2.09899998e+00 2.10899997e+00
    2.09800005e+00 0. 0. 0. 0. 0. 0. 0. 0. 0. 0. 0. 0. 0. 0.
    2.48699999e+00 2.02600002e+00 2.01999998e+00 2.01200008e+00
    2.00099993e+00 2. 1.98099995e+00 1.96500003e+00 1.96200001e+00
    1.95500004e+00 1.96300006e+00 1.97800004e+00 1.99300003e+00 2.
    2.01399994e+00 2.01799989e+00 2.01799989e+00 2.03600001e+00
    2.04099989e+00 2.07399988e+00 2.07399988e+00 2.08200002e+00
    2.09299994e+00 2.09299994e+00 2.09800005e+00 2.10299993e+00 0. 0. 0.
    0. 0. 0. 0. 0. 0. 0. 0. 0. 0. 0. 2.82599998e+00 2.01799989e+00
    2.01799989e+00 2.01799989e+00 2.00200009e+00 2. 1.98199999e+00
    1.97500002e+00 1.96099997e+00 1.94799995e+00 1.95500004e+00
    1.97399998e+00 1.99300003e+00 2. 2.01399994e+00 2.01799989e+00
    2.01799989e+00 2.03600001e+00 2.04099989e+00 2.07399988e+00
    2.07399988e+00 2.07699990e+00 2.07999992e+00 2.08800006e+00
    2.09299994e+00 2.10700011e+00 0. 0. 0. 0. 0. 0. 0. 0. 0. 0. 0. 0. 0.
    0. 2.82599998e+00 2.01799989e+00 2.01799989e+00 2.01799989e+00
    2.00200009e+00 2. 1.98300004e+00 1.98000002e+00 1.96399999e+00
    1.96099997e+00 1.96300006e+00 1.97399998e+00 1.99300003e+00 2.
    2.01399994e+00 2.01799989e+00 2.03099990e+00 2.03600001e+00
    2.03900003e+00 2.05999994e+00 2.06399989e+00 2.06800008e+00
    2.05999994e+00 2.07100010e+00 2.08800006e+00 2.10700011e+00 0. 0. 0.
    0. 0. 0. 0. 0. 0. 0. 0. 0. 0. 0. 0. 2.55500007e+00 2.01799989e+00
    2.01799989e+00 2.00200009e+00 2. 1.99600005e+00 1.98000002e+00
    1.96500003e+00 1.96500003e+00 1.96500003e+00 1.96700001e+00
    1.97899997e+00 1.99600005e+00 2.01399994e+00 2.01799989e+00
    2.03500009e+00 2.03600001e+00 2.03600001e+00 2.03900003e+00
    2.03999996e+00 2.04099989e+00 2.04699993e+00 2.06599998e+00
    2.08699989e+00 0. 0. 0. 0. 0. 0. 0. 0. 0. 0. 0. 0. 0. 0. 0. 0.
    2.66400003e+00 2.01799989e+00 2.01799989e+00 2.00200009e+00 2. 2.
    1.99600005e+00 1.97700000e+00 1.96500003e+00 1.96500003e+00
    1.96500003e+00 1.97599995e+00 1.99500000e+00 2.01399994e+00
    2.01799989e+00 2.03500009e+00 2.03600001e+00 2.03600001e+00
    2.03600001e+00 2.03600001e+00 2.03600001e+00 2.88299990e+00 0. 0. 0.
    0. 0. 0. 0. 0. 0. 0. 0. 0. 0. 0. 0. 0. 0. 0. 0. 2.52900004e+00
    2.02099991e+00 2.01799989e+00 2. 2. 2. 1.99100006e+00 1.96500003e+00
    1.96500003e+00 1.96500003e+00 1.97599995e+00 1.98300004e+00
    1.99600005e+00 2.01600003e+00 2.03500009e+00 2.03600001e+00
    2.03600001e+00 2.03600001e+00 2.62500000e+00 0. 0. 0. 0. 0. 0. 0. 0.
    0. 0. 0. 0. 0. 0. 0. 0. 0. 0. 0. 0. 0. 2.65599990e+00 2.05500007e+00
    2.01799989e+00 2.01799989e+00 2. 1.99699998e+00 1.97800004e+00
    1.96300006e+00 1.96300006e+00 1.97300005e+00 1.98099995e+00
    1.98099995e+00 1.99500000e+00 2.01600003e+00 2.03500009e+00
    2.03600001e+00 2.03600001e+00 2.03600001e+00 2.62500000e+00 0. 0. 0.
    0. 0. 0. 0. 0. 0. 0. 0. 0. 0. 0. 0. 0. 0. 0. 0. 0. 0. 0.
    2.35400009e+00 2.01999998e+00 2.01799989e+00 2. 1.99399996e+00
    1.97099996e+00 1.94799995e+00 1.94799995e+00 1.95500004e+00
    1.96399999e+00 1.96500003e+00 1.97899997e+00 2.01399994e+00
    2.03500009e+00 2.03600001e+00 2.03900003e+00 2.03900003e+00
    2.62400007e+00 0. 0. 0. 0. 0. 0. 0. 0. 0. 0. 0. 0. 0. 0. 0. 0. 0. 0.
    0. 0. 0. 0. 2.34999990e+00 2.01900005e+00 2.01799989e+00
    1.99800003e+00 1.98000002e+00 1.96099997e+00 1.94599998e+00
    1.94299996e+00 1.94599998e+00 1.95799994e+00 1.96500003e+00
    2.36800003e+00 2.50000000e+00 2.51600003e+00 2.00399995e+00
    1.47099996e+00 1.90900004e+00 1.79299998e+00 0. 0. 0. 0. 0. 0. 0. 0.
    0. 0. 0. 0. 0. 0. 0. 0. 0. 0. 0. 0. 0. 0. 2.33899999e+00
    2.01799989e+00 2.01799989e+00 1.99800003e+00 1.98000002e+00
    1.96099997e+00 1.94200003e+00 1.93099999e+00 1.94000006e+00
    1.95799994e+00 1.96500003e+00 0. 0. 0. 1.91600001e+00 0.
    1.50899994e+00 0. 1.23699999e+00 0. 0. 0. 0. 0. 0. 0. 0. 0. 0. 0. 0.
    0. 0. 0. 0. 0. 0. 0. 0. 0. 0. 0. 0. 0. 0. 0. 0. 0. 0. 0. 0. 0. 0. 0.
    0. 0. 0. 0. 0. 0. 0. 0. 0. 0. 0. 0. 0.</data></Depth>
</opencv_storage>
