<?xml version="1.0"?>
<opencv_storage>
<Depth type_id="opencv-matrix">
  <rows>40</rows>
  <cols>40</cols>
  <dt>f</dt>
  <data>
    0. 0. 0. 0. 0. 0. 0. 0. 0. 0. 0. 0. 0. 0. 0. 0. 0. 0. 2.76799989e+00
    2.00699997e+00 2.00699997e+00 2.00900006e+00 2.00799990e+00
    2.73200011e+00 2.73399997e+00 2.00399995e+00 2.00500011e+00
    2.00399995e+00 2.58599997e+00 2.68300009e+00 0. 0. 0. 0. 0. 0. 0. 0.
    0. 0. 0. 0. 0. 0. 0. 0. 2.02999997e+00 2.02600002e+00 2.02300000e+00
    0. 0. 0. 0. 2.96700001e+00 2.00999999e+00 2.00699997e+00
    2.00699997e+00 2.01099992e+00 2.01300001e+00 2.00999999e+00
    2.00699997e+00 2.00399995e+00 2.00699997e+00 2.00399995e+00
    2.00399995e+00 2.00399995e+00 2.00399995e+00 2. 1.99699998e+00
    1.99800003e+00 1.58399999e+00 0. 0. 0. 0. 0. 0. 0. 0. 0. 0. 0. 0. 0.
    0. 2.98900008e+00 2.02399993e+00 2.01500010e+00 2.01399994e+00
    2.01300001e+00 2.01300001e+00 2.00999999e+00 2.01399994e+00
    2.01200008e+00 2.00999999e+00 2.00699997e+00 2.00699997e+00
    2.00999999e+00 2.00999999e+00 2.00799990e+00 2.00699997e+00
    2.00600004e+00 2.00699997e+00 2.00600004e+00 2.00399995e+00
    2.00399995e+00 2.00399995e+00 2. 1.99699998e+00 1.73699999e+00
    1.77999997e+00 0. 0. 0. 0. 0. 0. 0. 0. 0. 0. 0. 0. 0. 0.
    2.01699996e+00 2.01399994e+00 2.01399994e+00 2.01399994e+00
    2.01399994e+00 2.01399994e+00 2.01399994e+00 2.01399994e+00
    2.01399994e+00 2.01099992e+00 2.00999999e+00 2.00999999e+00
    2.00999999e+00 2.00699997e+00 2.00699997e+00 2.00699997e+00
    2.00699997e+00 2.00399995e+00 2.00399995e+00 2.00399995e+00
    2.00300002e+00 2. 1.99699998e+00 1.99699998e+00 1.92600000e+00 0. 0.
    0. 0. 0. 0. 0. 0. 0. 0. 0. 0. 0. 0. 0. 1.82299995e+00 2.01399994e+00
    2.01399994e+00 2.01399994e+00 2.01399994e+00 2.01399994e+00
    2.01399994e+00 2.01099992e+00 2.00799990e+00 2.00999999e+00
    2.01200008e+00 2.00699997e+00 2.00799990e+00 2.00699997e+00
    2.00500011e+00 2.00699997e+00 2.00600004e+00 2.00399995e+00
    2.00200009e+00 2. 2. 2.00200009e+00 1.99699998e+00 1.99699998e+00
    1.99899995e+00 1.10899997e+00 0. 0. 0. 0. 0. 0. 0. 0. 0. 0. 0. 0. 0.
    0. 1.73199999e+00 2.01399994e+00 2.01399994e+00 2.01399994e+00
    2.01399994e+00 2.01399994e+00 2.01300001e+00 2.00999999e+00
    2.00999999e+00 2.00999999e+00 2.01200008e+00 2.00699997e+00
    2.00699997e+00 2.00699997e+00 2.00399995e+00 2.00699997e+00
    2.00399995e+00 2.00699997e+00 2.00399995e+00 2.00399995e+00
    1.99899995e+00 1.99699998e+00 1.99899995e+00 1.99300003e+00
    1.99600005e+00 1.10800004e+00 0. 0. 0. 0. 0. 0. 0. 0. 0. 0. 0. 0. 0.
    0. 1.73399997e+00 2.01399994e+00 2.01399994e+00 2.01399994e+00
    2.01399994e+00 2.01300001e+00 2.00999999e+00 2.00999999e+00
    2.00999999e+00 2.00699997e+00 2.00600004e+00 2.00399995e+00
    2.00699997e+00 2.00699997e+00 2.00399995e+00 2.00399995e+00
    2.00699997e+00 2.00399995e+00 2.00300002e+00 2.00399995e+00
    2.00300002e+00 2.00300002e+00 2.00099993e+00 1.99699998e+00
    1.99300003e+00 1.99300003e+00 0. 0. 0. 0. 0. 0. 0. 0. 0. 0. 0. 0. 0.
    0. 2.02099991e+00 2.01399994e+00 2.01399994e+00 2.01399994e+00
    2.01399994e+00 2.00999999e+00 2.00999999e+00 2.00999999e+00
    2.00999999e+00 2.00699997e+00 2.00399995e+00 2.00399995e+00
    2.00699997e+00 2.00699997e+00 2.00399995e+00 2.00699997e+00
    2.00600004e+00 2.00399995e+00 2.00200009e+00 2. 2.00300002e+00 2.
    1.99899995e+00 1.99300003e+00 1.99199998e+00 1.99000001e+00 0. 0. 0.
    0. 0. 0. 0. 0. 0. 0. 0. 0. 0. 0. 2.55999994e+00 2.01600003e+00
    2.01399994e+00 2.01399994e+00 2.01099992e+00 2.00699997e+00
    2.00699997e+00 2.00999999e+00 2.00699997e+00 2.00699997e+00
    2.00699997e+00 2.00399995e+00 2.00699997e+00 2.00399995e+00
    2.00399995e+00 2.00399995e+00 2.00699997e+00 2.00399995e+00 2. 2.
    1.99699998e+00 2. 1.99600005e+00 1.99300003e+00 1.99199998e+00
    1.99000001e+00 2.32399988e+00 0. 0. 0. 0. 0. 0. 0. 0. 0. 0. 0. 0. 0.
    0. 2.01600003e+00 2.01399994e+00 2.01300001e+00 2.00999999e+00
    2.00999999e+00 2.00799990e+00 2.00699997e+00 2.00699997e+00
    2.00699997e+00 2.00699997e+00 2.00399995e+00 2.00699997e+00
    2.00699997e+00 2.00399995e+00 2.00399995e+00 2.00600004e+00
    2.00399995e+00 2. 2. 1.99699998e+00 1.99699998e+00 1.99800003e+00
    1.99300003e+00 1.99199998e+00 1.99000001e+00 1.94299996e+00 0. 0. 0.
    0. 0. 0. 0. 0. 0. 0. 0. 0. 0. 0. 2.01600003e+00 2.01399994e+00
    2.00999999e+00 2.00999999e+00 2.00999999e+00 2.00799990e+00
    2.00799990e+00 2.00699997e+00 2.00399995e+00 2.00399995e+00
    2.00399995e+00 2.00699997e+00 2.00699997e+00 2.00399995e+00
    2.00399995e+00 2.00500011e+00 2. 2. 2. 1.99899995e+00 1.99699998e+00
    1.99300003e+00 1.99300003e+00 1.99600005e+00 1.98699999e+00 0. 0. 0.
    0. 0. 0. 0. 0. 0. 0. 0. 0. 0. 0. 0. 2.01699996e+00 2.01099992e+00
    2.00999999e+00 2.00999999e+00 2.00999999e+00 2.00699997e+00
    2.00999999e+00 2.00699997e+00 2.00399995e+00 2.00399995e+00
    2.00399995e+00 2.00500011e+00 2.00399995e+00 2.00399995e+00 2.
    2.00399995e+00 2.00399995e+00 2. 2. 1.99699998e+00 1.99699998e+00
    1.99699998e+00 1.99300003e+00 1.99300003e+00 1.99000001e+00 0. 0. 0.
    0. 0. 0. 0. 0. 0. 0. 0. 0. 0. 0. 0. 1.16700006e+00 2.00999999e+00
    2.00999999e+00 2.00999999e+00 2.00999999e+00 2.00699997e+00
    2.00699997e+00 2.00699997e+00 2.00399995e+00 2.00399995e+00
    2.00399995e+00 2.00600004e+00 2.00399995e+00 2.00600004e+00
    2.00200009e+00 2.00300002e+00 2.00200009e+00 1.99699998e+00 2.
    1.99899995e+00 1.99600005e+00 1.99600005e+00 1.99300003e+00
    1.99199998e+00 1.99000001e+00 0. 0. 0. 0. 0. 0. 0. 0. 0. 0. 0. 0. 0.
    0. 0. 1.16600001e+00 2.01399994e+00 2.00999999e+00 2.00999999e+00
    2.00699997e+00 2.00699997e+00 2.00699997e+00 2.00699997e+00
    2.00399995e+00 2.00399995e+00 2.00399995e+00 2.00699997e+00
    2.00699997e+00 2.00399995e+00 2.00399995e+00 2.00399995e+00 2. 2. 2.
    1.99300003e+00 1.99300003e+00 1.99699998e+00 1.99300003e+00
    1.99199998e+00 1.99600005e+00 0. 0. 0. 0. 0. 0. 0. 0. 0. 0. 0. 0. 0.
    0. 0. 1.16700006e+00 2.01200008e+00 2.00999999e+00 2.00699997e+00
    2.00999999e+00 2.00900006e+00 2.00399995e+00 2.00399995e+00
    2.00399995e+00 2.00399995e+00 2.00399995e+00 2.00200009e+00
    2.00200009e+00 2.00200009e+00 2. 2.00099993e+00 2.00200009e+00
    2.00099993e+00 1.99399996e+00 1.99500000e+00 1.99500000e+00
    1.99300003e+00 1.99300003e+00 1.99100006e+00 1.99300003e+00 0.
    2.35899997e+00 0. 0. 0. 0. 0. 0. 0. 0. 0. 0. 0. 0. 0. 2.01799989e+00
    2.00799990e+00 2.00699997e+00 2.00699997e+00 2.00999999e+00
    2.00699997e+00 2.00699997e+00 2.00399995e+00 2.00399995e+00
    2.00200009e+00 2. 2.00200009e+00 2.00399995e+00 2.00399995e+00 2. 2.
    2. 2. 1.99300003e+00 1.99699998e+00 1.99300003e+00 1.99300003e+00
    1.99000001e+00 1.99100006e+00 1.99300003e+00 0. 0. 0. 0. 0. 0. 0. 0.
    0. 0. 0. 0. 0. 0. 0. 1.16700006e+00 2.00900006e+00 2.00699997e+00
    2.00699997e+00 2.00699997e+00 2.00399995e+00 2.00600004e+00
    2.00399995e+00 2.00399995e+00 2. 2. 2.00500011e+00 2.00399995e+00
    2.00399995e+00 2. 1.99899995e+00 2.00200009e+00 1.99899995e+00
    1.99500000e+00 1.99500000e+00 1.99300003e+00 1.99300003e+00
    1.99199998e+00 1.99000001e+00 1.99300003e+00 0. 0. 0. 0. 0. 0. 0. 0.
    0. 0. 0. 0. 0. 0. 0. 1.16600001e+00 2.00999999e+00 2.00699997e+00
    2.00699997e+00 2.00699997e+00 2.00399995e+00 2.00399995e+00
    2.00399995e+00 2.00399995e+00 2. 2. 2.00399995e+00 2.00399995e+00 2.
    2. 2. 2. 1.99699998e+00 1.99300003e+00 1.99300003e+00 1.99300003e+00
    1.99300003e+00 1.99300003e+00 1.99100006e+00 1.99000001e+00
    1.64100003e+00 1.03799999e+00 0. 0. 0. 0. 0. 0. 0. 0. 0. 0. 0. 0. 0.
    1.16600001e+00 2.00900006e+00 2.00699997e+00 2.00799990e+00
    2.00399995e+00 2.00399995e+00 2.00399995e+00 2.00399995e+00
    2.00200009e+00 2. 2. 2.00399995e+00 2.00399995e+00 2. 2. 2.
    1.99699998e+00 1.99600005e+00 1.99699998e+00 1.99300003e+00
    1.99300003e+00 1.99300003e+00 1.99000001e+00 1.99000001e+00
    1.99000001e+00 1.65900004e+00 0. 0. 0. 0. 0. 0. 0. 0. 0. 0. 0. 0. 0.
    0. 0. 2.01200008e+00 2.00699997e+00 2.00500011e+00 2.00399995e+00
    2.00399995e+00 2.00399995e+00 2.00399995e+00 2. 2. 2. 2.00200009e+00
    2. 2. 2. 2. 2. 1.99699998e+00 1.99300003e+00 1.99300003e+00
    1.99300003e+00 1.99000001e+00 1.99000001e+00 1.99000001e+00
    1.99199998e+00 1.96599996e+00 0. 0. 0. 0. 0. 0. 0. 0. 0. 0. 0. 0. 0.
    0. 0. 2.01799989e+00 2.00900006e+00 2.00699997e+00 2.00399995e+00
    2.00399995e+00 2.00399995e+00 2.00200009e+00 2.00399995e+00 2. 2.
    2.00099993e+00 2. 2.00200009e+00 2. 1.99300003e+00 1.99899995e+00
    1.99699998e+00 1.99300003e+00 1.99300003e+00 1.99300003e+00
    1.99100006e+00 1.99000001e+00 1.99000001e+00 1.99000001e+00
    1.99000001e+00 1.05200005e+00 1.92499995e+00 0. 0. 0. 0. 0. 0. 0. 0.
    0. 0. 0. 0. 0. 1.73000002e+00 2.00699997e+00 2.00699997e+00
    2.00699997e+00 2.00399995e+00 2.00399995e+00 2.00200009e+00 2. 2. 2.
    2.00399995e+00 2.00399995e+00 2. 2. 1.99300003e+00 1.99699998e+00
    1.99500000e+00 1.99300003e+00 1.99300003e+00 1.99300003e+00
    1.99300003e+00 1.99000001e+00 1.98899996e+00 1.98699999e+00
    1.98800004e+00 0. 2.18799996e+00 0. 0. 0. 0. 0. 0. 0. 0. 0. 0. 0. 0.
    0. 1.69200003e+00 2.00600004e+00 2.00500011e+00 2.00399995e+00
    2.00399995e+00 2.00399995e+00 2. 2. 2. 2. 2. 2.00200009e+00 2. 2.
    1.99300003e+00 1.99300003e+00 1.99300003e+00 1.99300003e+00
    1.99300003e+00 1.99300003e+00 1.99000001e+00 1.99000001e+00
    1.99000001e+00 1.99000001e+00 1.98899996e+00 1.66999996e+00
    2.53999996e+00 0. 0. 0. 0. 0. 0. 0. 0. 0. 0. 0. 0. 0. 1.02900004e+00
    2.00399995e+00 2.00399995e+00 2.00399995e+00 2.00399995e+00
    2.00399995e+00 2. 2.00399995e+00 2. 1.99699998e+00 2. 2.00300002e+00
    2. 2. 1.99699998e+00 1.99300003e+00 1.99300003e+00 1.99300003e+00
    1.99300003e+00 1.99000001e+00 1.99000001e+00 1.99000001e+00
    1.99000001e+00 1.99000001e+00 1.99000001e+00 1.14300001e+00
    1.77300000e+00 0. 0. 0. 0. 0. 0. 0. 0. 0. 0. 0. 0. 0. 1.69700003e+00
    2.00900006e+00 2.00600004e+00 2.00600004e+00 2.00399995e+00
    2.00399995e+00 2.00300002e+00 2. 2. 2. 2. 2. 2. 2. 1.99699998e+00
    1.99300003e+00 1.99300003e+00 1.99300003e+00 1.99300003e+00
    1.99000001e+00 1.99000001e+00 1.99000001e+00 1.99000001e+00
    1.98699999e+00 1.99000001e+00 1.98699999e+00 0. 0. 0. 0. 0. 0. 0. 0.
    0. 0. 0. 0. 0. 0. 0. 2.01200008e+00 2.00500011e+00 2.00399995e+00
    2.00399995e+00 2.00399995e+00 2.00300002e+00 2. 2. 2. 2. 2. 2.
    1.99800003e+00 1.99699998e+00 1.99300003e+00 1.99300003e+00
    1.99300003e+00 1.99300003e+00 1.99100006e+00 1.99000001e+00
    1.99000001e+00 1.99000001e+00 1.98699999e+00 1.98800004e+00
    1.99000001e+00 0. 0. 0. 0. 0. 0. 0. 0. 0. 0. 0. 0. 1.97899997e+00 0.
    0. 2.00600004e+00 2.00399995e+00 2.00399995e+00 2.00399995e+00
    2.00399995e+00 2.00399995e+00 2. 2. 2. 2. 2. 2. 1.99699998e+00
    1.99300003e+00 1.99300003e+00 1.99300003e+00 1.99300003e+00
    1.99300003e+00 1.99000001e+00 1.99000001e+00 1.99000001e+00
    1.98899996e+00 1.98599994e+00 1.98800004e+00 1.99000001e+00
    1.69599998e+00 0. 0. 0. 0. 0. 0. 0. 0. 0. 0. 0. 0. 0. 0.
    2.00900006e+00 2.00399995e+00 2.00399995e+00 2.00200009e+00 2. 2. 2.
    2. 2. 1.99899995e+00 1.99699998e+00 1.99699998e+00 1.99699998e+00
    1.99300003e+00 1.99300003e+00 1.99300003e+00 1.99300003e+00
    1.99300003e+00 1.99199998e+00 1.99100006e+00 1.99000001e+00
    1.98899996e+00 1.98399997e+00 1.98800004e+00 1.98399997e+00
    1.91900003e+00 0. 0. 0. 0. 0. 0. 0. 0. 0. 0. 0. 0. 0. 0.
    2.01300001e+00 2.00399995e+00 2.00399995e+00 2.00099993e+00
    2.00399995e+00 1.99800003e+00 1.99699998e+00 2. 1.99899995e+00
    1.99699998e+00 1.99699998e+00 1.99300003e+00 1.99300003e+00
    1.99500000e+00 1.99300003e+00 1.99300003e+00 1.99300003e+00
    1.99300003e+00 1.99300003e+00 1.99000001e+00 1.99000001e+00
    1.98899996e+00 1.98699999e+00 1.98800004e+00 1.98500001e+00
    1.97800004e+00 0. 0. 0. 0. 0. 0. 0. 0. 0. 0. 0. 0. 0. 0.
    1.34200001e+00 2.00399995e+00 2. 2. 2.00099993e+00 2. 2.
    1.99899995e+00 1.99699998e+00 1.99399996e+00 1.99300003e+00
    1.99300003e+00 1.99300003e+00 1.99300003e+00 1.99100006e+00
    1.99199998e+00 1.99100006e+00 1.99000001e+00 1.99300003e+00
    1.99000001e+00 1.99000001e+00 1.98899996e+00 1.98699999e+00
    1.98800004e+00 1.98800004e+00 1.98699999e+00 0. 0. 0. 0. 0. 0. 0. 0.
    0. 0. 0. 0. 0. 0. 2.01600003e+00 2.00500011e+00 2.00099993e+00 2. 2.
    2. 1.99699998e+00 1.99699998e+00 1.99699998e+00 1.99600005e+00
    1.99300003e+00 1.99300003e+00 1.99300003e+00 1.99300003e+00
    1.99000001e+00 1.99000001e+00 1.99100006e+00 1.99000001e+00
    1.98699999e+00 1.98800004e+00 1.98699999e+00 1.98399997e+00
    1.98599994e+00 1.98800004e+00 1.98800004e+00 1.92200005e+00 0. 0. 0.
    0. 0. 0. 0. 0. 0. 0. 0. 1.80799997e+00 0. 0. 2.01900005e+00
    2.00399995e+00 2.00099993e+00 2.00399995e+00 2. 1.99699998e+00
    1.99699998e+00 1.99699998e+00 1.99699998e+00 1.99600005e+00
    1.99399996e+00 1.99300003e+00 1.99300003e+00 1.99300003e+00
    1.99000001e+00 1.99000001e+00 1.99300003e+00 1.99000001e+00
    1.98899996e+00 1.98800004e+00 1.98800004e+00 1.99000001e+00
    1.98699999e+00 1.98699999e+00 1.98800004e+00 1.99100006e+00 0. 0. 0.
    0. 0. 0. 0. 0. 0. 0. 0. 0. 0. 0. 0. 2.00399995e+00 2. 2. 2.
    1.99699998e+00 1.99699998e+00 1.99699998e+00 1.99699998e+00
    1.99300003e+00 1.99300003e+00 1.99300003e+00 1.99300003e+00
    1.99300003e+00 1.99100006e+00 1.99100006e+00 1.99300003e+00
    1.99199998e+00 1.98699999e+00 1.99000001e+00 1.98699999e+00
    1.98699999e+00 1.98699999e+00 1.98699999e+00 1.99000001e+00
    1.99199998e+00 0. 0. 0. 0. 0. 0. 0. 0. 0. 0. 0. 0. 0. 0.
    1.06500006e+00 2.00099993e+00 2. 2. 2. 1.99699998e+00 1.99399996e+00
    1.99399996e+00 1.99699998e+00 1.99500000e+00 1.99300003e+00
    1.99199998e+00 1.99300003e+00 1.99300003e+00 1.99000001e+00
    1.99100006e+00 1.99100006e+00 1.99100006e+00 1.98699999e+00
    1.98800004e+00 1.99000001e+00 1.98699999e+00 1.98699999e+00
    1.98800004e+00 1.99000001e+00 1.99000001e+00 0. 0. 0. 0. 0. 0. 0. 0.
    0. 0. 0. 0. 0. 0. 1.09099996e+00 2. 2. 2. 1.99699998e+00
    1.99500000e+00 1.99300003e+00 1.99300003e+00 1.99300003e+00
    1.99699998e+00 1.99300003e+00 1.99199998e+00 1.99300003e+00
    1.99300003e+00 1.99000001e+00 1.99000001e+00 1.99000001e+00
    1.99000001e+00 1.99000001e+00 1.99000001e+00 1.99000001e+00
    1.98699999e+00 1.98899996e+00 1.98800004e+00 1.99000001e+00
    1.98300004e+00 0. 0. 0. 0. 0. 0. 0. 0. 0. 0. 0. 0. 0. 0. 0.
    2.00500011e+00 2. 1.99699998e+00 1.99300003e+00 1.99399996e+00
    1.99300003e+00 1.99199998e+00 1.99100006e+00 1.99699998e+00
    1.99300003e+00 1.99300003e+00 1.99100006e+00 1.99100006e+00
    1.99000001e+00 1.98899996e+00 1.99300003e+00 1.99000001e+00
    1.98699999e+00 1.99000001e+00 1.98899996e+00 1.98800004e+00
    1.98699999e+00 1.98800004e+00 1.98800004e+00 1.98899996e+00 0. 0. 0.
    0. 0. 0. 0. 0. 0. 0. 0. 0. 0. 0. 0. 1.95700002e+00 2. 1.99500000e+00
    1.99300003e+00 1.99300003e+00 1.99399996e+00 1.99100006e+00
    1.98699999e+00 1.99500000e+00 2. 1.99000001e+00 1.99300003e+00
    1.98500001e+00 1.98300004e+00 1.99199998e+00 2.00099993e+00
    1.99300003e+00 1.01900005e+00 0. 0. 0. 0. 0. 1.84099996e+00 0. 0. 0.
    0. 0. 0. 0. 0. 0. 0. 0. 0. 0. 0. 0. 0. 0. 1.32599998e+00
    1.32400000e+00 1.32200003e+00 1.32400000e+00 1.28699994e+00 0. 0. 0.
    2.00600004e+00 2.00200009e+00 1.32200003e+00 0. 0. 0. 2.00799990e+00
    2.01099992e+00 0. 0. 0. 0. 0. 0. 0. 0. 0. 0. 0. 0. 0. 0. 0. 0. 0. 0.
    0. 0. 0. 0. 0. 0. 0. 0. 0. 0. 0. 0. 0. 0. 2.00699997e+00
    1.45400000e+00 0. 0. 0. 0. 2.00399995e+00 2.00699997e+00 0. 0. 0. 0.
    0. 0. 0. 0. 0. 0. 0. 0. 0. 0. 0. 0. 0. 0. 0. 0. 0. 0. 0. 0. 0. 0. 0.
    0. 0. 0. 0. 0. 0. 0. 0. 0. 0. 0. 0. 0. 0. 0. 0. 0. 0. 0. 0. 0. 0. 0.
    0. 0. 0. 0.</data></Depth>
</opencv_storage>
