<?xml version="1.0"?>
<opencv_storage>
<Depth type_id="opencv-matrix">
  <rows>40</rows>
  <cols>40</cols>
  <dt>f</dt>
  <data>
    0. 0. 0. 0. 0. 0. 2.75799990e+00 1.68499994e+00 0. 2.01900005e+00
    2.01600003e+00 2.01200008e+00 2.01099992e+00 2.01099992e+00
    2.01099992e+00 2.01099992e+00 2.00600004e+00 2.00600004e+00
    2.00600004e+00 2.00600004e+00 2.00500011e+00 2.00200009e+00
    1.99800003e+00 2.00300002e+00 2.00300002e+00 2.00200009e+00
    1.99000001e+00 1.99199998e+00 2.00500011e+00 2.00699997e+00
    1.99800003e+00 1.99500000e+00 1.99500000e+00 0. 0. 0. 0. 0. 0. 0. 0.
    0. 0. 0. 0. 0. 0. 0. 0. 2.02300000e+00 2.01900005e+00 2.01300001e+00
    2.01099992e+00 2.01099992e+00 2.01099992e+00 2.01099992e+00
    2.00699997e+00 2.00600004e+00 2.00600004e+00 2.00600004e+00
    2.00200009e+00 1.99600005e+00 1.99500000e+00 1.99699998e+00 2.
    1.99800003e+00 1.99399996e+00 1.99300003e+00 1.99600005e+00
    1.99800003e+00 1.99600005e+00 1.99399996e+00 1.99600005e+00 0. 0. 0.
    0. 0. 0. 0. 0. 0. 0. 0. 0. 0. 2.77099991e+00 2.80999994e+00 0.
    2.02999997e+00 2.01799989e+00 2.01600003e+00 2.01099992e+00
    2.01099992e+00 2.01099992e+00 2.00999999e+00 2.00699997e+00
    2.00600004e+00 2.00600004e+00 2.00300002e+00 2. 1.99699998e+00
    1.99500000e+00 1.99699998e+00 2. 1.99500000e+00 1.99100006e+00
    1.99000001e+00 1.99199998e+00 1.99300003e+00 1.99000001e+00
    1.99000001e+00 1.99000001e+00 0. 0. 0. 0. 0. 0. 0. 0. 0. 0. 0. 0. 0.
    0. 0. 1.66999996e+00 2.01900005e+00 2.01399994e+00 2.01099992e+00
    2.01099992e+00 2.01099992e+00 2.01099992e+00 2.00999999e+00
    2.00600004e+00 2.00600004e+00 2.00600004e+00 2.00300002e+00 2. 2.
    1.99800003e+00 1.99500000e+00 2. 1.99699998e+00 1.99100006e+00
    1.99000001e+00 1.99199998e+00 1.99500000e+00 1.99500000e+00
    1.99300003e+00 1.99300003e+00 0. 0. 0. 0. 0. 0. 0. 0. 0. 0. 0. 0. 0.
    0. 0. 2.02699995e+00 2.01600003e+00 2.01600003e+00 2.01399994e+00
    2.01099992e+00 2.01099992e+00 2.01099992e+00 2.01099992e+00
    2.00600004e+00 2.00600004e+00 2.00600004e+00 2.00500011e+00 2.
    1.99800003e+00 1.99500000e+00 1.99500000e+00 1.99800003e+00
    1.99600005e+00 1.99000001e+00 1.99000001e+00 1.99199998e+00
    1.99500000e+00 1.99399996e+00 1.99100006e+00 1.99100006e+00 0. 0. 0.
    0. 0. 0. 0. 0. 0. 0. 0. 0. 0. 1.76100004e+00 1.34000003e+00
    2.03099990e+00 2.01699996e+00 2.01600003e+00 2.01399994e+00
    2.01099992e+00 2.01099992e+00 2.01099992e+00 2.01099992e+00
    2.00600004e+00 2.00600004e+00 2.00600004e+00 2.00600004e+00
    2.00200009e+00 2. 1.99500000e+00 1.99899995e+00 1.99600005e+00
    1.99500000e+00 1.99000001e+00 1.99000001e+00 1.99199998e+00
    1.99500000e+00 1.99399996e+00 1.99100006e+00 1.99000001e+00 0. 0. 0.
    0. 0. 0. 0. 0. 0. 0. 0. 0. 0. 0. 0. 1.69599998e+00 2.01900005e+00
    2.01600003e+00 2.01399994e+00 2.01099992e+00 2.01099992e+00
    2.01099992e+00 2.00999999e+00 2.00600004e+00 2.00600004e+00
    2.00600004e+00 2.00500011e+00 2. 2. 1.99600005e+00 1.99500000e+00
    1.99399996e+00 1.99300003e+00 1.99300003e+00 1.99000001e+00
    1.99199998e+00 1.99500000e+00 1.99500000e+00 1.99500000e+00
    1.99000001e+00 0. 0. 0. 0. 0. 0. 0. 0. 0. 0. 0. 0. 0. 0. 0.
    1.32599998e+00 2.01099992e+00 2.01099992e+00 2.01500010e+00
    2.01099992e+00 2.01099992e+00 2.01099992e+00 2.00699997e+00
    2.00600004e+00 2.00600004e+00 2.00600004e+00 2.00500011e+00 2. 2.
    1.99899995e+00 1.99500000e+00 1.99399996e+00 1.99000001e+00
    1.99100006e+00 1.99000001e+00 1.99199998e+00 1.99500000e+00
    1.99500000e+00 1.99300003e+00 1.99500000e+00 0. 0. 0. 0. 0. 0. 0. 0.
    0. 0. 0. 0. 0. 0. 0. 2.02300000e+00 2.01399994e+00 2.01099992e+00
    2.01099992e+00 2.01099992e+00 2.01099992e+00 2.01099992e+00
    2.00600004e+00 2.00600004e+00 2.00600004e+00 2.00600004e+00
    2.00600004e+00 2.00600004e+00 2.00300002e+00 1.99800003e+00
    1.99399996e+00 1.99300003e+00 1.99000001e+00 1.99199998e+00
    1.99100006e+00 1.99199998e+00 1.99500000e+00 1.99500000e+00
    1.99000001e+00 1.99300003e+00 0. 0. 0. 0. 0. 0. 0. 0. 0. 0. 0. 0. 0.
    0. 0. 2.02600002e+00 2.01799989e+00 2.01300001e+00 2.01099992e+00
    2.01099992e+00 2.01099992e+00 2.01099992e+00 2.00600004e+00
    2.00600004e+00 2.00600004e+00 2.00600004e+00 2.00600004e+00
    2.00200009e+00 2. 1.99800003e+00 1.99399996e+00 1.99199998e+00
    1.99399996e+00 1.99500000e+00 1.99500000e+00 1.99500000e+00
    1.99300003e+00 1.99399996e+00 1.99000001e+00 1.99000001e+00 0. 0. 0.
    0. 0. 0. 0. 0. 0. 0. 0. 0. 0. 0. 0. 2.01900005e+00 2.02200007e+00
    2.01900005e+00 2.01099992e+00 2.01099992e+00 2.01099992e+00
    2.00999999e+00 2.00600004e+00 2.00600004e+00 2.00600004e+00
    2.00600004e+00 2.00300002e+00 2. 1.99800003e+00 1.99899995e+00
    1.99699998e+00 1.99600005e+00 1.99500000e+00 1.99500000e+00
    1.99199998e+00 1.99100006e+00 1.99000001e+00 1.99100006e+00
    1.99000001e+00 1.99000001e+00 0. 0. 0. 0. 0. 0. 0. 0. 0. 0. 0. 0. 0.
    0. 0. 2.01600003e+00 2.01900005e+00 2.01900005e+00 2.01099992e+00
    2.01099992e+00 2.01099992e+00 2.00900006e+00 2.00600004e+00
    2.00699997e+00 2.00999999e+00 2.00600004e+00 2.00300002e+00 2.
    1.99500000e+00 2. 1.99899995e+00 1.99600005e+00 1.99500000e+00
    1.99300003e+00 1.99000001e+00 1.99100006e+00 1.99199998e+00
    1.99000001e+00 1.99000001e+00 1.99000001e+00 0. 0. 0. 0. 0. 0. 0. 0.
    0. 0. 0. 0. 0. 0. 0. 2.01600003e+00 2.01600003e+00 2.01500010e+00
    2.01099992e+00 2.01099992e+00 2.01099992e+00 2.01099992e+00
    2.00699997e+00 2.00600004e+00 2.00600004e+00 2.00600004e+00
    2.00600004e+00 2.00099993e+00 1.99600005e+00 1.99800003e+00
    1.99800003e+00 1.99500000e+00 1.99500000e+00 1.99000001e+00
    1.99000001e+00 1.99199998e+00 1.99500000e+00 1.99000001e+00
    1.98500001e+00 0. 0. 0. 0. 0. 0. 0. 0. 0. 0. 0. 0. 0. 0. 0.
    1.33200002e+00 2.01600003e+00 2.01600003e+00 2.01099992e+00
    2.01099992e+00 2.01099992e+00 2.01099992e+00 2.01099992e+00
    2.00600004e+00 2.00600004e+00 2.00600004e+00 2.00600004e+00
    2.00600004e+00 2.00300002e+00 1.99800003e+00 1.99600005e+00
    1.99800003e+00 1.99500000e+00 1.99500000e+00 1.99300003e+00
    1.99000001e+00 1.99199998e+00 1.99300003e+00 1.99000001e+00
    1.99000001e+00 0. 0. 0. 0. 0. 0. 0. 0. 0. 0. 0. 0. 0. 0. 0.
    1.33000004e+00 2.01600003e+00 2.01600003e+00 2.01099992e+00
    2.01099992e+00 2.01099992e+00 2.01099992e+00 2.01099992e+00
    2.00600004e+00 2.00600004e+00 2.00600004e+00 2.00600004e+00
    2.00600004e+00 2.00200009e+00 1.99500000e+00 1.99800003e+00
    1.99800003e+00 1.99000001e+00 1.99500000e+00 1.99300003e+00
    1.99000001e+00 1.99199998e+00 1.99300003e+00 1.99000001e+00
    1.99000001e+00 0. 0. 0. 0. 0. 0. 0. 0. 0. 0. 0. 0. 0. 0. 0.
    1.33200002e+00 2.01699996e+00 2.01500010e+00 2.01099992e+00
    2.01099992e+00 2.01099992e+00 2.01099992e+00 2.00699997e+00
    2.00600004e+00 2. 2.00600004e+00 2.00600004e+00 2.00500011e+00 2. 2.
    2.00099993e+00 1.99800003e+00 1.99500000e+00 1.99300003e+00
    1.99100006e+00 1.99000001e+00 1.99199998e+00 1.99500000e+00
    1.99199998e+00 1.99000001e+00 0. 0. 0. 0. 0. 0. 0. 0. 0. 0. 0. 0. 0.
    0. 0. 2.02900004e+00 2.01900005e+00 2.01399994e+00 2.01099992e+00
    2.01099992e+00 2.01099992e+00 2.01099992e+00 2.00600004e+00
    2.00600004e+00 2.00600004e+00 2.00600004e+00 2. 2. 2. 2.00099993e+00
    2.00300002e+00 1.99899995e+00 1.99300003e+00 1.99000001e+00
    1.99000001e+00 1.99000001e+00 1.99000001e+00 1.99000001e+00
    1.99000001e+00 1.98500001e+00 0. 0. 0. 0. 0. 0. 0. 0. 0. 0. 0. 0. 0.
    0. 0. 2.02500010e+00 2.01600003e+00 2.01399994e+00 2.01099992e+00
    2.01099992e+00 2.01099992e+00 2.01099992e+00 2.00900006e+00
    2.00699997e+00 2.00600004e+00 2.00600004e+00 2.00600004e+00
    2.00099993e+00 2. 2.00200009e+00 2. 1.99500000e+00 1.99300003e+00
    1.99000001e+00 1.99000001e+00 1.99000001e+00 1.99100006e+00
    1.99199998e+00 1.98800004e+00 1.98199999e+00 0. 0. 0. 0. 0. 0. 0. 0.
    0. 0. 0. 0. 0. 0. 0. 2.01999998e+00 2.01600003e+00 2.01099992e+00
    2.01099992e+00 2.01099992e+00 2.01099992e+00 2.01099992e+00
    2.00699997e+00 2.00600004e+00 2.00600004e+00 2.00600004e+00
    2.00600004e+00 2.00300002e+00 2. 2. 2. 1.99500000e+00 1.99500000e+00
    1.99500000e+00 1.99000001e+00 1.99000001e+00 1.99100006e+00
    1.99399996e+00 1.99000001e+00 0. 0. 0. 0. 0. 0. 0. 0. 0. 0. 0. 0. 0.
    0. 0. 0. 2.01799989e+00 2.01600003e+00 2.01399994e+00 2.01099992e+00
    2.01099992e+00 2.01099992e+00 2.01099992e+00 2.00600004e+00
    2.00600004e+00 2.00600004e+00 2.00600004e+00 2.00600004e+00
    2.00200009e+00 2. 2. 2. 1.99899995e+00 1.99600005e+00 1.99500000e+00
    1.99000001e+00 1.99000001e+00 1.99000001e+00 1.99000001e+00
    1.99100006e+00 0. 0. 0. 0. 0. 0. 0. 0. 0. 0. 0. 0. 0. 0. 0.
    1.33200002e+00 2.01099992e+00 2.01300001e+00 2.01399994e+00
    2.01099992e+00 2.01099992e+00 2.01099992e+00 2.01099992e+00
    2.00600004e+00 2.00600004e+00 2.00600004e+00 2.00300002e+00
    2.00200009e+00 2.00099993e+00 2. 2. 2. 1.99899995e+00 1.99699998e+00
    1.99500000e+00 1.99399996e+00 1.99000001e+00 1.99000001e+00
    1.99000001e+00 1.99000001e+00 1.99500000e+00 0. 0. 0. 0. 0. 0. 0. 0.
    0. 0. 0. 0. 0. 0. 1.04200006e+00 2.01200008e+00 2.01300001e+00
    2.01099992e+00 2.01099992e+00 2.01099992e+00 2.01099992e+00
    2.01099992e+00 2.00600004e+00 2.00600004e+00 2.00600004e+00
    2.00300002e+00 2. 2.00600004e+00 2.00600004e+00 2.00600004e+00
    2.00300002e+00 1.99899995e+00 1.99500000e+00 1.99500000e+00
    1.99500000e+00 1.99100006e+00 1.99199998e+00 1.99300003e+00
    1.99000001e+00 1.99000001e+00 0. 0. 0. 0. 0. 0. 0. 0. 0. 0. 0. 0. 0.
    0. 1.33599997e+00 2.01600003e+00 2.01600003e+00 2.01500010e+00
    2.01200008e+00 2.01099992e+00 2.01099992e+00 2.00999999e+00
    2.00799990e+00 2.00600004e+00 2.00600004e+00 2.00399995e+00
    2.00399995e+00 2.00600004e+00 2.00300002e+00 2.00300002e+00
    2.00099993e+00 1.99699998e+00 1.99500000e+00 1.99500000e+00
    1.99199998e+00 1.99000001e+00 1.99199998e+00 1.99000001e+00
    1.99000001e+00 2.48900008e+00 0. 0. 0. 0. 0. 0. 0. 0. 0. 0. 0. 0. 0.
    0. 1.33399999e+00 2.01600003e+00 2.01600003e+00 2.01600003e+00
    2.01399994e+00 2.01099992e+00 2.01099992e+00 2.00999999e+00
    2.00799990e+00 2.00699997e+00 2.00600004e+00 2.00600004e+00
    2.00600004e+00 2.00300002e+00 2. 2. 1.99800003e+00 1.99300003e+00
    1.99000001e+00 1.99300003e+00 1.99000001e+00 1.99000001e+00
    1.99199998e+00 1.99100006e+00 1.99100006e+00 0. 0. 0. 0. 0. 0. 0. 0.
    0. 0. 0. 0. 0. 0. 0. 1.33700001e+00 2.01600003e+00 2.01399994e+00
    2.01600003e+00 2.01600003e+00 2.01399994e+00 2.01099992e+00
    2.01099992e+00 2.01099992e+00 2.00900006e+00 2.00600004e+00
    2.00600004e+00 2.00600004e+00 2.00300002e+00 2. 2.00099993e+00 2.
    1.99399996e+00 1.99000001e+00 1.99000001e+00 1.99000001e+00
    1.99000001e+00 1.99199998e+00 1.99500000e+00 1.99500000e+00 0. 0. 0.
    0. 0. 0. 0. 0. 0. 0. 0. 0. 0. 0. 0. 1.62100005e+00 2.01799989e+00
    2.01099992e+00 2.01600003e+00 2.01600003e+00 2.01399994e+00
    2.01099992e+00 2.01099992e+00 2.01099992e+00 2.00600004e+00
    2.00600004e+00 2.00600004e+00 2.00500011e+00 2. 1.99899995e+00
    1.99899995e+00 2. 1.99800003e+00 1.99100006e+00 1.99000001e+00
    1.99199998e+00 1.99000001e+00 1.99199998e+00 1.99300003e+00
    1.99100006e+00 0. 0. 0. 0. 0. 0. 0. 0. 0. 0. 0. 0. 0. 0. 0.
    1.62000000e+00 2.01699996e+00 2.01600003e+00 2.01600003e+00
    2.01399994e+00 2.01300001e+00 2.01600003e+00 2.00999999e+00
    2.00900006e+00 2.00999999e+00 2.00799990e+00 2.00600004e+00
    2.00300002e+00 2. 1.99800003e+00 1.99500000e+00 2. 1.99800003e+00
    1.99500000e+00 1.99000001e+00 1.99300003e+00 1.99000001e+00
    1.99199998e+00 1.99399996e+00 1.99000001e+00 0. 0. 0. 0. 0. 0. 0. 0.
    0. 0. 0. 0. 0. 0. 0. 2.01500010e+00 2.01999998e+00 2.01999998e+00
    2.01600003e+00 2.01399994e+00 2.01099992e+00 2.01099992e+00
    2.00999999e+00 2.00600004e+00 2.00799990e+00 2.00999999e+00
    2.00600004e+00 2.00399995e+00 2.00099993e+00 2. 1.99500000e+00 2.
    1.99699998e+00 1.99300003e+00 1.99000001e+00 1.99000001e+00
    1.99000001e+00 1.99100006e+00 1.99000001e+00 1.99500000e+00 0. 0. 0.
    0. 0. 0. 0. 0. 0. 0. 0. 0. 0. 0. 0. 2.01399994e+00 2.01600003e+00
    2.01500010e+00 2.01399994e+00 2.01300001e+00 2.01099992e+00
    2.01099992e+00 2.01099992e+00 2.00600004e+00 2.00600004e+00
    2.00600004e+00 2.00600004e+00 2.00600004e+00 2.00300002e+00 2.
    1.99699998e+00 2. 1.99399996e+00 1.99000001e+00 1.99000001e+00
    1.99000001e+00 1.99000001e+00 1.99000001e+00 1.99000001e+00
    1.99300003e+00 2.81299996e+00 0. 0. 0. 0. 0. 0. 0. 0. 0. 0. 0. 0. 0.
    0. 2.01099992e+00 2.01399994e+00 2.01099992e+00 2.01099992e+00
    2.01099992e+00 2.01099992e+00 2.01099992e+00 2.01099992e+00
    2.01099992e+00 2.00900006e+00 2.00600004e+00 2.00600004e+00
    2.00600004e+00 2.00600004e+00 2.00300002e+00 2. 2. 1.99800003e+00
    1.99000001e+00 1.99000001e+00 1.99000001e+00 1.99000001e+00
    1.99100006e+00 1.99000001e+00 1.99000001e+00 2.78699994e+00 0. 0. 0.
    0. 0. 0. 0. 0. 0. 0. 0. 0. 0. 0. 2.01699996e+00 2.01500010e+00
    2.01300001e+00 2.01099992e+00 2.01099992e+00 2.01099992e+00
    2.01099992e+00 2.00600004e+00 2.01099992e+00 2.01099992e+00
    2.00600004e+00 2.00600004e+00 2.00600004e+00 2. 2. 1.99800003e+00
    1.99500000e+00 1.99300003e+00 1.99000001e+00 1.99000001e+00
    1.99199998e+00 1.99000001e+00 1.99199998e+00 1.99500000e+00
    1.99199998e+00 0. 0. 0. 0. 0. 0. 0. 0. 0. 0. 0. 0. 0. 0. 0.
    2.02200007e+00 2.01099992e+00 2.01099992e+00 2.01099992e+00
    2.01099992e+00 2.01099992e+00 2.01099992e+00 2.00699997e+00
    2.00999999e+00 2.01099992e+00 2.00600004e+00 2.00600004e+00
    2.00600004e+00 2. 2. 1.99699998e+00 1.99300003e+00 1.99000001e+00
    1.99000001e+00 1.99000001e+00 1.99100006e+00 1.99000001e+00
    1.99199998e+00 1.99500000e+00 1.99500000e+00 0. 0. 0. 0. 0. 0. 0. 0.
    0. 0. 0. 0. 0. 0. 0. 2.01399994e+00 2.01099992e+00 2.01099992e+00
    2.01099992e+00 2.00600004e+00 2.00799990e+00 2.00799990e+00
    2.00999999e+00 2.00900006e+00 2.00600004e+00 2.00600004e+00
    2.00600004e+00 2.00600004e+00 2.00200009e+00 2.00099993e+00
    1.99699998e+00 1.99500000e+00 1.99399996e+00 1.99300003e+00
    1.99000001e+00 1.99000001e+00 1.99000001e+00 1.99000001e+00
    1.99100006e+00 2.30599999e+00 0. 0. 0. 0. 0. 0. 0. 0. 0. 0. 0. 0. 0.
    0. 0. 1.74399996e+00 2.00900006e+00 2.01200008e+00 2.01099992e+00
    2.00799990e+00 2.00600004e+00 2.00799990e+00 2.01099992e+00
    2.01099992e+00 2.00600004e+00 2.00300002e+00 2. 2.00200009e+00
    2.00500011e+00 2.00200009e+00 1.99800003e+00 1.99500000e+00
    1.99300003e+00 1.99199998e+00 1.99000001e+00 1.99000001e+00
    1.99000001e+00 1.99100006e+00 1.99199998e+00 2.77900004e+00 0. 0. 0.
    0. 0. 0. 0. 0. 0. 0. 0. 0. 0. 0. 0. 0. 1.47800004e+00 1.48800004e+00
    1.48099995e+00 1.48099995e+00 1.48000002e+00 1.48000002e+00
    1.73399997e+00 2.01099992e+00 2.00600004e+00 1.99600005e+00
    1.99000001e+00 1.99699998e+00 2.00399995e+00 1.99800003e+00
    1.99500000e+00 1.99500000e+00 1.99500000e+00 1.99500000e+00
    1.99000001e+00 1.99000001e+00 1.99000001e+00 1.99199998e+00
    1.99000001e+00 2.23900008e+00 0. 0. 0. 0. 0. 0. 0. 0. 0. 0. 0. 0. 0.
    0. 0. 0. 0. 0. 0. 0. 0. 0. 1.58899999e+00 2.02699995e+00
    2.08699989e+00 1.69299996e+00 1.37199998e+00 1.75000000e+00
    2.01600003e+00 2. 1.99000001e+00 1.99399996e+00 1.99300003e+00
    1.99199998e+00 1.99500000e+00 1.99000001e+00 1.99000001e+00
    1.99000001e+00 1.98500001e+00 1.42100000e+00 1.48099995e+00 0. 0. 0.
    0. 0. 0. 0. 0. 0. 0. 0. 0. 0. 0. 0. 0. 0. 0. 0. 0. 0. 1.75100005e+00
    2.02699995e+00 2.09699988e+00 2.10800004e+00 2.10200000e+00
    2.07999992e+00 2.03099990e+00 2.01399994e+00 2.01600003e+00
    1.48500001e+00 1.47599995e+00 1.47899997e+00 1.48099995e+00
    1.47599995e+00 1.70000005e+00 1.99100006e+00 1.99300003e+00 0. 0. 0.
    0. 0. 0. 0. 0. 0. 0. 0. 0. 0. 0. 0. 0. 0. 0. 0. 0. 0. 1.35099995e+00
    2.08400011e+00 2.05800009e+00 2.02900004e+00 2.06800008e+00
    2.10299993e+00 2.09800005e+00 2.09400010e+00 2.04399991e+00
    2.03200006e+00 2.04699993e+00 2.09599996e+00 0. 0. 0. 0. 0. 0. 0. 0.
    0. 0. 0. 0. 0. 0. 0. 0. 0. 0. 0. 0. 0. 0. 0. 0. 0. 0. 0. 0.
    1.60300004e+00 2.06100011e+00 2.04600000e+00 2.03999996e+00
    2.05599999e+00 2.07299995e+00 2.07599998e+00 2.06900001e+00
    2.04900002e+00 2.06500006e+00 2.07900000e+00 2.08100009e+00
    1.44799995e+00 0. 0. 0. 0. 0. 0. 0. 0. 0. 0. 0. 0. 0. 0. 0. 0. 0. 0.
    0. 0. 0. 0. 0. 0. 0. 0. 1.32700002e+00 2.03600001e+00 2.04299998e+00
    2.03099990e+00 2.03800011e+00 2.04200006e+00 2.04500008e+00
    2.04999995e+00 2.04999995e+00 2.04399991e+00 2.05399990e+00
    2.06399989e+00 2.06399989e+00 1.44200003e+00 0. 0. 0. 0. 0. 0. 0. 0.
    0. 0. 0. 0. 0. 0. 0. 0.</data></Depth>
</opencv_storage>
