<?xml version="1.0"?>
<opencv_storage>
<Depth type_id="opencv-matrix">
  <rows>40</rows>
  <cols>40</cols>
  <dt>f</dt>
  <data>
    0. 0. 0. 0. 0. 0. 0. 0. 0. 1.98699999e+00 1.98399997e+00
    1.98300004e+00 1.98399997e+00 1.98399997e+00 1.98399997e+00
    1.98500001e+00 1.98699999e+00 1.98399997e+00 1.98000002e+00
    1.98399997e+00 1.98399997e+00 1.98800004e+00 1.98800004e+00
    1.98800004e+00 1.99199998e+00 1.99300003e+00 1.99500000e+00
    1.99500000e+00 2.04800010e+00 1.99199998e+00 1.98800004e+00
    2.43600011e+00 0. 0. 0. 0. 0. 0. 0. 0. 0. 0. 0. 0. 0. 0. 0. 0. 0.
    1.98000002e+00 1.98199999e+00 1.98099995e+00 1.98399997e+00
    1.98399997e+00 1.98399997e+00 1.98399997e+00 1.98300004e+00
    1.98399997e+00 1.98000002e+00 1.98399997e+00 1.98399997e+00
    1.98500001e+00 1.98800004e+00 1.98800004e+00 1.98800004e+00
    1.98800004e+00 1.99000001e+00 1.99199998e+00 1.99000001e+00
    1.99100006e+00 1.99000001e+00 1.98800004e+00 1.98800004e+00 0. 0. 0.
    0. 0. 0. 0. 0. 0. 0. 0. 0. 0. 0. 0. 0. 1.98300004e+00 1.98399997e+00
    1.98399997e+00 1.98399997e+00 1.98399997e+00 1.98399997e+00
    1.98399997e+00 1.98099995e+00 1.98399997e+00 1.98399997e+00
    1.98399997e+00 1.98399997e+00 1.98500001e+00 1.98800004e+00
    1.98800004e+00 1.98800004e+00 1.98800004e+00 1.98800004e+00
    1.98800004e+00 1.98800004e+00 1.98800004e+00 1.98800004e+00
    1.98800004e+00 1.98800004e+00 0. 0. 0. 0. 0. 0. 0. 0. 0. 0. 0. 0. 0.
    0. 0. 1.27100003e+00 1.98599994e+00 1.98399997e+00 1.98399997e+00
    1.98399997e+00 1.98399997e+00 1.98399997e+00 1.98399997e+00
    1.98399997e+00 1.98399997e+00 1.98599994e+00 1.98800004e+00
    1.98500001e+00 1.98500001e+00 1.98800004e+00 1.98899996e+00
    1.99199998e+00 1.99199998e+00 1.98800004e+00 1.98800004e+00
    1.98800004e+00 1.98800004e+00 1.98800004e+00 1.98800004e+00
    1.98800004e+00 0. 0. 0. 0. 0. 0. 0. 0. 0. 0. 0. 0. 0. 0. 0.
    1.99600005e+00 1.98599994e+00 1.98399997e+00 1.98399997e+00
    1.98500001e+00 1.98399997e+00 1.98399997e+00 1.98399997e+00
    1.98399997e+00 1.98399997e+00 1.98699999e+00 1.98599994e+00
    1.98800004e+00 1.98800004e+00 1.98800004e+00 1.98800004e+00
    1.99199998e+00 1.99000001e+00 1.98800004e+00 1.98800004e+00
    1.98800004e+00 1.98800004e+00 1.98800004e+00 1.98800004e+00
    1.98899996e+00 0. 0. 0. 0. 0. 0. 0. 0. 0. 0. 0. 0. 0. 0. 0.
    1.33299994e+00 1.98699999e+00 1.98800004e+00 1.98800004e+00
    1.98800004e+00 1.98800004e+00 1.98800004e+00 1.98699999e+00
    1.98500001e+00 1.98399997e+00 1.98800004e+00 1.98800004e+00
    1.98800004e+00 1.98800004e+00 1.98800004e+00 1.99199998e+00
    1.98800004e+00 1.99000001e+00 1.98899996e+00 1.99100006e+00
    1.99000001e+00 1.98800004e+00 1.98800004e+00 1.98800004e+00
    1.98800004e+00 0. 0. 0. 0. 0. 0. 0. 0. 0. 0. 0. 0. 0. 0. 0.
    1.99899995e+00 1.98800004e+00 1.98800004e+00 1.98800004e+00
    1.98800004e+00 1.98800004e+00 1.98800004e+00 1.98800004e+00
    1.98800004e+00 1.98800004e+00 1.98800004e+00 1.98800004e+00
    1.98800004e+00 1.98899996e+00 1.99199998e+00 1.99199998e+00
    1.99199998e+00 1.99199998e+00 1.99199998e+00 1.99199998e+00
    1.99199998e+00 1.99199998e+00 1.98800004e+00 1.98800004e+00
    1.99199998e+00 0. 0. 0. 0. 0. 0. 0. 0. 0. 0. 0. 0. 0. 0. 0.
    1.99899995e+00 1.98800004e+00 1.98800004e+00 1.98800004e+00
    1.98800004e+00 1.98800004e+00 1.98800004e+00 1.98800004e+00
    1.98800004e+00 1.98800004e+00 1.98800004e+00 1.98800004e+00
    1.98800004e+00 1.98899996e+00 1.99199998e+00 1.99399996e+00
    1.99600005e+00 1.99199998e+00 1.99199998e+00 1.99199998e+00
    1.99199998e+00 1.99199998e+00 1.99199998e+00 1.99199998e+00
    1.98800004e+00 0. 0. 0. 0. 0. 0. 0. 0. 0. 0. 0. 0. 0. 0. 0.
    1.99600005e+00 1.98800004e+00 1.99199998e+00 1.98800004e+00
    1.98800004e+00 1.98800004e+00 1.98800004e+00 1.98800004e+00
    1.98800004e+00 1.98800004e+00 1.98800004e+00 1.98800004e+00
    1.98800004e+00 1.98899996e+00 1.99199998e+00 1.99199998e+00
    1.99300003e+00 1.99199998e+00 1.99199998e+00 1.99199998e+00
    1.99199998e+00 1.99199998e+00 1.99199998e+00 1.99199998e+00
    1.99199998e+00 0. 0. 0. 0. 0. 0. 0. 0. 0. 0. 0. 0. 0. 0. 0.
    1.99500000e+00 1.99199998e+00 1.99199998e+00 1.99199998e+00
    1.99199998e+00 1.99199998e+00 1.99199998e+00 1.98800004e+00
    1.99100006e+00 1.98800004e+00 1.99199998e+00 1.98800004e+00
    1.99100006e+00 1.98899996e+00 1.99199998e+00 1.99199998e+00
    1.99199998e+00 1.99199998e+00 1.99199998e+00 1.99199998e+00
    1.99600005e+00 1.99199998e+00 1.99199998e+00 1.99199998e+00
    1.99199998e+00 0. 0. 0. 0. 0. 0. 0. 0. 0. 0. 0. 0. 0. 0. 0.
    1.99800003e+00 1.99199998e+00 1.99500000e+00 1.99199998e+00
    1.99199998e+00 1.99199998e+00 1.99199998e+00 1.99199998e+00
    1.99199998e+00 1.99300003e+00 1.99500000e+00 1.99199998e+00
    1.98899996e+00 1.99300003e+00 1.99600005e+00 1.99600005e+00
    1.99600005e+00 1.99699998e+00 1.99699998e+00 2. 1.99600005e+00
    1.99600005e+00 1.99600005e+00 1.99399996e+00 1.83299994e+00 0. 0. 0.
    0. 0. 0. 0. 0. 0. 0. 0. 0. 0. 0. 0. 1.99500000e+00 1.99199998e+00
    1.99399996e+00 1.99300003e+00 1.99199998e+00 1.99199998e+00
    1.99199998e+00 1.98800004e+00 1.98899996e+00 1.99600005e+00
    1.99199998e+00 1.99199998e+00 1.99199998e+00 1.99199998e+00
    1.99500000e+00 1.99199998e+00 1.99600005e+00 1.99899995e+00
    1.99699998e+00 1.99600005e+00 1.99699998e+00 1.99600005e+00
    1.99399996e+00 1.99399996e+00 1.40799999e+00 0. 0. 0. 0. 0. 0. 0. 0.
    0. 0. 0. 0. 0. 0. 0. 1.99899995e+00 1.99600005e+00 1.99300003e+00
    1.99199998e+00 1.99600005e+00 1.99600005e+00 1.99600005e+00
    1.99199998e+00 1.98800004e+00 1.99600005e+00 1.99199998e+00
    1.99199998e+00 1.99199998e+00 1.99300003e+00 1.99600005e+00
    1.99600005e+00 1.99600005e+00 2. 1.99699998e+00 1.99600005e+00
    1.99600005e+00 1.99199998e+00 1.99199998e+00 1.99199998e+00 0. 0. 0.
    0. 0. 0. 0. 0. 0. 0. 0. 0. 0. 0. 0. 0. 2.00300002e+00 2.
    1.99600005e+00 1.99600005e+00 1.99699998e+00 1.99600005e+00
    1.99600005e+00 1.99300003e+00 1.99300003e+00 1.99600005e+00
    1.99600005e+00 1.99199998e+00 1.99600005e+00 1.99600005e+00
    1.99800003e+00 1.99699998e+00 1.99699998e+00 2. 1.99899995e+00
    1.99600005e+00 1.99600005e+00 1.99600005e+00 1.99500000e+00
    1.99199998e+00 1.40600002e+00 0. 0. 0. 0. 0. 0. 0. 0. 0. 0. 0. 0. 0.
    0. 1.97399998e+00 2.00300002e+00 2. 1.99600005e+00 1.99600005e+00 2.
    1.99699998e+00 1.99600005e+00 1.99600005e+00 1.99699998e+00 2. 2.
    1.99600005e+00 1.99600005e+00 1.99699998e+00 2. 2. 1.99800003e+00 2.
    1.99899995e+00 1.99800003e+00 1.99600005e+00 1.99600005e+00
    1.99199998e+00 1.99399996e+00 0. 0. 0. 0. 0. 0. 0. 0. 0. 0. 0. 0. 0.
    0. 0. 1.99600005e+00 2. 2. 1.99899995e+00 1.99600005e+00
    1.99600005e+00 1.99899995e+00 2. 2. 2. 2. 2. 1.99899995e+00 2.
    1.99699998e+00 2. 2.00399995e+00 1.99899995e+00 2. 2.00300002e+00
    2.00300002e+00 2. 1.99600005e+00 1.99600005e+00 1.99600005e+00 0. 0.
    0. 0. 0. 0. 0. 0. 0. 0. 0. 0. 0. 0. 0. 1.85300004e+00 2. 2. 2. 2.
    1.99600005e+00 2. 2. 1.99600005e+00 1.99600005e+00 2. 2.
    1.99800003e+00 2. 1.99699998e+00 2.00200009e+00 2.00399995e+00
    2.00399995e+00 2. 2.00399995e+00 2. 2. 1.99600005e+00 2.
    2.00399995e+00 0. 0. 0. 0. 0. 0. 0. 0. 0. 0. 0. 0. 0. 0. 0.
    1.27199996e+00 2. 2. 2. 2. 2. 2. 2. 1.99899995e+00 1.99899995e+00 2.
    2. 2. 2. 2.00099993e+00 2.00399995e+00 2.00399995e+00 2.00399995e+00
    2.00399995e+00 2.00399995e+00 2.00200009e+00 2.00099993e+00 2. 2.
    1.99600005e+00 0. 0. 0. 0. 0. 0. 0. 0. 0. 0. 0. 0. 0. 0. 0.
    1.94900000e+00 2. 2. 2. 2. 2. 2. 2. 2. 2.00300002e+00 2. 2. 2. 2.
    2.00099993e+00 2.00399995e+00 2.00399995e+00 2.00399995e+00
    2.00399995e+00 2.00399995e+00 2.00399995e+00 2. 2. 2. 2. 0. 0. 0. 0.
    0. 0. 0. 0. 0. 0. 0. 0. 0. 0. 0. 1.94900000e+00 2.00300002e+00 2. 2.
    2. 2.00399995e+00 2.00399995e+00 2. 2. 2. 2.00399995e+00 2. 2. 2.
    2.00099993e+00 2.00399995e+00 2.00399995e+00 2. 2.00399995e+00
    2.00399995e+00 2.00399995e+00 2.00399995e+00 2.00399995e+00
    2.00399995e+00 2.58200002e+00 0. 0. 0. 0. 0. 0. 0. 0. 0. 0. 0. 0. 0.
    0. 0. 2.00399995e+00 2.00399995e+00 2. 2.00099993e+00 2.00399995e+00
    2.00399995e+00 2.00399995e+00 2.00399995e+00 2. 2. 2. 2. 2. 2.
    2.00200009e+00 2.00500011e+00 2.00399995e+00 2.00099993e+00
    2.00399995e+00 2.00399995e+00 2.00399995e+00 2.00399995e+00
    2.00300002e+00 2.00300002e+00 1.00300002e+00 0. 0. 0. 0. 0. 0. 0. 0.
    0. 0. 0. 0. 0. 0. 0. 2.00399995e+00 2.00399995e+00 2.00300002e+00 2.
    2.00399995e+00 2.00399995e+00 2.00399995e+00 2.00399995e+00 2.
    2.00399995e+00 2.00399995e+00 2. 2. 2.00200009e+00 2.00500011e+00
    2.00699997e+00 2.00399995e+00 2.00399995e+00 2.00399995e+00
    2.00399995e+00 2.00399995e+00 2.00399995e+00 2.00200009e+00
    1.99800003e+00 1.75999999e+00 0. 0. 0. 0. 0. 0. 0. 0. 0. 0. 0. 0. 0.
    0. 0. 2.00799990e+00 2.00399995e+00 2.00399995e+00 2.00399995e+00
    2.00399995e+00 2.00399995e+00 2.00399995e+00 2.00399995e+00
    2.00399995e+00 2.00399995e+00 2.00399995e+00 2. 2. 2. 2.00500011e+00
    2.00799990e+00 2.00399995e+00 2.00799990e+00 2.00799990e+00
    2.00799990e+00 2.00799990e+00 2.00399995e+00 2.00399995e+00
    1.99699998e+00 2.29999995e+00 0. 0. 0. 0. 0. 0. 0. 0. 0. 0. 0. 0. 0.
    0. 0. 2.00399995e+00 2.00399995e+00 2.00399995e+00 2.00399995e+00
    2.00399995e+00 2.00399995e+00 2.00399995e+00 2.00399995e+00
    2.00399995e+00 2.00500011e+00 2.00500011e+00 2.00399995e+00
    2.00399995e+00 2. 2.00500011e+00 2.00799990e+00 2.00799990e+00
    2.00799990e+00 2.00799990e+00 2.00500011e+00 2.00799990e+00
    2.00799990e+00 2.00500011e+00 1.99800003e+00 2.35899997e+00 0. 0. 0.
    0. 0. 0. 0. 0. 0. 0. 0. 0. 0. 0. 0. 2.00399995e+00 2.00399995e+00
    2.00399995e+00 2.00399995e+00 2.00399995e+00 2.00699997e+00
    2.00999999e+00 2.00999999e+00 2.00399995e+00 2.00399995e+00
    2.00799990e+00 2.00699997e+00 2.00399995e+00 2.00399995e+00
    2.00999999e+00 2.00799990e+00 2.00799990e+00 2.00799990e+00
    2.00799990e+00 2.00600004e+00 2.00799990e+00 2.00799990e+00
    2.00799990e+00 2.00600004e+00 2.36800003e+00 0. 0. 0. 0. 0. 0. 0. 0.
    0. 0. 0. 0. 0. 0. 1.45500004e+00 2.00399995e+00 2.00699997e+00
    2.00600004e+00 2.00799990e+00 2.00799990e+00 2.00799990e+00
    2.00900006e+00 2.00500011e+00 2.00500011e+00 2.00699997e+00
    2.00500011e+00 2.00500011e+00 2.00399995e+00 2.00399995e+00
    2.00900006e+00 2.00799990e+00 2.01099992e+00 2.01099992e+00
    2.00799990e+00 2.00799990e+00 2.00799990e+00 2.00799990e+00
    2.00799990e+00 2.00399995e+00 0. 0. 0. 0. 0. 0. 0. 0. 0. 0. 0. 0. 0.
    0. 0. 1.60399997e+00 2.00799990e+00 2.00799990e+00 2.00600004e+00
    2.00699997e+00 2.00799990e+00 2.00999999e+00 2.00799990e+00
    2.00399995e+00 2.00500011e+00 2.00799990e+00 2.00500011e+00
    2.00500011e+00 2.00799990e+00 2.00399995e+00 2.00900006e+00
    2.01200008e+00 2.01200008e+00 2.01200008e+00 2.00799990e+00
    2.00799990e+00 2.00799990e+00 2.00799990e+00 2.00799990e+00
    2.00399995e+00 0. 0. 0. 0. 0. 0. 0. 0. 0. 0. 0. 0. 0. 0. 0.
    1.77699995e+00 2.00799990e+00 2.00900006e+00 2.00799990e+00
    2.00799990e+00 2.01099992e+00 2.01200008e+00 2.01200008e+00
    2.00399995e+00 2.00399995e+00 2.00699997e+00 2.00799990e+00
    2.00900006e+00 2.00900006e+00 2.00799990e+00 2.01300001e+00
    2.00999999e+00 2.00799990e+00 2.01200008e+00 2.00999999e+00
    2.00799990e+00 2.00799990e+00 2.00799990e+00 2.00799990e+00 2. 0. 0.
    0. 0. 0. 0. 0. 0. 0. 0. 0. 0. 0. 0. 0. 2.01600003e+00 2.01500010e+00
    2.01399994e+00 2.01099992e+00 2.00799990e+00 2.00799990e+00
    2.01200008e+00 2.01200008e+00 2.00799990e+00 2.00799990e+00
    2.01200008e+00 2.01099992e+00 2.00799990e+00 2.00799990e+00
    2.00799990e+00 2.01300001e+00 2.01200008e+00 2.01200008e+00
    2.01200008e+00 2.01200008e+00 2.01200008e+00 2.00799990e+00
    2.01099992e+00 2.00799990e+00 2.00600004e+00 0. 0. 0. 0. 0. 0. 0. 0.
    0. 0. 0. 0. 0. 0. 0. 2.01200008e+00 2.01600003e+00 2.01600003e+00
    2.01399994e+00 2.00900006e+00 2.00799990e+00 2.01200008e+00
    2.01200008e+00 2.01200008e+00 2.01600003e+00 2.01200008e+00
    2.01200008e+00 2.01200008e+00 2.01200008e+00 2.01200008e+00
    2.01300001e+00 2.01600003e+00 2.01600003e+00 2.01200008e+00
    2.01200008e+00 2.01200008e+00 2.01200008e+00 2.01200008e+00
    2.01200008e+00 0. 0. 0. 0. 0. 0. 0. 0. 0. 0. 0. 0. 0. 0. 0. 0.
    2.01200008e+00 2.01600003e+00 2.01600003e+00 2.01600003e+00
    2.01600003e+00 2.01300001e+00 2.01200008e+00 2.01500010e+00
    2.01200008e+00 2.01200008e+00 2.01200008e+00 2.01600003e+00
    2.01500010e+00 2.00999999e+00 2.01200008e+00 2.01300001e+00
    2.01600003e+00 2.01600003e+00 2.01300001e+00 2.01200008e+00
    2.01200008e+00 2.01200008e+00 2.01099992e+00 2.00799990e+00 0. 0. 0.
    0. 0. 0. 0. 0. 0. 0. 0. 0. 0. 0. 0. 0. 2.01600003e+00 2.01600003e+00
    2.01600003e+00 2.01600003e+00 2.01600003e+00 2.01600003e+00
    2.01399994e+00 2.01600003e+00 2.01600003e+00 2.01500010e+00
    2.01600003e+00 2.01600003e+00 2.01500010e+00 2.01300001e+00
    2.01200008e+00 2.01600003e+00 2.01600003e+00 2.01300001e+00
    2.01600003e+00 2.01500010e+00 2.01300001e+00 2.01399994e+00
    2.01099992e+00 2.00799990e+00 0. 0. 0. 0. 0. 0. 0. 0. 0. 0. 0. 0. 0.
    0. 0. 0. 2.01600003e+00 2.01600003e+00 2.01600003e+00 2.01600003e+00
    2.01600003e+00 2.01600003e+00 2.01600003e+00 2.01600003e+00
    2.01600003e+00 2.01600003e+00 2.01600003e+00 2.01200008e+00
    2.01500010e+00 2.01200008e+00 2.01200008e+00 2.01699996e+00
    2.01600003e+00 2.01600003e+00 2.01600003e+00 2.01600003e+00
    2.01600003e+00 2.01600003e+00 2.01200008e+00 1.30499995e+00 0. 0. 0.
    0. 0. 0. 0. 0. 0. 0. 0. 0. 0. 0. 0. 0. 2.01600003e+00 2.01600003e+00
    2.01600003e+00 2.01600003e+00 2.01600003e+00 2.01600003e+00
    2.01200008e+00 2.01500010e+00 2.01600003e+00 2.01600003e+00
    2.01600003e+00 2.01600003e+00 2.01300001e+00 2.01200008e+00
    2.01300001e+00 2.01600003e+00 2.01600003e+00 2.01900005e+00
    2.01999998e+00 2.01600003e+00 2.01600003e+00 2.01600003e+00
    2.01600003e+00 2.01799989e+00 0. 0. 0. 0. 0. 0. 0. 0. 0. 0. 0. 0. 0.
    0. 0. 0. 1.39199996e+00 1.39199996e+00 2.01600003e+00 2.01600003e+00
    2.01600003e+00 2.01799989e+00 2.01600003e+00 2.02200007e+00
    2.01799989e+00 2.01399994e+00 2.01500010e+00 2.01600003e+00
    2.01600003e+00 2.01600003e+00 2.01600003e+00 2.01699996e+00
    2.01799989e+00 2.01799989e+00 2.01600003e+00 2.01600003e+00
    2.01600003e+00 2.01600003e+00 2.01600003e+00 1.64100003e+00 0. 0. 0.
    0. 0. 0. 0. 0. 0. 0. 0. 0. 0. 0. 0. 0. 0. 0. 0. 0. 2.11700010e+00
    2.11800003e+00 2.11899996e+00 2.06200004e+00 2.02999997e+00
    2.10800004e+00 2.10800004e+00 2.01200008e+00 2.01699996e+00
    2.01900005e+00 2.01900005e+00 2.01699996e+00 2.01999998e+00
    2.01300001e+00 2.01200008e+00 2.01200008e+00 2.01500010e+00
    2.01600003e+00 2.01600003e+00 0. 0. 0. 0. 0. 0. 0. 0. 0. 0. 0. 0. 0.
    0. 0. 0. 0. 0. 0. 0. 2.11299992e+00 2.10700011e+00 2.10599995e+00
    2.10999990e+00 2.10999990e+00 2.12400007e+00 2.11899996e+00
    2.11700010e+00 2.10700011e+00 2.03699994e+00 2.02900004e+00
    2.05200005e+00 1.83200002e+00 0. 0. 0. 0. 0. 0. 0. 0. 0. 0. 0. 0. 0.
    0. 0. 0. 0. 0. 0. 0. 0. 0. 0. 0. 0. 0. 0. 1.85500002e+00
    2.08400011e+00 2.08200002e+00 2.08599997e+00 2.04399991e+00
    2.06399989e+00 2.09100008e+00 2.09100008e+00 2.08999991e+00
    2.04600000e+00 2.03699994e+00 2.08200002e+00 2.08999991e+00 0. 0. 0.
    0. 0. 0. 0. 0. 0. 0. 0. 0. 0. 0. 0. 0. 0. 0. 0. 0. 0. 0. 0. 0. 0. 0.
    0. 1.52400005e+00 2.06399989e+00 2.05699992e+00 2.05200005e+00
    2.03200006e+00 2.04699993e+00 2.06900001e+00 2.06900001e+00
    2.06900001e+00 2.06699991e+00 2.05599999e+00 2.06800008e+00
    2.07800007e+00 1.30400002e+00 0. 0. 0. 0. 0. 0. 0. 0. 0. 0. 0. 0. 0.
    0. 0. 0. 0. 0. 0. 0. 0. 0. 0. 2.42100000e+00 0. 0. 2.07699990e+00
    2.05100012e+00 2.03699994e+00 2.04099989e+00 2.04099989e+00
    2.03699994e+00 2.04200006e+00 2.04900002e+00 2.05299997e+00
    2.05299997e+00 2.05500007e+00 2.05399990e+00 2.05200005e+00
    1.48000002e+00 0. 0. 0. 0. 0. 0. 0. 0. 0. 0. 0. 0. 0. 0. 0. 0. 0.</data></Depth>
</opencv_storage>
