<?xml version="1.0"?>
<opencv_storage>
<Depth type_id="opencv-matrix">
  <rows>40</rows>
  <cols>40</cols>
  <dt>f</dt>
  <data>
    0. 0. 0. 0. 0. 0. 0. 0. 0. 0. 0. 0. 0. 0. 0. 0. 0. 0. 0. 0. 0. 0. 0.
    0. 0. 0. 0. 0. 0. 0. 0. 0. 0. 0. 0. 0. 0. 0. 0. 0. 0. 0. 0. 0. 0. 0.
    0. 0. 0. 2.07900000e+00 0. 2.00099993e+00 1.99800003e+00 2. 2.
    2.10999990e+00 2.10899997e+00 0. 0. 0. 0. 0. 0. 0. 0. 0. 0. 0. 0. 0.
    0. 0. 0. 0. 0. 0. 0. 0. 0. 0. 0. 0. 0. 0. 0. 0. 0. 0. 1.35300004e+00
    1.98699999e+00 1.98699999e+00 1.98699999e+00 1.98699999e+00
    1.99000001e+00 1.99000001e+00 1.99199998e+00 1.99399996e+00
    1.99199998e+00 1.99000001e+00 1.99699998e+00 1.99399996e+00
    2.00300002e+00 2.45300007e+00 2.45400000e+00 2.45099998e+00
    2.43499994e+00 0. 2.44600010e+00 2.45199990e+00 2.46099997e+00
    2.45799994e+00 2.44899988e+00 0. 0. 0. 0. 0. 0. 0. 0. 0. 0. 0. 0. 0.
    0. 0. 0. 1.05400002e+00 1.98699999e+00 1.98699999e+00 1.98699999e+00
    1.98699999e+00 1.98899996e+00 1.98899996e+00 1.99100006e+00
    1.99199998e+00 1.99199998e+00 1.98899996e+00 1.99000001e+00
    1.98899996e+00 1.99100006e+00 1.99300003e+00 1.99399996e+00
    1.99300003e+00 1.99399996e+00 1.99600005e+00 2.00099993e+00 2. 2.
    2.00500011e+00 2.00200009e+00 2. 0. 0. 0. 0. 0. 0. 0. 0. 0. 0. 0. 0.
    0. 0. 2.30900002e+00 1.05400002e+00 1.98699999e+00 1.98699999e+00
    1.98699999e+00 1.98699999e+00 1.98899996e+00 1.98899996e+00
    1.99199998e+00 1.99199998e+00 1.99199998e+00 1.99199998e+00
    1.99199998e+00 1.99300003e+00 1.99300003e+00 1.99199998e+00
    1.99300003e+00 1.99399996e+00 1.99399996e+00 1.99500000e+00
    1.99899995e+00 2. 2. 2. 2. 2. 0. 0. 0. 0. 0. 0. 0. 0. 0. 0. 0. 0. 0.
    0. 0. 1.05400002e+00 1.98599994e+00 1.98699999e+00 1.98699999e+00
    1.98699999e+00 1.98899996e+00 1.99100006e+00 1.99300003e+00
    1.99399996e+00 1.99199998e+00 1.99199998e+00 1.99399996e+00
    1.99399996e+00 1.99300003e+00 1.99199998e+00 1.99399996e+00
    1.99399996e+00 1.99699998e+00 1.99699998e+00 2. 2. 2. 2. 2. 2. 0. 0.
    0. 0. 0. 0. 0. 0. 0. 0. 0. 0. 0. 0. 1.22099996e+00 1.11899996e+00
    1.98599994e+00 1.98699999e+00 1.98699999e+00 1.98699999e+00
    1.99199998e+00 1.99199998e+00 1.99399996e+00 1.99399996e+00
    1.99300003e+00 1.98899996e+00 1.99399996e+00 1.99199998e+00
    1.99399996e+00 1.99399996e+00 1.99399996e+00 1.99699998e+00
    1.99699998e+00 1.99699998e+00 2. 2. 2. 2. 2. 2.00099993e+00 0. 0. 0.
    0. 0. 0. 0. 0. 0. 0. 0. 0. 0. 0. 1.22200000e+00 1.10399997e+00
    1.98699999e+00 1.98699999e+00 1.98899996e+00 1.99199998e+00
    1.99399996e+00 1.99399996e+00 1.99399996e+00 1.99399996e+00
    1.99300003e+00 1.99199998e+00 1.99399996e+00 1.99399996e+00
    1.99399996e+00 1.99399996e+00 1.99500000e+00 1.99699998e+00
    1.99699998e+00 1.99699998e+00 2. 2. 2. 2. 2. 2.00200009e+00 0. 0. 0.
    0. 0. 0. 0. 0. 0. 0. 0. 0. 0. 0. 1.22200000e+00 1.75600004e+00
    1.98699999e+00 1.98699999e+00 1.98699999e+00 1.98699999e+00
    1.99399996e+00 1.99199998e+00 1.99199998e+00 1.99399996e+00
    1.99399996e+00 1.99399996e+00 1.99699998e+00 1.99699998e+00
    1.99699998e+00 1.99600005e+00 1.99699998e+00 1.99699998e+00
    1.99899995e+00 1.99699998e+00 2.00099993e+00 2.00099993e+00
    2.00200009e+00 2. 2.00099993e+00 2. 0. 0. 0. 0. 0. 0. 0. 0. 0. 0. 0.
    0. 0. 0. 1.05400002e+00 1.05400002e+00 1.98699999e+00 1.98699999e+00
    1.98699999e+00 1.98699999e+00 1.99199998e+00 1.99300003e+00
    1.99100006e+00 1.99500000e+00 1.99399996e+00 1.99399996e+00
    1.99600005e+00 1.99699998e+00 1.99699998e+00 1.99699998e+00
    1.99699998e+00 1.99699998e+00 1.99699998e+00 1.99699998e+00
    2.00099993e+00 2.00099993e+00 2.00200009e+00 2. 2.00200009e+00
    2.00200009e+00 0. 0. 0. 0. 0. 0. 0. 0. 0. 0. 0. 0. 0. 0.
    1.05400002e+00 1.05400002e+00 1.98800004e+00 1.98800004e+00
    1.98699999e+00 1.98899996e+00 1.99199998e+00 1.99199998e+00
    1.99300003e+00 1.99500000e+00 1.99399996e+00 1.99699998e+00
    1.99699998e+00 1.99699998e+00 1.99699998e+00 1.99699998e+00
    1.99699998e+00 1.99899995e+00 2. 1.99800003e+00 2.00200009e+00
    2.00200009e+00 2.00200009e+00 2.00200009e+00 2.00200009e+00
    2.00200009e+00 0. 0. 0. 0. 0. 0. 0. 0. 0. 0. 0. 0. 0. 0.
    1.05400002e+00 1.24300003e+00 1.98699999e+00 1.99100006e+00
    1.98899996e+00 1.98800004e+00 1.99199998e+00 1.99300003e+00
    1.99500000e+00 1.99600005e+00 1.99399996e+00 1.99699998e+00
    1.99699998e+00 1.99699998e+00 1.99699998e+00 1.99699998e+00
    1.99800003e+00 2. 2. 2. 2.00200009e+00 2.00200009e+00 2.00200009e+00
    2.00200009e+00 2.00200009e+00 2.00200009e+00 0. 0. 0. 0. 0. 0. 0. 0.
    0. 0. 0. 0. 0. 0. 2.99300003e+00 1.76100004e+00 1.98699999e+00
    1.98899996e+00 1.98899996e+00 1.98899996e+00 1.99399996e+00
    1.99399996e+00 1.99600005e+00 1.99699998e+00 1.99699998e+00
    1.99699998e+00 1.99699998e+00 1.99699998e+00 1.99699998e+00 2. 2. 2.
    2. 2. 2.00200009e+00 2.00200009e+00 2.00200009e+00 2.00200009e+00
    2.00500011e+00 2.00200009e+00 0. 0. 0. 0. 0. 0. 0. 0. 0. 0. 0. 0. 0.
    0. 1.23099995e+00 1.97800004e+00 1.99199998e+00 1.98899996e+00
    1.98899996e+00 1.98899996e+00 1.99399996e+00 1.99399996e+00
    1.99399996e+00 1.99699998e+00 1.99699998e+00 1.99699998e+00
    1.99699998e+00 1.99699998e+00 2. 2. 2. 2. 2. 2. 2.00200009e+00
    2.00200009e+00 2.00500011e+00 2.00200009e+00 2.00500011e+00
    2.00699997e+00 0. 0. 0. 0. 0. 0. 0. 0. 0. 0. 0. 0. 0. 0.
    1.09399998e+00 1.99100006e+00 1.98899996e+00 1.98800004e+00
    1.99199998e+00 1.99199998e+00 1.99399996e+00 1.99399996e+00
    1.99399996e+00 1.99699998e+00 1.99800003e+00 2. 1.99699998e+00
    1.99899995e+00 2. 1.99699998e+00 2. 2. 2. 2. 2.00200009e+00
    2.00200009e+00 2.00500011e+00 2.00500011e+00 2.00500011e+00
    2.00600004e+00 0. 0. 0. 0. 0. 0. 0. 0. 0. 0. 0. 0. 0. 0.
    1.05400002e+00 1.75899994e+00 1.98899996e+00 1.98899996e+00
    1.98899996e+00 1.98899996e+00 1.99399996e+00 1.99699998e+00
    1.99699998e+00 1.99699998e+00 1.99500000e+00 1.99699998e+00
    1.99699998e+00 1.99800003e+00 2. 2. 2. 2. 2. 2. 2.00200009e+00
    2.00300002e+00 2.00399995e+00 2.00500011e+00 2.00699997e+00
    1.54499996e+00 0. 0. 0. 0. 0. 0. 0. 0. 0. 0. 0. 0. 0. 0.
    1.05400002e+00 1.98899996e+00 1.98899996e+00 1.98899996e+00
    1.98899996e+00 1.98899996e+00 1.99199998e+00 1.99500000e+00
    1.99699998e+00 1.99699998e+00 1.99699998e+00 2. 2. 2. 1.99899995e+00
    1.99800003e+00 2. 2. 2.00099993e+00 2. 2.00200009e+00 2.00500011e+00
    2.00500011e+00 2.00500011e+00 2.00799990e+00 1.58700001e+00 0. 0. 0.
    0. 0. 0. 0. 0. 0. 0. 0. 0. 0. 0. 1.05400002e+00 1.98800004e+00
    1.99100006e+00 1.99199998e+00 1.99199998e+00 1.99199998e+00
    1.99300003e+00 1.99399996e+00 1.99699998e+00 1.99600005e+00
    1.99800003e+00 2. 2. 2. 2. 2. 2. 2.00200009e+00 2.00099993e+00
    2.00200009e+00 2.00300002e+00 2.00399995e+00 2.00399995e+00
    2.00500011e+00 2.00799990e+00 1.24899995e+00 0. 0. 0. 0. 0. 0. 0. 0.
    0. 0. 0. 0. 0. 0. 1.05400002e+00 1.98899996e+00 1.99100006e+00
    1.98899996e+00 1.99199998e+00 1.99199998e+00 1.99399996e+00
    1.99699998e+00 1.99699998e+00 1.99699998e+00 1.99800003e+00 2. 2. 2.
    2. 2. 2. 2.00200009e+00 2. 2.00200009e+00 2.00500011e+00
    2.00500011e+00 2.00500011e+00 2.00600004e+00 2.00799990e+00
    1.05400002e+00 0. 0. 0. 0. 0. 0. 0. 0. 0. 0. 0. 0. 0. 0.
    1.05400002e+00 1.99199998e+00 1.99000001e+00 1.99000001e+00
    1.99199998e+00 1.99199998e+00 1.99399996e+00 1.99699998e+00
    1.99699998e+00 1.99699998e+00 1.99800003e+00 2. 2. 2. 2.00099993e+00
    2. 2. 2. 2. 2.00200009e+00 2.00699997e+00 2.00699997e+00
    2.00500011e+00 2.00799990e+00 2.00799990e+00 1.24000001e+00 0. 0. 0.
    0. 0. 0. 0. 0. 0. 0. 0. 0. 0. 0. 1.05400002e+00 1.99100006e+00
    1.99199998e+00 1.98899996e+00 1.99000001e+00 1.99300003e+00
    1.99600005e+00 1.99699998e+00 1.99699998e+00 1.99699998e+00
    1.99800003e+00 2. 2. 2.00200009e+00 2. 2.00200009e+00 2.00200009e+00
    2.00200009e+00 2.00200009e+00 2.00399995e+00 2.00500011e+00
    2.00799990e+00 2.00799990e+00 2.00799990e+00 2.00999999e+00
    1.05400002e+00 0. 0. 0. 0. 0. 0. 0. 0. 0. 0. 0. 0. 0. 0.
    1.05400002e+00 1.99199998e+00 1.99199998e+00 1.99199998e+00
    1.99199998e+00 1.99100006e+00 1.99399996e+00 1.99699998e+00
    1.99699998e+00 1.99699998e+00 2.00099993e+00 2. 2. 2. 2. 2.
    2.00200009e+00 2.00200009e+00 2.00200009e+00 2.00500011e+00
    2.00500011e+00 2.00900006e+00 2.00900006e+00 2.00799990e+00
    2.00999999e+00 1.05400002e+00 0. 0. 0. 0. 0. 0. 0. 0. 0. 0. 0. 0. 0.
    0. 1.05400002e+00 1.99199998e+00 1.99199998e+00 1.99300003e+00
    1.99199998e+00 1.99399996e+00 1.99699998e+00 1.99699998e+00
    1.99699998e+00 1.99699998e+00 2. 2. 2. 2. 2. 2.00099993e+00
    2.00200009e+00 2.00099993e+00 2.00399995e+00 2.00500011e+00
    2.00699997e+00 2.00999999e+00 2.00799990e+00 2.00799990e+00
    2.00999999e+00 1.05400002e+00 0. 0. 0. 0. 0. 0. 0. 0. 0. 0. 0. 0. 0.
    0. 1.05400002e+00 1.99300003e+00 1.99199998e+00 1.99300003e+00
    1.99199998e+00 1.99199998e+00 1.99699998e+00 1.99699998e+00 2. 2. 2.
    2. 2. 2.00300002e+00 2.00200009e+00 2.00200009e+00 2.00099993e+00 2.
    2.00300002e+00 2.00300002e+00 2.00799990e+00 2.00900006e+00
    2.00799990e+00 2.00900006e+00 2.00999999e+00 1.05400002e+00 0. 0. 0.
    0. 0. 0. 0. 0. 0. 0. 0. 0. 0. 0. 1.05400002e+00 1.99399996e+00
    1.99199998e+00 1.99199998e+00 1.99300003e+00 1.99399996e+00
    1.99699998e+00 1.99699998e+00 2. 2. 2. 2. 2. 2.00200009e+00
    2.00200009e+00 2.00200009e+00 2.00500011e+00 2.00500011e+00
    2.00500011e+00 2.00500011e+00 2.00999999e+00 2.00799990e+00
    2.00799990e+00 2.00999999e+00 1.89800000e+00 1.05400002e+00 0. 0. 0.
    0. 0. 0. 0. 0. 0. 0. 0. 0. 0. 0. 1.05400002e+00 1.99199998e+00
    1.99300003e+00 1.99399996e+00 1.99399996e+00 1.99399996e+00
    1.99699998e+00 1.99699998e+00 2. 2. 2. 2. 2. 2. 2. 2.00200009e+00
    2.00799990e+00 2.00500011e+00 2.00500011e+00 2.00399995e+00
    2.00999999e+00 2.00999999e+00 2.00999999e+00 2.00999999e+00
    1.09200001e+00 1.05400002e+00 0. 0. 0. 0. 0. 0. 0. 0. 0. 0. 0. 0. 0.
    0. 1.91900003e+00 1.99399996e+00 1.99399996e+00 1.99399996e+00
    1.99399996e+00 1.99699998e+00 1.99699998e+00 2. 2. 2.00200009e+00
    2.00200009e+00 2.00200009e+00 2. 2.00200009e+00 2.00200009e+00
    2.00600004e+00 2.00799990e+00 2.00500011e+00 2.00399995e+00
    2.00699997e+00 2.00999999e+00 2.00999999e+00 2.00999999e+00
    2.00999999e+00 1.09200001e+00 1.05400002e+00 0. 0. 0. 0. 0. 0. 0. 0.
    0. 0. 0. 0. 0. 0. 1.99399996e+00 1.99399996e+00 1.99399996e+00
    1.99399996e+00 1.99500000e+00 1.99600005e+00 1.99699998e+00 2. 2. 2.
    2.00099993e+00 2.00300002e+00 2.00500011e+00 2.00300002e+00
    2.00399995e+00 2.00600004e+00 2.00600004e+00 2.00500011e+00
    2.00500011e+00 2.00799990e+00 2.00999999e+00 2.00999999e+00
    2.00999999e+00 2.01200008e+00 1.06799996e+00 1.05400002e+00 0. 0. 0.
    0. 0. 0. 0. 0. 0. 0. 0. 0. 0. 0. 1.91900003e+00 1.99500000e+00
    1.99399996e+00 1.99500000e+00 1.99500000e+00 2. 1.99899995e+00 2. 2.
    2.00099993e+00 2.00099993e+00 2. 2.00500011e+00 2.00200009e+00
    2.00300002e+00 2.00600004e+00 2.00799990e+00 2.00600004e+00
    2.00500011e+00 2.00799990e+00 2.00999999e+00 2.00999999e+00
    2.01300001e+00 2.01200008e+00 1.05400002e+00 1.05400002e+00 0. 0. 0.
    0. 0. 0. 0. 0. 0. 0. 0. 0. 0. 0. 1.99399996e+00 1.99500000e+00
    1.99399996e+00 1.99500000e+00 1.99600005e+00 2. 2. 2. 2.
    2.00099993e+00 2.00200009e+00 2.00200009e+00 2.00600004e+00
    2.00600004e+00 2.00500011e+00 2.00600004e+00 2.00799990e+00
    2.00799990e+00 2.00799990e+00 2.00799990e+00 2.01099992e+00
    2.01300001e+00 2.01300001e+00 2.01300001e+00 1.05400002e+00
    1.71399999e+00 0. 0. 0. 0. 0. 0. 0. 0. 0. 0. 0. 0. 0. 0.
    1.91600001e+00 1.99699998e+00 1.99399996e+00 1.99699998e+00
    1.99699998e+00 2. 2. 2. 2. 2.00200009e+00 2.00200009e+00
    2.00200009e+00 2.00500011e+00 2.00799990e+00 2.00799990e+00
    2.00799990e+00 2.00799990e+00 2.00799990e+00 2.00799990e+00
    2.00999999e+00 2.01300001e+00 2.01300001e+00 2.01300001e+00
    2.01300001e+00 1.05400002e+00 2.95600009e+00 0. 0. 0. 0. 0. 0. 0. 0.
    0. 0. 0. 0. 0. 0. 1.99399996e+00 1.99699998e+00 1.99699998e+00
    1.99699998e+00 1.99699998e+00 2. 2. 2. 2. 2.00200009e+00
    2.00200009e+00 2.00200009e+00 2.00200009e+00 2.00500011e+00
    2.00699997e+00 2.00799990e+00 2.00799990e+00 2.00799990e+00
    2.00799990e+00 2.00999999e+00 2.01399994e+00 2.01500010e+00
    2.01300001e+00 2.01300001e+00 1.05400002e+00 0. 0. 0. 0. 0. 0. 0. 0.
    0. 0. 0. 0. 0. 0. 0. 1.99699998e+00 1.99699998e+00 1.99699998e+00
    1.99699998e+00 1.99699998e+00 2. 2.00200009e+00 2.00200009e+00
    2.00200009e+00 2.00200009e+00 2.00200009e+00 2.00500011e+00
    2.00799990e+00 2.00799990e+00 2.00500011e+00 2.00799990e+00
    2.00799990e+00 2.00999999e+00 2.00999999e+00 2.00999999e+00
    2.01600003e+00 2.01300001e+00 2.01300001e+00 1.89600003e+00
    1.05400002e+00 0. 0. 0. 0. 0. 0. 0. 0. 0. 0. 0. 0. 0. 0. 0.
    1.99699998e+00 1.99699998e+00 1.99699998e+00 1.99699998e+00
    1.99699998e+00 2. 2.00200009e+00 2.00399995e+00 2.00200009e+00
    2.00200009e+00 2.00300002e+00 2.00500011e+00 2.00500011e+00
    2.00799990e+00 2.00799990e+00 2.00799990e+00 2.00799990e+00
    2.00900006e+00 2.00799990e+00 2.00999999e+00 2.01500010e+00
    2.01300001e+00 2.01300001e+00 1.89199996e+00 1.07900000e+00 0. 0. 0.
    0. 0. 0. 0. 0. 0. 0. 0. 0. 0. 0. 0. 1.99699998e+00 1.99699998e+00
    1.99899995e+00 1.99699998e+00 1.99699998e+00 2. 2.00200009e+00
    2.00399995e+00 2.00300002e+00 2.00200009e+00 2.00500011e+00
    2.00500011e+00 2.00799990e+00 2.00799990e+00 2.00799990e+00
    2.00999999e+00 2.00799990e+00 2.00999999e+00 2.00999999e+00
    2.00999999e+00 2.01300001e+00 2.01300001e+00 2.01300001e+00
    2.00999999e+00 1.09200001e+00 0. 0. 0. 0. 0. 0. 0. 0. 0. 0. 0. 0. 0.
    0. 0. 1.99699998e+00 1.99600005e+00 1.99699998e+00 1.99699998e+00
    1.99699998e+00 2. 2.00200009e+00 2.00500011e+00 2.00500011e+00
    2.00500011e+00 2.00500011e+00 2.00799990e+00 2.00799990e+00
    2.00799990e+00 2.00799990e+00 2.00999999e+00 2.00999999e+00
    2.00999999e+00 2.00999999e+00 2.01200008e+00 2.01399994e+00
    2.01300001e+00 2.01399994e+00 2.01600003e+00 2.01799989e+00 0. 0. 0.
    0. 0. 0. 0. 0. 0. 0. 0. 0. 0. 0. 0. 1.05400002e+00 1.05400002e+00
    1.52699995e+00 1.99699998e+00 1.99699998e+00 2. 2.00300002e+00
    1.86399996e+00 2.00399995e+00 2.00200009e+00 1.99800003e+00
    2.00799990e+00 2.00799990e+00 2.00799990e+00 2.00900006e+00
    2.00900006e+00 2.00999999e+00 2.00999999e+00 2.00999999e+00
    2.00999999e+00 2.01300001e+00 2.01300001e+00 2.01600003e+00
    2.01799989e+00 0. 0. 0. 0. 0. 0. 0. 0. 0. 0. 0. 0. 0. 0. 0. 0.
    1.05400002e+00 1.05400002e+00 1.05400002e+00 1.05400002e+00
    1.05400002e+00 1.07200003e+00 1.05400002e+00 1.05400002e+00
    2.02600002e+00 1.98399997e+00 1.98699999e+00 2.03800011e+00
    2.02699995e+00 2.00799990e+00 2.02099991e+00 2.02600002e+00
    1.07200003e+00 0. 0. 0. 0. 2.85899997e+00 2.01399994e+00 0. 0. 0. 0.
    0. 0. 0. 0. 0. 0. 0. 0. 0. 0. 0. 0. 0. 0. 0. 0. 0. 0. 0. 0. 0. 0. 0.
    0. 0. 0. 0. 0. 0. 0. 0. 0. 0. 0. 0. 0. 0. 0. 0. 0. 0. 0. 0. 0. 0. 0.
    0. 0. 0. 0. 0. 0. 0. 0. 0. 0. 0. 0. 0. 0. 0. 0. 0. 0. 0. 0. 0. 0. 0.
    0. 0. 0. 0. 0. 0. 0. 0. 0. 0. 0. 0. 0. 0. 0. 0. 0.</data></Depth>
</opencv_storage>
