<?xml version="1.0"?>
<opencv_storage>
<Depth type_id="opencv-matrix">
  <rows>40</rows>
  <cols>40</cols>
  <dt>f</dt>
  <data>
    2.80299997e+00 2.96900010e+00 0. 0. 0. 0. 0. 0. 0. 0. 0. 0. 0. 0. 0.
    0. 0. 0. 0. 0. 0. 0. 0. 0. 0. 0. 0. 0. 0. 0. 0. 0. 0. 0. 0. 0. 0. 0.
    0. 0. 1.85000002e+00 2.79399991e+00 0. 0. 0. 0. 0. 0. 0. 0. 0. 0. 0.
    0. 0. 0. 0. 0. 0. 0. 0. 0. 0. 0. 0. 0. 0. 0. 0. 0. 0. 0. 0. 0. 0. 0.
    0. 0. 0. 0. 1.81299996e+00 1.88399994e+00 2.85100007e+00 0. 0. 0. 0.
    0. 0. 0. 0. 0. 0. 0. 0. 0. 0. 0. 0. 0. 0. 0. 0. 0. 0. 0. 0. 0. 0. 0.
    0. 0. 0. 0. 0. 0. 0. 0. 0. 0. 1.79700005e+00 1.80100000e+00
    1.85500002e+00 1.86600006e+00 1.88000000e+00 1.91199994e+00
    2.78699994e+00 0. 0. 0. 0. 0. 0. 0. 0. 0. 0. 0. 0. 0. 0. 0. 0. 0. 0.
    0. 0. 0. 0. 0. 0. 0. 0. 0. 0. 0. 0. 0. 0. 0. 1.79600000e+00
    1.79900002e+00 1.78299999e+00 1.77999997e+00 1.79499996e+00
    1.82900000e+00 2.76799989e+00 0. 0. 0. 0. 0. 0. 0. 0. 0. 0. 0. 0. 0.
    0. 0. 0. 0. 0. 0. 0. 0. 0. 0. 0. 0. 0. 0. 0. 0. 0. 0. 0. 0.
    1.77900004e+00 1.78199995e+00 1.77999997e+00 1.80799997e+00
    1.81599998e+00 1.83200002e+00 1.94099998e+00 2.78299999e+00 0. 0. 0.
    0. 0. 0. 0. 0. 0. 0. 0. 0. 0. 0. 0. 0. 0. 0. 0. 0. 0. 0. 0. 0. 0. 0.
    0. 0. 0. 0. 0. 0. 1.77699995e+00 1.77999997e+00 1.77999997e+00
    1.81099999e+00 1.83099997e+00 1.83700001e+00 1.83899999e+00
    1.95299995e+00 1.99100006e+00 1.99800003e+00 2.82999992e+00 0. 0. 0.
    0. 0. 0. 0. 0. 0. 0. 0. 0. 0. 0. 0. 0. 0. 0. 0. 0. 0. 0. 0. 0. 0. 0.
    0. 0. 0. 1.79400003e+00 1.79700005e+00 1.80999994e+00 1.83099997e+00
    1.83700001e+00 1.83700001e+00 1.83700001e+00 1.83899999e+00
    1.83899999e+00 1.83899999e+00 1.95899999e+00 2.03200006e+00
    2.03099990e+00 2.02500010e+00 2.77099991e+00 0. 0. 0. 0. 0. 0. 0. 0.
    0. 0. 0. 0. 0. 0. 0. 0. 0. 0. 0. 0. 0. 0. 0. 0. 0. 1.79600000e+00
    1.81299996e+00 1.83099997e+00 1.83599997e+00 1.83700001e+00
    1.83700001e+00 1.84899998e+00 1.84099996e+00 1.83700001e+00
    1.83700001e+00 1.83700001e+00 1.86300004e+00 1.86199999e+00
    1.85599995e+00 1.97800004e+00 2.81900001e+00 0. 0. 0. 0. 0. 0. 0. 0.
    0. 0. 0. 0. 0. 0. 0. 0. 0. 0. 0. 0. 0. 0. 0. 0. 1.79900002e+00
    1.81500006e+00 1.83399999e+00 1.83700001e+00 1.83700001e+00
    1.85000002e+00 1.85500002e+00 1.85399997e+00 1.85300004e+00
    1.85300004e+00 1.86399996e+00 1.88499999e+00 1.86800003e+00
    1.85599995e+00 1.85599995e+00 2.74900007e+00 0. 0. 0. 0. 0. 0. 0. 0.
    0. 0. 0. 0. 0. 0. 0. 0. 0. 0. 0. 0. 0. 0. 0. 0. 1.81500006e+00
    1.81700003e+00 1.83399999e+00 1.83700001e+00 1.83700001e+00
    1.85200000e+00 1.85599995e+00 1.85599995e+00 1.85599995e+00
    1.86699998e+00 1.87399995e+00 1.88900006e+00 1.87899995e+00
    1.87199998e+00 1.87199998e+00 2.05800009e+00 2.16700006e+00
    2.16199994e+00 2.15899992e+00 2.74600005e+00 0. 0. 0. 0. 0. 0. 0. 0.
    0. 0. 0. 0. 0. 0. 0. 0. 0. 0. 0. 0. 1.81599998e+00 1.83099997e+00
    1.83599997e+00 1.83700001e+00 1.84899998e+00 1.85500002e+00
    1.85599995e+00 1.85599995e+00 1.85599995e+00 1.87000000e+00
    1.88600004e+00 1.89400005e+00 1.90400004e+00 1.90799999e+00
    1.90799999e+00 1.92600000e+00 1.93599999e+00 1.93599999e+00
    1.93599999e+00 2.64599991e+00 0. 0. 0. 0. 0. 0. 0. 0. 0. 0. 0. 0. 0.
    0. 0. 0. 0. 0. 0. 0. 1.81500006e+00 1.83399999e+00 1.83700001e+00
    1.83700001e+00 1.85200000e+00 1.85599995e+00 1.85599995e+00
    1.85599995e+00 1.85599995e+00 1.85899997e+00 1.86300004e+00
    1.86399996e+00 1.89900005e+00 1.91600001e+00 1.91600001e+00
    1.91900003e+00 1.92999995e+00 1.93599999e+00 1.94599998e+00
    2.09699988e+00 2.20600009e+00 2.73300004e+00 0. 0. 0. 0. 0. 0. 0. 0.
    0. 0. 0. 0. 0. 0. 0. 0. 0. 0. 1.82799995e+00 1.84899998e+00
    1.85200000e+00 1.85200000e+00 1.85500002e+00 1.85599995e+00
    1.85599995e+00 1.85599995e+00 1.85599995e+00 1.85599995e+00
    1.85599995e+00 1.85599995e+00 1.89699996e+00 1.91600001e+00
    1.91600001e+00 1.91600001e+00 1.92799997e+00 1.93599999e+00
    1.93900001e+00 1.95000005e+00 1.95700002e+00 2.10100007e+00
    2.22399998e+00 2.25999999e+00 2.30399990e+00 2.83899999e+00 0. 0. 0.
    0. 0. 0. 0. 0. 0. 0. 0. 0. 0. 0. 1.83200002e+00 1.84099996e+00
    1.84099996e+00 1.85300004e+00 1.85599995e+00 1.85599995e+00
    1.85599995e+00 1.85599995e+00 1.85599995e+00 1.87800002e+00
    1.89699996e+00 1.90199995e+00 1.91100001e+00 1.91600001e+00
    1.91600001e+00 1.92600000e+00 1.93400002e+00 1.93599999e+00
    1.93599999e+00 1.93900001e+00 1.95000005e+00 1.95700002e+00
    1.95700002e+00 1.96500003e+00 1.97200000e+00 2.12800002e+00
    2.81800008e+00 0. 0. 0. 0. 0. 0. 0. 0. 0. 0. 0. 0. 0. 1.83399999e+00
    1.83700001e+00 1.83700001e+00 1.85200000e+00 1.85599995e+00
    1.85599995e+00 1.85599995e+00 1.85599995e+00 1.85599995e+00
    1.89600003e+00 1.91400003e+00 1.91600001e+00 1.92600000e+00
    1.93099999e+00 1.93099999e+00 1.94400001e+00 1.95200002e+00
    1.94200003e+00 1.93599999e+00 1.93599999e+00 1.94799995e+00
    1.96599996e+00 1.98099995e+00 1.97300005e+00 1.95700002e+00
    1.95700002e+00 2.14100003e+00 2.35899997e+00 2.82399988e+00 0. 0. 0.
    0. 0. 0. 0. 0. 0. 0. 0. 1.82200003e+00 1.83500004e+00 1.83700001e+00
    1.84099996e+00 1.85300004e+00 1.86699998e+00 1.85899997e+00
    1.85599995e+00 1.87699997e+00 1.90699995e+00 1.91600001e+00
    1.91600001e+00 1.92999995e+00 1.93599999e+00 1.93599999e+00
    1.94900000e+00 1.95700002e+00 1.95400000e+00 1.95099998e+00
    1.95099998e+00 1.96300006e+00 1.98399997e+00 1.99699998e+00
    1.99399996e+00 1.98899996e+00 1.98899996e+00 1.99399996e+00
    2.00900006e+00 2.18799996e+00 2.40599990e+00 2.81500006e+00 0. 0. 0.
    0. 0. 0. 0. 0. 0. 1.81799996e+00 1.83399999e+00 1.83700001e+00
    1.83700001e+00 1.85200000e+00 1.86000001e+00 1.85699999e+00
    1.86600006e+00 1.88800001e+00 1.90999997e+00 1.91600001e+00
    1.91600001e+00 1.91999996e+00 1.92200005e+00 1.93099999e+00
    1.94900000e+00 1.95700002e+00 1.95700002e+00 1.95700002e+00
    1.95700002e+00 1.96899998e+00 1.99000001e+00 2. 2. 2. 2.
    2.00699997e+00 2.01799989e+00 2.02399993e+00 2.02699995e+00
    2.18199992e+00 2.80200005e+00 0. 0. 0. 0. 0. 0. 0. 0. 1.81799996e+00
    1.82299995e+00 1.83500004e+00 1.83700001e+00 1.85200000e+00
    1.85599995e+00 1.85599995e+00 1.87000000e+00 1.88999999e+00
    1.90999997e+00 1.91600001e+00 1.92600000e+00 1.92100000e+00
    1.91600001e+00 1.92900002e+00 1.94900000e+00 1.95700002e+00
    1.95700002e+00 1.95700002e+00 1.96500003e+00 1.98399997e+00
    1.99699998e+00 2. 2. 2. 2. 2.00999999e+00 2.02099991e+00
    2.02099991e+00 2.02099991e+00 2.02099991e+00 2.19300008e+00
    2.47399998e+00 2.47600007e+00 2.44600010e+00 2.78299999e+00 0. 0. 0.
    0. 1.56700003e+00 1.81799996e+00 1.84500003e+00 1.85000002e+00
    1.85500002e+00 1.85599995e+00 1.85599995e+00 1.87000000e+00
    1.89999998e+00 1.92400002e+00 1.92999995e+00 1.93400002e+00
    1.92200005e+00 1.91600001e+00 1.92900002e+00 1.94900000e+00
    1.95700002e+00 1.95700002e+00 1.96599996e+00 1.97500002e+00
    1.99000001e+00 2. 2. 2. 2. 2. 2.01699996e+00 2.03699994e+00
    2.03699994e+00 2.03699994e+00 2.03699994e+00 2.04800010e+00
    2.07500005e+00 2.06500006e+00 2.02099991e+00 2.18400002e+00
    2.50900006e+00 2.49799991e+00 2.50300002e+00 2.78099990e+00
    1.45500004e+00 1.81799996e+00 1.84899998e+00 1.85599995e+00
    1.85599995e+00 1.85599995e+00 1.85599995e+00 1.89100003e+00
    1.92200005e+00 1.92400002e+00 1.92200005e+00 1.92200005e+00
    1.91799998e+00 1.92499995e+00 1.93400002e+00 1.94900000e+00
    1.95700002e+00 1.95700002e+00 1.96099997e+00 1.97200000e+00
    1.98199999e+00 1.99300003e+00 2. 2. 2. 2.00699997e+00 2.02800012e+00
    2.04399991e+00 2.04399991e+00 2.04999995e+00 2.05900002e+00
    2.06800008e+00 2.08400011e+00 2.08100009e+00 2.06699991e+00
    2.07399988e+00 2.08200002e+00 2.06599998e+00 2.07299995e+00
    2.21399999e+00 0. 0. 1.55799997e+00 1.85599995e+00 1.85599995e+00
    1.85599995e+00 1.86600006e+00 1.89400005e+00 1.91700006e+00
    1.91799998e+00 1.91600001e+00 1.91600001e+00 1.91600001e+00
    1.92900002e+00 1.93599999e+00 1.94900000e+00 1.95700002e+00
    1.95700002e+00 1.95700002e+00 1.96899998e+00 1.97800004e+00
    1.99000001e+00 2. 2. 2. 2.00999999e+00 2.02500010e+00 2.03600001e+00
    2.04399991e+00 2.05299997e+00 2.06599998e+00 2.07500005e+00
    2.08899999e+00 2.08899999e+00 2.08899999e+00 2.08899999e+00
    2.08699989e+00 2.08100009e+00 2.08299994e+00 2.08899999e+00 0. 0. 0.
    0. 0. 0. 1.49199998e+00 1.89300001e+00 1.89999998e+00 1.90199995e+00
    1.90199995e+00 1.91199994e+00 1.91600001e+00 1.92900002e+00
    1.93599999e+00 1.94099998e+00 1.94299996e+00 1.94299996e+00
    1.95099998e+00 1.96099997e+00 1.97200000e+00 1.99000001e+00 2. 2. 2.
    2.00999999e+00 2.02099991e+00 2.03099990e+00 2.04399991e+00
    2.05299997e+00 2.06599998e+00 2.07500005e+00 2.08899999e+00
    2.08899999e+00 2.08899999e+00 2.08899999e+00 2.09400010e+00
    2.10400009e+00 2.10400009e+00 2.10400009e+00 0. 0. 0. 0. 0. 0. 0.
    1.49399996e+00 1.89800000e+00 1.89499998e+00 1.89499998e+00
    1.90999997e+00 1.91600001e+00 1.92900002e+00 1.93599999e+00
    1.93599999e+00 1.93599999e+00 1.93599999e+00 1.94799995e+00
    1.95700002e+00 1.96899998e+00 1.99000001e+00 2. 2. 2. 2.00999999e+00
    2.02099991e+00 2.03099990e+00 2.04399991e+00 2.05299997e+00
    2.06599998e+00 2.07500005e+00 2.08899999e+00 2.08899999e+00
    2.08899999e+00 2.08899999e+00 2.09599996e+00 2.11199999e+00
    2.11199999e+00 2.11199999e+00 0. 0. 0. 0. 0. 0. 0. 1.25999999e+00
    1.90999997e+00 1.89900005e+00 1.89499998e+00 1.90999997e+00
    1.91600001e+00 1.92900002e+00 1.93599999e+00 1.94400001e+00
    1.94900000e+00 1.95700002e+00 1.96700001e+00 1.97000003e+00
    1.98199999e+00 2.00300002e+00 2.01300001e+00 2.01300001e+00
    2.01300001e+00 2.01699996e+00 2.02099991e+00 2.03099990e+00
    2.04399991e+00 2.05299997e+00 2.06599998e+00 2.07500005e+00
    2.08899999e+00 2.08899999e+00 2.09400010e+00 2.10299993e+00
    2.10599995e+00 2.11199999e+00 2.11199999e+00 2.11199999e+00 0. 0. 0.
    0. 0. 0. 0. 0. 1.49800003e+00 1.90999997e+00 1.90799999e+00
    1.91299999e+00 1.91600001e+00 1.92100000e+00 1.93200004e+00
    1.94900000e+00 1.96500003e+00 1.97500002e+00 1.97800004e+00
    1.98599994e+00 1.99600005e+00 2.00500011e+00 2.01500010e+00
    2.01500010e+00 2.00799990e+00 2.00799990e+00 2.00799990e+00
    2.02399993e+00 2.04399991e+00 2.05299997e+00 2.06599998e+00
    2.07500005e+00 2.08899999e+00 2.08899999e+00 2.09699988e+00
    2.11199999e+00 2.11199999e+00 2.11199999e+00 2.11199999e+00
    2.11599994e+00 0. 0. 0. 0. 0. 0. 0. 0. 0. 0. 1.46200001e+00
    1.91600001e+00 1.91600001e+00 1.91600001e+00 1.92900002e+00
    1.94900000e+00 1.97000003e+00 1.97800004e+00 1.97800004e+00
    1.99100006e+00 2. 2. 2.01099992e+00 2.00999999e+00 2. 2. 2.
    2.01399994e+00 2.03600001e+00 2.05299997e+00 2.07100010e+00
    2.08299994e+00 2.09400010e+00 2.10200000e+00 2.10599995e+00
    2.11199999e+00 2.11199999e+00 2.11199999e+00 2.11199999e+00
    2.11800003e+00 0. 0. 0. 0. 0. 0. 0. 0. 0. 0. 0. 0. 1.44400001e+00
    1.93900001e+00 1.94500005e+00 1.96899998e+00 1.98699999e+00
    1.99100006e+00 1.99100006e+00 1.99600005e+00 2. 2. 2.00500011e+00
    2.00399995e+00 1.99399996e+00 1.98199999e+00 1.97500002e+00
    1.99600005e+00 2.03099990e+00 2.04800010e+00 2.06299996e+00
    2.07599998e+00 2.08400011e+00 2.10400009e+00 2.11199999e+00
    2.11199999e+00 2.11199999e+00 2.11199999e+00 2.11599994e+00
    2.12800002e+00 0. 0. 0. 0. 0. 0. 0. 0. 0. 0. 0. 0. 0. 1.46800005e+00
    1.98099995e+00 1.99300003e+00 2. 2. 2. 2.00699997e+00 2.00500011e+00
    2. 2. 2. 1.98899996e+00 1.96800005e+00 1.95700002e+00 1.99199998e+00
    2.03800011e+00 2.04399991e+00 2.04800010e+00 2.05399990e+00
    2.06699991e+00 2.09699988e+00 2.11199999e+00 2.11199999e+00
    2.11199999e+00 2.11599994e+00 2.12800002e+00 2.13599992e+00 0. 0. 0.
    0. 0. 0. 0. 0. 0. 0. 0. 0. 0. 2.19099998e+00 2.22499990e+00
    2.01099992e+00 2.01099992e+00 2.01099992e+00 2.01099992e+00
    2.01699996e+00 2.01600003e+00 2.01099992e+00 2.00500011e+00 2.
    1.99500000e+00 1.98500001e+00 1.98599994e+00 2.01500010e+00
    2.04399991e+00 2.04399991e+00 2.04399991e+00 2.04399991e+00
    2.06100011e+00 2.09299994e+00 2.10400009e+00 2.11199999e+00
    2.11199999e+00 2.11899996e+00 2.13599992e+00 2.13599992e+00 0. 0. 0.
    0. 0. 0. 0. 0. 0. 0. 0. 0. 2.54299998e+00 0. 2.85599995e+00
    2.71900010e+00 2.72799993e+00 2.72799993e+00 2.32100010e+00
    2.03299999e+00 2.02600002e+00 2.02099991e+00 2.00999999e+00 2.
    2.00500011e+00 2.01099992e+00 2.01600003e+00 2.03099990e+00
    2.04399991e+00 2.04399991e+00 2.04399991e+00 2.04900002e+00
    2.06800008e+00 2.08899999e+00 2.09299994e+00 2.09999990e+00
    2.10400009e+00 2.11500001e+00 2.12700009e+00 2.13599992e+00 0. 0. 0.
    0. 0. 0. 0. 0. 0. 0. 0. 2.50999999e+00 0. 0. 0. 0. 0. 0.
    2.98699999e+00 2.69099998e+00 2.30399990e+00 2.00999999e+00
    2.00500011e+00 2. 2.00999999e+00 2.02099991e+00 2.02600002e+00
    2.04299998e+00 2.05500007e+00 2.05500007e+00 2.05500007e+00
    2.06399989e+00 2.08599997e+00 2.10100007e+00 2.09699988e+00
    2.08899999e+00 2.09599996e+00 2.11199999e+00 2.11500001e+00
    2.12400007e+00 0. 0. 0. 0. 0. 0. 0. 0. 0. 0. 1.94299996e+00 0. 0. 0.
    0. 0. 0. 0. 0. 0. 1.81400001e+00 1.38600004e+00 2.00999999e+00
    2.00999999e+00 2.01600003e+00 2.02600002e+00 2.03800011e+00
    2.05399990e+00 2.07100010e+00 2.07699990e+00 2.07699990e+00
    2.08599997e+00 2.10500002e+00 2.11199999e+00 2.10400009e+00
    2.08899999e+00 2.09599996e+00 2.11199999e+00 2.11199999e+00
    2.11199999e+00 0. 0. 0. 0. 0. 0. 0. 0. 0. 0. 0. 1.23699999e+00
    1.26699996e+00 2.61199999e+00 0. 0. 0. 0. 0. 0. 2.13000011e+00 0.
    1.73500001e+00 2.66700006e+00 2.65599990e+00 2.65000010e+00
    2.67799997e+00 2.68700004e+00 2.42600012e+00 2.11199999e+00
    2.11199999e+00 2.11599994e+00 2.11899996e+00 2.11199999e+00
    2.10800004e+00 2.09999990e+00 2.10400009e+00 2.11199999e+00
    2.11500001e+00 2.12400007e+00 0. 0. 0. 0. 0. 0. 0. 0. 0. 0. 0. 0. 0.
    1.94900000e+00 0. 0. 0. 0. 0. 0. 0. 2.15000010e+00 2.31900001e+00 0.
    0. 0. 0. 0. 0. 2.68600011e+00 2.46300006e+00 2.13599992e+00
    2.12700009e+00 2.11199999e+00 2.11199999e+00 2.11199999e+00
    2.11199999e+00 2.11500001e+00 2.13000011e+00 2.14700007e+00 0. 0. 0.
    0. 0. 0. 0. 0. 0. 0. 0. 0. 0. 0. 1.48099995e+00 2.57800007e+00 0. 0.
    0. 0. 0. 2.33400011e+00 2.48000002e+00 0. 0. 0. 0. 0. 0. 0. 0.
    1.95799994e+00 1.32200003e+00 2.11199999e+00 2.11199999e+00
    2.11199999e+00 2.11199999e+00 2.11899996e+00 2.14299989e+00
    2.16300011e+00 0. 0. 0. 0. 0. 0. 0. 0. 0. 0. 0. 0. 0. 0. 0.
    1.79400003e+00 0. 0. 0. 0. 0. 2.10700011e+00 2.29299998e+00 0. 0. 0.
    0. 0. 0. 0. 0. 2.42799997e+00 1.44000006e+00 2.11199999e+00
    2.11199999e+00 2.11500001e+00 2.12199998e+00 2.12700009e+00
    2.14599991e+00 2.17499995e+00 0. 0. 0. 0. 0. 0. 0. 0. 0. 0. 0. 0. 0.
    0. 0. 0. 1.62000000e+00 1.62000000e+00 2.58699989e+00 0. 0. 0. 0. 0.
    0. 0. 0. 0. 0. 0. 0. 0. 0. 2.61899996e+00 2.45499992e+00
    2.14700007e+00 2.15700006e+00 2.15700006e+00 2.15899992e+00
    2.16400003e+00 0. 0. 0. 0. 0. 0. 0. 0. 0. 0. 0. 0. 0. 0. 0. 0. 0. 0.
    1.62800002e+00 0. 0. 0. 0. 0. 0. 0. 0. 0. 0. 0. 0. 0. 2.70400000e+00
    1.67999995e+00 1.44799995e+00 1.00699997e+00 1.37100005e+00
    2.16499996e+00 2.15700006e+00 2.13599992e+00 0. 0. 0. 0. 0. 0. 0. 0.
    0. 0. 0. 0. 0. 0. 0. 0. 0. 0. 1.64499998e+00 0. 0. 0. 0. 0. 0. 0. 0.
    0. 0. 0. 0. 0. 2.48000002e+00 0. 0. 0. 1.53799999e+00 2.54299998e+00
    2.13599992e+00 2.13599992e+00</data></Depth>
</opencv_storage>
