<?xml version="1.0"?>
<opencv_storage>
<Depth type_id="opencv-matrix">
  <rows>40</rows>
  <cols>40</cols>
  <dt>f</dt>
  <data>
    0. 0. 0. 0. 0. 0. 0. 0. 0. 0. 0. 0. 0. 0. 0. 0. 0. 0. 0. 0. 0. 0. 0.
    0. 0. 0. 0. 0. 0. 0. 0. 0. 0. 0. 0. 0. 0. 0. 0. 0. 0. 0. 0. 0. 0. 0.
    0. 0. 0. 0. 0. 0. 0. 0. 0. 0. 0. 0. 0. 0. 0. 0. 0. 0. 0. 0. 0. 0. 0.
    0. 0. 0. 0. 0. 0. 0. 0. 0. 0. 0. 0. 0. 0. 0. 0. 0. 0. 0. 0. 0. 0. 0.
    0. 0. 0. 0. 0. 0. 0. 0. 0. 0. 0. 0. 0. 0. 0. 0. 0. 0. 0. 0. 0. 0. 0.
    0. 0. 0. 0. 0. 0. 0. 0. 0. 0. 0. 0. 0. 0. 0. 0. 0. 0. 0. 0. 0. 0. 0.
    0. 0. 0. 0. 0. 0. 0. 0. 0. 0. 0. 0. 0. 0. 0. 0. 0. 0. 0. 0. 0. 0. 0.
    0. 0. 0. 0. 0. 0. 0. 0. 0. 0. 0. 0. 0. 0. 0. 0. 0. 0. 0. 0. 0. 0. 0.
    0. 0. 0. 0. 0. 0. 0. 0. 0. 0. 0. 0. 0. 0. 0. 0. 0. 0. 0. 0. 0. 0. 0.
    0. 0. 0. 0. 0. 0. 0. 0. 0. 0. 0. 0. 0. 0. 0. 0. 0. 0. 0. 0. 0. 0. 0.
    0. 0. 0. 0. 0. 0. 0. 0. 0. 0. 0. 0. 0. 0. 0. 0. 0. 0. 0. 0. 0. 0. 0.
    0. 0. 0. 0. 0. 0. 0. 0. 0. 0. 0. 0. 0. 0. 0. 0. 0. 0. 0. 0. 0. 0. 0.
    0. 0. 0. 0. 2.96000004e+00 2.96000004e+00 2.96000004e+00
    2.96000004e+00 2.96000004e+00 2.96000004e+00 2.96000004e+00
    2.96000004e+00 2.96000004e+00 2.96000004e+00 2.96000004e+00
    2.96000004e+00 2.96000004e+00 2.96000004e+00 2.96000004e+00
    2.96000004e+00 2.96000004e+00 2.92400002e+00 2.87100005e+00
    2.86599994e+00 2.86599994e+00 2.86599994e+00 2.86599994e+00
    2.86599994e+00 2.80800009e+00 2.70700002e+00 2.68600011e+00
    2.68600011e+00 2.68600011e+00 2.68600011e+00 2.68600011e+00
    2.70799994e+00 2.75799990e+00 2.48300004e+00 2.04800010e+00 2. 2. 2.
    2.01300001e+00 2.05100012e+00 2.96000004e+00 2.96000004e+00
    2.96000004e+00 2.96000004e+00 2.96000004e+00 2.96000004e+00
    2.94700003e+00 2.91100001e+00 2.89599991e+00 2.89599991e+00
    2.91100001e+00 2.92799997e+00 2.94600010e+00 2.96000004e+00
    2.96000004e+00 2.96000004e+00 2.96000004e+00 2.92400002e+00
    2.87100005e+00 2.86599994e+00 2.86599994e+00 2.86599994e+00
    2.81200004e+00 2.65899992e+00 2.54699993e+00 2.46799994e+00
    2.45099998e+00 2.45099998e+00 2.45099998e+00 2.45099998e+00
    2.45099998e+00 2.46600008e+00 2.49799991e+00 2.31699991e+00
    2.03200006e+00 2. 2. 2. 2.00799990e+00 2.03299999e+00 2.96000004e+00
    2.96000004e+00 2.96000004e+00 2.96000004e+00 2.96000004e+00
    2.96000004e+00 2.92499995e+00 2.83100009e+00 2.79200006e+00
    2.79200006e+00 2.82999992e+00 2.87599993e+00 2.92400002e+00
    2.96000004e+00 2.96000004e+00 2.96000004e+00 2.96000004e+00
    2.92400002e+00 2.87100005e+00 2.86599994e+00 2.86599994e+00
    2.86599994e+00 2.72399998e+00 2.31900001e+00 2.11899996e+00
    2.07500005e+00 2.06599998e+00 2.06599998e+00 2.06599998e+00
    2.06599998e+00 2.06599998e+00 2.06800008e+00 2.07200003e+00
    2.04600000e+00 2.00500011e+00 2. 2. 2. 2.00099993e+00 2.00500011e+00
    2.91599989e+00 2.91599989e+00 2.91599989e+00 2.91599989e+00
    2.91599989e+00 2.91599989e+00 2.88700008e+00 2.80699992e+00
    2.77399993e+00 2.77399993e+00 2.81599998e+00 2.86800003e+00
    2.92000008e+00 2.96000004e+00 2.96000004e+00 2.84200001e+00
    2.58999991e+00 2.51799989e+00 2.52500010e+00 2.50999999e+00
    2.49399996e+00 2.49399996e+00 2.40400004e+00 2.14700007e+00
    2.02500010e+00 2.00399995e+00 2. 2. 2. 2. 2. 2. 2. 2. 2. 2. 2. 2. 2.
    2. 2.86100006e+00 2.86100006e+00 2.86100006e+00 2.86400008e+00
    2.86599994e+00 2.86599994e+00 2.84800005e+00 2.79900002e+00
    2.76999998e+00 2.75500011e+00 2.79299998e+00 2.84299994e+00
    2.89499998e+00 2.93300009e+00 2.93300009e+00 2.68700004e+00
    2.16300011e+00 2.05299997e+00 2.13000011e+00 2.10200000e+00
    2.06800008e+00 2.06800008e+00 2.05500007e+00 2.01600003e+00 2. 2. 2.
    2. 2. 2. 2. 2. 2. 2. 2. 2. 2. 2. 2. 2. 2.76799989e+00 2.75999999e+00
    2.75999999e+00 2.81500006e+00 2.86599994e+00 2.86599994e+00
    2.86999989e+00 2.88000011e+00 2.69600010e+00 2.37800002e+00
    2.33500004e+00 2.35599995e+00 2.37700009e+00 2.39400005e+00
    2.39400005e+00 2.28999996e+00 2.06900001e+00 2.05299997e+00
    2.13000011e+00 2.10200000e+00 2.06800008e+00 2.06800008e+00
    2.05500007e+00 2.01600003e+00 2. 2. 2. 2. 2. 2. 2. 2. 2. 2. 2. 2. 2.
    2. 2. 2. 2.63899994e+00 2.61999989e+00 2.61400008e+00 2.69300008e+00
    2.76600003e+00 2.76600003e+00 2.77800012e+00 2.81100011e+00
    2.55100012e+00 2.08800006e+00 2. 2. 2. 2. 2. 2. 2. 2.04900002e+00
    2.11999989e+00 2.09699988e+00 2.06800008e+00 2.06800008e+00
    2.05500007e+00 2.01600003e+00 2. 2. 2. 2. 2. 2. 2. 2. 2. 2. 2. 2. 2.
    2. 2. 2. 2.41100001e+00 2.37700009e+00 2.34800005e+00 2.37299991e+00
    2.39700007e+00 2.39700007e+00 2.38199997e+00 2.34100008e+00
    2.21600008e+00 2.03500009e+00 2. 2. 2. 2. 2. 2. 2. 2.03399992e+00
    2.08299994e+00 2.07800007e+00 2.06800008e+00 2.06800008e+00
    2.05500007e+00 2.01600003e+00 2. 2. 2. 2. 2. 2. 2. 2. 2. 2. 2. 2. 2.
    2. 2. 2. 2.27099991e+00 2.23300004e+00 2.19199991e+00 2.17899990e+00
    2.17000008e+00 2.17000008e+00 2.14899993e+00 2.09200001e+00
    2.04500008e+00 2.00699997e+00 2. 2. 2.01099992e+00 2.01900005e+00
    2.01900005e+00 2.01900005e+00 2.01900005e+00 2.03800011e+00
    2.06599998e+00 2.06800008e+00 2.06800008e+00 2.06800008e+00
    2.05800009e+00 2.03099990e+00 2.01300001e+00 2.00200009e+00 2. 2.
    1.99000001e+00 1.98199999e+00 1.98199999e+00 1.98599994e+00
    1.99699998e+00 2. 2. 2. 2. 2. 2. 2. 2.22300005e+00 2.19199991e+00
    2.15199995e+00 2.11899996e+00 2.09100008e+00 2.09100008e+00
    2.08599997e+00 2.07299995e+00 2.04500008e+00 2.00699997e+00 2.
    2.00099993e+00 2.03299999e+00 2.05699992e+00 2.05699992e+00
    2.05699992e+00 2.05699992e+00 2.06100011e+00 2.06699991e+00
    2.06800008e+00 2.06800008e+00 2.06800008e+00 2.06599998e+00
    2.05999994e+00 2.03900003e+00 2.00699997e+00 2. 2. 1.96899998e+00
    1.94500005e+00 1.94500005e+00 1.95899999e+00 1.99000001e+00 2. 2. 2.
    2. 2. 2. 2. 2.18000007e+00 2.16300011e+00 2.13899994e+00
    2.10100007e+00 2.06800008e+00 2.06800008e+00 2.06800008e+00
    2.06800008e+00 2.04500008e+00 2.00699997e+00 2. 2.00099993e+00
    2.03900003e+00 2.06800008e+00 2.06800008e+00 2.06800008e+00
    2.06800008e+00 2.06800008e+00 2.06800008e+00 2.06800008e+00
    2.06800008e+00 2.06800008e+00 2.06800008e+00 2.06800008e+00
    2.04600000e+00 2.00799990e+00 2. 2. 1.94799995e+00 1.90900004e+00
    1.90900004e+00 1.93200004e+00 1.98300004e+00 2. 2. 2.01399994e+00
    2.02699995e+00 2.02699995e+00 2.02699995e+00 2.02699995e+00
    2.14000010e+00 2.13899994e+00 2.13700008e+00 2.10100007e+00
    2.06800008e+00 2.06800008e+00 2.06800008e+00 2.06800008e+00
    2.04500008e+00 2.00699997e+00 2. 2.00099993e+00 2.03900003e+00
    2.06800008e+00 2.06800008e+00 2.06800008e+00 2.06800008e+00
    2.06800008e+00 2.06800008e+00 2.06800008e+00 2.06800008e+00
    2.06800008e+00 2.06800008e+00 2.06800008e+00 2.04600000e+00
    2.00799990e+00 2. 1.99899995e+00 1.92799997e+00 1.87300003e+00
    1.87300003e+00 1.90499997e+00 1.97700000e+00 2. 2. 2.03299999e+00
    2.06500006e+00 2.06500006e+00 2.06500006e+00 2.06500006e+00
    2.13700008e+00 2.13700008e+00 2.13700008e+00 2.10100007e+00
    2.06800008e+00 2.06800008e+00 2.06800008e+00 2.06800008e+00
    2.05699992e+00 2.03900003e+00 2.03600001e+00 2.03600001e+00
    2.05399990e+00 2.06800008e+00 2.06800008e+00 2.06800008e+00
    2.06800008e+00 2.06800008e+00 2.06800008e+00 2.04999995e+00
    2.03200006e+00 2.03200006e+00 2.03900003e+00 2.05900002e+00
    2.05800009e+00 2.03900003e+00 2.01999998e+00 1.99899995e+00
    1.92700005e+00 1.87100005e+00 1.87100005e+00 1.90400004e+00
    1.97599995e+00 2. 2. 2.03399992e+00 2.06800008e+00 2.06800008e+00
    2.06800008e+00 2.06800008e+00 2.13100004e+00 2.13100004e+00
    2.13100004e+00 2.09800005e+00 2.06800008e+00 2.06800008e+00
    2.06800008e+00 2.06800008e+00 2.06800008e+00 2.06800008e+00
    2.06800008e+00 2.06800008e+00 2.06800008e+00 2.06800008e+00
    2.06800008e+00 2.06800008e+00 2.06800008e+00 2.06800008e+00
    2.06800008e+00 2.03299999e+00 2. 2. 2.01200008e+00 2.04699993e+00
    2.06200004e+00 2.06200004e+00 2.03699994e+00 2.00500011e+00
    1.93900001e+00 1.88800001e+00 1.88800001e+00 1.91700006e+00
    1.98399997e+00 2.00600004e+00 2.00600004e+00 2.03699994e+00
    2.06800008e+00 2.06800008e+00 2.06800008e+00 2.06800008e+00
    2.09200001e+00 2.09200001e+00 2.09200001e+00 2.07999992e+00
    2.06800008e+00 2.06800008e+00 2.06800008e+00 2.06800008e+00
    2.06800008e+00 2.06800008e+00 2.06800008e+00 2.06800008e+00
    2.06800008e+00 2.06800008e+00 2.06800008e+00 2.06800008e+00
    2.06800008e+00 2.06800008e+00 2.06800008e+00 2.03299999e+00 2. 2.
    2.00500011e+00 2.01799989e+00 2.02399993e+00 2.02399993e+00
    2.03299999e+00 2.04399991e+00 2.01799989e+00 1.99800003e+00
    1.99800003e+00 2.00999999e+00 2.03500009e+00 2.04399991e+00
    2.04399991e+00 2.05599999e+00 2.06800008e+00 2.06800008e+00
    2.06800008e+00 2.06800008e+00 2.06800008e+00 2.06800008e+00
    2.06800008e+00 2.06800008e+00 2.06800008e+00 2.06800008e+00
    2.06800008e+00 2.06800008e+00 2.06800008e+00 2.06800008e+00
    2.06200004e+00 2.05399990e+00 2.05399990e+00 2.05599999e+00
    2.06399989e+00 2.07599998e+00 2.09200001e+00 2.09699988e+00
    2.09699988e+00 2.04800010e+00 2. 2. 2. 2. 2. 2. 2.02999997e+00
    2.06800008e+00 2.06800008e+00 2.06800008e+00 2.06800008e+00
    2.06800008e+00 2.06800008e+00 2.12299991e+00 2.20600009e+00
    2.21499991e+00 2.21499991e+00 2.21499991e+00 2.21099997e+00
    2.20099998e+00 2.06800008e+00 2.06800008e+00 2.06800008e+00
    2.06800008e+00 2.06800008e+00 2.06800008e+00 2.06800008e+00
    2.06800008e+00 2.06800008e+00 2.06800008e+00 2.04399991e+00
    2.01600003e+00 2.01600003e+00 2.02300000e+00 2.05200005e+00
    2.09699988e+00 2.15799999e+00 2.17700005e+00 2.17700005e+00
    2.08599997e+00 2. 2. 2. 2. 2. 2. 2.02999997e+00 2.06800008e+00
    2.06800008e+00 2.06800008e+00 2.06800008e+00 2.06800008e+00
    2.06800008e+00 2.27200007e+00 2.57800007e+00 2.61100006e+00
    2.61100006e+00 2.61100006e+00 2.59899998e+00 2.56100011e+00
    2.02699995e+00 2.02399993e+00 2.02399993e+00 2.03500009e+00
    2.04699993e+00 2.05999994e+00 2.06800008e+00 2.06800008e+00
    2.06800008e+00 2.06800008e+00 2.03699994e+00 2. 2. 2.02300000e+00
    2.11500001e+00 2.18899989e+00 2.24200010e+00 2.27900004e+00
    2.30800009e+00 2.16400003e+00 2.02300000e+00 2.02300000e+00
    2.01799989e+00 2.00500011e+00 2. 2. 2.01999998e+00 2.04500008e+00
    2.04500008e+00 2.07100010e+00 2.18300009e+00 2.24399996e+00
    2.24399996e+00 2.44400001e+00 2.74099994e+00 2.77399993e+00
    2.77399993e+00 2.77399993e+00 2.75799990e+00 2.70799994e+00
    1.95799994e+00 1.94799995e+00 1.94799995e+00 1.97899997e+00
    2.01200008e+00 2.04600000e+00 2.06800008e+00 2.06800008e+00
    2.06800008e+00 2.06800008e+00 2.03699994e+00 2. 2. 2.04600000e+00
    2.23000002e+00 2.33100009e+00 2.33899999e+00 2.39700007e+00
    2.47700000e+00 2.26799989e+00 2.06100011e+00 2.06100011e+00
    2.04900002e+00 2.01500010e+00 2. 2. 2.00300002e+00 2.00699997e+00
    2.00699997e+00 2.07599998e+00 2.37700009e+00 2.54299998e+00
    2.54299998e+00 2.63000011e+00 2.75999999e+00 2.77399993e+00
    2.77399993e+00 2.77399993e+00 2.75799990e+00 2.70799994e+00
    1.94500005e+00 1.93400002e+00 1.93400002e+00 1.96800005e+00
    2.00600004e+00 2.04399991e+00 2.06800008e+00 2.06800008e+00
    2.05800009e+00 2.03999996e+00 2.01999998e+00 2.00099993e+00
    2.01799989e+00 2.07699990e+00 2.26099992e+00 2.35800004e+00
    2.35800004e+00 2.42000008e+00 2.50900006e+00 2.39199996e+00
    2.27200007e+00 2.27200007e+00 2.27200007e+00 2.27300000e+00
    2.28600001e+00 2.30699992e+00 2.31200004e+00 2.31200004e+00
    2.33500004e+00 2.38400006e+00 2.52300000e+00 2.59999990e+00
    2.59999990e+00 2.63599992e+00 2.68899989e+00 2.73399997e+00
    2.77399993e+00 2.77399993e+00 2.75799990e+00 2.70799994e+00
    1.94599998e+00 1.93499994e+00 1.93499994e+00 1.96899998e+00
    2.00600004e+00 2.04399991e+00 2.06800008e+00 2.06800008e+00
    2.04500008e+00 2.00699997e+00 2. 2.00099993e+00 2.03900003e+00
    2.10999990e+00 2.27699995e+00 2.36500001e+00 2.36500001e+00
    2.42600012e+00 2.51300001e+00 2.52099991e+00 2.51999998e+00
    2.51999998e+00 2.53600001e+00 2.58200002e+00 2.62899995e+00
    2.67600012e+00 2.68700004e+00 2.68899989e+00 2.73699999e+00
    2.75200009e+00 2.65599990e+00 2.60200000e+00 2.60100007e+00
    2.59999990e+00 2.59999990e+00 2.68600011e+00 2.77300000e+00
    2.77300000e+00 2.75900006e+00 2.71600008e+00 1.97700000e+00
    1.97200000e+00 1.97200000e+00 1.98699999e+00 2.00600004e+00
    2.04399991e+00 2.06800008e+00 2.06800008e+00 2.04500008e+00
    2.00699997e+00 2. 2.00099993e+00 2.03900003e+00 2.14199996e+00
    2.44099998e+00 2.59899998e+00 2.59899998e+00 2.62500000e+00
    2.66199994e+00 2.64000010e+00 2.61500001e+00 2.61500001e+00
    2.62199998e+00 2.64100003e+00 2.66100001e+00 2.68199992e+00
    2.73200011e+00 2.78999996e+00 2.78099990e+00 2.76500010e+00
    2.72300005e+00 2.67499995e+00 2.61899996e+00 2.59999990e+00
    2.59999990e+00 2.66199994e+00 2.72300005e+00 2.72300005e+00
    2.78999996e+00 2.99200010e+00 2.14800000e+00 2.14800000e+00
    2.14800000e+00 2.14800000e+00 2.15199995e+00 2.17700005e+00
    2.19300008e+00 2.19300008e+00 2.16899991e+00 2.12899995e+00
    2.12199998e+00 2.12299991e+00 2.15499997e+00 2.26200008e+00
    2.58800006e+00 2.76200008e+00 2.76200008e+00 2.76600003e+00
    2.77300000e+00 2.72900009e+00 2.68600011e+00 2.68600011e+00
    2.68799996e+00 2.69499993e+00 2.69799995e+00 2.69799995e+00
    2.76699996e+00 2.85299993e+00 2.80800009e+00 2.77200007e+00
    2.76500010e+00 2.72099996e+00 2.63000011e+00 2.59999990e+00
    2.59999990e+00 2.64299989e+00 2.68600011e+00 2.68600011e+00
    2.80999994e+00 0. 2.74300003e+00 2.74300003e+00 2.74300003e+00
    2.74300003e+00 2.73900008e+00 2.71099997e+00 2.69400001e+00
    2.69400001e+00 2.66599989e+00 2.61700010e+00 2.60800004e+00
    2.60800004e+00 2.61999989e+00 2.64000010e+00 2.68700004e+00
    2.71199989e+00 2.71199989e+00 2.73600006e+00 2.77099991e+00
    2.72900009e+00 2.68600011e+00 2.68600011e+00 2.69799995e+00
    2.73300004e+00 2.74799991e+00 2.74799991e+00 2.77200007e+00
    2.80100012e+00 2.78600001e+00 2.76600003e+00 2.73099995e+00
    2.68400002e+00 2.62100005e+00 2.59999990e+00 2.59999990e+00
    2.64299989e+00 2.68600011e+00 2.68600011e+00 2.79900002e+00 0. 0. 0.
    0. 0. 0. 2.99499989e+00 2.96000004e+00 2.96000004e+00 2.92899990e+00
    2.87599993e+00 2.86599994e+00 2.86599994e+00 2.86599994e+00
    2.84100008e+00 2.74000001e+00 2.68600011e+00 2.68600011e+00
    2.72000003e+00 2.76999998e+00 2.72900009e+00 2.68600011e+00
    2.68600011e+00 2.70300007e+00 2.75300002e+00 2.77399993e+00
    2.77399993e+00 2.77399993e+00 2.77399993e+00 2.77399993e+00
    2.76300001e+00 2.71300006e+00 2.66400003e+00 2.61599994e+00
    2.59999990e+00 2.59999990e+00 2.64299989e+00 2.68600011e+00
    2.68600011e+00 2.79299998e+00 0. 0. 0. 0. 0. 0. 0. 0. 0. 0. 0. 0. 0.
    0. 0. 0. 0. 0. 0. 0. 0. 0. 0. 0. 0. 0. 0. 0. 0. 0. 0. 0. 0. 0. 0. 0.
    0. 0. 0. 0. 0. 0. 0. 0. 0. 0. 0. 0. 0. 0. 0. 0. 0. 0. 0. 0. 0. 0. 0.
    0. 0. 0. 0. 0. 0. 0. 0. 0. 0. 0. 0. 0. 0. 0. 0. 0. 0. 0. 0. 0. 0. 0.
    0. 0. 0. 0. 0. 0. 0. 0. 0. 0. 0. 0. 0. 0. 0. 0. 0. 0. 0. 0. 0. 0. 0.
    0. 0. 0. 0. 0. 0. 0. 0. 0. 0. 0. 0. 0. 0. 0. 0. 0. 0. 0. 0. 0. 0. 0.
    0. 0. 0. 0. 0. 0. 0. 0. 0. 0. 0. 0. 0. 0. 0. 0. 0. 0. 0. 0. 0. 0. 0.
    0. 0. 0. 0. 0. 0. 0. 0. 0. 0. 0. 0. 0. 0. 0. 0. 0. 0. 0. 0. 0. 0. 0.
    0. 0. 0. 0. 0. 0. 0. 0. 0. 0. 0. 0. 0. 0. 0. 0. 0. 0. 0. 0. 0. 0. 0.
    0. 0. 0. 0. 0. 0. 0. 0. 0. 0. 0. 0. 0. 0. 0. 0. 0. 0. 0. 0. 0. 0. 0.
    0. 0. 0. 0. 0. 0. 0. 0. 0. 0. 0. 0. 0. 0. 0. 0. 0. 0. 0. 0. 0. 0. 0.
    0. 0. 0. 0. 0. 0. 0. 0. 0. 0. 0. 0. 0. 0. 0. 0. 0. 0. 0. 0. 0. 0. 0.
    0. 0. 0. 0. 0. 0. 0. 0. 0. 0. 0. 0. 0. 0. 0. 0. 0. 0. 0. 0. 0. 0. 0.
    0. 0. 0. 0. 0. 0. 0. 0. 0. 0. 0. 0. 0. 0. 0. 0. 0. 0. 0. 0. 0. 0. 0.
    0. 0. 0. 0. 0. 0. 0. 0. 0.</data></Depth>
</opencv_storage>
