<?xml version="1.0"?>
<opencv_storage>
<Depth type_id="opencv-matrix">
  <rows>40</rows>
  <cols>40</cols>
  <dt>f</dt>
  <data>
    1.94599998e+00 1.94599998e+00 1.95700002e+00 1.97399998e+00
    1.99000001e+00 0. 0. 0. 0. 0. 0. 0. 1.94599998e+00 1.95099998e+00
    1.96700001e+00 1.98199999e+00 1.99800003e+00 2.63199997e+00 0. 0. 0.
    0. 0. 0. 0. 0. 0. 0. 0. 0. 0. 0. 0. 0. 0. 0. 0. 0. 0. 0.
    1.94599998e+00 1.94599998e+00 1.95700002e+00 1.97399998e+00
    1.98599994e+00 0. 0. 0. 0. 0. 0. 0. 1.94099998e+00 1.94299996e+00
    1.95200002e+00 1.95400000e+00 1.98099995e+00 1.98099995e+00
    2.73799992e+00 0. 0. 0. 0. 0. 0. 0. 0. 0. 0. 0. 0. 0. 0. 0. 0. 0. 0.
    0. 0. 0. 1.94599998e+00 1.94599998e+00 1.95700002e+00 1.98199999e+00
    1.99399996e+00 0. 0. 2.02800012e+00 2.20700002e+00 2.38400006e+00
    1.93299997e+00 1.93299997e+00 1.93299997e+00 1.93499994e+00
    1.94299996e+00 1.94599998e+00 1.96599996e+00 1.97300005e+00
    1.98399997e+00 2.66799998e+00 0. 0. 0. 0. 0. 0. 0. 0. 0. 0. 0. 0. 0.
    0. 0. 0. 0. 0. 0. 0. 1.94599998e+00 1.95200002e+00 1.96800005e+00
    1.97700000e+00 2.49699998e+00 2.97900009e+00 2.10999990e+00
    2.02800012e+00 1.99800003e+00 1.94000006e+00 1.93299997e+00
    1.93299997e+00 1.93299997e+00 1.93299997e+00 1.93400002e+00
    1.94500005e+00 1.94900000e+00 1.95500004e+00 1.97599995e+00
    1.98599994e+00 2.33999991e+00 2.33999991e+00 0. 0. 0. 0. 0. 0. 0. 0.
    0. 0. 0. 0. 0. 0. 0. 0. 0. 0. 1.96000004e+00 1.96800005e+00
    1.97399998e+00 2.22099996e+00 0. 2.02699995e+00 2.02699995e+00
    2.02600002e+00 1.99399996e+00 1.93900001e+00 1.93299997e+00
    1.93299997e+00 1.93299997e+00 1.93299997e+00 1.93299997e+00
    1.94400001e+00 1.94500005e+00 1.94599998e+00 1.96200001e+00
    1.97300005e+00 1.98599994e+00 1.98599994e+00 1.98599994e+00 0. 0. 0.
    0. 0. 0. 0. 0. 0. 0. 0. 0. 0. 0. 0. 0. 0. 1.97399998e+00
    1.97700000e+00 2.49699998e+00 0. 0. 2.00999999e+00 2.00699997e+00
    1.99600005e+00 1.94299996e+00 1.93299997e+00 1.93299997e+00
    1.93299997e+00 1.93299997e+00 1.93299997e+00 1.93299997e+00
    1.93299997e+00 1.93400002e+00 1.94400001e+00 1.95400000e+00
    1.96700001e+00 1.98199999e+00 1.98599994e+00 1.99399996e+00 0. 0. 0.
    0. 0. 0. 0. 0. 0. 0. 0. 0. 0. 0. 0. 0. 0. 1.97500002e+00
    2.62299991e+00 0. 2.94300008e+00 2.00999999e+00 1.99600005e+00
    1.98800004e+00 1.97899997e+00 1.94500005e+00 1.94000006e+00
    1.93499994e+00 1.93299997e+00 1.93299997e+00 1.93299997e+00
    1.93299997e+00 1.93299997e+00 1.93299997e+00 1.93799996e+00
    1.95400000e+00 1.95899999e+00 1.97300005e+00 1.98099995e+00
    1.99000001e+00 2.00300002e+00 2.95000005e+00 2.95000005e+00 0. 0. 0.
    0. 0. 0. 0. 0. 0. 0. 0. 0. 0. 0. 1.99399996e+00 0. 2.76500010e+00
    2.05699992e+00 2.02099991e+00 1.99800003e+00 1.97800004e+00
    1.96200001e+00 1.95400000e+00 1.94599998e+00 1.94400001e+00
    1.93400002e+00 1.93299997e+00 1.93299997e+00 1.93299997e+00
    1.93299997e+00 1.93299997e+00 1.93400002e+00 1.94400001e+00
    1.95700002e+00 1.96300006e+00 1.97399998e+00 1.97599995e+00
    1.98599994e+00 2.00300002e+00 2.01399994e+00 2.99399996e+00 0. 0. 0.
    0. 0. 0. 0. 0. 0. 0. 0. 0. 0. 2.70000005e+00 2.83599997e+00
    2.04399991e+00 2.04200006e+00 2.03800011e+00 2.01300001e+00
    1.97899997e+00 1.95899999e+00 1.95599997e+00 1.94599998e+00
    1.94599998e+00 1.93400002e+00 1.93299997e+00 1.93299997e+00
    1.93299997e+00 1.93299997e+00 1.93299997e+00 1.93299997e+00
    1.94099998e+00 1.94599998e+00 1.95899999e+00 1.95899999e+00
    1.96700001e+00 1.98300004e+00 1.98599994e+00 2.00300002e+00
    2.98799992e+00 0. 0. 0. 0. 0. 0. 0. 0. 0. 0. 0. 0. 0. 0.
    2.02500010e+00 2.02699995e+00 2.03800011e+00 2.02300000e+00
    2.00500011e+00 1.98899996e+00 1.97599995e+00 1.97300005e+00
    1.96300006e+00 1.95000005e+00 1.94599998e+00 1.93599999e+00
    1.94000006e+00 1.94000006e+00 1.93299997e+00 1.93299997e+00
    1.93299997e+00 1.94099998e+00 1.94599998e+00 1.94700003e+00
    1.95599997e+00 1.95799994e+00 1.96700001e+00 1.97000003e+00
    1.98599994e+00 1.99800003e+00 2.00799990e+00 0. 0. 0. 0. 0. 0. 0. 0.
    0. 0. 0. 0. 0. 2.01399994e+00 2.02600002e+00 2.02099991e+00
    2.01500010e+00 2. 1.98899996e+00 1.98599994e+00 1.97899997e+00
    1.97599995e+00 1.96800005e+00 1.95299995e+00 1.95099998e+00
    1.94599998e+00 1.94599998e+00 1.94000006e+00 1.93900001e+00
    1.93900001e+00 1.94299996e+00 1.94599998e+00 1.94599998e+00
    1.94599998e+00 1.95299995e+00 1.95899999e+00 1.95899999e+00
    1.97000003e+00 1.98300004e+00 1.99199998e+00 2. 0. 0. 0. 0. 0. 0. 0.
    0. 0. 0. 0. 0. 2.00399995e+00 2.01600003e+00 2.01399994e+00
    2.00999999e+00 2. 1.98899996e+00 1.98599994e+00 1.98599994e+00
    1.98399997e+00 1.98199999e+00 1.96000004e+00 1.95700002e+00
    1.94599998e+00 1.94599998e+00 1.94599998e+00 1.94599998e+00
    1.94599998e+00 1.94599998e+00 1.94599998e+00 1.94599998e+00
    1.94599998e+00 1.94799995e+00 1.95000005e+00 1.95000005e+00
    1.96000004e+00 1.96300006e+00 1.97300005e+00 1.98599994e+00
    2.10200000e+00 2.57900000e+00 0. 0. 0. 0. 0. 0. 0. 0. 0. 0.
    1.98699999e+00 1.99800003e+00 2.01399994e+00 2.00999999e+00 2.
    1.99899995e+00 1.98599994e+00 1.98599994e+00 1.98599994e+00
    1.98599994e+00 1.97300005e+00 1.97000003e+00 1.95299995e+00
    1.94599998e+00 1.94599998e+00 1.94799995e+00 1.95799994e+00
    1.95799994e+00 1.94799995e+00 1.94599998e+00 1.94599998e+00
    1.94599998e+00 1.94599998e+00 1.94599998e+00 1.94700003e+00
    1.95299995e+00 1.96899998e+00 1.97399998e+00 1.97599995e+00
    1.98699999e+00 2.05500007e+00 0. 0. 0. 0. 0. 0. 0. 0. 0.
    2.14400005e+00 2.00099993e+00 2.01399994e+00 2.00999999e+00 2. 2. 2.
    1.99699998e+00 1.98699999e+00 1.98599994e+00 1.97599995e+00
    1.97500002e+00 1.97000003e+00 1.96200001e+00 1.95899999e+00
    1.95899999e+00 1.95899999e+00 1.95899999e+00 1.95899999e+00
    1.94799995e+00 1.94799995e+00 1.94700003e+00 1.94599998e+00
    1.94599998e+00 1.94599998e+00 1.94599998e+00 1.95500004e+00
    1.97000003e+00 1.97300005e+00 1.98399997e+00 1.98500001e+00
    1.99899995e+00 2.23099995e+00 0. 0. 0. 0. 0. 0. 0. 2.83999991e+00
    2.01999998e+00 2.01999998e+00 2.01200008e+00 2.00600004e+00
    2.00099993e+00 2. 2. 1.99300003e+00 1.98599994e+00 1.98599994e+00
    1.98599994e+00 1.98300004e+00 1.97500002e+00 1.96000004e+00
    1.95899999e+00 1.95899999e+00 1.96300006e+00 1.96500003e+00
    1.96399999e+00 1.95899999e+00 1.95200002e+00 1.94599998e+00
    1.94599998e+00 1.94599998e+00 1.94599998e+00 1.95099998e+00
    1.95899999e+00 1.96099997e+00 1.97000003e+00 1.97800004e+00
    1.99300003e+00 2. 2.45099998e+00 0. 0. 0. 0. 0. 2.71499991e+00
    2.31699991e+00 2.03699994e+00 2.02800012e+00 2.02300000e+00
    2.02300000e+00 2.01200008e+00 2.00900006e+00 2. 1.99800003e+00
    1.99500000e+00 1.98599994e+00 1.98599994e+00 1.98599994e+00
    1.98300004e+00 1.97000003e+00 1.96800005e+00 1.96800005e+00
    1.97599995e+00 1.98199999e+00 1.97200000e+00 1.95899999e+00
    1.95200002e+00 1.94599998e+00 1.94599998e+00 1.94599998e+00
    1.94599998e+00 1.94599998e+00 1.95799994e+00 1.95899999e+00
    1.96099997e+00 1.96399999e+00 1.97599995e+00 1.99199998e+00 2.
    2.42899990e+00 2.70199990e+00 0. 0. 0. 2.05100012e+00 2.04200006e+00
    2.04200006e+00 2.03999996e+00 2.02800012e+00 2.02800012e+00
    2.02699995e+00 2.01399994e+00 2.00900006e+00 2. 2. 1.99899995e+00
    1.99899995e+00 1.99300003e+00 1.98599994e+00 1.98500001e+00
    1.97300005e+00 1.97300005e+00 1.98099995e+00 1.98599994e+00
    1.97300005e+00 1.96800005e+00 1.95799994e+00 1.94900000e+00
    1.94599998e+00 1.94599998e+00 1.94599998e+00 1.94599998e+00
    1.94700003e+00 1.94700003e+00 1.95200002e+00 1.95899999e+00
    1.97200000e+00 1.97599995e+00 1.99199998e+00 2.00099993e+00
    2.00099993e+00 2.36700010e+00 0. 0. 2.05100012e+00 2.04200006e+00
    2.04200006e+00 2.04200006e+00 2.04200006e+00 2.04200006e+00
    2.04200006e+00 2.02800012e+00 2.01099992e+00 2. 2. 2. 2.
    1.99399996e+00 1.98599994e+00 1.98599994e+00 1.98599994e+00
    1.98599994e+00 1.98699999e+00 1.98599994e+00 1.97300005e+00
    1.96899998e+00 1.96000004e+00 1.95899999e+00 1.94799995e+00
    1.95099998e+00 1.95299995e+00 1.94599998e+00 1.94599998e+00
    1.94599998e+00 1.95099998e+00 1.95700002e+00 1.95899999e+00
    1.97099996e+00 1.97599995e+00 1.98399997e+00 1.99600005e+00
    1.99899995e+00 2.57200003e+00 0. 2.05100012e+00 2.04200006e+00
    2.04200006e+00 2.04200006e+00 2.04200006e+00 2.04200006e+00
    2.04200006e+00 2.02800012e+00 2.01600003e+00 2.00500011e+00
    2.00500011e+00 2. 2. 1.99600005e+00 1.99100006e+00 1.99100006e+00
    1.98599994e+00 1.98599994e+00 1.99399996e+00 1.98800004e+00
    1.97800004e+00 1.97599995e+00 1.96800005e+00 1.96000004e+00
    1.95899999e+00 1.95899999e+00 1.95500004e+00 1.95099998e+00
    1.94599998e+00 1.94599998e+00 1.94599998e+00 1.94599998e+00
    1.95299995e+00 1.95899999e+00 1.96200001e+00 1.96800005e+00
    1.97899997e+00 1.98699999e+00 2.00300002e+00 2.72000003e+00
    2.05100012e+00 2.04200006e+00 2.04200006e+00 2.04200006e+00
    2.04200006e+00 2.04200006e+00 2.04200006e+00 2.03600001e+00
    2.02699995e+00 2.01799989e+00 2.01399994e+00 2.00900006e+00 2. 2. 2.
    2. 1.98599994e+00 1.98599994e+00 1.99399996e+00 1.99500000e+00
    1.99399996e+00 1.98199999e+00 1.97300005e+00 1.96200001e+00
    1.95899999e+00 1.95899999e+00 1.95899999e+00 1.95899999e+00
    1.94700003e+00 1.94599998e+00 1.94599998e+00 1.94599998e+00
    1.94599998e+00 1.95200002e+00 1.95899999e+00 1.95899999e+00
    1.97099996e+00 1.97899997e+00 1.99399996e+00 2.00300002e+00
    2.05100012e+00 2.04200006e+00 2.04200006e+00 2.04200006e+00
    2.04200006e+00 2.04200006e+00 2.04200006e+00 2.04200006e+00
    2.03699994e+00 2.02699995e+00 2.01699996e+00 2.01399994e+00 2.
    2.00500011e+00 2.01200008e+00 2.00099993e+00 1.99600005e+00
    1.98599994e+00 1.99399996e+00 2. 2. 1.99300003e+00 1.97800004e+00
    1.97099996e+00 1.95899999e+00 1.95899999e+00 1.95899999e+00
    1.95899999e+00 1.94700003e+00 1.94599998e+00 1.94599998e+00
    1.94599998e+00 1.94599998e+00 1.94599998e+00 1.94799995e+00
    1.95500004e+00 1.96099997e+00 1.96300006e+00 1.98699999e+00
    1.99500000e+00 2.75399995e+00 2.12100005e+00 2.05699992e+00
    2.05599999e+00 2.05200005e+00 2.04399991e+00 2.04299998e+00
    2.04200006e+00 2.04200006e+00 2.04200006e+00 2.03299999e+00
    2.02800012e+00 2.01500010e+00 2.01500010e+00 2.01399994e+00
    2.00200009e+00 2. 2. 2. 2. 2. 1.99600005e+00 1.98599994e+00
    1.97700000e+00 1.97399998e+00 1.97300005e+00 1.96599996e+00
    1.95899999e+00 1.95899999e+00 1.94700003e+00 1.94700003e+00
    1.94700003e+00 1.94700003e+00 1.94599998e+00 1.94599998e+00
    1.94599998e+00 1.95700002e+00 1.96000004e+00 1.97200000e+00
    1.97200000e+00 0. 0. 2.51699996e+00 2.06100011e+00 2.06399989e+00
    2.06299996e+00 2.05599999e+00 2.04600000e+00 2.04600000e+00
    2.04399991e+00 2.04200006e+00 2.03299999e+00 2.02800012e+00
    2.02399993e+00 2.01799989e+00 2.01799989e+00 2.00399995e+00 2.
    2.00300002e+00 2.00399995e+00 2. 2. 1.99500000e+00 1.98699999e+00
    1.98599994e+00 1.97599995e+00 1.96800005e+00 1.96300006e+00
    1.95899999e+00 1.95899999e+00 1.95899999e+00 1.95899999e+00
    1.95899999e+00 1.94900000e+00 1.94599998e+00 1.94599998e+00
    1.95400000e+00 1.95500004e+00 1.95899999e+00 1.95899999e+00 0. 0. 0.
    2.63000011e+00 2.08699989e+00 2.07100010e+00 2.05599999e+00
    2.05599999e+00 2.05599999e+00 2.04900002e+00 2.04200006e+00
    2.04200006e+00 2.03600001e+00 2.03600001e+00 2.03099990e+00
    2.02800012e+00 2.01300001e+00 2.00799990e+00 2.01099992e+00
    2.01399994e+00 2.00799990e+00 2.00500011e+00 2. 1.99500000e+00
    1.99399996e+00 1.99000001e+00 1.98000002e+00 1.97500002e+00
    1.96700001e+00 1.95899999e+00 1.95899999e+00 1.95899999e+00
    1.95899999e+00 1.95700002e+00 1.94599998e+00 1.94599998e+00
    1.94599998e+00 1.94700003e+00 1.95899999e+00 1.95899999e+00 0. 0. 0.
    0. 2.66499996e+00 2.08299994e+00 2.06800008e+00 2.06800008e+00
    2.05599999e+00 2.04900002e+00 2.04200006e+00 2.04200006e+00
    2.04200006e+00 2.04200006e+00 2.03999996e+00 2.03900003e+00
    2.02500010e+00 2.02500010e+00 2.02500010e+00 2.01600003e+00
    2.01399994e+00 2.00999999e+00 2. 2. 2. 1.99600005e+00 1.98599994e+00
    1.98399997e+00 1.97300005e+00 1.95899999e+00 1.95899999e+00
    1.95899999e+00 1.95899999e+00 1.95899999e+00 1.95599997e+00
    1.95000005e+00 1.94599998e+00 1.94700003e+00 1.95899999e+00
    1.95899999e+00 0. 0. 0. 0. 0. 0. 2.33699989e+00 2.05599999e+00
    2.05599999e+00 2.05599999e+00 2.05599999e+00 2.04299998e+00
    2.04200006e+00 2.04200006e+00 2.04200006e+00 2.04200006e+00
    2.02800012e+00 2.02800012e+00 2.02800012e+00 2.02800012e+00
    2.01399994e+00 2.01399994e+00 2.01399994e+00 2.00300002e+00 2. 2. 2.
    1.99000001e+00 1.98599994e+00 1.97300005e+00 1.97300005e+00
    1.97300005e+00 1.97300005e+00 1.95899999e+00 1.95899999e+00
    1.95899999e+00 1.95899999e+00 1.95899999e+00 1.95899999e+00
    1.95899999e+00 0. 0. 0. 0. 0. 0. 0. 2.24600005e+00 2.06200004e+00
    2.06399989e+00 2.05599999e+00 2.05599999e+00 2.04600000e+00
    2.04600000e+00 2.04299998e+00 2.04200006e+00 2.03999996e+00
    2.02800012e+00 2.02999997e+00 2.03200006e+00 2.02800012e+00
    2.02800012e+00 2.02200007e+00 2.01500010e+00 2.00300002e+00 2. 2. 2.
    2. 1.99000001e+00 1.98399997e+00 1.97599995e+00 1.97300005e+00
    1.95899999e+00 1.95899999e+00 1.95899999e+00 1.95899999e+00
    1.95899999e+00 1.95599997e+00 1.95000005e+00 2.96799994e+00
    2.96900010e+00 2.99000001e+00 2.96900010e+00 2.80100012e+00
    2.79399991e+00 2.78800011e+00 2.79900002e+00 2.33699989e+00
    2.06699991e+00 2.05800009e+00 2.05599999e+00 2.05599999e+00
    2.05599999e+00 2.05100012e+00 2.04299998e+00 2.03999996e+00
    2.02800012e+00 2.03600001e+00 2.04200006e+00 2.03399992e+00
    2.02800012e+00 2.02399993e+00 2.01600003e+00 2.01399994e+00 2. 2. 2.
    2. 2. 1.99699998e+00 1.98800004e+00 1.97399998e+00 1.95899999e+00
    1.95899999e+00 1.95899999e+00 1.95899999e+00 1.95799994e+00
    1.94599998e+00 1.95000005e+00 2.81900001e+00 2.81399989e+00
    2.81399989e+00 2.78800011e+00 2.78800011e+00 2.78800011e+00
    2.78800011e+00 2.78800011e+00 2.73600006e+00 2.56399989e+00
    2.20700002e+00 2.05699992e+00 2.05599999e+00 2.05599999e+00
    2.05599999e+00 2.05299997e+00 2.04200006e+00 2.03800011e+00
    2.03999996e+00 2.04200006e+00 2.04200006e+00 2.03800011e+00
    2.02500010e+00 2.01399994e+00 2.01399994e+00 2.00799990e+00 2. 2. 2.
    2. 2. 1.99699998e+00 1.98399997e+00 1.96800005e+00 1.95899999e+00
    1.95899999e+00 1.95899999e+00 0. 0. 0. 2.81399989e+00 2.81399989e+00
    2.79299998e+00 2.78800011e+00 2.78800011e+00 2.80100012e+00
    2.81299996e+00 2.81299996e+00 2.75799990e+00 2.72700000e+00
    2.26600003e+00 2.05699992e+00 2.05900002e+00 2.06399989e+00
    2.05599999e+00 2.05599999e+00 2.05399990e+00 2.04200006e+00
    2.04200006e+00 2.04200006e+00 2.04200006e+00 2.04200006e+00
    2.03399992e+00 2.01699996e+00 2.01399994e+00 2.00999999e+00 2. 2.
    2.01300001e+00 2.01099992e+00 2. 2. 1.98699999e+00 1.98500001e+00
    1.97500002e+00 1.95899999e+00 0. 0. 0. 0. 2.78299999e+00
    2.78299999e+00 2.76600003e+00 2.76399994e+00 2.78299999e+00
    2.79999995e+00 2.83400011e+00 2.81399989e+00 2.75600004e+00
    2.71199989e+00 2.67199993e+00 2.66100001e+00 2.07500005e+00
    2.05599999e+00 2.05599999e+00 2.05399990e+00 2.05200005e+00
    2.04500008e+00 2.05200005e+00 2.05599999e+00 2.04500008e+00
    2.04500008e+00 2.03699994e+00 2.02900004e+00 2.01699996e+00
    2.01399994e+00 2.01399994e+00 2.01399994e+00 2.01399994e+00
    2.01200008e+00 2.00200009e+00 2. 1.99000001e+00 1.98599994e+00
    1.98599994e+00 0. 0. 0. 0. 0. 2.75900006e+00 2.75200009e+00
    2.75200009e+00 2.75200009e+00 2.75200009e+00 2.77300000e+00
    2.80299997e+00 2.79200006e+00 2.74300003e+00 2.69700003e+00
    2.66199994e+00 2.63299990e+00 2.32500005e+00 2.28999996e+00
    2.13599992e+00 2.04299998e+00 2.04399991e+00 2.05599999e+00
    2.05599999e+00 2.05599999e+00 2.05599999e+00 2.05599999e+00
    2.04800010e+00 2.03600001e+00 2.02800012e+00 2.01999998e+00
    2.01699996e+00 2.01399994e+00 2.01399994e+00 2.01399994e+00
    2.00799990e+00 2. 2. 1.98599994e+00 2.31699991e+00 0. 0. 0. 0. 0.
    2.74300003e+00 2.73799992e+00 2.73799992e+00 2.73799992e+00
    2.73799992e+00 2.74200010e+00 2.74600005e+00 2.74600005e+00
    2.71900010e+00 2.69000006e+00 2.64899993e+00 2.61999989e+00
    2.61500001e+00 2.59699988e+00 2.24099994e+00 2.05200005e+00
    2.06100011e+00 2.05599999e+00 2.06200004e+00 2.06599998e+00
    2.05599999e+00 2.05599999e+00 2.05299997e+00 2.05100012e+00
    2.04699993e+00 2.03500009e+00 2.02600002e+00 2.01699996e+00
    2.01399994e+00 2.01399994e+00 2.01200008e+00 2.00900006e+00
    2.00099993e+00 2.18899989e+00 0. 0. 0. 0. 0. 0. 2.73799992e+00
    2.73799992e+00 2.71900010e+00 2.71700001e+00 2.73799992e+00
    2.73799992e+00 2.73799992e+00 2.73799992e+00 2.71300006e+00
    2.69000006e+00 2.64899993e+00 2.61999989e+00 2.61500001e+00
    2.59699988e+00 2.56299996e+00 2.54500008e+00 2.50200009e+00
    2.06999993e+00 2.06999993e+00 2.07100010e+00 2.05599999e+00
    2.05599999e+00 2.05599999e+00 2.05599999e+00 2.05599999e+00
    2.04200006e+00 2.03399992e+00 2.02699995e+00 2.01500010e+00
    2.01399994e+00 2.01399994e+00 2.01399994e+00 2.01300001e+00 0. 0. 0.
    0. 0. 0. 0. 2.71300006e+00 2.71300006e+00 2.71300006e+00
    2.71399999e+00 2.73600006e+00 2.73799992e+00 2.73799992e+00
    2.71300006e+00 2.71300006e+00 2.69000006e+00 2.64899993e+00
    2.61999989e+00 2.61899996e+00 2.61899996e+00 2.60500002e+00
    2.59699988e+00 2.59699988e+00 2.40700006e+00 2.07500005e+00
    2.07299995e+00 2.07100010e+00 2.06599998e+00 2.05599999e+00
    2.05599999e+00 2.05599999e+00 2.05599999e+00 2.04900002e+00
    2.04200006e+00 2.02999997e+00 2.02999997e+00 2.02500010e+00
    2.01799989e+00 2.26799989e+00 0. 0. 0. 0. 0. 0. 0. 2.71300006e+00
    2.71300006e+00 2.71300006e+00 2.71300006e+00 2.72000003e+00
    2.73799992e+00 2.73799992e+00 2.71300006e+00 2.71099997e+00
    2.68499994e+00 2.64899993e+00 2.62800002e+00 2.61899996e+00
    2.61899996e+00 2.60500002e+00 2.59699988e+00 2.59699988e+00
    2.48699999e+00 2.27999997e+00 2.11599994e+00 2.07100010e+00
    2.06599998e+00 2.05599999e+00 2.05599999e+00 2.05599999e+00
    2.05599999e+00 2.05200005e+00 2.04299998e+00 2.04200006e+00
    2.04299998e+00 2.04699993e+00 2.54099989e+00 0. 0. 0. 0. 0. 0. 0. 0.
    2.71300006e+00 2.71300006e+00 2.71300006e+00 2.71300006e+00
    2.72000003e+00 2.73799992e+00 2.72600007e+00 2.71300006e+00
    2.70700002e+00 2.67799997e+00 2.64899993e+00 2.64199996e+00
    2.61899996e+00 2.61899996e+00 2.60500002e+00 2.59699988e+00
    2.59699988e+00 2.59699988e+00 2.58299994e+00 2.15000010e+00
    2.06200004e+00 2.05999994e+00 2.05599999e+00 2.06299996e+00
    2.05599999e+00 2.05599999e+00 2.05599999e+00 2.05200005e+00
    2.05100012e+00 2.29399991e+00 0. 0. 0. 0. 0. 0. 0. 0. 0. 0.
    2.71300006e+00 2.71300006e+00 2.71300006e+00 2.71300006e+00
    2.71399999e+00 2.71700001e+00 2.71399999e+00 2.71300006e+00
    2.71199989e+00 2.69799995e+00 2.66799998e+00 2.64299989e+00
    2.63499999e+00 2.61899996e+00 2.61700010e+00 2.61599994e+00
    2.59699988e+00 2.59699988e+00 2.58299994e+00 2.14100003e+00
    2.05599999e+00 2.05599999e+00 2.05599999e+00 2.05800009e+00
    2.06900001e+00 2.06900001e+00 2.06900001e+00 2.06900001e+00
    2.06900001e+00 2.46199989e+00 0. 0. 0. 0. 0. 0. 0. 0. 0. 0.
    2.68700004e+00 2.68700004e+00 2.68700004e+00 2.68799996e+00
    2.71099997e+00 2.69899988e+00 2.68899989e+00 2.71099997e+00
    2.71099997e+00 2.71300006e+00 2.71300006e+00 2.64899993e+00
    2.64199996e+00 2.64199996e+00 2.62700009e+00 2.61899996e+00
    2.59699988e+00 2.59699988e+00 2.59800005e+00 2.59899998e+00
    2.56399989e+00 2.09400010e+00 2.04200006e+00 2.05299997e+00
    2.06999993e+00 2.07100010e+00 2.07100010e+00 2.07100010e+00
    2.11299992e+00 0. 0. 0. 0. 0. 0. 0. 0. 0. 0. 0. 2.66499996e+00
    2.66499996e+00 2.66499996e+00 2.66599989e+00 2.68899989e+00
    2.68899989e+00 2.68899989e+00 2.68899989e+00 2.69499993e+00
    2.71300006e+00 2.71300006e+00 2.69000006e+00 2.64199996e+00
    2.64199996e+00 2.62700009e+00 2.61899996e+00 2.59699988e+00
    2.59699988e+00 2.60999990e+00 2.61899996e+00 2.61899996e+00
    2.44099998e+00 2.04200006e+00 2.05299997e+00 2.05599999e+00
    2.07100010e+00 2.07100010e+00 2.07100010e+00 2.57599998e+00 0. 0. 0.
    0. 0. 0. 0. 0. 0. 0. 0.</data></Depth>
</opencv_storage>
