<?xml version="1.0"?>
<opencv_storage>
<Depth type_id="opencv-matrix">
  <rows>40</rows>
  <cols>40</cols>
  <dt>f</dt>
  <data>
    0. 0. 0. 0. 0. 0. 0. 0. 0. 0. 0. 0. 0. 0. 0. 0. 0. 0. 0. 0. 0. 0. 0.
    0. 0. 0. 0. 0. 0. 0. 0. 0. 0. 0. 0. 0. 0. 0. 0. 0. 0. 0. 0. 0. 0. 0.
    0. 0. 0. 0. 0. 0. 0. 0. 0. 0. 0. 0. 0. 0. 0. 0. 0. 0. 0. 0. 0. 0. 0.
    0. 0. 0. 0. 0. 0. 0. 0. 0. 0. 0. 0. 2.07500005e+00 2.02200007e+00
    2.02200007e+00 2.02200007e+00 2.02200007e+00 2.00399995e+00 2.
    1.96700001e+00 1.95599997e+00 1.97000003e+00 1.97700000e+00
    2.66400003e+00 0. 0. 0. 0. 0. 0. 0. 0. 0. 0. 0. 2.99699998e+00
    2.96499991e+00 2.95799994e+00 2.91899991e+00 2.88599992e+00
    2.88599992e+00 2.88599992e+00 2.88599992e+00 2.88599992e+00
    2.84800005e+00 2.84699988e+00 2.84699988e+00 2.84699988e+00
    2.84699988e+00 2.84699988e+00 2.84699988e+00 0. 2.07299995e+00
    2.02200007e+00 2.02200007e+00 2.02200007e+00 2.00500011e+00 2.
    1.98300004e+00 1.96200001e+00 1.95599997e+00 1.97000003e+00
    1.97700000e+00 2.00900006e+00 2.62599993e+00 0. 0. 0. 0. 0. 0. 0. 0.
    0. 0. 2.99699998e+00 2.96499991e+00 2.95799994e+00 2.92499995e+00
    2.92300010e+00 2.92000008e+00 2.88599992e+00 2.88599992e+00
    2.88599992e+00 2.84800005e+00 2.84699988e+00 2.84699988e+00
    2.84699988e+00 2.84699988e+00 2.84699988e+00 2.84699988e+00
    2.15000010e+00 2.02800012e+00 2.02200007e+00 2.02200007e+00
    2.00399995e+00 1.98300004e+00 1.97899997e+00 1.96200001e+00
    1.94099998e+00 1.93599999e+00 1.96399999e+00 1.97700000e+00
    1.97700000e+00 2.02500010e+00 2.60800004e+00 0. 0. 0. 0. 0. 0. 0. 0.
    0. 2.99699998e+00 2.96499991e+00 2.95799994e+00 2.92499995e+00
    2.92499995e+00 2.92100000e+00 2.88599992e+00 2.88599992e+00
    2.88599992e+00 2.84800005e+00 2.84699988e+00 2.88000011e+00
    2.88299990e+00 2.85200000e+00 2.84699988e+00 2.84699988e+00
    2.04699993e+00 2.04299998e+00 2.02399993e+00 2.02200007e+00
    2.00300002e+00 1.98099995e+00 1.96200001e+00 1.95700002e+00
    1.94000006e+00 1.93400002e+00 1.95000005e+00 1.95799994e+00
    1.95799994e+00 1.95799994e+00 2.02200007e+00 2.62800002e+00 0. 0. 0.
    0. 0. 0. 0. 0. 0. 2.99399996e+00 2.96399999e+00 2.96099997e+00
    2.95600009e+00 2.92100000e+00 2.88599992e+00 2.88599992e+00
    2.88599992e+00 2.84800005e+00 2.84699988e+00 2.88199997e+00
    2.85500002e+00 2.84800005e+00 2.84699988e+00 2.84699988e+00
    2.04500008e+00 2.04500008e+00 2.02399993e+00 2.00500011e+00
    1.98300004e+00 1.96200001e+00 1.94099998e+00 1.93700004e+00
    1.93499994e+00 1.93400002e+00 1.94900000e+00 1.95599997e+00
    1.95599997e+00 1.95599997e+00 1.95599997e+00 2.05100012e+00
    2.58999991e+00 0. 0. 0. 0. 0. 0. 0. 0. 0. 2.99399996e+00
    2.96499991e+00 2.96000004e+00 2.92100000e+00 2.88599992e+00
    2.88599992e+00 2.88599992e+00 2.88100004e+00 2.88100004e+00
    2.88599992e+00 2.85200000e+00 2.84699988e+00 2.84699988e+00
    2.84699988e+00 2.04500008e+00 2.02699995e+00 2.00500011e+00 2.
    1.96500003e+00 1.95700002e+00 1.93799996e+00 1.93400002e+00
    1.93400002e+00 1.93400002e+00 1.94900000e+00 1.95599997e+00
    1.95599997e+00 1.95599997e+00 1.95599997e+00 1.95799994e+00
    2.05699992e+00 2.56999993e+00 0. 0. 0. 0. 0. 0. 0. 0. 0.
    2.99399996e+00 2.96000004e+00 2.92400002e+00 2.91599989e+00
    2.88599992e+00 2.88599992e+00 2.88599992e+00 2.88599992e+00
    2.88599992e+00 2.88000011e+00 2.87899995e+00 2.87899995e+00
    2.85400009e+00 2.04500008e+00 2.02300000e+00 2.00200009e+00
    1.98399997e+00 1.96000004e+00 1.95599997e+00 1.93799996e+00
    1.93400002e+00 1.93400002e+00 1.93400002e+00 1.94900000e+00
    1.95599997e+00 1.95599997e+00 1.95599997e+00 1.95599997e+00
    1.95599997e+00 1.95799994e+00 2.05900002e+00 2.55200005e+00 0. 0. 0.
    0. 0. 0. 0. 0. 2.97199988e+00 2.96000004e+00 2.92499995e+00
    2.92300010e+00 2.88599992e+00 2.88599992e+00 2.91599989e+00
    2.88800001e+00 2.88599992e+00 2.88599992e+00 2.88599992e+00
    2.88599992e+00 2.88000011e+00 2.04500008e+00 2.02300000e+00
    2.00200009e+00 1.97899997e+00 1.95899999e+00 1.95599997e+00
    1.93799996e+00 1.93400002e+00 1.93400002e+00 1.93400002e+00
    1.94900000e+00 1.95599997e+00 1.95599997e+00 1.95599997e+00
    1.95599997e+00 1.95599997e+00 1.94799995e+00 1.93900001e+00
    2.04800010e+00 2.53500009e+00 0. 0. 0. 0. 0. 0. 2.99900007e+00
    2.96499991e+00 2.96000004e+00 2.92499995e+00 2.92400002e+00
    2.91599989e+00 2.91599989e+00 2.92499995e+00 2.88800001e+00
    2.88599992e+00 2.88599992e+00 2.88599992e+00 2.88599992e+00
    2.88599992e+00 0. 1.96399999e+00 2.00200009e+00 1.97899997e+00
    1.95899999e+00 1.95599997e+00 1.93799996e+00 1.93400002e+00
    1.93400002e+00 1.94599998e+00 1.95400000e+00 1.95599997e+00
    1.95599997e+00 1.94599998e+00 1.94000006e+00 1.94000006e+00
    1.92900002e+00 1.91799998e+00 1.93200004e+00 2.39100003e+00 0. 0. 0.
    0. 0. 0. 2.99900007e+00 2.96499991e+00 2.96399999e+00 2.95499992e+00
    2.95300007e+00 2.92499995e+00 2.92499995e+00 2.92499995e+00
    2.91499996e+00 2.91499996e+00 2.88899994e+00 2.88599992e+00
    2.88599992e+00 2.88599992e+00 0. 0. 1.89300001e+00 1.97800004e+00
    1.95899999e+00 1.95599997e+00 1.95099998e+00 1.95000005e+00
    1.95000005e+00 1.95400000e+00 1.95599997e+00 1.95599997e+00
    1.95599997e+00 1.94299996e+00 1.93400002e+00 1.93400002e+00
    1.92400002e+00 1.91299999e+00 1.93200004e+00 2.08400011e+00
    2.56200004e+00 0. 0. 0. 0. 0. 2.99900007e+00 2.96499991e+00
    2.96499991e+00 2.96499991e+00 2.96199989e+00 2.92499995e+00
    2.92499995e+00 2.89800000e+00 2.89700007e+00 2.92199993e+00
    2.89100003e+00 2.88599992e+00 2.88599992e+00 2.88599992e+00 0. 0. 0.
    1.86899996e+00 1.98699999e+00 1.97300005e+00 1.97000003e+00
    1.97000003e+00 1.96000004e+00 1.95599997e+00 1.95599997e+00
    1.95599997e+00 1.95599997e+00 1.95200002e+00 1.94099998e+00
    1.93400002e+00 1.93099999e+00 1.92700005e+00 1.94000006e+00
    1.96200001e+00 2.15400004e+00 2.46799994e+00 2.64700007e+00 0. 0. 0.
    0. 2.99300003e+00 2.99000001e+00 2.96499991e+00 2.96199989e+00
    2.92499995e+00 2.92499995e+00 2.88700008e+00 2.88599992e+00
    2.89700007e+00 2.88800001e+00 2.88599992e+00 2.88599992e+00
    2.88599992e+00 0. 0. 0. 0. 1.83500004e+00 1.97800004e+00
    1.97700000e+00 1.97700000e+00 1.96099997e+00 1.95599997e+00
    1.95599997e+00 1.95599997e+00 1.95599997e+00 1.95599997e+00
    1.94400001e+00 1.93400002e+00 1.93400002e+00 1.93400002e+00
    1.94299996e+00 1.96399999e+00 2.05599999e+00 2.19099998e+00
    2.28999996e+00 2.51600003e+00 2.65700006e+00 0. 0. 0. 0.
    2.99000001e+00 2.96199989e+00 2.92499995e+00 2.92499995e+00
    2.88700008e+00 2.88599992e+00 2.88599992e+00 2.88599992e+00
    2.88599992e+00 2.88599992e+00 2.88599992e+00 0. 0. 0. 0. 0.
    1.81400001e+00 1.99100006e+00 1.99100006e+00 1.97500002e+00
    1.96000004e+00 1.95599997e+00 1.95599997e+00 1.95599997e+00
    1.96399999e+00 1.96399999e+00 1.96000004e+00 1.96000004e+00
    1.95500004e+00 1.95099998e+00 1.96399999e+00 2.05599999e+00
    2.19099998e+00 2.19899988e+00 2.22399998e+00 2.32800007e+00
    2.67700005e+00 0. 0. 0. 0. 2.96199989e+00 2.92499995e+00
    2.92499995e+00 2.91000009e+00 2.91000009e+00 2.91000009e+00
    2.88899994e+00 2.88599992e+00 2.88599992e+00 2.88599992e+00 0. 0. 0.
    0. 0. 0. 1.00100005e+00 1.76999998e+00 1.99300003e+00 1.97500002e+00
    1.96800005e+00 1.96800005e+00 1.96800005e+00 1.97300005e+00
    1.97700000e+00 1.97700000e+00 1.97700000e+00 1.97300005e+00
    1.96800005e+00 1.97200000e+00 2.01999998e+00 2.12599993e+00
    2.19899988e+00 2.22399998e+00 2.25200009e+00 2.35200000e+00
    2.68199992e+00 0. 0. 0. 2.98699999e+00 2.94799995e+00 2.94799995e+00
    2.94799995e+00 2.94799995e+00 2.92700005e+00 2.91100001e+00
    2.88899994e+00 2.88599992e+00 2.86800003e+00 0. 0. 0. 0. 0. 0. 0. 0.
    1.74500000e+00 1.98000002e+00 1.97700000e+00 1.97700000e+00
    1.97700000e+00 1.97700000e+00 1.97700000e+00 1.97700000e+00
    1.97700000e+00 1.98300004e+00 1.99000001e+00 1.99000001e+00
    2.00200009e+00 2.07900000e+00 2.19899988e+00 2.22399998e+00
    2.24600005e+00 2.26399994e+00 2.35400009e+00 2.67799997e+00 0. 0. 0.
    2.98799992e+00 2.98799992e+00 2.96600008e+00 2.96499991e+00
    2.92899990e+00 2.92499995e+00 2.89199996e+00 2.88599992e+00
    2.85500002e+00 0. 0. 0. 0. 0. 0. 0. 0. 0. 1.73000002e+00
    1.98899996e+00 1.98899996e+00 1.98899996e+00 1.98199999e+00
    1.97700000e+00 1.97700000e+00 1.97700000e+00 1.98800004e+00 2. 2.
    2.00799990e+00 2.08400011e+00 2.21300006e+00 2.23399997e+00
    2.24300003e+00 2.24900007e+00 2.27500010e+00 2.36199999e+00
    2.75399995e+00 0. 0. 0. 0. 2.96600008e+00 2.96499991e+00
    2.92899990e+00 2.92499995e+00 2.90899992e+00 2.89000010e+00
    2.87100005e+00 0. 0. 0. 0. 0. 0. 0. 0. 0. 0. 1.73699999e+00
    2.01099992e+00 1.99699998e+00 1.98199999e+00 1.97700000e+00
    1.97700000e+00 1.97700000e+00 1.98199999e+00 1.99399996e+00 2.
    2.01200008e+00 2.09599996e+00 2.22499990e+00 2.24300003e+00
    2.24300003e+00 2.24900007e+00 2.27500010e+00 2.31500006e+00
    2.45300007e+00 2.75099993e+00 2.77900004e+00 0. 0. 2.96600008e+00
    2.96499991e+00 2.92899990e+00 2.92499995e+00 2.92499995e+00
    2.89299989e+00 2.88599992e+00 0. 0. 0. 0. 0. 0. 0. 0. 0. 0. 0.
    1.72700000e+00 1.98599994e+00 1.97700000e+00 1.97700000e+00
    1.97700000e+00 1.97700000e+00 1.97700000e+00 1.98699999e+00 2.
    2.01300001e+00 2.09599996e+00 2.22499990e+00 2.24300003e+00
    2.24300003e+00 2.25200009e+00 2.29200006e+00 2.34999990e+00
    2.42700005e+00 2.44400001e+00 2.50500011e+00 0. 0. 2.96600008e+00
    2.96499991e+00 2.94499993e+00 2.94300008e+00 2.92799997e+00
    2.89299989e+00 2.88599992e+00 0. 0. 0. 0. 0. 0. 0. 0. 0. 0. 0. 0.
    1.69799995e+00 1.97700000e+00 1.97700000e+00 1.97700000e+00
    1.97700000e+00 1.97700000e+00 1.98699999e+00 2. 2.00799990e+00
    2.08400011e+00 2.21399999e+00 2.23499990e+00 2.24300003e+00
    2.25500011e+00 2.31299996e+00 2.39100003e+00 2.44099998e+00
    2.44400001e+00 2.49099994e+00 2.78900003e+00 2.80299997e+00
    2.97799993e+00 2.96600008e+00 2.94899988e+00 2.94799995e+00
    2.92799997e+00 2.89299989e+00 2.88599992e+00 0. 0. 0. 0. 0. 0. 0. 0.
    0. 0. 0. 0. 0. 1.69700003e+00 1.97700000e+00 1.97700000e+00
    1.97700000e+00 1.98099995e+00 1.99600005e+00 2.00900006e+00
    2.01699996e+00 2.08500004e+00 2.19899988e+00 2.22099996e+00
    2.23799992e+00 2.27099991e+00 2.34299994e+00 2.40100002e+00
    2.44199991e+00 2.45499992e+00 2.47300005e+00 2.50200009e+00
    2.50900006e+00 2.78399992e+00 2.95499992e+00 2.92899990e+00
    2.92499995e+00 2.92499995e+00 2.89299989e+00 2.88599992e+00 0. 0. 0.
    0. 0. 0. 0. 0. 0. 0. 0. 0. 0. 0. 1.35099995e+00 1.68799996e+00
    1.99399996e+00 2. 2.01399994e+00 2.02200007e+00 2.03099990e+00
    2.09500003e+00 2.19899988e+00 2.21700001e+00 2.22799993e+00
    2.28900003e+00 2.39800000e+00 2.42499995e+00 2.44499993e+00
    2.47099996e+00 2.47199988e+00 2.49000001e+00 2.47099996e+00
    2.47099996e+00 2.93499994e+00 2.94199991e+00 2.92700005e+00
    2.92499995e+00 2.90499997e+00 2.90000010e+00 0. 0. 0. 0. 0. 0. 0. 0.
    0. 0. 0. 0. 0. 0. 0. 0. 1.72399998e+00 2.02200007e+00 2.02200007e+00
    2.02200007e+00 2.03600001e+00 2.10500002e+00 2.19899988e+00
    2.21700001e+00 2.22300005e+00 2.27900004e+00 2.41700006e+00
    2.44099998e+00 2.44499993e+00 2.47099996e+00 2.47099996e+00
    2.47099996e+00 2.47099996e+00 2.47099996e+00 2.91000009e+00
    2.93799996e+00 2.92700005e+00 2.92499995e+00 2.91400003e+00
    2.91199994e+00 0. 0. 0. 0. 0. 0. 0. 0. 0. 0. 0. 0. 0. 0. 0. 0. 0.
    1.48800004e+00 1.73399997e+00 2.05900002e+00 2.07699990e+00
    2.13800001e+00 2.20499992e+00 2.21700001e+00 2.22499990e+00
    2.28999996e+00 2.43300009e+00 2.45000005e+00 2.45300007e+00
    2.47099996e+00 2.47099996e+00 2.47099996e+00 2.47099996e+00
    2.47099996e+00 2.86100006e+00 2.88599992e+00 2.92000008e+00
    2.91499996e+00 2.89100003e+00 2.88599992e+00 0. 0. 0. 0. 0. 0. 0. 0.
    0. 0. 0. 0. 0. 0. 0. 0. 0. 0. 1.09399998e+00 2.14800000e+00
    2.14800000e+00 2.17100000e+00 2.21700001e+00 2.21700001e+00
    2.24200010e+00 2.35100007e+00 2.47099996e+00 2.47099996e+00
    2.47099996e+00 2.47099996e+00 2.47099996e+00 2.47099996e+00
    2.47099996e+00 2.46300006e+00 2.74399996e+00 2.88499999e+00
    2.92199993e+00 2.89199996e+00 2.88599992e+00 2.89499998e+00 0. 0. 0.
    0. 0. 0. 0. 0. 0. 0. 0. 0. 0. 0. 0. 0. 0. 0. 0. 1.70200002e+00
    1.87800002e+00 2.19199991e+00 2.21700001e+00 2.21700001e+00
    2.27399993e+00 2.45499992e+00 2.47900009e+00 2.47900009e+00
    2.47900009e+00 2.47900009e+00 2.47900009e+00 2.47799993e+00
    2.47099996e+00 2.44199991e+00 2.42700005e+00 2.74499989e+00
    2.77699995e+00 2.88599992e+00 2.89700007e+00 2.91899991e+00 0. 0. 0.
    0. 0. 0. 0. 0. 0. 0. 0. 0. 0. 0. 0. 0. 0. 0. 0. 0. 0. 1.79799998e+00
    1.94400001e+00 2.27200007e+00 2.32100010e+00 2.47900009e+00
    2.50900006e+00 2.50900006e+00 2.50799990e+00 2.50200009e+00
    2.50200009e+00 2.50099993e+00 2.47099996e+00 2.44199991e+00
    2.38599992e+00 2.32999992e+00 2.32500005e+00 2.86800003e+00
    2.93899989e+00 2.93400002e+00 0. 0. 0. 0. 0. 0. 0. 0. 0. 0. 0. 0. 0.
    0. 0. 0. 0. 0. 0. 0. 0. 0. 0. 2.18000007e+00 2.48300004e+00
    2.49300003e+00 2.53399992e+00 2.53900003e+00 2.53600001e+00
    2.51300001e+00 2.50799990e+00 2.50699997e+00 2.47700000e+00
    2.44700003e+00 2.39599991e+00 2.33599997e+00 2.32999992e+00
    2.79999995e+00 2.94400001e+00 2.95799994e+00 0. 0. 0. 0. 0. 0. 0. 0.
    0. 0. 0. 0. 0. 0. 0. 0. 0. 0. 0. 0. 0. 0. 0. 0. 2.18300009e+00
    2.26200008e+00 2.54800010e+00 2.57100010e+00 2.56999993e+00
    2.56299996e+00 2.53299999e+00 2.53200006e+00 2.50699997e+00
    2.47700000e+00 2.45199990e+00 2.38299990e+00 2.38000011e+00
    2.50999999e+00 2.84299994e+00 2.91799998e+00 0. 0. 0. 0. 0. 0. 0. 0.
    0. 0. 0. 0. 0. 0. 0. 0. 0. 0. 0. 0. 0. 0. 0. 0. 0. 0. 2.36299992e+00
    2.59800005e+00 2.59400010e+00 2.56299996e+00 2.52900004e+00
    2.52900004e+00 2.53299999e+00 2.50699997e+00 2.50999999e+00
    2.50600004e+00 2.52999997e+00 2.53600001e+00 2.76500010e+00
    2.86700010e+00 0. 0. 0. 0. 0. 0. 0. 0. 0. 0. 0. 0. 0. 0. 0. 0. 0. 0.
    0. 0. 0. 0. 0. 0. 0. 0. 0. 2.41199994e+00 2.58200002e+00
    2.55200005e+00 2.49900007e+00 2.50000000e+00 2.53299999e+00
    2.53600001e+00 2.56399989e+00 2.53900003e+00 2.53600001e+00
    2.56100011e+00 2.58999991e+00 2.77500010e+00 0. 0. 0. 0. 0. 0. 0. 0.
    0. 0. 0. 0. 0. 0. 0. 0. 0. 0. 0. 0. 0. 0. 0. 0. 0. 0. 0. 0.
    2.47099996e+00 2.47099996e+00 2.47099996e+00 2.47300005e+00
    2.52900004e+00 2.56299996e+00 2.56399989e+00 2.56599998e+00
    2.56399989e+00 2.56399989e+00 2.56399989e+00 2.58800006e+00 0. 0. 0.
    0. 0. 0. 0. 0. 0. 0. 0. 0. 0. 0. 0. 0. 0. 0. 0. 0. 0. 0. 0. 0. 0. 0.
    0. 0. 2.40899992e+00 2.47099996e+00 2.47099996e+00 2.47099996e+00
    2.47099996e+00 2.52999997e+00 2.53299999e+00 2.56200004e+00
    2.53699994e+00 2.53299999e+00 2.53299999e+00 2.53299999e+00 0. 0. 0.
    0. 0. 0. 0. 0. 0. 0. 0. 0. 0. 0. 0. 0. 0. 0. 0. 0. 0. 0. 0. 0. 0. 0.
    0. 0. 0. 2.46799994e+00 2.47099996e+00 2.47099996e+00 2.47099996e+00
    2.50099993e+00 2.53099990e+00 2.53299999e+00 2.53299999e+00
    2.53299999e+00 2.53299999e+00 2.53299999e+00 0. 0. 0. 0. 0. 0. 0. 0.
    0. 0. 0. 0. 0. 0. 0. 0. 0. 0. 0. 0. 0. 0. 0. 0. 0. 0. 0. 0. 0. 0.
    2.50099993e+00 2.50000000e+00 2.47099996e+00 2.47199988e+00
    2.47300005e+00 2.47300005e+00 2.47300005e+00 2.47300005e+00
    2.52200007e+00 2.55800009e+00 0. 0. 0. 0. 0. 0. 0. 0. 0. 0. 0. 0. 0.
    0. 0. 0. 0. 0. 0. 0. 0. 0. 0. 0. 0. 0. 0. 0. 0. 0. 0. 2.47300005e+00
    2.47099996e+00 2.47099996e+00 2.47099996e+00 2.47099996e+00
    2.47099996e+00 2.47099996e+00 2.57200003e+00 2.77999997e+00 0. 0. 0.
    0. 0. 0. 0. 0. 0. 0. 0. 0. 0. 0. 0. 0. 0. 0. 0. 0. 0. 0. 0. 0. 0. 0.
    0. 0. 0. 0. 0. 0. 2.47099996e+00 2.47099996e+00 2.44499993e+00
    2.44400001e+00 2.46799994e+00 2.49499989e+00 2.85299993e+00
    2.89299989e+00 0. 0. 0. 0. 0. 0. 0. 0. 0. 0. 0. 0. 0. 0. 0. 0. 0. 0.
    0. 0. 0. 0. 0. 0. 0. 0. 0. 0. 0. 0. 0. 0. 0. 0. 0. 0. 0. 0. 0. 0. 0.
    0. 0. 0. 0. 0. 0. 0. 0. 0. 0. 0. 0. 0. 0. 0. 0. 0. 0. 0. 0. 0. 0. 0.
    0. 0. 0. 0. 0. 0. 0. 0. 0. 0. 0. 0. 0. 0. 0. 0.</data></Depth>
</opencv_storage>
