<?xml version="1.0"?>
<opencv_storage>
<Depth type_id="opencv-matrix">
  <rows>40</rows>
  <cols>40</cols>
  <dt>f</dt>
  <data>
    0. 0. 0. 0. 0. 0. 0. 1.06500006e+00 1.06500006e+00 1.95899999e+00
    1.96099997e+00 1.96099997e+00 1.96599996e+00 2.04500008e+00
    2.49799991e+00 1.96300006e+00 1.96700001e+00 1.96800005e+00
    1.99100006e+00 1.96300006e+00 1.98899996e+00 2.00600004e+00
    1.99399996e+00 1.98099995e+00 2.00900006e+00 1.99300003e+00
    2.01600003e+00 2.01600003e+00 2.02699995e+00 2.02500010e+00
    1.06500006e+00 1.06500006e+00 1.06500006e+00 0. 0. 0. 0. 0. 0. 0. 0.
    0. 0. 0. 0. 0. 0. 1.06500006e+00 1.78400004e+00 1.96000004e+00
    1.96000004e+00 1.95899999e+00 1.96000004e+00 1.96000004e+00
    1.95899999e+00 1.95899999e+00 1.95799994e+00 1.95700002e+00
    1.95700002e+00 1.95599997e+00 1.95599997e+00 1.95700002e+00
    1.95899999e+00 1.96000004e+00 1.95700002e+00 1.95799994e+00
    1.96200001e+00 1.95899999e+00 1.95799994e+00 1.96399999e+00
    1.96300006e+00 1.66299999e+00 1.66299999e+00 0. 0. 0. 0. 0. 0. 0. 0.
    0. 0. 0. 0. 0. 0. 1.06500006e+00 1.96300006e+00 1.96200001e+00
    1.96099997e+00 1.96099997e+00 1.96099997e+00 1.96099997e+00
    1.96099997e+00 1.96000004e+00 1.96000004e+00 1.95799994e+00
    1.95899999e+00 1.95899999e+00 1.95899999e+00 1.96000004e+00
    1.95899999e+00 1.96000004e+00 1.95899999e+00 1.95799994e+00
    1.95899999e+00 1.95599997e+00 1.95599997e+00 1.95899999e+00
    1.95799994e+00 1.95599997e+00 1.95599997e+00 0. 0. 0. 0. 0. 0. 0. 0.
    0. 0. 0. 0. 0. 0. 1.06500006e+00 1.89400005e+00 1.96300006e+00
    1.96200001e+00 1.96300006e+00 1.96200001e+00 1.96200001e+00
    1.96099997e+00 1.96099997e+00 1.96099997e+00 1.96099997e+00
    1.96099997e+00 1.96099997e+00 1.96000004e+00 1.96300006e+00
    1.96099997e+00 1.96300006e+00 1.96300006e+00 1.96200001e+00
    1.96200001e+00 1.96200001e+00 1.96099997e+00 1.96099997e+00
    1.96000004e+00 1.96000004e+00 1.95899999e+00 0. 0. 0. 0. 0. 0. 0. 0.
    0. 0. 0. 0. 0. 0. 1.06500006e+00 1.84200001e+00 1.96700001e+00
    1.96700001e+00 1.96300006e+00 1.96399999e+00 1.96399999e+00
    1.96399999e+00 1.96300006e+00 1.96200001e+00 1.96099997e+00
    1.96300006e+00 1.96200001e+00 1.96200001e+00 1.96599996e+00
    1.96300006e+00 1.96500003e+00 1.96599996e+00 1.96300006e+00
    1.96300006e+00 1.96300006e+00 1.96300006e+00 1.96300006e+00
    1.96300006e+00 1.96300006e+00 1.96300006e+00 0. 0. 0. 0. 0. 0. 0. 0.
    0. 0. 0. 0. 0. 0. 1.06500006e+00 1.97099996e+00 1.96899998e+00
    1.97099996e+00 1.96800005e+00 1.96800005e+00 1.96800005e+00
    1.96800005e+00 1.96399999e+00 1.96300006e+00 1.96300006e+00
    1.96300006e+00 1.96300006e+00 1.96500003e+00 1.96599996e+00
    1.96399999e+00 1.96599996e+00 1.96599996e+00 1.96599996e+00
    1.96599996e+00 1.96599996e+00 1.96599996e+00 1.96599996e+00
    1.96300006e+00 1.96300006e+00 1.96399999e+00 0. 0. 0. 0. 0. 0. 0. 0.
    0. 0. 0. 0. 0. 0. 1.06500006e+00 1.79600000e+00 1.97300005e+00
    1.97300005e+00 1.97099996e+00 1.97099996e+00 1.97099996e+00
    1.97099996e+00 1.97099996e+00 1.96899998e+00 1.96800005e+00
    1.97099996e+00 1.96599996e+00 1.96800005e+00 1.97099996e+00
    1.96599996e+00 1.97000003e+00 1.96700001e+00 1.96800005e+00
    1.96700001e+00 1.96700001e+00 1.96599996e+00 1.96599996e+00
    1.96599996e+00 1.96599996e+00 1.96599996e+00 0. 0. 0. 0. 0. 0. 0. 0.
    0. 0. 0. 0. 0. 0. 1.06500006e+00 1.97300005e+00 1.97300005e+00
    1.97300005e+00 1.97300005e+00 1.97099996e+00 1.97300005e+00
    1.97300005e+00 1.97300005e+00 1.96899998e+00 1.97099996e+00
    1.97099996e+00 1.97099996e+00 1.97099996e+00 1.97300005e+00
    1.97099996e+00 1.97300005e+00 1.97300005e+00 1.97300005e+00
    1.97300005e+00 1.96800005e+00 1.96800005e+00 1.96800005e+00
    1.96800005e+00 1.96800005e+00 1.96300006e+00 0. 0. 0. 0. 0. 0. 0. 0.
    0. 0. 0. 0. 0. 0. 1.06500006e+00 1.98000002e+00 1.97700000e+00
    1.97399998e+00 1.97300005e+00 1.97500002e+00 1.97300005e+00
    1.97300005e+00 1.97300005e+00 1.97099996e+00 1.97200000e+00
    1.97300005e+00 1.97300005e+00 1.97300005e+00 1.97500002e+00
    1.97300005e+00 1.97300005e+00 1.97300005e+00 1.97399998e+00
    1.97399998e+00 1.97300005e+00 1.97300005e+00 1.97300005e+00
    1.97300005e+00 1.97300005e+00 1.97099996e+00 0. 0. 0. 0. 0. 0. 0. 0.
    0. 0. 0. 0. 0. 0. 1.06500006e+00 1.98000002e+00 1.98000002e+00
    1.97800004e+00 1.97700000e+00 1.97800004e+00 1.97500002e+00
    1.97500002e+00 1.97300005e+00 1.97399998e+00 1.97300005e+00
    1.97399998e+00 1.97300005e+00 1.97399998e+00 1.97500002e+00
    1.97300005e+00 1.97399998e+00 1.97500002e+00 1.97500002e+00
    1.97500002e+00 1.97500002e+00 1.97500002e+00 1.97399998e+00
    1.97500002e+00 1.97500002e+00 1.61099994e+00 0. 0. 0. 0. 0. 0. 0. 0.
    0. 0. 0. 0. 0. 0. 1.06500006e+00 1.98000002e+00 1.98300004e+00
    1.98000002e+00 1.98000002e+00 1.98000002e+00 1.97800004e+00
    1.97800004e+00 1.97800004e+00 1.97700000e+00 1.97500002e+00
    1.97500002e+00 1.97599995e+00 1.97599995e+00 1.97599995e+00
    1.97899997e+00 1.97899997e+00 1.97800004e+00 1.97599995e+00
    1.97599995e+00 1.97599995e+00 1.97599995e+00 1.97500002e+00
    1.97500002e+00 1.97500002e+00 1.38800001e+00 0. 0. 0. 0. 0. 0. 0. 0.
    0. 0. 0. 0. 0. 0. 1.06500006e+00 1.98300004e+00 1.98300004e+00
    1.98199999e+00 1.98300004e+00 1.98099995e+00 1.98000002e+00
    1.98099995e+00 1.98000002e+00 1.98000002e+00 1.97899997e+00
    1.97899997e+00 1.98000002e+00 1.98000002e+00 1.98000002e+00
    1.98099995e+00 1.98099995e+00 1.98300004e+00 1.98000002e+00
    1.98000002e+00 1.98000002e+00 1.98099995e+00 1.98099995e+00
    1.97899997e+00 1.97800004e+00 1.27300000e+00 0. 0. 0. 0. 0. 0. 0. 0.
    0. 0. 0. 0. 0. 0. 1.06500006e+00 1.98800004e+00 1.98599994e+00
    1.98399997e+00 1.98300004e+00 1.98300004e+00 1.98300004e+00
    1.98300004e+00 1.98300004e+00 1.98000002e+00 1.98199999e+00
    1.98300004e+00 1.98099995e+00 1.98000002e+00 1.98300004e+00
    1.98300004e+00 1.98300004e+00 1.98300004e+00 1.98199999e+00
    1.98099995e+00 1.98300004e+00 1.98300004e+00 1.98300004e+00
    1.98300004e+00 1.98099995e+00 1.06500006e+00 0. 0. 0. 0. 0. 0. 0. 0.
    0. 0. 0. 0. 0. 0. 1.93900001e+00 1.99000001e+00 1.99000001e+00
    1.98800004e+00 1.98500001e+00 1.98500001e+00 1.98500001e+00
    1.98800004e+00 1.98300004e+00 1.98300004e+00 1.98300004e+00
    1.98300004e+00 1.98399997e+00 1.98500001e+00 1.98500001e+00
    1.98300004e+00 1.98699999e+00 1.98599994e+00 1.98500001e+00
    1.98500001e+00 1.98399997e+00 1.98300004e+00 1.98300004e+00
    1.98300004e+00 1.98399997e+00 1.06500006e+00 0. 0. 0. 0. 0. 0. 0. 0.
    0. 0. 0. 0. 0. 0. 1.93900001e+00 1.99300003e+00 1.99000001e+00
    1.99000001e+00 1.99000001e+00 1.99000001e+00 1.99000001e+00
    1.98800004e+00 1.98800004e+00 1.98800004e+00 1.98800004e+00
    1.98500001e+00 1.98599994e+00 1.98699999e+00 1.98800004e+00
    1.98500001e+00 1.99000001e+00 1.98800004e+00 1.98699999e+00
    1.98699999e+00 1.98500001e+00 1.98500001e+00 1.98500001e+00
    1.98500001e+00 1.98500001e+00 1.06500006e+00 0. 0. 0. 0. 0. 0. 0. 0.
    0. 0. 0. 0. 0. 0. 1.06500006e+00 1.99300003e+00 1.99300003e+00
    1.99199998e+00 1.99000001e+00 1.99100006e+00 1.99000001e+00
    1.99000001e+00 1.99000001e+00 1.98800004e+00 1.98800004e+00
    1.99000001e+00 1.99000001e+00 1.98899996e+00 1.99000001e+00
    1.98800004e+00 1.99000001e+00 1.99000001e+00 1.99000001e+00
    1.98899996e+00 1.98800004e+00 1.98899996e+00 1.98699999e+00
    1.98699999e+00 1.98699999e+00 1.06500006e+00 0. 0. 0. 0. 0. 0. 0. 0.
    0. 0. 0. 0. 0. 0. 1.06500006e+00 1.99800003e+00 1.99500000e+00
    1.99300003e+00 1.99300003e+00 1.99199998e+00 1.99300003e+00
    1.99300003e+00 1.99199998e+00 1.98899996e+00 1.99199998e+00
    1.99300003e+00 1.99000001e+00 1.99000001e+00 1.99300003e+00
    1.99199998e+00 1.99399996e+00 1.99300003e+00 1.99300003e+00
    1.99100006e+00 1.99000001e+00 1.99000001e+00 1.98800004e+00
    1.99000001e+00 1.98800004e+00 1.06500006e+00 0. 0. 0. 0. 0. 0. 0. 0.
    0. 0. 0. 0. 0. 0. 1.06500006e+00 1.99800003e+00 1.99800003e+00
    1.99500000e+00 1.99500000e+00 1.99399996e+00 1.99399996e+00
    1.99500000e+00 1.99300003e+00 1.99300003e+00 1.99300003e+00
    1.99399996e+00 1.99300003e+00 1.99300003e+00 1.99399996e+00
    1.99399996e+00 1.99500000e+00 1.99300003e+00 1.99399996e+00
    1.99300003e+00 1.99000001e+00 1.99300003e+00 1.99300003e+00
    1.99300003e+00 1.99300003e+00 1.06500006e+00 0. 0. 0. 0. 0. 0. 0. 0.
    0. 0. 0. 0. 0. 0. 1.06500006e+00 2. 2. 1.99899995e+00 1.99800003e+00
    1.99800003e+00 1.99800003e+00 1.99800003e+00 1.99800003e+00
    1.99600005e+00 1.99600005e+00 1.99699998e+00 1.99500000e+00
    1.99399996e+00 1.99500000e+00 1.99800003e+00 1.99600005e+00
    1.99500000e+00 1.99500000e+00 1.99500000e+00 1.99399996e+00
    1.99399996e+00 1.99500000e+00 1.99500000e+00 1.99300003e+00
    1.06500006e+00 0. 0. 0. 0. 0. 0. 0. 0. 0. 0. 0. 0. 0. 0.
    1.94099998e+00 2.00099993e+00 2.00200009e+00 2.00099993e+00
    2.00099993e+00 2. 2. 2. 2. 1.99800003e+00 1.99899995e+00 2.
    1.99899995e+00 1.99800003e+00 1.99899995e+00 2. 1.99899995e+00
    1.99600005e+00 1.99899995e+00 1.99800003e+00 1.99600005e+00
    1.99800003e+00 1.99800003e+00 1.99600005e+00 1.99500000e+00
    1.06500006e+00 0. 0. 0. 0. 0. 0. 0. 0. 0. 0. 0. 0. 0. 0.
    1.79100001e+00 2.00500011e+00 2.00300002e+00 2.00300002e+00
    2.00300002e+00 2.00099993e+00 2. 2. 2.00300002e+00 2.00099993e+00 2.
    2.00099993e+00 2. 2. 2.00300002e+00 2.00300002e+00 2.00300002e+00
    2.00300002e+00 2.00300002e+00 2.00300002e+00 2. 1.99800003e+00 2. 2.
    1.87399995e+00 1.06500006e+00 0. 0. 0. 0. 0. 0. 0. 0. 0. 0. 0. 0. 0.
    0. 1.06500006e+00 2.00799990e+00 2.00500011e+00 2.00500011e+00
    2.00500011e+00 2.00300002e+00 2.00300002e+00 2.00300002e+00
    2.00300002e+00 2.00399995e+00 2.00300002e+00 2.00300002e+00
    2.00300002e+00 2. 2.00300002e+00 2.00500011e+00 2.00500011e+00
    2.00300002e+00 2.00300002e+00 2.00300002e+00 2.00500011e+00
    2.00300002e+00 2. 2.00300002e+00 1.27400005e+00 1.06500006e+00 0. 0.
    0. 0. 0. 0. 0. 0. 0. 0. 0. 0. 0. 0. 1.95099998e+00 2.01099992e+00
    2.00999999e+00 2.00900006e+00 2.00600004e+00 2.00799990e+00
    2.00799990e+00 2.00799990e+00 2.00799990e+00 2.00300002e+00
    2.00600004e+00 2.00799990e+00 2.00399995e+00 2.00300002e+00
    2.00500011e+00 2.00799990e+00 2.00500011e+00 2.00500011e+00
    2.00500011e+00 2.00500011e+00 2.00300002e+00 2.00500011e+00
    2.00300002e+00 2.00300002e+00 1.27400005e+00 1.06500006e+00 0. 0. 0.
    0. 0. 0. 0. 0. 0. 0. 0. 0. 0. 0. 1.95000005e+00 2.01300001e+00
    2.01300001e+00 2.01099992e+00 2.01099992e+00 2.01099992e+00
    2.00999999e+00 2.00999999e+00 2.00799990e+00 2.00699997e+00
    2.00999999e+00 2.00799990e+00 2.00699997e+00 2.00500011e+00
    2.00500011e+00 2.01099992e+00 2.00699997e+00 2.00500011e+00
    2.00600004e+00 2.00500011e+00 2.00500011e+00 2.00500011e+00
    2.00500011e+00 2.00300002e+00 1.27400005e+00 1.06500006e+00 0. 0. 0.
    0. 0. 0. 0. 0. 0. 0. 0. 0. 0. 0. 1.95200002e+00 2.01500010e+00
    2.01500010e+00 2.01099992e+00 2.01200008e+00 2.01200008e+00
    2.01099992e+00 2.01099992e+00 2.01099992e+00 2.01099992e+00
    2.01300001e+00 2.01099992e+00 2.01099992e+00 2.01099992e+00
    2.00999999e+00 2.01200008e+00 2.01099992e+00 2.00999999e+00
    2.01099992e+00 2.01099992e+00 2.00500011e+00 2.00500011e+00
    2.00799990e+00 2.00799990e+00 1.20099998e+00 0. 0. 0. 0. 0. 0. 0. 0.
    0. 0. 0. 0. 0. 0. 0. 1.49699998e+00 2.01600003e+00 2.01900005e+00
    2.01399994e+00 2.01399994e+00 2.01300001e+00 2.01300001e+00
    2.01500010e+00 2.01300001e+00 2.01300001e+00 2.01300001e+00
    2.01300001e+00 2.01300001e+00 2.01300001e+00 2.01300001e+00
    2.01500010e+00 2.01300001e+00 2.01200008e+00 2.01399994e+00
    2.01200008e+00 2.00999999e+00 2.01099992e+00 2.00799990e+00
    2.00799990e+00 1.06500006e+00 0. 0. 0. 0. 0. 0. 0. 0. 0. 0. 0. 0. 0.
    0. 0. 1.40600002e+00 2.01900005e+00 2.01999998e+00 2.01600003e+00
    2.01600003e+00 2.01600003e+00 2.01600003e+00 2.01900005e+00
    2.01600003e+00 2.01600003e+00 2.01600003e+00 2.01500010e+00
    2.01300001e+00 2.01399994e+00 2.01699996e+00 2.01600003e+00
    2.01300001e+00 2.01399994e+00 2.01600003e+00 2.01600003e+00
    2.01399994e+00 2.01600003e+00 2.00999999e+00 2.01300001e+00
    1.06500006e+00 0. 0. 0. 0. 0. 0. 0. 0. 0. 0. 0. 0. 0. 0. 0.
    1.95799994e+00 2.01999998e+00 2.02099991e+00 2.01900005e+00
    2.02099991e+00 2.01999998e+00 2.01900005e+00 2.02099991e+00
    2.01699996e+00 2.01799989e+00 2.01900005e+00 2.01900005e+00
    2.01699996e+00 2.01900005e+00 2.02200007e+00 2.01900005e+00
    2.01699996e+00 2.01600003e+00 2.01699996e+00 2.01699996e+00
    2.01600003e+00 2.01600003e+00 2.01600003e+00 2.01600003e+00
    1.06500006e+00 0. 0. 0. 0. 0. 0. 0. 0. 0. 0. 0. 0. 0. 0. 0.
    1.96099997e+00 2.02399993e+00 2.02099991e+00 2.02099991e+00
    2.02099991e+00 2.02099991e+00 2.02099991e+00 2.02099991e+00
    2.02099991e+00 2.02099991e+00 2.02099991e+00 2.02099991e+00
    2.02099991e+00 2.02099991e+00 2.02399993e+00 2.01900005e+00
    2.02099991e+00 2.02099991e+00 2.02399993e+00 2.02099991e+00
    2.01900005e+00 2.01600003e+00 2.01900005e+00 2.02099991e+00
    1.06500006e+00 0. 0. 0. 0. 0. 0. 0. 0. 0. 0. 0. 0. 0. 0. 0.
    2.03099990e+00 2.02699995e+00 2.02399993e+00 2.02699995e+00
    2.02399993e+00 2.02399993e+00 2.02699995e+00 2.02399993e+00
    2.02099991e+00 2.02399993e+00 2.02399993e+00 2.02099991e+00
    2.02099991e+00 2.02099991e+00 2.02399993e+00 2.02399993e+00
    2.02399993e+00 2.02399993e+00 2.02399993e+00 2.02399993e+00
    2.02099991e+00 2.02300000e+00 2.02099991e+00 1.16299999e+00
    1.06500006e+00 1.06500006e+00 0. 0. 0. 0. 0. 0. 0. 0. 0. 0. 0. 0. 0.
    0. 2.03200006e+00 2.02999997e+00 2.02900004e+00 2.02999997e+00
    2.02699995e+00 2.02699995e+00 2.02900004e+00 2.02900004e+00
    2.02699995e+00 2.02399993e+00 2.02699995e+00 2.02699995e+00
    2.02399993e+00 2.02099991e+00 2.02699995e+00 2.02699995e+00
    2.02699995e+00 2.02699995e+00 2.02500010e+00 2.02399993e+00
    2.02399993e+00 2.02399993e+00 2.02399993e+00 1.13999999e+00
    1.06500006e+00 1.06500006e+00 0. 0. 0. 0. 0. 0. 0. 0. 0. 0. 0. 0. 0.
    0. 2.03500009e+00 2.03200006e+00 2.03299999e+00 2.03200006e+00
    2.03099990e+00 2.03099990e+00 2.03099990e+00 2.03200006e+00
    2.03099990e+00 2.02699995e+00 2.02900004e+00 2.02800012e+00
    2.02900004e+00 2.02800012e+00 2.03200006e+00 2.03099990e+00
    2.02900004e+00 2.02900004e+00 2.02699995e+00 2.02699995e+00
    2.02699995e+00 2.02699995e+00 2.02699995e+00 1.15300000e+00
    1.06500006e+00 0. 0. 0. 0. 0. 0. 0. 0. 0. 0. 0. 0. 0. 0. 0.
    2.03500009e+00 2.03500009e+00 2.03399992e+00 2.03399992e+00
    2.03299999e+00 2.03399992e+00 2.03399992e+00 2.03399992e+00
    2.03200006e+00 2.03099990e+00 2.03200006e+00 2.03099990e+00
    2.03200006e+00 2.02900004e+00 2.03200006e+00 2.03399992e+00
    2.03200006e+00 2.02900004e+00 2.02900004e+00 2.03099990e+00
    2.02900004e+00 2.02800012e+00 2.02900004e+00 1.11699998e+00
    1.06500006e+00 1.06500006e+00 0. 0. 0. 0. 0. 0. 0. 0. 0. 0. 0. 0. 0.
    0. 2.55900002e+00 2.03500009e+00 2.03200006e+00 2.03399992e+00
    2.03500009e+00 2.03399992e+00 2.03500009e+00 2.03500009e+00
    2.03500009e+00 2.03200006e+00 2.03299999e+00 2.03099990e+00
    2.03200006e+00 2.02900004e+00 2.03500009e+00 2.03500009e+00
    2.03500009e+00 2.03500009e+00 2.03500009e+00 2.03500009e+00
    2.03299999e+00 2.03500009e+00 2.02900004e+00 1.06500006e+00
    1.06500006e+00 1.06500006e+00 0. 0. 0. 0. 0. 0. 0. 0. 0. 0. 0. 0. 0.
    0. 0. 0. 2.92499995e+00 2.45700002e+00 2.14700007e+00 2.14700007e+00
    2.14899993e+00 2.07100010e+00 2.07500005e+00 2.06900001e+00
    2.09800005e+00 2.06900001e+00 2.06699991e+00 2.06399989e+00
    2.04399991e+00 2.06900001e+00 2.00799990e+00 1.81400001e+00
    2.03800011e+00 2.19700003e+00 2.28999996e+00 2.03200006e+00
    2.02900004e+00 1.06500006e+00 1.58800006e+00 1.79100001e+00 0. 0. 0.
    0. 0. 0. 0. 0. 0. 0. 0. 0. 0. 0. 2.47399998e+00 2.44099998e+00
    2.44499993e+00 2.45099998e+00 1.66499996e+00 2.11899996e+00
    2.12100005e+00 2.13199997e+00 2.13400006e+00 2.13199997e+00
    2.13100004e+00 2.13100004e+00 2.13000011e+00 2.05699992e+00
    2.06699991e+00 2.13299990e+00 2.12100005e+00 2.48900008e+00 0. 0. 0.
    0. 0. 0. 0. 0. 0. 0. 0. 0. 0. 0. 0. 0. 0. 0. 0. 0. 0. 0.
    2.42300010e+00 2.42400002e+00 2.42300010e+00 2.42300010e+00
    2.42300010e+00 2.10100007e+00 2.09899998e+00 2.09899998e+00
    2.11100006e+00 2.10599995e+00 2.10299993e+00 2.10400009e+00
    2.11100006e+00 2.06599998e+00 2.11500001e+00 2.10899997e+00
    2.11299992e+00 2.47900009e+00 0. 2.24300003e+00 0. 0. 0. 0. 0. 0. 0.
    0. 0. 0. 0. 0. 0. 0. 0. 0. 0. 0. 0. 0. 2.39800000e+00 2.40799999e+00
    2.39800000e+00 2.39800000e+00 2.39299989e+00 2.08400011e+00
    2.08400011e+00 2.07800007e+00 2.07900000e+00 2.08500004e+00
    2.08699989e+00 2.08599997e+00 2.08400011e+00 2.07200003e+00
    2.07900000e+00 2.09100008e+00 2.09599996e+00 0. 0. 0. 0. 0. 0. 0. 0.
    0. 0. 0. 0. 0. 0. 0. 0. 0. 0. 0. 0. 0. 0. 0. 2.38299990e+00
    2.37299991e+00 2.37599993e+00 2.38100004e+00 2.25699997e+00
    2.06399989e+00 2.06399989e+00 2.06699991e+00 2.06699991e+00
    2.06699991e+00 2.06999993e+00 2.06900001e+00 2.06599998e+00
    2.07399988e+00 2.07299995e+00 2.07299995e+00 2.06200004e+00
    2.68799996e+00 2.97700000e+00 2.99300003e+00 2.97300005e+00 0. 0.
    2.99499989e+00 2.99600005e+00 0. 0. 0. 0. 0. 0. 0. 0. 0. 0. 0. 0. 0.
    0. 0. 2.37199998e+00 2.36700010e+00 2.37199998e+00 2.38000011e+00
    2.24499989e+00 2.04500008e+00 2.04800010e+00 2.05200005e+00
    2.05100012e+00 2.05100012e+00 2.05200005e+00 2.04999995e+00
    2.04900002e+00 2.04900002e+00 2.05500007e+00 2.05599999e+00
    2.04999995e+00 2.25300002e+00 2.96499991e+00 2.97300005e+00
    2.96399999e+00 2.74900007e+00 2.99799991e+00 2.97099996e+00
    2.95700002e+00 2.96199989e+00 0. 0. 0. 0. 0. 0. 0.</data></Depth>
</opencv_storage>
