<?xml version="1.0"?>
<opencv_storage>
<Depth type_id="opencv-matrix">
  <rows>40</rows>
  <cols>40</cols>
  <dt>f</dt>
  <data>
    0. 0. 0. 0. 0. 2.10500002e+00 2.07900000e+00 2.04699993e+00
    2.03699994e+00 2.03600001e+00 2.03299999e+00 2.03299999e+00
    2.02900004e+00 2.02900004e+00 2.02200007e+00 2.01399994e+00
    2.00799990e+00 2.00799990e+00 2.00799990e+00 2.01200008e+00
    2.00799990e+00 2.00799990e+00 2. 2. 2.00799990e+00 2.00799990e+00
    2.00799990e+00 2.00799990e+00 2.00799990e+00 2.00799990e+00
    2.00699997e+00 1.98699999e+00 1.98300004e+00 0. 0. 0. 0. 0. 0. 0. 0.
    0. 0. 0. 0. 2.09899998e+00 2.06200004e+00 2.04699993e+00
    2.03399992e+00 2.03299999e+00 2.03299999e+00 2.03299999e+00
    2.02500010e+00 2.02500010e+00 2.01900005e+00 2.00799990e+00
    2.00799990e+00 2.00799990e+00 2.00799990e+00 2.00799990e+00
    2.00799990e+00 2.00799990e+00 2.00799990e+00 2.00799990e+00
    2.00799990e+00 2.00799990e+00 2.00799990e+00 2.00799990e+00
    2.00799990e+00 2.00799990e+00 2.00799990e+00 2.00200009e+00
    2.00099993e+00 0. 0. 0. 0. 0. 0. 0. 0. 0. 0. 0. 0. 2.09699988e+00
    2.06599998e+00 2.04699993e+00 2.03600001e+00 2.03299999e+00
    2.03299999e+00 2.03299999e+00 2.02500010e+00 2.01900005e+00
    2.01300001e+00 2.00799990e+00 2.01300001e+00 2.01300001e+00
    2.00799990e+00 2.00799990e+00 2.00799990e+00 2.00799990e+00
    2.00799990e+00 2.00799990e+00 2.00799990e+00 2.00799990e+00
    2.00799990e+00 2.00799990e+00 2.00799990e+00 2.00300002e+00
    2.00799990e+00 2.00799990e+00 2.01300001e+00 0. 0. 0. 0. 0. 0. 0. 0.
    0. 0. 0. 0. 2.09899998e+00 2.06999993e+00 2.04699993e+00
    2.03299999e+00 2.03299999e+00 2.03299999e+00 2.02600002e+00
    2.01900005e+00 2.01600003e+00 2.01200008e+00 2.00799990e+00
    2.01300001e+00 2.01099992e+00 2.00799990e+00 2.00699997e+00
    2.00600004e+00 2.00099993e+00 2. 2. 2.00799990e+00 2.00799990e+00
    2.00799990e+00 2.00799990e+00 2.00799990e+00 2. 1.99899995e+00
    1.99699998e+00 2.00300002e+00 0. 0. 0. 0. 0. 0. 0. 0. 0. 0. 0. 0.
    2.09899998e+00 2.07699990e+00 2.04999995e+00 2.03299999e+00
    2.03299999e+00 2.03099990e+00 2.02500010e+00 2.01600003e+00
    2.01600003e+00 2.01600003e+00 2.00799990e+00 2.00799990e+00
    2.00799990e+00 2.00799990e+00 2.00300002e+00 2. 2. 2. 2.
    2.00799990e+00 2.00799990e+00 2.00799990e+00 2.00799990e+00
    2.00799990e+00 2. 1.99800003e+00 1.99100006e+00 1.99100006e+00 0. 0.
    0. 0. 0. 0. 0. 0. 0. 0. 0. 0. 2.09899998e+00 2.07800007e+00
    2.05100012e+00 2.03299999e+00 2.03299999e+00 2.03099990e+00
    2.01699996e+00 2.01600003e+00 2.01600003e+00 2.01600003e+00
    2.00799990e+00 2.00799990e+00 2.00799990e+00 2.00799990e+00
    2.00799990e+00 2.00799990e+00 2.00099993e+00 2. 2. 2.00799990e+00
    2.00799990e+00 2.00799990e+00 2.00799990e+00 2.00799990e+00 2.
    1.99899995e+00 1.99500000e+00 2. 0. 0. 0. 0. 0. 0. 0. 0. 0. 0. 0. 0.
    2.09899998e+00 2.06999993e+00 2.04699993e+00 2.03299999e+00
    2.03299999e+00 2.02200007e+00 2.00900006e+00 2.01200008e+00
    2.01600003e+00 2.01600003e+00 2.00799990e+00 2.00799990e+00
    2.00799990e+00 2.00699997e+00 2.00799990e+00 2.00799990e+00
    2.00099993e+00 2. 2. 2.00799990e+00 2.00799990e+00 2.00799990e+00
    2.00799990e+00 2.00699997e+00 2. 2. 2.00600004e+00 2.00799990e+00 0.
    0. 0. 0. 0. 0. 0. 0. 0. 0. 0. 0. 2.09899998e+00 2.07500005e+00
    2.04699993e+00 2.03299999e+00 2.02800012e+00 2.01799989e+00
    2.01399994e+00 2.01200008e+00 2.01099992e+00 2.01200008e+00
    2.00799990e+00 2.00799990e+00 2.00600004e+00 2. 2.00500011e+00
    2.00699997e+00 2. 2. 2. 2.00799990e+00 2.00799990e+00 2.00799990e+00
    2.00799990e+00 2. 2. 2. 2.00200009e+00 2.00799990e+00 0. 0. 0. 0. 0.
    0. 0. 0. 0. 0. 0. 0. 2.09299994e+00 2.07800007e+00 2.05100012e+00
    2.03299999e+00 2.03299999e+00 2.01799989e+00 2.01600003e+00
    2.01200008e+00 2.00799990e+00 2.00799990e+00 2.00799990e+00
    2.00799990e+00 2.00500011e+00 2.00200009e+00 2.00799990e+00
    2.00699997e+00 2.00200009e+00 2. 2. 2.00600004e+00 2.00799990e+00
    2.00799990e+00 2.00699997e+00 2. 1.99399996e+00 1.99100006e+00
    1.99800003e+00 2. 0. 0. 0. 0. 0. 0. 0. 0. 0. 0. 0. 0. 2.09100008e+00
    2.06999993e+00 2.05100012e+00 2.03299999e+00 2.03299999e+00
    2.02200007e+00 2.01600003e+00 2.01200008e+00 2.00799990e+00
    2.00799990e+00 2.00799990e+00 2.00799990e+00 2.00799990e+00
    2.00799990e+00 2.00799990e+00 2.00799990e+00 2.00200009e+00 2. 2. 2.
    2.00799990e+00 2.00200009e+00 2.00099993e+00 2. 1.99899995e+00
    1.99899995e+00 2. 2. 0. 0. 0. 0. 0. 0. 0. 0. 0. 0. 0. 0.
    2.09200001e+00 2.07299995e+00 2.04900002e+00 2.02900004e+00
    2.02099991e+00 2.01600003e+00 2.01600003e+00 2.00999999e+00
    2.00799990e+00 2.00799990e+00 2.00799990e+00 2.00799990e+00
    2.00799990e+00 2.00799990e+00 2.00200009e+00 2. 2. 2. 2.
    2.00799990e+00 2.00799990e+00 2.00099993e+00 2. 2. 2. 2. 2.
    2.00999999e+00 0. 0. 0. 0. 0. 0. 0. 0. 0. 0. 0. 0. 2.09299994e+00
    2.07800007e+00 2.04600000e+00 2.02399993e+00 2.01600003e+00
    2.01600003e+00 2.01600003e+00 2.00799990e+00 2.00799990e+00
    2.00799990e+00 2.00799990e+00 2.00799990e+00 2.00799990e+00
    2.00699997e+00 2. 2. 2. 2. 2. 2.00799990e+00 2.00799990e+00
    2.00799990e+00 2.00500011e+00 2. 1.99399996e+00 1.99100006e+00
    1.99100006e+00 2.00699997e+00 0. 0. 0. 0. 0. 0. 0. 0. 0. 0. 0. 0.
    2.08800006e+00 2.07800007e+00 2.04900002e+00 2.02500010e+00
    2.01900005e+00 2.01600003e+00 2.00900006e+00 2.00799990e+00
    2.00799990e+00 2.00799990e+00 2.00799990e+00 2.00799990e+00
    2.00600004e+00 2. 2. 2. 2. 1.99600005e+00 1.99199998e+00
    2.00799990e+00 2.00799990e+00 2.00799990e+00 2.00799990e+00 2.
    1.99399996e+00 1.98300004e+00 1.98899996e+00 1.99100006e+00
    1.99100006e+00 0. 0. 0. 0. 0. 0. 0. 0. 0. 0. 0. 2.08599997e+00
    2.07800007e+00 2.05100012e+00 2.03200006e+00 2.01900005e+00
    2.01600003e+00 2.00900006e+00 2.00799990e+00 2.00799990e+00
    2.00799990e+00 2.00799990e+00 2.00799990e+00 2.00399995e+00 2.
    1.99399996e+00 1.99300003e+00 2. 1.99699998e+00 1.99399996e+00
    2.00799990e+00 2.00799990e+00 2.00799990e+00 2. 2. 1.99399996e+00
    1.99100006e+00 1.99100006e+00 1.98300004e+00 1.98300004e+00 0. 0. 0.
    0. 0. 0. 0. 0. 0. 0. 0. 2.07800007e+00 2.07699990e+00 2.05100012e+00
    2.03200006e+00 2.01900005e+00 2.01600003e+00 2.00900006e+00
    2.00799990e+00 2.00799990e+00 2.00799990e+00 2.00799990e+00
    2.00799990e+00 2.00099993e+00 2. 1.99899995e+00 1.99899995e+00 2. 2.
    2. 2.00799990e+00 2.00600004e+00 2.00099993e+00 2. 2. 1.99399996e+00
    1.99100006e+00 1.99100006e+00 1.98300004e+00 1.98300004e+00 0. 0. 0.
    0. 0. 0. 0. 0. 0. 0. 0. 2.07699990e+00 2.07699990e+00 2.05100012e+00
    2.03200006e+00 2.01900005e+00 2.01399994e+00 2.00799990e+00
    2.00799990e+00 2.00799990e+00 2.00799990e+00 2.00799990e+00
    2.00099993e+00 2. 2. 2. 2. 1.99199998e+00 1.99500000e+00 2.
    2.00600004e+00 2. 2. 1.99800003e+00 1.99600005e+00 1.99300003e+00
    1.99100006e+00 1.99100006e+00 1.98599994e+00 1.98599994e+00 0. 0. 0.
    0. 0. 0. 0. 0. 0. 0. 0. 2.15100002e+00 2.07699990e+00 2.05100012e+00
    2.03200006e+00 2.01600003e+00 2.01399994e+00 2.00799990e+00
    2.00799990e+00 2.00799990e+00 2.00799990e+00 2.00799990e+00
    2.00799990e+00 2. 2. 2. 1.99800003e+00 1.99100006e+00 1.99500000e+00
    2. 2. 2. 2. 1.99600005e+00 1.99100006e+00 1.99100006e+00
    1.98899996e+00 1.98300004e+00 1.98300004e+00 2.07800007e+00 0. 0. 0.
    0. 0. 0. 0. 0. 0. 0. 0. 2.89299989e+00 2.07800007e+00 2.05100012e+00
    2.03200006e+00 2.01300001e+00 2.00799990e+00 2.00799990e+00
    2.00799990e+00 2.00799990e+00 2.00799990e+00 2.00200009e+00 2. 2. 2.
    2. 1.99399996e+00 1.99100006e+00 1.99500000e+00 2. 2. 2. 2.
    1.99600005e+00 1.99100006e+00 1.99100006e+00 1.98899996e+00
    1.98300004e+00 1.98300004e+00 0. 0. 0. 0. 0. 0. 0. 0. 0. 0. 0. 0.
    2.09599996e+00 2.07800007e+00 2.05100012e+00 2.03200006e+00
    2.01200008e+00 2.00799990e+00 2.00799990e+00 2.00699997e+00
    2.00600004e+00 2.00200009e+00 2. 2. 1.99800003e+00 1.99800003e+00
    1.99899995e+00 1.99300003e+00 1.99300003e+00 1.99100006e+00
    1.99100006e+00 2. 2. 2. 1.99699998e+00 1.99300003e+00 1.99100006e+00
    1.98899996e+00 1.98300004e+00 1.98300004e+00 0. 0. 0. 0. 0. 0. 0. 0.
    0. 0. 0. 0. 2.08599997e+00 2.07800007e+00 2.05100012e+00
    2.03200006e+00 2.01600003e+00 2.00799990e+00 2.00799990e+00
    2.00399995e+00 2. 2. 2. 2. 1.99100006e+00 1.99100006e+00
    1.99699998e+00 2. 2. 1.99100006e+00 1.99100006e+00 1.99300003e+00 2.
    2. 2. 2. 1.99399996e+00 1.98899996e+00 1.98300004e+00 1.98300004e+00
    0. 0. 0. 0. 0. 0. 0. 0. 0. 0. 0. 0. 2.11400008e+00 2.08200002e+00
    2.05299997e+00 2.01600003e+00 2.01600003e+00 2.00799990e+00
    2.00799990e+00 2.00500011e+00 2.00799990e+00 2.00300002e+00 2. 2. 2.
    2. 2. 2. 1.99699998e+00 1.99100006e+00 1.99100006e+00 1.99100006e+00
    1.99100006e+00 1.99100006e+00 2. 2. 1.99800003e+00 1.98300004e+00
    1.98300004e+00 1.98300004e+00 1.98300004e+00 0. 0. 0. 0. 0. 0. 0. 0.
    0. 0. 0. 2.10899997e+00 2.08699989e+00 2.05500007e+00 2.01600003e+00
    2.01600003e+00 2.00799990e+00 2.00799990e+00 2. 2.00799990e+00
    2.00799990e+00 2. 2. 2. 2. 2. 1.99800003e+00 1.99100006e+00
    1.99100006e+00 1.99100006e+00 1.99100006e+00 1.99100006e+00
    1.99100006e+00 1.99100006e+00 1.99100006e+00 1.99100006e+00
    1.98899996e+00 1.98300004e+00 1.98300004e+00 1.98300004e+00 0. 0. 0.
    0. 0. 0. 0. 0. 0. 0. 0. 2.09400010e+00 2.07800007e+00 2.05500007e+00
    2.01600003e+00 2.01600003e+00 2.00799990e+00 2.00799990e+00 2. 2. 2.
    2. 2. 1.99100006e+00 1.99100006e+00 1.99699998e+00 1.98800004e+00
    1.97800004e+00 1.98000002e+00 1.98699999e+00 1.99399996e+00
    1.99100006e+00 1.99100006e+00 1.99100006e+00 1.99100006e+00
    1.98599994e+00 1.98300004e+00 1.98300004e+00 1.98599994e+00
    1.99100006e+00 0. 0. 0. 0. 0. 0. 0. 0. 0. 0. 0. 2.53600001e+00
    2.06999993e+00 2.05100012e+00 2.02200007e+00 2.01099992e+00
    2.00799990e+00 2.00799990e+00 2.00099993e+00 2. 2. 2. 1.99800003e+00
    1.99199998e+00 2. 2. 1.98699999e+00 1.97500002e+00 1.97800004e+00
    1.98399997e+00 1.99399996e+00 1.99100006e+00 1.99100006e+00
    1.99100006e+00 1.99100006e+00 1.98699999e+00 1.98300004e+00
    1.98300004e+00 1.98300004e+00 1.98300004e+00 0. 0. 0. 0. 0. 0. 0. 0.
    0. 0. 0. 1.50699997e+00 2.08200002e+00 2.04800010e+00 2.01500010e+00
    2.00799990e+00 2.00799990e+00 2.00799990e+00 2.00699997e+00 2. 2. 2.
    1.99199998e+00 1.99500000e+00 2. 2. 1.98899996e+00 1.98199999e+00
    1.98199999e+00 1.98399997e+00 1.99399996e+00 1.99100006e+00
    1.99100006e+00 1.99100006e+00 1.99100006e+00 1.99100006e+00
    1.98899996e+00 1.98399997e+00 1.98300004e+00 1.98300004e+00 0. 0. 0.
    0. 0. 0. 0. 0. 0. 0. 0. 2.19799995e+00 2.10500002e+00 2.05299997e+00
    2.01500010e+00 2.00799990e+00 2.00500011e+00 2.00500011e+00
    2.00500011e+00 2. 2. 2. 2. 2. 2. 1.99399996e+00 1.98899996e+00
    1.98300004e+00 1.98599994e+00 1.98699999e+00 1.99399996e+00
    1.99100006e+00 1.98800004e+00 1.98899996e+00 1.99100006e+00
    1.98899996e+00 1.98300004e+00 1.98300004e+00 1.97500002e+00
    1.97500002e+00 0. 0. 0. 0. 0. 0. 0. 0. 0. 0. 0. 0. 2.08699989e+00
    2.04699993e+00 2.00799990e+00 2.00799990e+00 2. 2. 2. 2. 2. 2. 2. 2.
    2. 1.99399996e+00 1.98899996e+00 1.98300004e+00 1.99100006e+00
    1.99100006e+00 2. 1.99100006e+00 1.98399997e+00 1.98599994e+00
    1.99100006e+00 1.98300004e+00 1.98300004e+00 1.98300004e+00
    1.97500002e+00 1.97500002e+00 0. 0. 0. 0. 0. 0. 0. 0. 0. 0. 0.
    2.95000005e+00 2.07800007e+00 2.04399991e+00 2.00799990e+00
    2.00799990e+00 2.00300002e+00 2. 2. 2. 2. 2. 2. 2. 2. 1.99399996e+00
    1.99000001e+00 1.98800004e+00 1.99100006e+00 1.99100006e+00
    1.99100006e+00 1.99500000e+00 1.99100006e+00 1.99100006e+00
    1.99100006e+00 1.98300004e+00 1.98300004e+00 1.98300004e+00
    1.98300004e+00 1.98300004e+00 0. 0. 0. 0. 0. 0. 0. 0. 0. 0. 0.
    2.10100007e+00 2.07800007e+00 2.04099989e+00 2.00799990e+00
    2.00799990e+00 2.00500011e+00 2. 2. 2. 2. 2. 2. 2. 1.99100006e+00
    1.99699998e+00 1.99800003e+00 1.99100006e+00 1.99000001e+00
    1.99000001e+00 1.99899995e+00 1.99699998e+00 1.99100006e+00
    1.99100006e+00 1.99100006e+00 1.99100006e+00 1.98300004e+00
    1.98300004e+00 1.98300004e+00 1.98300004e+00 0. 0. 0. 0. 0. 0. 0. 0.
    0. 0. 0. 2.11100006e+00 2.08599997e+00 2.02999997e+00 2.00799990e+00
    2.00799990e+00 2. 2. 2. 2. 2. 2. 2. 1.99300003e+00 1.99100006e+00
    1.99699998e+00 1.99800003e+00 1.98599994e+00 1.98399997e+00
    1.98300004e+00 1.99199998e+00 1.99300003e+00 1.99800003e+00
    1.99800003e+00 1.99800003e+00 1.99399996e+00 1.98800004e+00
    1.98300004e+00 1.98300004e+00 1.98300004e+00 0. 0. 0. 0. 0. 0. 0. 0.
    0. 0. 0. 2.10500002e+00 2.07999992e+00 2.01900005e+00 2.00799990e+00
    2.00799990e+00 2. 2. 2. 2. 2. 2. 2. 1.99100006e+00 1.99100006e+00
    1.99100006e+00 1.99100006e+00 1.98399997e+00 1.98300004e+00
    1.98300004e+00 1.99100006e+00 1.99100006e+00 1.99100006e+00
    1.99100006e+00 2. 1.99399996e+00 1.99100006e+00 1.99100006e+00
    1.98000002e+00 1.97500002e+00 0. 0. 0. 0. 0. 0. 0. 0. 0. 0. 0. 0.
    2.08599997e+00 2.00799990e+00 2. 2. 2.00600004e+00 2. 2. 2. 2. 2. 2.
    2. 2. 1.99399996e+00 1.99100006e+00 1.98399997e+00 1.98300004e+00
    1.98300004e+00 1.99100006e+00 1.99100006e+00 1.99800003e+00 2. 2.
    1.99399996e+00 1.99100006e+00 1.99100006e+00 1.98000002e+00
    1.97500002e+00 0. 0. 0. 0. 0. 0. 0. 0. 0. 0. 0. 0. 1.82900000e+00
    2.00300002e+00 2. 2. 2.00600004e+00 2. 2. 2. 2. 2. 2. 1.99500000e+00
    1.99500000e+00 1.99100006e+00 1.99100006e+00 1.98800004e+00
    1.98800004e+00 1.98800004e+00 1.99100006e+00 1.99100006e+00
    1.99100006e+00 1.99100006e+00 1.99100006e+00 1.99300003e+00
    1.99100006e+00 1.99100006e+00 1.98300004e+00 1.98300004e+00 0. 0. 0.
    0. 0. 0. 0. 0. 0. 0. 0. 0. 0. 2. 2. 2. 2. 2. 2. 2. 2. 2. 2.
    1.99300003e+00 1.99300003e+00 1.99399996e+00 1.99100006e+00
    1.99100006e+00 1.99100006e+00 1.99100006e+00 2. 1.99100006e+00
    1.99000001e+00 1.99000001e+00 1.99100006e+00 1.99100006e+00
    1.98899996e+00 1.98300004e+00 1.98300004e+00 1.98300004e+00 0. 0. 0.
    0. 0. 0. 0. 0. 0. 0. 0. 0. 0. 2. 2. 2.00399995e+00 2.00600004e+00
    2.00600004e+00 2. 2. 2. 2. 2. 2. 2. 1.99899995e+00 1.99800003e+00
    1.99800003e+00 1.99100006e+00 1.99100006e+00 2. 1.98199999e+00
    1.96599996e+00 1.97200000e+00 1.99100006e+00 1.98699999e+00
    1.98399997e+00 1.98300004e+00 1.98300004e+00 1.98300004e+00 0. 0. 0.
    0. 0. 0. 0. 0. 0. 0. 0. 0. 0. 0. 0. 0. 0. 0. 0. 2.80399990e+00
    2.69000006e+00 2.02600002e+00 2.01600003e+00 2.01099992e+00 2.
    2.00200009e+00 2.00500011e+00 2.01399994e+00 2.00200009e+00 2.
    2.00500011e+00 2.16000009e+00 2.72600007e+00 2.74699998e+00
    2.74499989e+00 2.71300006e+00 1.98800004e+00 1.98300004e+00
    1.98300004e+00 1.98300004e+00 0. 0. 0. 0. 0. 0. 0. 0. 0. 0. 0. 0. 0.
    0. 0. 0. 0. 0. 0. 0. 2.71000004e+00 2.07399988e+00 2.03800011e+00
    2.01300001e+00 2. 2. 2.06599998e+00 2.05299997e+00 2.01999998e+00
    2.01500010e+00 2.01600003e+00 2.48699999e+00 0. 0. 0. 0. 0. 0. 0. 0.
    0. 0. 0. 0. 0. 0. 0. 0. 0. 0. 0. 0. 0. 0. 0. 0. 0. 0. 0. 0.
    2.07999992e+00 2.07500005e+00 2.04099989e+00 2.00999999e+00
    2.00799990e+00 1.39600003e+00 2.07299995e+00 2.06900001e+00
    2.03600001e+00 2.01200008e+00 2.01200008e+00 2.46799994e+00 0. 0. 0.
    0. 0. 0. 0. 0. 0. 0. 0. 0. 0. 0. 0. 0. 0. 0. 0. 0. 0. 0. 0. 0.
    2.12500000e+00 2.10500002e+00 2.81800008e+00 2.07599998e+00
    2.06900001e+00 2.06299996e+00 2.03500009e+00 2.00799990e+00
    2.00999999e+00 2.03800011e+00 2.08599997e+00 2.07800007e+00
    2.04900002e+00 2. 2.00399995e+00 2.37599993e+00 0. 0. 0. 0. 0. 0. 0.
    0. 0. 0. 0. 0. 0. 0. 0. 0. 0. 0. 0. 0. 0. 0. 0. 0. 1.52199996e+00
    2.25799990e+00 2.07599998e+00 2.05500007e+00 2.05200005e+00
    2.04399991e+00 2.02800012e+00 2.01399994e+00 2.02399993e+00
    2.04399991e+00 2.05999994e+00 2.06299996e+00 2.07500005e+00 2.
    1.99600005e+00 1.98699999e+00 0. 0. 0. 2.27600002e+00 0. 0. 0. 0. 0.
    0. 0. 0. 0. 0.</data></Depth>
</opencv_storage>
