<?xml version="1.0"?>
<opencv_storage>
<Depth type_id="opencv-matrix">
  <rows>40</rows>
  <cols>40</cols>
  <dt>f</dt>
  <data>
    2.00799990e+00 2.00699997e+00 2.00799990e+00 2.00600004e+00
    2.00999999e+00 2.01200008e+00 2.01699996e+00 2.03500009e+00
    1.30100000e+00 1.25100005e+00 1.25100005e+00 1.25100005e+00
    1.25100005e+00 1.25100005e+00 1.34500003e+00 2.01900005e+00
    2.01900005e+00 1.25100005e+00 1.25100005e+00 1.25100005e+00
    1.25100005e+00 1.25100005e+00 2.66799998e+00 0. 0. 0. 0. 0. 0. 0. 0.
    0. 0. 0. 0. 0. 0. 0. 0. 0. 2.00300002e+00 1.99899995e+00
    2.00500011e+00 2.00500011e+00 2.00799990e+00 2.01200008e+00
    1.25100005e+00 1.25100005e+00 1.25100005e+00 1.25100005e+00
    1.25100005e+00 1.25100005e+00 1.25100005e+00 1.25100005e+00
    2.02200007e+00 2.02200007e+00 2.02500010e+00 1.81500006e+00
    1.25100005e+00 1.25100005e+00 1.25100005e+00 0. 0. 0. 0. 0. 0. 0. 0.
    0. 0. 0. 0. 0. 0. 0. 0. 0. 0. 0. 2.00300002e+00 1.99800003e+00
    2.00099993e+00 2.00699997e+00 2.00999999e+00 1.25100005e+00
    1.25100005e+00 1.25100005e+00 1.25100005e+00 1.25100005e+00
    1.25100005e+00 1.25100005e+00 1.34099996e+00 2.01900005e+00
    2.02200007e+00 2.02500010e+00 2.02399993e+00 2.02500010e+00
    2.02399993e+00 1.25100005e+00 1.25100005e+00 0. 0. 0. 0. 0. 0. 0. 0.
    0. 0. 0. 0. 0. 0. 0. 0. 0. 0. 0. 2.00300002e+00 2.00300002e+00
    2.00500011e+00 2.02500010e+00 1.26100004e+00 1.25100005e+00
    1.25100005e+00 1.25100005e+00 1.25100005e+00 1.25100005e+00
    1.25100005e+00 1.77999997e+00 2.01999998e+00 2.01999998e+00
    2.01999998e+00 2.01999998e+00 2.01999998e+00 2.02200007e+00
    2.02099991e+00 1.78100002e+00 1.25100005e+00 0. 0. 0. 0. 0. 0. 0. 0.
    0. 0. 0. 0. 0. 0. 0. 0. 0. 0. 0. 2.00099993e+00 2.00300002e+00
    2.02399993e+00 2.04500008e+00 2.05599999e+00 1.25100005e+00
    1.25100005e+00 1.25100005e+00 1.25100005e+00 1.49500000e+00
    2.01300001e+00 2.01600003e+00 2.01799989e+00 2.01900005e+00
    2.01900005e+00 2.01900005e+00 2.01900005e+00 2.01999998e+00
    2.01999998e+00 2.02099991e+00 1.74899995e+00 1.25100005e+00
    1.63800001e+00 0. 0. 0. 0. 0. 0. 0. 0. 0. 0. 0. 0. 0. 0. 0. 0. 0.
    2.00099993e+00 2.02300000e+00 2.03500009e+00 2.06100011e+00
    2.09400010e+00 1.94099998e+00 1.25100005e+00 1.25100005e+00
    1.25100005e+00 1.71899998e+00 2.01500010e+00 2.01600003e+00
    2.01699996e+00 2.01799989e+00 2.01799989e+00 2.01799989e+00
    2.01900005e+00 2.01999998e+00 2.01999998e+00 2.01999998e+00
    2.01999998e+00 2.01999998e+00 1.25100005e+00 0. 0. 0. 0. 0. 0. 0. 0.
    0. 0. 0. 0. 0. 0. 0. 0. 0. 2.02500010e+00 2.02699995e+00
    2.02500010e+00 2.10299993e+00 2.11400008e+00 1.40999997e+00
    1.25100005e+00 1.25100005e+00 2.00099993e+00 2.01300001e+00
    2.01500010e+00 2.01699996e+00 2.01500010e+00 2.01600003e+00
    2.01799989e+00 2.01699996e+00 2.01799989e+00 2.01799989e+00
    2.01999998e+00 2.01799989e+00 2.01799989e+00 2.01999998e+00
    2.01799989e+00 1.25100005e+00 1.54200006e+00 0. 0. 0. 0. 0. 0. 0. 0.
    0. 0. 0. 0. 0. 0. 0. 2.06200004e+00 1.28900003e+00 2.02800012e+00
    2.02900004e+00 1.46700001e+00 1.25100005e+00 1.25100005e+00
    1.52199996e+00 2.01200008e+00 2.01200008e+00 2.01300001e+00
    2.01500010e+00 2.01500010e+00 2.01500010e+00 2.01600003e+00
    2.01600003e+00 2.01799989e+00 2.01799989e+00 2.01999998e+00
    2.01799989e+00 2.01799989e+00 2.01699996e+00 2.01999998e+00
    1.69900000e+00 1.25100005e+00 0. 0. 0. 0. 0. 0. 0. 0. 0. 0. 0. 0. 0.
    0. 0. 2.06699991e+00 2.08899999e+00 1.25100005e+00 2.02399993e+00
    1.99399996e+00 1.25100005e+00 1.99899995e+00 2.01200008e+00
    2.01200008e+00 2.01200008e+00 2.01200008e+00 2.01200008e+00
    2.01300001e+00 2.01300001e+00 2.01399994e+00 2.01300001e+00
    2.01300001e+00 2.01699996e+00 2.01699996e+00 2.01600003e+00
    2.01500010e+00 2.01799989e+00 2.01799989e+00 2.01799989e+00
    2.00699997e+00 1.25100005e+00 1.60300004e+00 0. 0. 0. 0. 0. 0. 0. 0.
    0. 0. 0. 0. 0. 2.09999990e+00 2.10899997e+00 1.25100005e+00
    1.25100005e+00 2.02500010e+00 1.69299996e+00 2.00799990e+00
    2.01200008e+00 2.01200008e+00 2.01200008e+00 2.01200008e+00
    2.01200008e+00 2.01200008e+00 2.01200008e+00 2.01300001e+00
    2.01300001e+00 2.01300001e+00 2.01300001e+00 2.01500010e+00
    2.01300001e+00 2.01600003e+00 2.01699996e+00 2.01600003e+00
    2.01399994e+00 2.01699996e+00 1.71800005e+00 1.25100005e+00 0. 0. 0.
    0. 0. 0. 0. 0. 0. 0. 0. 0. 0. 2.10700011e+00 1.25100005e+00
    1.25100005e+00 1.25100005e+00 2.00300002e+00 2.00600004e+00
    2.00600004e+00 2.00999999e+00 2.00999999e+00 2.00999999e+00
    2.01200008e+00 2.00999999e+00 2.01200008e+00 2.00999999e+00
    2.01200008e+00 2.01300001e+00 2.01200008e+00 2.01300001e+00
    2.01300001e+00 2.01300001e+00 2.01300001e+00 2.01300001e+00
    2.01300001e+00 2.01300001e+00 2.01300001e+00 2.01699996e+00
    1.29700005e+00 1.25100005e+00 0. 0. 0. 0. 0. 0. 0. 0. 0. 0. 0. 0.
    1.25100005e+00 1.25100005e+00 1.25100005e+00 2.00500011e+00
    2.00300002e+00 2.00600004e+00 2.00600004e+00 2.00600004e+00
    2.00699997e+00 2.00699997e+00 2.00699997e+00 2.00999999e+00
    2.00900006e+00 2.01099992e+00 2.01200008e+00 2.00999999e+00
    2.01099992e+00 2.01099992e+00 2.01200008e+00 2.01200008e+00
    2.01200008e+00 2.01300001e+00 2.01300001e+00 2.01300001e+00
    2.01300001e+00 2.01300001e+00 2.01300001e+00 2.01200008e+00
    1.25100005e+00 0. 0. 0. 0. 0. 0. 0. 0. 0. 0. 0. 1.25100005e+00
    1.25100005e+00 2.00300002e+00 2.00300002e+00 2.00300002e+00
    2.00500011e+00 2.00600004e+00 2.00600004e+00 2.00500011e+00
    2.00600004e+00 2.00600004e+00 2.00600004e+00 2.00799990e+00
    2.00799990e+00 2.00699997e+00 2.00999999e+00 2.00900006e+00
    2.01099992e+00 2.01099992e+00 2.01200008e+00 2.00999999e+00
    2.01200008e+00 2.01200008e+00 2.01200008e+00 2.01300001e+00
    2.01300001e+00 2.01200008e+00 2.01300001e+00 2.01200008e+00
    1.25100005e+00 1.25100005e+00 0. 0. 0. 0. 0. 0. 0. 0. 0.
    1.25100005e+00 2.00099993e+00 2.00099993e+00 2.00099993e+00
    2.00099993e+00 2.00300002e+00 2.00500011e+00 2.00500011e+00
    2.00500011e+00 2.00500011e+00 2.00500011e+00 2.00500011e+00
    2.00799990e+00 2.00600004e+00 2.00600004e+00 2.00600004e+00
    2.00699997e+00 2.00600004e+00 2.00999999e+00 2.00900006e+00
    2.00999999e+00 2.00799990e+00 2.01200008e+00 2.01200008e+00
    2.01099992e+00 2.01200008e+00 2.01200008e+00 2.01200008e+00
    2.01300001e+00 2.00999999e+00 1.25100005e+00 1.51199996e+00 0. 0. 0.
    0. 0. 0. 0. 0. 2. 1.99800003e+00 1.99800003e+00 2. 2.00099993e+00
    2.00099993e+00 2.00300002e+00 2.00399995e+00 2.00500011e+00
    2.00399995e+00 2.00500011e+00 2.00500011e+00 2.00600004e+00
    2.00600004e+00 2.00500011e+00 2.00600004e+00 2.00600004e+00
    2.00600004e+00 2.00600004e+00 2.00900006e+00 2.00799990e+00
    2.00600004e+00 2.00600004e+00 2.01200008e+00 2.01099992e+00
    2.01200008e+00 2.01200008e+00 2.01200008e+00 2.01200008e+00
    2.01300001e+00 2.01200008e+00 1.47700000e+00 1.25100005e+00 0. 0. 0.
    0. 0. 0. 0. 1.99800003e+00 1.99800003e+00 1.99800003e+00 2. 2.
    2.00300002e+00 2.00300002e+00 2.00099993e+00 2.00300002e+00
    2.00300002e+00 2.00300002e+00 2.00300002e+00 2.00500011e+00
    2.00500011e+00 2.00500011e+00 2.00600004e+00 2.00500011e+00
    2.00500011e+00 2.00600004e+00 2.00600004e+00 2.00799990e+00
    2.00600004e+00 2.00799990e+00 2.00799990e+00 2.00799990e+00
    2.01200008e+00 2.01200008e+00 2.01200008e+00 2.01200008e+00
    2.01200008e+00 2.01300001e+00 2.01099992e+00 1.25100005e+00
    1.25100005e+00 0. 0. 0. 0. 0. 0. 2.00200009e+00 1.99800003e+00
    1.99800003e+00 1.99800003e+00 1.99899995e+00 2. 2.00099993e+00 2. 2.
    2.00099993e+00 2.00099993e+00 2.00200009e+00 2.00300002e+00
    2.00300002e+00 2.00500011e+00 2.00500011e+00 2.00500011e+00
    2.00500011e+00 2.00500011e+00 2.00500011e+00 2.00500011e+00
    2.00600004e+00 2.00799990e+00 2.00600004e+00 2.00600004e+00
    2.00799990e+00 2.00999999e+00 2.00999999e+00 2.00999999e+00
    2.01200008e+00 2.01200008e+00 2.01200008e+00 2.00999999e+00
    1.49100006e+00 1.33500004e+00 0. 0. 0. 0. 0. 1.25100005e+00
    1.79499996e+00 1.99699998e+00 1.99800003e+00 1.99800003e+00 2.
    1.99800003e+00 2. 2. 2. 2. 2.00099993e+00 2.00099993e+00
    2.00300002e+00 2.00300002e+00 2.00300002e+00 2.00500011e+00
    2.00500011e+00 2.00500011e+00 2.00500011e+00 2.00500011e+00
    2.00500011e+00 2.00600004e+00 2.00600004e+00 2.00600004e+00
    2.00699997e+00 2.00799990e+00 2.00799990e+00 2.00799990e+00
    2.00999999e+00 2.00799990e+00 2.00900006e+00 2.01200008e+00
    2.00799990e+00 1.98000002e+00 1.25100005e+00 0. 0. 0. 0.
    1.25100005e+00 1.25100005e+00 1.59099996e+00 1.99699998e+00
    1.99699998e+00 1.99800003e+00 1.99800003e+00 2. 2. 1.99800003e+00 2.
    1.99899995e+00 2. 2. 2. 2.00099993e+00 2.00099993e+00 2.00300002e+00
    2.00300002e+00 2.00500011e+00 2.00399995e+00 2.00300002e+00
    2.00300002e+00 2.00500011e+00 2.00600004e+00 2.00600004e+00
    2.00600004e+00 2.00699997e+00 2.00600004e+00 2.00799990e+00
    2.00999999e+00 2.00799990e+00 2.00999999e+00 2.00799990e+00
    2.00900006e+00 1.81200004e+00 1.25100005e+00 0. 0. 0. 1.25100005e+00
    1.25100005e+00 1.47899997e+00 1.99300003e+00 1.99500000e+00
    1.99800003e+00 1.99800003e+00 1.99800003e+00 1.99800003e+00
    1.99800003e+00 1.99800003e+00 1.99800003e+00 1.99800003e+00
    1.99899995e+00 2. 2. 2. 2.00099993e+00 2.00200009e+00 2.00200009e+00
    2.00200009e+00 2.00200009e+00 2.00099993e+00 2.00300002e+00
    2.00500011e+00 2.00600004e+00 2.00600004e+00 2.00600004e+00
    2.00600004e+00 2.00600004e+00 2.00699997e+00 2.00699997e+00
    2.00699997e+00 2.00699997e+00 2.00900006e+00 2.00900006e+00
    2.00600004e+00 1.25100005e+00 0. 0. 1.25100005e+00 1.25100005e+00
    1.25100005e+00 1.98699999e+00 1.99300003e+00 1.99699998e+00
    1.99699998e+00 1.99800003e+00 1.99800003e+00 1.99800003e+00
    1.99699998e+00 1.99800003e+00 1.99800003e+00 1.99800003e+00
    1.99800003e+00 1.99800003e+00 1.99800003e+00 1.99800003e+00
    2.00099993e+00 2. 2. 2.00099993e+00 2.00300002e+00 2.00099993e+00
    2.00200009e+00 2.00500011e+00 2.00500011e+00 2.00500011e+00
    2.00500011e+00 2.00600004e+00 2.00600004e+00 2.00600004e+00
    2.00600004e+00 2.00600004e+00 2.00600004e+00 2.00799990e+00
    2.00600004e+00 2.00600004e+00 1.25100005e+00 1.71899998e+00 0.
    1.25100005e+00 1.25100005e+00 1.25100005e+00 1.25100005e+00
    1.32599998e+00 1.99699998e+00 1.99500000e+00 1.99600005e+00
    1.99699998e+00 1.99699998e+00 1.99699998e+00 1.99699998e+00
    1.99699998e+00 1.99800003e+00 1.99699998e+00 1.99800003e+00
    1.99800003e+00 1.99800003e+00 2. 2. 2.00099993e+00 2.00200009e+00
    2.00099993e+00 2.00099993e+00 2.00099993e+00 2.00399995e+00
    2.00500011e+00 2.00500011e+00 2.00500011e+00 2.00500011e+00
    2.00600004e+00 2.00500011e+00 2.00600004e+00 2.00600004e+00
    2.00600004e+00 2.00600004e+00 2.00799990e+00 1.48699999e+00
    1.25100005e+00 0. 0. 1.25100005e+00 1.25100005e+00 1.25100005e+00
    1.25100005e+00 1.25100005e+00 1.99500000e+00 1.99300003e+00
    1.99500000e+00 1.99500000e+00 1.99300003e+00 1.99500000e+00
    1.99500000e+00 1.99699998e+00 1.99800003e+00 1.99800003e+00
    1.99699998e+00 1.99800003e+00 1.99800003e+00 2. 2. 2. 2.
    2.00099993e+00 2.00099993e+00 2.00300002e+00 2.00300002e+00
    2.00399995e+00 2.00500011e+00 2.00300002e+00 2.00500011e+00
    2.00500011e+00 2.00500011e+00 2.00500011e+00 2.00600004e+00
    2.00600004e+00 2.00600004e+00 2.00699997e+00 1.34399998e+00 0. 0. 0.
    1.25100005e+00 1.25100005e+00 1.25100005e+00 1.25100005e+00
    1.51499999e+00 1.99300003e+00 1.99300003e+00 1.99300003e+00
    1.99300003e+00 1.99300003e+00 1.99300003e+00 1.99399996e+00
    1.99399996e+00 1.99500000e+00 1.99500000e+00 1.99500000e+00
    1.99500000e+00 1.99800003e+00 1.99800003e+00 1.99800003e+00
    1.99800003e+00 1.99899995e+00 2. 2. 2. 2.00200009e+00 2.00500011e+00
    2.00099993e+00 2.00200009e+00 2.00500011e+00 2.00500011e+00
    2.00500011e+00 2.00500011e+00 2.00500011e+00 2.00500011e+00
    2.00600004e+00 2.00600004e+00 0. 0. 0. 0. 1.25100005e+00
    1.25100005e+00 1.25100005e+00 1.25100005e+00 1.25100005e+00
    1.99300003e+00 1.99199998e+00 1.99199998e+00 1.99199998e+00
    1.99300003e+00 1.99300003e+00 1.99300003e+00 1.99300003e+00
    1.99500000e+00 1.99399996e+00 1.99699998e+00 1.99699998e+00
    1.99600005e+00 1.99800003e+00 1.99800003e+00 1.99800003e+00 2. 2. 2.
    2. 2.00099993e+00 2. 2. 2.00200009e+00 2.00399995e+00 2.00500011e+00
    2.00300002e+00 2.00500011e+00 2.00500011e+00 2.00600004e+00
    2.00799990e+00 0. 0. 0. 0. 0. 1.25100005e+00 1.25100005e+00
    1.25100005e+00 1.25100005e+00 1.70299995e+00 1.99199998e+00
    1.99199998e+00 1.99199998e+00 1.99199998e+00 1.99199998e+00
    1.99199998e+00 1.99199998e+00 1.99300003e+00 1.99300003e+00
    1.99300003e+00 1.99500000e+00 1.99300003e+00 1.99699998e+00
    1.99699998e+00 1.99800003e+00 1.99800003e+00 1.99899995e+00 2. 2.
    1.99800003e+00 2. 2. 2.00099993e+00 2.00099993e+00 2. 2.00200009e+00
    2.00500011e+00 2.00300002e+00 2.01500010e+00 2.01200008e+00 0. 0. 0.
    0. 0. 0. 1.66499996e+00 1.25100005e+00 1.25100005e+00 1.25100005e+00
    1.70299995e+00 1.99100006e+00 1.99199998e+00 1.99199998e+00
    1.99199998e+00 1.99100006e+00 1.99199998e+00 1.99300003e+00
    1.99300003e+00 1.99300003e+00 1.99300003e+00 1.99300003e+00
    1.99300003e+00 1.99500000e+00 1.99699998e+00 1.99800003e+00
    1.99800003e+00 1.99800003e+00 1.99800003e+00 1.99800003e+00
    1.99800003e+00 1.99800003e+00 2. 2. 2. 2.00200009e+00 2.00300002e+00
    2.00600004e+00 2.01799989e+00 2.02099991e+00 0. 0. 0. 0. 0. 0. 0.
    1.25100005e+00 1.25100005e+00 1.25100005e+00 1.25100005e+00
    1.76100004e+00 1.99000001e+00 1.99000001e+00 1.99000001e+00
    1.99000001e+00 1.99000001e+00 1.99199998e+00 1.99199998e+00
    1.99199998e+00 1.99300003e+00 1.99300003e+00 1.99300003e+00
    1.99500000e+00 1.99300003e+00 1.99800003e+00 1.99800003e+00
    1.99699998e+00 1.99800003e+00 1.99699998e+00 1.99800003e+00
    1.99800003e+00 1.99800003e+00 2. 1.99800003e+00 2. 2.00200009e+00
    2.00799990e+00 0. 0. 0. 0. 0. 0. 0. 0. 0. 0. 1.41400003e+00
    1.25100005e+00 1.25100005e+00 1.25100005e+00 1.68799996e+00
    1.98899996e+00 1.98899996e+00 1.98899996e+00 1.98899996e+00
    1.98899996e+00 1.99000001e+00 1.99100006e+00 1.99199998e+00
    1.99199998e+00 1.99300003e+00 1.99300003e+00 1.99300003e+00
    1.99300003e+00 1.99699998e+00 1.99699998e+00 1.99699998e+00
    1.99699998e+00 1.99800003e+00 1.99699998e+00 1.99699998e+00
    1.99699998e+00 1.99800003e+00 2. 1.51999998e+00 0. 0. 0. 0. 0. 0. 0.
    0. 0. 0. 0. 0. 1.54900002e+00 1.25100005e+00 1.25100005e+00
    1.27900004e+00 2.00099993e+00 1.98899996e+00 1.98899996e+00
    1.98899996e+00 1.98899996e+00 1.99000001e+00 1.99000001e+00
    1.99199998e+00 1.99199998e+00 1.99199998e+00 1.99199998e+00
    1.99300003e+00 1.99300003e+00 1.99300003e+00 1.99699998e+00
    1.99699998e+00 1.99500000e+00 1.99500000e+00 1.99600005e+00
    1.99699998e+00 1.99699998e+00 1.99800003e+00 1.49899995e+00
    1.25100005e+00 0. 0. 0. 0. 0. 0. 0. 0. 0. 0. 0. 0. 0. 0.
    1.25100005e+00 1.48199999e+00 2.05599999e+00 2.01399994e+00
    1.98699999e+00 1.98699999e+00 1.98800004e+00 1.98899996e+00
    1.98899996e+00 1.98899996e+00 1.99199998e+00 1.99199998e+00
    1.99199998e+00 1.99199998e+00 1.99300003e+00 1.99300003e+00
    1.99199998e+00 1.99399996e+00 1.99300003e+00 1.99300003e+00
    1.99399996e+00 1.99300003e+00 1.99300003e+00 1.25100005e+00
    1.25100005e+00 0. 0. 0. 0. 0. 0. 0. 0. 0. 0. 0. 0. 0. 0. 0.
    1.25100005e+00 1.25100005e+00 1.93700004e+00 2.04099989e+00
    1.99199998e+00 1.98699999e+00 1.98699999e+00 1.98699999e+00
    1.98699999e+00 1.98899996e+00 1.99000001e+00 1.99199998e+00
    1.99000001e+00 1.99199998e+00 1.99199998e+00 1.99300003e+00
    1.99300003e+00 1.99300003e+00 1.99300003e+00 1.99300003e+00
    1.99300003e+00 1.99300003e+00 1.25100005e+00 1.25100005e+00 0. 0. 0.
    0. 0. 0. 0. 0. 0. 0. 0. 0. 0. 0. 0. 0. 0. 0. 1.25100005e+00
    1.35099995e+00 2.04500008e+00 1.99199998e+00 1.98699999e+00
    1.98699999e+00 1.98699999e+00 1.98899996e+00 1.98699999e+00
    1.99000001e+00 1.98899996e+00 1.99000001e+00 1.99199998e+00
    1.99199998e+00 1.99199998e+00 1.99199998e+00 1.99199998e+00
    1.99199998e+00 1.99199998e+00 1.26300001e+00 1.25100005e+00 0. 0. 0.
    0. 0. 0. 0. 0. 0. 0. 0. 0. 0. 0. 0. 0. 0. 0. 0. 0. 1.25100005e+00
    1.25100005e+00 2.04999995e+00 2.01799989e+00 1.98699999e+00
    1.98699999e+00 1.98699999e+00 1.98699999e+00 1.98699999e+00
    1.98899996e+00 1.98899996e+00 1.99199998e+00 1.99199998e+00
    1.99199998e+00 1.99199998e+00 1.99199998e+00 1.99000001e+00
    1.25100005e+00 1.25100005e+00 0. 0. 0. 0. 0. 0. 0. 0. 0. 0. 0. 0. 0.
    0. 0. 0. 0. 0. 0. 0. 0. 0. 1.25100005e+00 2.06699991e+00
    2.04699993e+00 2.04500008e+00 1.98599994e+00 1.98500001e+00
    1.98500001e+00 1.98699999e+00 1.98699999e+00 1.98899996e+00
    1.99000001e+00 1.99000001e+00 1.99000001e+00 1.99100006e+00
    1.99199998e+00 1.25100005e+00 1.25100005e+00 0. 0. 0. 0. 0. 0. 0. 0.
    0. 0. 0. 0. 0. 0. 0. 0. 0. 0. 0. 0. 0. 0. 0. 0. 1.25100005e+00
    1.25100005e+00 2.04299998e+00 2.01600003e+00 1.98699999e+00
    1.98500001e+00 1.98699999e+00 1.98699999e+00 1.98699999e+00
    1.98899996e+00 1.98899996e+00 1.98899996e+00 1.98899996e+00
    1.49699998e+00 1.25100005e+00 0. 0. 0. 0. 0. 0. 0. 0. 0. 0. 0. 0. 0.
    0. 0. 0. 0. 0. 0. 0. 0. 0. 0. 0. 0. 2.17199993e+00 1.25100005e+00
    1.25100005e+00 2.05599999e+00 1.99500000e+00 1.98699999e+00
    1.98500001e+00 1.98500001e+00 1.98699999e+00 1.98699999e+00
    1.98699999e+00 1.98699999e+00 1.25100005e+00 1.25100005e+00 0. 0. 0.
    0. 0. 0. 0. 0. 0. 0. 0. 0. 0. 0. 0. 0. 0. 0. 0. 0. 0. 0. 0. 0. 0. 0.
    0. 0. 1.25100005e+00 2.06200004e+00 2.04299998e+00 2.00900006e+00
    1.98599994e+00 1.98500001e+00 1.98500001e+00 1.98699999e+00
    1.98699999e+00 1.27199996e+00 1.25100005e+00 0. 0. 0. 0. 0. 0. 0. 0.
    0. 0. 0. 0. 0. 0. 0. 0. 0. 0. 0. 0. 0. 0. 0. 0. 0. 0. 0. 0. 0. 0.
    2.92199993e+00 0. 0. 1.99500000e+00 1.98500001e+00 1.98500001e+00
    1.98599994e+00 1.64100003e+00 1.25100005e+00 0. 0. 0. 0. 0. 0. 0. 0.
    0. 0. 0. 0. 0. 0. 0. 0. 0. 0. 0. 0. 0. 0. 0. 0. 0. 0. 0. 0. 0. 0. 0.
    0. 0. 0. 0. 1.98500001e+00 1.98399997e+00 0. 0. 0. 0. 0. 0. 0. 0. 0.
    0. 0. 0. 0. 0. 0.</data></Depth>
</opencv_storage>
