<?xml version="1.0"?>
<opencv_storage>
<Depth type_id="opencv-matrix">
  <rows>40</rows>
  <cols>40</cols>
  <dt>f</dt>
  <data>
    0. 0. 0. 0. 0. 0. 0. 0. 0. 0. 0. 0. 0. 0. 0. 0. 2. 2.00099993e+00 2.
    2. 1.99800003e+00 1.99800003e+00 1.99399996e+00 1.99100006e+00
    1.99100006e+00 1.98899996e+00 1.98899996e+00 1.91600001e+00
    1.19099998e+00 1.19099998e+00 0. 0. 0. 0. 0. 0. 0. 0. 0. 0. 0. 0. 0.
    0. 0. 0. 2.86500001e+00 0. 0. 0. 0. 2.82699990e+00 2.01099992e+00
    2.00999999e+00 2.00799990e+00 2.00399995e+00 2.00399995e+00
    2.00200009e+00 2. 2. 1.99800003e+00 1.99600005e+00 1.99399996e+00
    1.99300003e+00 1.99100006e+00 1.99000001e+00 1.98899996e+00
    1.91600001e+00 1.19099998e+00 1.19099998e+00 0. 0. 0. 0. 0. 0. 0. 0.
    0. 0. 0. 0. 0. 0. 0. 2.02999997e+00 2.03900003e+00 2.04099989e+00
    2.02800012e+00 2.02399993e+00 2.01799989e+00 2.01799989e+00
    2.01200008e+00 2.01200008e+00 2.00799990e+00 2.00600004e+00
    2.00399995e+00 2.00200009e+00 2. 2. 1.99800003e+00 1.99600005e+00
    1.99399996e+00 1.99199998e+00 1.99100006e+00 1.99000001e+00
    1.98899996e+00 1.91600001e+00 1.19099998e+00 1.19099998e+00
    1.29999995e+00 0. 0. 0. 0. 0. 0. 0. 0. 0. 0. 0. 0. 0. 0.
    2.02999997e+00 2.02699995e+00 2.02600002e+00 2.02399993e+00
    2.01999998e+00 2.01799989e+00 2.01600003e+00 2.01300001e+00
    2.01200008e+00 2.00799990e+00 2.00500011e+00 2.00300002e+00
    2.00200009e+00 2. 1.99899995e+00 1.99800003e+00 1.99800003e+00
    1.99300003e+00 1.99100006e+00 1.99100006e+00 1.98899996e+00
    1.98800004e+00 1.91600001e+00 1.19099998e+00 1.19099998e+00
    1.19099998e+00 0. 0. 0. 0. 0. 0. 0. 0. 0. 0. 0. 0. 0. 0.
    2.02800012e+00 2.02800012e+00 2.02600002e+00 2.02300000e+00
    2.01999998e+00 2.01799989e+00 2.01600003e+00 2.01200008e+00
    2.00999999e+00 2.00799990e+00 2.00500011e+00 2.00399995e+00
    2.00399995e+00 2. 1.99899995e+00 1.99800003e+00 1.99600005e+00
    1.99300003e+00 1.99100006e+00 1.99100006e+00 1.98899996e+00
    1.98699999e+00 1.91400003e+00 1.19099998e+00 1.19099998e+00
    1.19099998e+00 0. 0. 0. 0. 0. 0. 0. 0. 0. 0. 0. 0. 0. 0.
    2.02600002e+00 2.02699995e+00 2.02500010e+00 2.02399993e+00
    2.01999998e+00 2.01799989e+00 2.01600003e+00 2.01200008e+00
    2.00999999e+00 2.00999999e+00 2.00500011e+00 2.00399995e+00
    2.00399995e+00 2.00200009e+00 1.99800003e+00 1.99800003e+00
    1.99600005e+00 1.99399996e+00 1.99300003e+00 1.99100006e+00
    1.98899996e+00 1.98899996e+00 1.98699999e+00 1.19099998e+00
    1.19099998e+00 1.19099998e+00 0. 0. 0. 0. 0. 0. 0. 0. 0. 0. 0. 0. 0.
    0. 2.02600002e+00 2.02699995e+00 2.02600002e+00 2.02399993e+00
    2.01999998e+00 2.01799989e+00 2.01600003e+00 2.01300001e+00
    2.01099992e+00 2.00999999e+00 2.00500011e+00 2.00399995e+00
    2.00200009e+00 2.00200009e+00 2. 2. 1.99699998e+00 1.99399996e+00
    1.99100006e+00 1.99100006e+00 1.98800004e+00 1.98800004e+00
    1.98699999e+00 1.19099998e+00 1.19099998e+00 1.19099998e+00 0. 0. 0.
    0. 0. 0. 0. 0. 0. 0. 0. 0. 0. 0. 2.02399993e+00 2.02699995e+00
    2.02600002e+00 2.02399993e+00 2.01999998e+00 2.01799989e+00
    2.01600003e+00 2.01399994e+00 2.01099992e+00 2.00999999e+00
    2.00699997e+00 2.00399995e+00 2.00200009e+00 2.00200009e+00 2.
    1.99800003e+00 1.99600005e+00 1.99500000e+00 1.99300003e+00
    1.99100006e+00 1.98899996e+00 1.98899996e+00 1.98699999e+00
    1.51100004e+00 1.19099998e+00 1.19099998e+00 0. 0. 0. 0. 0. 0. 0. 0.
    0. 0. 0. 0. 0. 0. 2.02399993e+00 2.02699995e+00 2.02600002e+00
    2.02399993e+00 2.01999998e+00 2.01799989e+00 2.01600003e+00
    2.01300001e+00 2.00999999e+00 2.00799990e+00 2.00500011e+00
    2.00399995e+00 2.00200009e+00 2.00099993e+00 1.99800003e+00
    1.99800003e+00 1.99600005e+00 1.99600005e+00 1.99399996e+00
    1.99100006e+00 1.99100006e+00 1.98899996e+00 1.98699999e+00
    1.66299999e+00 1.19099998e+00 1.19099998e+00 2.02900004e+00 0. 0. 0.
    0. 0. 0. 0. 0. 0. 0. 0. 0. 0. 1.32200003e+00 2.02699995e+00
    2.02600002e+00 2.02200007e+00 2.02099991e+00 2.01900005e+00
    2.01600003e+00 2.01300001e+00 2.00999999e+00 2.00999999e+00
    2.00799990e+00 2.00399995e+00 2.00200009e+00 2.00200009e+00
    1.99899995e+00 1.99800003e+00 1.99600005e+00 1.99500000e+00
    1.99300003e+00 1.99100006e+00 1.99000001e+00 1.98699999e+00
    1.98699999e+00 1.98699999e+00 1.19099998e+00 1.19099998e+00
    1.19099998e+00 1.19099998e+00 0. 0. 0. 0. 0. 0. 0. 0. 0. 0. 0. 0.
    1.32299995e+00 2.02600002e+00 2.02600002e+00 2.02200007e+00
    2.02099991e+00 2.01900005e+00 2.01600003e+00 2.01200008e+00
    2.00999999e+00 2.00999999e+00 2.00799990e+00 2.00500011e+00
    2.00200009e+00 2.00099993e+00 1.99899995e+00 1.99800003e+00
    1.99600005e+00 1.99399996e+00 1.99399996e+00 1.99300003e+00
    1.99000001e+00 1.98699999e+00 1.98699999e+00 1.98399997e+00
    1.19099998e+00 1.19099998e+00 1.19099998e+00 1.19099998e+00 0. 0. 0.
    0. 0. 0. 0. 0. 0. 0. 0. 0. 1.19099998e+00 2.02699995e+00
    2.02600002e+00 2.02200007e+00 2.01999998e+00 2.01799989e+00
    2.01600003e+00 2.01200008e+00 2.01099992e+00 2.00799990e+00
    2.00799990e+00 2.00699997e+00 2.00399995e+00 2.00200009e+00
    2.00099993e+00 1.99800003e+00 1.99600005e+00 1.99600005e+00
    1.99399996e+00 1.99300003e+00 1.99100006e+00 1.98699999e+00
    1.98699999e+00 1.98399997e+00 1.94900000e+00 1.90499997e+00
    1.19099998e+00 1.19099998e+00 1.19099998e+00 0. 0. 0. 0. 0. 0. 0. 0.
    0. 0. 0. 1.19099998e+00 2.02500010e+00 2.02600002e+00 2.02300000e+00
    2.01999998e+00 2.01999998e+00 2.01600003e+00 2.01200008e+00
    2.01200008e+00 2.00999999e+00 2.00600004e+00 2.00600004e+00
    2.00200009e+00 2.00099993e+00 2. 2. 1.99800003e+00 1.99600005e+00
    1.99399996e+00 1.99300003e+00 1.99100006e+00 1.98899996e+00
    1.98699999e+00 1.98500001e+00 1.98399997e+00 1.95899999e+00
    1.19099998e+00 1.19099998e+00 1.19099998e+00 0. 0. 0. 0. 0. 0. 0. 0.
    0. 0. 0. 1.19099998e+00 1.58599997e+00 2.02600002e+00 2.02200007e+00
    2.01999998e+00 2.01799989e+00 2.01600003e+00 2.01200008e+00
    2.01099992e+00 2.00799990e+00 2.00600004e+00 2.00600004e+00
    2.00200009e+00 2.00200009e+00 2. 1.99899995e+00 1.99699998e+00
    1.99600005e+00 1.99399996e+00 1.99100006e+00 1.99100006e+00
    1.98899996e+00 1.98899996e+00 1.98500001e+00 1.98500001e+00
    1.98099995e+00 1.19099998e+00 1.19099998e+00 1.19099998e+00 0. 0. 0.
    0. 0. 0. 0. 0. 0. 0. 0. 1.19099998e+00 1.54100001e+00 2.02600002e+00
    2.01999998e+00 2.01999998e+00 2.01799989e+00 2.01600003e+00
    2.01300001e+00 2.01200008e+00 2.00999999e+00 2.00699997e+00
    2.00399995e+00 2.00200009e+00 2.00200009e+00 2.00099993e+00 2.
    1.99800003e+00 1.99600005e+00 1.99399996e+00 1.99300003e+00
    1.99100006e+00 1.98899996e+00 1.98699999e+00 1.98399997e+00
    1.98300004e+00 1.97800004e+00 1.19099998e+00 1.19099998e+00
    1.19099998e+00 0. 0. 0. 0. 0. 0. 0. 0. 0. 0. 0. 1.19099998e+00
    1.50600004e+00 2.02399993e+00 2.02200007e+00 2.01999998e+00
    2.01799989e+00 2.01799989e+00 2.01300001e+00 2.01200008e+00
    2.00999999e+00 2.00799990e+00 2.00399995e+00 2.00399995e+00
    2.00300002e+00 2. 1.99800003e+00 1.99600005e+00 1.99600005e+00
    1.99399996e+00 1.99300003e+00 1.99000001e+00 1.98899996e+00
    1.98899996e+00 1.98599994e+00 1.98500001e+00 1.98099995e+00
    1.19099998e+00 1.36899996e+00 2.52200007e+00 0. 0. 0. 0. 0. 0. 0. 0.
    0. 0. 0. 1.19099998e+00 1.19099998e+00 2.02500010e+00 2.02200007e+00
    2.01999998e+00 2.01900005e+00 2.01699996e+00 2.01399994e+00
    2.01099992e+00 2.00999999e+00 2.00900006e+00 2.00399995e+00
    2.00399995e+00 2.00300002e+00 2.00200009e+00 1.99800003e+00
    1.99800003e+00 1.99600005e+00 1.99500000e+00 1.99300003e+00
    1.99100006e+00 1.98899996e+00 1.98800004e+00 1.98599994e+00
    1.98300004e+00 1.98199999e+00 1.19099998e+00 2.51900005e+00
    2.50999999e+00 0. 0. 0. 0. 0. 0. 0. 0. 0. 0. 0. 1.19099998e+00
    1.19099998e+00 2.02500010e+00 2.02399993e+00 2.01799989e+00
    2.01799989e+00 2.01600003e+00 2.01300001e+00 2.00999999e+00
    2.00999999e+00 2.00799990e+00 2.00500011e+00 2.00399995e+00
    2.00300002e+00 2.00300002e+00 2. 1.99600005e+00 1.99600005e+00
    1.99600005e+00 1.99399996e+00 1.99100006e+00 1.98899996e+00
    1.98899996e+00 1.98500001e+00 1.98300004e+00 1.98099995e+00
    1.93099999e+00 2.51300001e+00 2.51200008e+00 0. 0. 0. 0. 0. 0. 0. 0.
    0. 0. 0. 1.19099998e+00 1.19099998e+00 2.02200007e+00 2.02200007e+00
    2.01999998e+00 2.01799989e+00 2.01600003e+00 2.01300001e+00
    2.00999999e+00 2.00999999e+00 2.00799990e+00 2.00600004e+00
    2.00399995e+00 2.00300002e+00 2.00399995e+00 1.99800003e+00
    1.99800003e+00 1.99600005e+00 1.99600005e+00 1.99100006e+00
    1.99000001e+00 1.98699999e+00 1.98699999e+00 1.98500001e+00
    1.98300004e+00 1.98099995e+00 1.98099995e+00 2.51900005e+00
    2.51999998e+00 0. 0. 0. 0. 0. 0. 0. 0. 0. 0. 0. 1.19099998e+00
    1.19099998e+00 1.84700000e+00 2.02200007e+00 2.01999998e+00
    2.01900005e+00 2.01600003e+00 2.01399994e+00 2.01200008e+00
    2.00999999e+00 2.00500011e+00 2.00399995e+00 2.00399995e+00
    2.00300002e+00 2.00099993e+00 1.99800003e+00 1.99800003e+00
    1.99600005e+00 1.99600005e+00 1.99199998e+00 1.99100006e+00
    1.98899996e+00 1.98699999e+00 1.98599994e+00 1.98300004e+00
    1.98099995e+00 1.98300004e+00 2.53299999e+00 2.53099990e+00 0. 0. 0.
    0. 0. 0. 0. 0. 0. 0. 0. 1.19099998e+00 1.19099998e+00 1.84500003e+00
    2.02200007e+00 2.01900005e+00 2.01799989e+00 2.01399994e+00
    2.01200008e+00 2.01200008e+00 2.00999999e+00 2.00699997e+00
    2.00600004e+00 2.00200009e+00 2.00300002e+00 2.00099993e+00
    1.99699998e+00 1.99600005e+00 1.99600005e+00 1.99500000e+00
    1.99300003e+00 1.99100006e+00 1.98899996e+00 1.98699999e+00
    1.98399997e+00 1.98199999e+00 1.98099995e+00 1.98199999e+00
    2.39400005e+00 2.53399992e+00 0. 0. 0. 0. 0. 0. 0. 0. 0. 0. 0.
    1.19099998e+00 1.19099998e+00 1.19099998e+00 2.02200007e+00
    2.02099991e+00 2.01799989e+00 2.01399994e+00 2.01200008e+00
    2.01099992e+00 2.00999999e+00 2.00699997e+00 2.00500011e+00
    2.00200009e+00 2.00300002e+00 2.00300002e+00 1.99800003e+00
    1.99600005e+00 1.99600005e+00 1.99199998e+00 1.99100006e+00
    1.98899996e+00 1.98699999e+00 1.98699999e+00 1.98599994e+00
    1.98399997e+00 1.98099995e+00 1.98099995e+00 2.26399994e+00
    2.52900004e+00 0. 0. 0. 0. 0. 0. 0. 0. 0. 0. 0. 1.19099998e+00
    1.19099998e+00 1.19099998e+00 2.02099991e+00 2.02099991e+00
    2.01799989e+00 2.01600003e+00 2.01300001e+00 2.00999999e+00
    2.00999999e+00 2.00699997e+00 2.00500011e+00 2.00200009e+00
    2.00300002e+00 2.00200009e+00 2. 1.99800003e+00 1.99600005e+00
    1.99399996e+00 1.99100006e+00 1.98899996e+00 1.98899996e+00
    1.98699999e+00 1.98599994e+00 1.98300004e+00 1.98099995e+00
    1.98099995e+00 1.29799998e+00 1.19099998e+00 0. 0. 0. 0. 0. 0. 0. 0.
    0. 0. 0. 1.19099998e+00 1.19099998e+00 1.19099998e+00 2.01999998e+00
    2.01900005e+00 2.01799989e+00 2.01600003e+00 2.01300001e+00
    2.01099992e+00 2.00999999e+00 2.00699997e+00 2.00500011e+00
    2.00399995e+00 2.00200009e+00 2.00200009e+00 2. 1.99800003e+00
    1.99600005e+00 1.99399996e+00 1.99100006e+00 1.98899996e+00
    1.99000001e+00 1.98699999e+00 1.98500001e+00 1.98300004e+00
    1.98099995e+00 1.98000002e+00 1.45200002e+00 1.19099998e+00 0. 0. 0.
    0. 0. 0. 0. 0. 0. 0. 0. 1.34700000e+00 1.19099998e+00 1.19099998e+00
    2.01999998e+00 2.01900005e+00 2.01699996e+00 2.01399994e+00
    2.01200008e+00 2.00999999e+00 2.00999999e+00 2.00900006e+00
    2.00600004e+00 2.00399995e+00 2.00300002e+00 2.00099993e+00
    1.99800003e+00 1.99800003e+00 1.99600005e+00 1.99600005e+00
    1.99300003e+00 1.99100006e+00 1.98899996e+00 1.98699999e+00
    1.98399997e+00 1.98300004e+00 1.98099995e+00 1.98000002e+00
    1.98000002e+00 1.19099998e+00 0. 0. 0. 0. 0. 0. 0. 0. 0. 0. 0. 0.
    1.19099998e+00 1.19099998e+00 2.01799989e+00 2.01999998e+00
    2.01799989e+00 2.01399994e+00 2.01200008e+00 2.01200008e+00
    2.00999999e+00 2.00600004e+00 2.00399995e+00 2.00200009e+00
    2.00300002e+00 2.00300002e+00 1.99800003e+00 1.99600005e+00
    1.99600005e+00 1.99399996e+00 1.99100006e+00 1.98899996e+00
    1.98699999e+00 1.98599994e+00 1.98500001e+00 1.98199999e+00
    1.98099995e+00 1.98099995e+00 1.98000002e+00 1.19099998e+00 0. 0. 0.
    0. 0. 0. 0. 0. 0. 0. 0. 0. 1.19099998e+00 1.19099998e+00
    2.01799989e+00 2.01999998e+00 2.01799989e+00 2.01600003e+00
    2.01200008e+00 2.01200008e+00 2.00999999e+00 2.00799990e+00
    2.00600004e+00 2.00300002e+00 2.00300002e+00 2.00300002e+00
    1.99899995e+00 1.99800003e+00 1.99600005e+00 1.99399996e+00
    1.99199998e+00 1.99000001e+00 1.98899996e+00 1.98599994e+00
    1.98399997e+00 1.98300004e+00 1.98099995e+00 1.98099995e+00
    1.98000002e+00 1.19099998e+00 0. 0. 0. 0. 0. 0. 0. 0. 0. 0. 0. 0.
    1.19099998e+00 1.19099998e+00 2.01799989e+00 2.01999998e+00
    2.01799989e+00 2.01399994e+00 2.01200008e+00 2.00999999e+00
    2.00799990e+00 2.00500011e+00 2.00399995e+00 2.00399995e+00
    2.00300002e+00 2.00399995e+00 2. 1.99800003e+00 1.99600005e+00
    1.99300003e+00 1.99100006e+00 1.99100006e+00 1.98699999e+00
    1.98500001e+00 1.98500001e+00 1.98300004e+00 1.98099995e+00
    1.98099995e+00 1.97800004e+00 1.19099998e+00 0. 0. 0. 0. 0. 0. 0. 0.
    0. 0. 0. 0. 1.72599995e+00 1.19099998e+00 1.25100005e+00
    2.01799989e+00 2.01799989e+00 2.01500010e+00 2.01300001e+00
    2.01200008e+00 2.00999999e+00 2.00600004e+00 2.00399995e+00
    2.00399995e+00 2.00300002e+00 2.00200009e+00 2.00099993e+00
    1.99899995e+00 1.99600005e+00 1.99399996e+00 1.99100006e+00
    1.99000001e+00 1.98699999e+00 1.98699999e+00 1.98500001e+00
    1.98300004e+00 1.98199999e+00 1.98000002e+00 1.97899997e+00
    1.98099995e+00 0. 0. 0. 0. 0. 0. 0. 0. 0. 0. 0. 0. 0. 1.19099998e+00
    1.27600002e+00 2.01699996e+00 2.01600003e+00 2.01399994e+00
    2.01399994e+00 2.01200008e+00 2.00999999e+00 2.00699997e+00
    2.00500011e+00 2.00399995e+00 2.00300002e+00 2.00200009e+00 2.
    1.99800003e+00 1.99600005e+00 1.99399996e+00 1.99199998e+00
    1.99100006e+00 1.98899996e+00 1.98699999e+00 1.98300004e+00
    1.98199999e+00 1.98099995e+00 1.98000002e+00 1.97800004e+00
    1.98000002e+00 0. 0. 0. 0. 0. 0. 0. 0. 0. 0. 0. 0. 0. 1.19099998e+00
    1.27499998e+00 2.01600003e+00 2.01699996e+00 2.01399994e+00
    2.01500010e+00 2.01200008e+00 2.00999999e+00 2.00600004e+00
    2.00399995e+00 2.00399995e+00 2.00200009e+00 2.00200009e+00 2.
    1.99800003e+00 1.99600005e+00 1.99399996e+00 1.99300003e+00
    1.99100006e+00 1.98899996e+00 1.98699999e+00 1.98599994e+00
    1.98300004e+00 1.98099995e+00 1.98199999e+00 1.98000002e+00
    1.97599995e+00 0. 0. 0. 0. 0. 0. 0. 0. 0. 0. 0. 0. 1.19099998e+00
    1.19099998e+00 1.19099998e+00 2.01799989e+00 2.01699996e+00
    2.01399994e+00 2.01399994e+00 2.01200008e+00 2.00999999e+00
    2.00900006e+00 2.00399995e+00 2.00399995e+00 2.00300002e+00
    2.00200009e+00 2. 1.99800003e+00 1.99699998e+00 1.99399996e+00
    1.99300003e+00 1.99000001e+00 1.98899996e+00 1.98699999e+00
    1.98599994e+00 1.98099995e+00 1.98099995e+00 1.98300004e+00
    1.98099995e+00 1.97899997e+00 0. 0. 0. 0. 0. 0. 0. 0. 0. 0. 0.
    1.19099998e+00 1.19099998e+00 1.19099998e+00 1.19099998e+00
    2.01399994e+00 2.01699996e+00 2.01600003e+00 2.01300001e+00
    2.01200008e+00 2.00999999e+00 2.00999999e+00 2.00699997e+00
    2.00399995e+00 2.00300002e+00 2.00399995e+00 2. 1.99800003e+00
    1.99600005e+00 1.99600005e+00 1.99300003e+00 1.99100006e+00
    1.98899996e+00 1.98899996e+00 1.98500001e+00 1.98300004e+00
    1.98199999e+00 1.98099995e+00 1.98000002e+00 1.98000002e+00 0. 0. 0.
    0. 0. 0. 0. 0. 0. 0. 0. 1.19099998e+00 1.19099998e+00 1.19099998e+00
    1.19099998e+00 1.53600001e+00 2.01600003e+00 2.01399994e+00
    2.01300001e+00 2.01200008e+00 2.00999999e+00 2.00799990e+00
    2.00399995e+00 2.00399995e+00 2.00399995e+00 2.00300002e+00 2.
    1.99600005e+00 1.99699998e+00 1.99600005e+00 1.99300003e+00
    1.99000001e+00 1.98899996e+00 1.98899996e+00 1.98500001e+00
    1.98300004e+00 1.98099995e+00 1.98099995e+00 1.97800004e+00
    1.97599995e+00 0. 0. 0. 0. 0. 0. 0. 0. 0. 0. 0. 1.19099998e+00
    1.19099998e+00 1.19099998e+00 1.19099998e+00 1.19099998e+00
    2.01399994e+00 2.01600003e+00 2.01300001e+00 2.00999999e+00
    2.00999999e+00 2.00799990e+00 2.00600004e+00 2.00399995e+00
    2.00200009e+00 2. 2. 1.99800003e+00 1.99600005e+00 1.99600005e+00
    1.99300003e+00 1.99399996e+00 1.87199998e+00 1.98500001e+00
    1.65999997e+00 1.83399999e+00 1.80900002e+00 1.19099998e+00
    1.19099998e+00 1.19099998e+00 0. 0. 0. 0. 0. 0. 0. 0. 0. 0. 0.
    1.19099998e+00 1.19099998e+00 1.19099998e+00 1.19099998e+00
    1.19099998e+00 2.01300001e+00 2.01200008e+00 2.01099992e+00
    2.00999999e+00 2.00999999e+00 2.00799990e+00 2.00500011e+00
    2.00399995e+00 2.00399995e+00 2.00200009e+00 1.19099998e+00
    1.59099996e+00 1.59000003e+00 1.19099998e+00 2.00699997e+00
    2.00799990e+00 1.37399995e+00 1.19099998e+00 1.19099998e+00
    1.19099998e+00 1.19099998e+00 1.19099998e+00 1.19099998e+00
    1.19099998e+00 0. 0. 0. 0. 0. 0. 0. 0. 0. 0. 0. 1.19099998e+00
    1.19099998e+00 1.19099998e+00 1.19099998e+00 1.19099998e+00
    1.29900002e+00 2.00999999e+00 1.76499999e+00 1.33800006e+00
    1.33800006e+00 1.23599994e+00 1.33700001e+00 1.33700001e+00
    2.01999998e+00 2.02099991e+00 1.19099998e+00 1.19099998e+00
    1.19099998e+00 1.19099998e+00 1.31099999e+00 2.00799990e+00
    1.19099998e+00 1.19099998e+00 2.01699996e+00 1.19099998e+00
    1.19099998e+00 1.19099998e+00 1.19099998e+00 1.19099998e+00 0. 0. 0.
    0. 0. 0. 0. 0. 0. 0. 0. 1.19099998e+00 1.19099998e+00 1.19099998e+00
    1.19099998e+00 1.19099998e+00 1.19099998e+00 1.19099998e+00
    1.19099998e+00 1.19099998e+00 1.19099998e+00 1.19099998e+00
    1.19099998e+00 2.07999992e+00 2.01999998e+00 2.01799989e+00
    1.91499996e+00 2.09899998e+00 1.69299996e+00 1.29200006e+00
    1.31400001e+00 2.00600004e+00 1.37300003e+00 2.07900000e+00
    2.07699990e+00 1.19099998e+00 1.19099998e+00 1.19099998e+00
    1.19099998e+00 1.19099998e+00 0. 0. 0. 0. 0. 0. 0. 0. 0. 0. 0.
    1.19099998e+00 1.19099998e+00 1.19099998e+00 1.19099998e+00
    1.19099998e+00 1.19099998e+00 1.19099998e+00 1.19099998e+00
    1.19099998e+00 1.19099998e+00 1.19099998e+00 1.19099998e+00
    2.10299993e+00 2.09200001e+00 2.02099991e+00 1.99699998e+00
    2.09299994e+00 2.07999992e+00 2.07500005e+00 2.06500006e+00
    2.00600004e+00 2.04900002e+00 2.05900002e+00 2.05399990e+00
    1.42999995e+00 1.19099998e+00 1.19099998e+00 1.19099998e+00
    1.19099998e+00 0. 0. 0. 0. 0. 0. 0. 0. 0. 0. 0. 1.19099998e+00
    1.19099998e+00 1.19099998e+00 1.19099998e+00 1.19099998e+00
    1.19099998e+00 1.19099998e+00 1.19099998e+00 1.19099998e+00
    1.19099998e+00 1.19099998e+00 1.19099998e+00 2.07200003e+00
    2.07699990e+00 2.01799989e+00 2.01999998e+00 2.05800009e+00
    2.05299997e+00 2.04699993e+00 2.04099989e+00 2.00799990e+00
    2.00399995e+00 2.02500010e+00 2.02300000e+00 1.42299998e+00
    1.19099998e+00 1.19099998e+00 1.19099998e+00 1.19099998e+00 0. 0. 0.
    0. 0. 0.</data></Depth>
</opencv_storage>
