<?xml version="1.0"?>
<opencv_storage>
<Depth type_id="opencv-matrix">
  <rows>40</rows>
  <cols>40</cols>
  <dt>f</dt>
  <data>
    0. 0. 0. 0. 0. 0. 0. 2.79500008e+00 2.77200007e+00 2.75799990e+00
    2.74600005e+00 2.05999994e+00 2.01600003e+00 2.02099991e+00
    2.01099992e+00 1.95500004e+00 1.94400001e+00 1.96099997e+00
    1.97300005e+00 1.97300005e+00 1.97300005e+00 1.97300005e+00
    1.97300005e+00 1.97300005e+00 1.95099998e+00 1.94299996e+00
    1.95200002e+00 1.91700006e+00 0. 0. 0. 0. 0. 0. 0. 0. 0. 0. 0. 0. 0.
    0. 0. 0. 0. 0. 0. 2.78800011e+00 2.76900005e+00 2.75000000e+00
    2.56999993e+00 2.04600000e+00 2.02500010e+00 2.02500010e+00 2.
    1.95200002e+00 1.94400001e+00 1.96200001e+00 1.98300004e+00
    1.98800004e+00 1.98599994e+00 1.98599994e+00 1.98500001e+00
    1.97399998e+00 1.93799996e+00 1.92700005e+00 1.84399998e+00
    1.23800004e+00 0. 0. 0. 0. 0. 0. 0. 0. 0. 0. 0. 0. 0. 0. 0. 0. 0. 0.
    0. 2.77099991e+00 2.75399995e+00 2.73300004e+00 2.19499993e+00
    2.01399994e+00 2.01500010e+00 2.01300001e+00 1.99199998e+00
    1.96399999e+00 1.95899999e+00 1.97000003e+00 1.99199998e+00
    1.99100006e+00 1.98599994e+00 1.98599994e+00 1.98199999e+00
    1.96500003e+00 1.92900002e+00 1.91700006e+00 1.61199999e+00 0. 0. 0.
    0. 0. 0. 0. 0. 0. 0. 0. 0. 0. 0. 0. 0. 0. 0. 0. 0. 2.76699996e+00
    2.72099996e+00 2.70499992e+00 2.19899988e+00 2.02500010e+00
    2.03299999e+00 2.00900006e+00 1.99199998e+00 1.97500002e+00
    1.97200000e+00 1.98300004e+00 1.98800004e+00 1.98000002e+00
    1.97599995e+00 1.98599994e+00 1.98199999e+00 1.96500003e+00
    1.92900002e+00 1.89900005e+00 1.81799996e+00 1.34200001e+00 0. 0. 0.
    0. 0. 0. 0. 0. 0. 0. 0. 0. 0. 0. 0. 0. 0. 0. 0. 2.74300003e+00
    2.49900007e+00 2.60299993e+00 2.25399995e+00 2.04600000e+00
    2.03900003e+00 2.00900006e+00 1.99199998e+00 1.97500002e+00
    1.97300005e+00 1.99600005e+00 1.98599994e+00 1.97700000e+00
    1.97200000e+00 1.98599994e+00 1.98199999e+00 1.96500003e+00
    1.92900002e+00 1.89300001e+00 1.88900006e+00 1.87800002e+00 0. 0. 0.
    0. 0. 0. 0. 0. 0. 0. 0. 0. 0. 0. 0. 0. 0. 0. 0. 2.50500011e+00
    2.48900008e+00 2.48900008e+00 2.19799995e+00 2.06100011e+00
    2.03900003e+00 2.00799990e+00 1.98099995e+00 1.97000003e+00
    1.97300005e+00 1.99699998e+00 1.98599994e+00 1.97700000e+00
    1.97200000e+00 1.98399997e+00 1.98199999e+00 1.96500003e+00
    1.92900002e+00 1.89300001e+00 1.88900006e+00 1.88000000e+00 0. 0. 0.
    0. 0. 0. 0. 0. 0. 0. 0. 0. 0. 0. 0. 0. 0. 0. 0. 2.48900008e+00
    2.48900008e+00 2.48900008e+00 2.16499996e+00 2.05299997e+00
    2.03399992e+00 2.00300002e+00 1.96899998e+00 1.95799994e+00
    1.97800004e+00 1.99300003e+00 1.98599994e+00 1.97700000e+00
    1.97200000e+00 1.97300005e+00 1.97800004e+00 1.96800005e+00
    1.94500005e+00 1.92299998e+00 1.89100003e+00 1.89100003e+00
    1.89100003e+00 1.83200002e+00 1.81099999e+00 1.80400002e+00
    1.80400002e+00 0. 0. 0. 0. 0. 0. 0. 0. 0. 0. 0. 0. 0. 0.
    2.48900008e+00 2.48900008e+00 2.34899998e+00 2.08999991e+00
    2.04399991e+00 2.02600002e+00 2.00300002e+00 1.96899998e+00
    1.95799994e+00 1.97800004e+00 1.98000002e+00 1.98599994e+00
    1.98199999e+00 1.97300005e+00 1.97200000e+00 1.97200000e+00
    1.96800005e+00 1.96399999e+00 1.96399999e+00 1.89800000e+00
    1.89100003e+00 1.88699996e+00 1.83099997e+00 1.80400002e+00
    1.80100000e+00 1.78999996e+00 0. 0. 0. 0. 0. 0. 0. 0. 0. 0. 0. 0. 0.
    0. 2.48900008e+00 2.48900008e+00 2.25300002e+00 2.03500009e+00
    2.03200006e+00 2.02500010e+00 1.99600005e+00 1.96899998e+00
    1.95799994e+00 1.97200000e+00 1.97500002e+00 1.98599994e+00
    1.98599994e+00 1.98399997e+00 1.98300004e+00 1.98000002e+00
    1.96500003e+00 1.95799994e+00 1.95799994e+00 1.90199995e+00
    1.89100003e+00 1.87800002e+00 1.82700002e+00 1.80400002e+00
    1.79900002e+00 1.78100002e+00 0. 0. 0. 0. 0. 0. 0. 0. 0. 0. 0. 0. 0.
    0. 2.48900008e+00 2.48900008e+00 2.25300002e+00 2.03299999e+00
    2.02900004e+00 2.02399993e+00 1.99500000e+00 1.97800004e+00
    1.97200000e+00 1.98599994e+00 1.98599994e+00 1.98599994e+00
    1.98599994e+00 1.98599994e+00 1.98500001e+00 1.97200000e+00
    1.96500003e+00 1.94799995e+00 1.90699995e+00 1.90199995e+00
    1.89100003e+00 1.86899996e+00 1.82400000e+00 1.80400002e+00
    1.79900002e+00 1.78100002e+00 0. 0. 0. 0. 0. 0. 0. 0. 0. 0. 0. 0. 0.
    0. 2.48900008e+00 2.49099994e+00 2.25699997e+00 2.03600001e+00
    2.03200006e+00 2.02399993e+00 1.99500000e+00 1.97800004e+00
    1.97200000e+00 1.98899996e+00 1.98599994e+00 1.99199998e+00 2. 2.
    1.98800004e+00 1.97399998e+00 1.96700001e+00 1.94900000e+00
    1.91299999e+00 1.90900004e+00 1.90400004e+00 1.86800003e+00
    1.83099997e+00 1.81599998e+00 1.79200006e+00 1.77600002e+00 0. 0. 0.
    0. 0. 0. 0. 0. 0. 0. 0. 0. 0. 0. 2.49000001e+00 2.50600004e+00
    2.27500010e+00 2.04800010e+00 2.04399991e+00 2.02399993e+00
    1.99500000e+00 1.97800004e+00 1.97200000e+00 2. 1.99199998e+00
    1.99600005e+00 2. 2. 1.99899995e+00 1.98399997e+00 1.97500002e+00
    1.95200002e+00 1.93700004e+00 1.93400002e+00 1.91400003e+00
    1.87699997e+00 1.84599996e+00 1.83800006e+00 1.76600003e+00
    1.75300002e+00 0. 0. 0. 0. 0. 0. 0. 0. 0. 0. 0. 0. 0. 0.
    2.50600004e+00 2.53200006e+00 2.28299999e+00 2.04500008e+00
    2.04399991e+00 2.01399994e+00 1.98500001e+00 1.97399998e+00
    1.97899997e+00 2. 2. 2. 2. 2. 1.99899995e+00 1.98599994e+00
    1.97899997e+00 1.95200002e+00 1.93599999e+00 1.93599999e+00
    1.93799996e+00 1.89100003e+00 1.85699999e+00 1.85699999e+00
    1.75300002e+00 1.74699998e+00 0. 0. 0. 0. 0. 0. 0. 0. 0. 0. 0. 0. 0.
    0. 2.53399992e+00 2.42499995e+00 2.07599998e+00 2.04399991e+00
    2.04399991e+00 2.00900006e+00 1.98099995e+00 1.97200000e+00
    1.98300004e+00 2. 2. 2. 2. 1.98899996e+00 1.98899996e+00
    1.99100006e+00 1.96700001e+00 1.94000006e+00 1.93099999e+00
    1.89699996e+00 1.88999999e+00 1.86300004e+00 1.85300004e+00
    1.85300004e+00 1.76600003e+00 1.76600003e+00 0. 0. 0. 0. 0. 0. 0. 0.
    0. 0. 0. 0. 0. 0. 2.53900003e+00 2.42300010e+00 2.06599998e+00
    2.04399991e+00 2.04399991e+00 2.02099991e+00 1.98500001e+00
    1.98500001e+00 1.98500001e+00 1.99899995e+00 2. 2. 2. 1.98800004e+00
    1.98699999e+00 1.99100006e+00 1.96399999e+00 1.93700004e+00
    1.90600002e+00 1.88600004e+00 1.86000001e+00 1.84500003e+00
    1.83899999e+00 1.83700001e+00 1.78600001e+00 1.75800002e+00 0. 0. 0.
    0. 0. 0. 0. 0. 0. 0. 0. 0. 0. 0. 2.57399988e+00 2.62599993e+00
    2.32200003e+00 2.04399991e+00 2.04399991e+00 2.00699997e+00
    1.97200000e+00 1.97200000e+00 1.97200000e+00 1.98599994e+00 2. 2. 2.
    1.98800004e+00 1.98599994e+00 1.97800004e+00 1.95099998e+00
    1.92499995e+00 1.90499997e+00 1.87399995e+00 1.84899998e+00
    1.83399999e+00 1.81900001e+00 1.79299998e+00 1.78299999e+00
    1.75800002e+00 0. 0. 0. 0. 0. 0. 0. 0. 0. 0. 0. 0. 0. 0.
    2.67499995e+00 2.68400002e+00 2.34400010e+00 2.04399991e+00
    2.04399991e+00 1.98800004e+00 1.96500003e+00 1.96899998e+00
    1.97800004e+00 1.99300003e+00 2. 2. 2. 1.98800004e+00 1.98500001e+00
    1.97099996e+00 1.94400001e+00 1.92299998e+00 1.90499997e+00
    1.87399995e+00 1.84200001e+00 1.82400000e+00 1.81099999e+00
    1.79900002e+00 1.77100003e+00 1.75800002e+00 0. 0. 0. 0. 0. 0. 0. 0.
    0. 0. 0. 0. 0. 0. 2.76099992e+00 2.73200011e+00 2.36700010e+00
    2.04399991e+00 2.04399991e+00 1.97000003e+00 1.95799994e+00
    1.96599996e+00 1.98300004e+00 2. 2. 2. 2. 1.98800004e+00
    1.98399997e+00 1.95700002e+00 1.93200004e+00 1.91799998e+00
    1.90499997e+00 1.87300003e+00 1.83299994e+00 1.81099999e+00
    1.80400002e+00 1.81299996e+00 1.76699996e+00 1.75800002e+00 0. 0. 0.
    0. 0. 0. 0. 0. 0. 0. 0. 0. 0. 0. 2.76900005e+00 2.54200006e+00
    2.07299995e+00 2.04399991e+00 2.03099990e+00 1.97200000e+00
    1.97099996e+00 1.97899997e+00 1.98599994e+00 2.01300001e+00 2. 2. 2.
    1.99899995e+00 1.98399997e+00 1.95400000e+00 1.92999995e+00
    1.90799999e+00 1.89300001e+00 1.87300003e+00 1.83200002e+00
    1.80900002e+00 1.80400002e+00 1.81599998e+00 1.80100000e+00
    1.75800002e+00 0. 0. 0. 0. 0. 0. 0. 0. 0. 0. 0. 0. 0. 0.
    2.75699997e+00 2.44700003e+00 2.05900002e+00 2.04800010e+00
    2.02600002e+00 1.95799994e+00 1.96300006e+00 1.98000002e+00
    1.98599994e+00 2. 2. 2. 2. 2. 1.99899995e+00 1.98199999e+00
    1.95099998e+00 1.90999997e+00 1.88999999e+00 1.86199999e+00
    1.83200002e+00 1.81599998e+00 1.81700003e+00 1.83899999e+00
    1.82000005e+00 1.75800002e+00 0. 0. 0. 0. 0. 0. 0. 0. 0. 0. 0. 0. 0.
    0. 2.69799995e+00 2.06900001e+00 2.05900002e+00 2.04800010e+00
    2.00200009e+00 1.96300006e+00 1.96599996e+00 1.97700000e+00
    1.98500001e+00 2. 1.99500000e+00 1.99699998e+00 2. 2. 1.99899995e+00
    1.98199999e+00 1.95099998e+00 1.90199995e+00 1.87500000e+00
    1.85899997e+00 1.83800006e+00 1.82200003e+00 1.82299995e+00
    1.82400000e+00 1.79200006e+00 1.76199996e+00 0. 0. 0. 0. 0. 0. 0. 0.
    0. 0. 0. 0. 0. 0. 2.72499990e+00 2.32900000e+00 2.05900002e+00
    2.04800010e+00 2.00200009e+00 1.97200000e+00 1.97200000e+00
    1.97200000e+00 1.97700000e+00 2. 1.98599994e+00 1.99199998e+00 2. 2.
    1.99100006e+00 1.97399998e+00 1.94000006e+00 1.89300001e+00
    1.86699998e+00 1.85300004e+00 1.84899998e+00 1.83000004e+00
    1.81200004e+00 1.80900002e+00 1.78799999e+00 1.76900005e+00 0. 0. 0.
    0. 0. 0. 0. 0. 0. 0. 0. 0. 0. 0. 2.74600005e+00 2.52699995e+00
    2.05900002e+00 2.04800010e+00 2.00200009e+00 1.97200000e+00
    1.97599995e+00 1.97599995e+00 1.97200000e+00 2. 1.99699998e+00
    1.99800003e+00 2. 2. 1.98500001e+00 1.96800005e+00 1.92600000e+00
    1.88199997e+00 1.86699998e+00 1.85300004e+00 1.84899998e+00
    1.82700002e+00 1.80700004e+00 1.80400002e+00 1.79200006e+00
    1.78799999e+00 0. 0. 0. 0. 0. 0. 0. 0. 0. 0. 0. 0. 0. 0.
    2.67400002e+00 2.06200004e+00 2.05100012e+00 2.04399991e+00
    2.00200009e+00 1.98599994e+00 1.98599994e+00 1.97800004e+00
    1.97200000e+00 2. 1.98599994e+00 1.99199998e+00 2. 1.98800004e+00
    1.98399997e+00 1.95400000e+00 1.91700006e+00 1.88199997e+00
    1.87800002e+00 1.87399995e+00 1.84899998e+00 1.82700002e+00
    1.80700004e+00 1.79299998e+00 1.79299998e+00 1.79299998e+00 0. 0. 0.
    0. 0. 0. 0. 0. 0. 0. 0. 0. 0. 0. 2.67300010e+00 2.05599999e+00
    2.04999995e+00 2.01099992e+00 1.98699999e+00 1.98599994e+00
    1.98599994e+00 1.97899997e+00 1.97500002e+00 1.98599994e+00
    1.98599994e+00 1.98599994e+00 1.98599994e+00 1.98599994e+00
    1.98399997e+00 1.95700002e+00 1.91999996e+00 1.88399994e+00
    1.88100004e+00 1.87399995e+00 1.84899998e+00 1.83399999e+00
    1.80700004e+00 1.79299998e+00 1.78100002e+00 1.78100002e+00 0. 0. 0.
    0. 0. 0. 0. 0. 0. 0. 0. 0. 0. 0. 2.58299994e+00 2.04399991e+00
    2.04399991e+00 2.01099992e+00 1.98099995e+00 1.98000002e+00
    1.98199999e+00 1.98599994e+00 1.98599994e+00 1.98599994e+00
    1.98599994e+00 1.98599994e+00 1.98599994e+00 1.98599994e+00
    1.99100006e+00 1.96500003e+00 1.91999996e+00 1.89499998e+00
    1.89100003e+00 1.87399995e+00 1.84899998e+00 1.83399999e+00
    1.80100000e+00 1.78299999e+00 1.77600002e+00 1.77600002e+00 0. 0. 0.
    0. 0. 0. 0. 0. 0. 0. 0. 0. 0. 0. 2.62599993e+00 2.04999995e+00
    2.04399991e+00 2.01099992e+00 1.97300005e+00 1.97200000e+00
    1.97700000e+00 1.98599994e+00 1.98599994e+00 1.99500000e+00
    1.99500000e+00 1.99500000e+00 1.99500000e+00 1.99500000e+00
    1.99899995e+00 1.96000004e+00 1.89600003e+00 1.89199996e+00
    1.89100003e+00 1.87399995e+00 1.84899998e+00 1.82900000e+00
    1.80400002e+00 1.76900005e+00 1.76900005e+00 1.76900005e+00 0. 0. 0.
    0. 0. 0. 0. 0. 0. 0. 0. 0. 0. 0. 2.32699990e+00 2.05800009e+00
    2.03600001e+00 1.99600005e+00 1.97300005e+00 1.97200000e+00
    1.97700000e+00 1.98599994e+00 1.98599994e+00 2. 2. 2. 2. 2.
    1.98800004e+00 1.95799994e+00 1.89100003e+00 1.88300002e+00
    1.88000000e+00 1.87300003e+00 1.83500004e+00 1.81200004e+00
    1.79700005e+00 1.76900005e+00 1.42499995e+00 0. 0. 0. 0. 0. 0. 0. 0.
    0. 0. 0. 0. 0. 0. 0. 2.04399991e+00 2.04399991e+00 2.02099991e+00
    1.99000001e+00 1.97300005e+00 1.97500002e+00 1.98599994e+00
    1.98599994e+00 1.98599994e+00 2. 2. 2. 1.99100006e+00 1.98399997e+00
    1.98300004e+00 1.98099995e+00 1.92999995e+00 1.88000000e+00
    1.88000000e+00 1.88100004e+00 1.83200002e+00 1.80900002e+00
    1.79499996e+00 1.76900005e+00 1.38499999e+00 0. 0. 0. 0. 0. 0. 0. 0.
    0. 0. 0. 0. 0. 0. 0. 2.05200005e+00 2.04699993e+00 2.02099991e+00
    1.99000001e+00 1.98599994e+00 1.98599994e+00 1.98599994e+00
    1.98599994e+00 1.98599994e+00 2. 2. 2. 1.98800004e+00 1.94900000e+00
    1.94099998e+00 1.90400004e+00 1.90900004e+00 1.91100001e+00
    1.90699995e+00 1.84099996e+00 1.82900000e+00 1.80799997e+00
    1.79499996e+00 1.77199996e+00 1.77900004e+00 1.80400002e+00 0. 0. 0.
    0. 0. 0. 0. 0. 0. 0. 0. 0. 0. 0. 2.15799999e+00 2.05200005e+00
    2.01699996e+00 1.99000001e+00 1.98599994e+00 1.98599994e+00
    1.98599994e+00 1.98599994e+00 1.98599994e+00 2. 2. 2. 1.98199999e+00
    1.94799995e+00 1.94099998e+00 1.90199995e+00 1.89800000e+00
    1.89300001e+00 1.87399995e+00 1.83899999e+00 1.81900001e+00
    1.80400002e+00 1.79999995e+00 0. 0. 0. 0. 0. 0. 0. 0. 0. 0. 0. 0. 0.
    0. 0. 0. 0. 2.24900007e+00 2.03900003e+00 2.00900006e+00
    1.99000001e+00 1.98599994e+00 1.98599994e+00 1.98599994e+00
    1.98599994e+00 1.98599994e+00 1.99000001e+00 1.99300003e+00 2.
    1.98800004e+00 1.94900000e+00 1.94099998e+00 1.89800000e+00
    1.88199997e+00 1.88800001e+00 1.86800003e+00 1.83899999e+00
    1.81900001e+00 1.80400002e+00 0. 0. 0. 0. 0. 0. 0. 0. 0. 0. 0. 0. 0.
    0. 0. 0. 0. 0. 2.07500005e+00 2.03399992e+00 2.00699997e+00
    1.99000001e+00 1.98599994e+00 1.98599994e+00 1.98599994e+00
    1.98599994e+00 1.98599994e+00 1.98599994e+00 1.98899996e+00 2.
    1.99899995e+00 1.96200001e+00 1.92900002e+00 1.88800001e+00
    1.87800002e+00 1.87899995e+00 1.86699998e+00 1.85200000e+00
    1.85000002e+00 1.56599998e+00 1.18799996e+00 0. 0. 0. 0. 0. 0. 0. 0.
    0. 0. 0. 0. 0. 0. 0. 0. 0. 2.05699992e+00 2.03399992e+00
    1.99899995e+00 1.98500001e+00 1.98399997e+00 1.98500001e+00
    1.98099995e+00 1.97200000e+00 1.97200000e+00 1.98599994e+00
    1.98599994e+00 1.99199998e+00 1.99899995e+00 1.96300006e+00
    1.88999999e+00 1.87100005e+00 1.85300004e+00 1.86199999e+00
    1.85399997e+00 1.85300004e+00 1.83000004e+00 1.51199996e+00
    1.28699994e+00 1.25199997e+00 0. 0. 0. 0. 0. 0. 0. 0. 0. 0. 0. 0. 0.
    0. 0. 0. 2.05699992e+00 2.03600001e+00 2.00099993e+00 1.97599995e+00
    1.97200000e+00 1.91799998e+00 1.64999998e+00 1.64499998e+00
    1.64600003e+00 1.65499997e+00 1.65499997e+00 1.65799999e+00
    1.87500000e+00 1.96200001e+00 1.88999999e+00 1.87300003e+00
    1.86099994e+00 1.86800003e+00 1.86199999e+00 1.83399999e+00
    1.54100001e+00 1.29700005e+00 1.27900004e+00 1.25199997e+00 0. 0. 0.
    0. 0. 0. 0. 0. 0. 0. 0. 0. 0. 0. 0. 0. 2.05800009e+00 2.04999995e+00
    1.73000002e+00 1.44500005e+00 1.44099998e+00 1.36199999e+00 0. 0. 0.
    0. 0. 0. 1.28199995e+00 1.42900002e+00 1.89100003e+00 1.88100004e+00
    1.87100005e+00 1.87100005e+00 1.87100005e+00 0. 1.29999995e+00
    1.29100001e+00 1.27100003e+00 1.25199997e+00 0. 0. 0. 0. 0. 0. 0. 0.
    0. 0. 0. 0. 0. 0. 0. 0. 2.05900002e+00 2.05900002e+00 1.49800003e+00
    0. 0. 0. 0. 0. 0. 0. 0. 0. 0. 0. 1.89999998e+00 1.88399994e+00
    1.86600006e+00 1.86600006e+00 1.86600006e+00 1.35500002e+00
    1.28199995e+00 1.27699995e+00 1.26699996e+00 1.25199997e+00 0. 0. 0.
    0. 0. 0. 0. 0. 0. 0. 0. 0. 0. 0. 0. 0. 2.05900002e+00 2.05900002e+00
    2.04099989e+00 1.26100004e+00 0. 0. 0. 0. 0. 0. 0. 0. 0. 0.
    1.90400004e+00 1.89999998e+00 1.88399994e+00 1.87800002e+00
    1.87800002e+00 1.79200006e+00 1.27499998e+00 1.26800001e+00
    1.25999999e+00 1.25199997e+00 0. 0. 0. 0. 0. 0. 0. 0. 0. 0. 0. 0. 0.
    0. 0. 0. 0. 1.00199997e+00 1.00199997e+00 0. 0. 0. 0. 0. 0. 0. 0. 0.
    0. 0. 1.04100001e+00 1.89999998e+00 1.88399994e+00 1.87800002e+00
    1.87800002e+00 1.79200006e+00 1.27499998e+00 1.26800001e+00
    1.25999999e+00 1.25199997e+00 0. 0. 0. 0. 0. 0. 0. 0. 0. 0. 0. 0. 0.
    0. 0. 0. 0. 0. 0. 0. 0. 0. 0. 0. 0. 0. 0. 0. 0. 0. 0. 0. 0. 0. 0. 0.
    0. 0. 0. 0. 0. 0. 0. 0. 0. 0. 0. 0. 0.</data></Depth>
</opencv_storage>
