<?xml version="1.0"?>
<opencv_storage>
<Depth type_id="opencv-matrix">
  <rows>40</rows>
  <cols>40</cols>
  <dt>f</dt>
  <data>
    0. 0. 0. 0. 0. 0. 0. 0. 0. 0. 0. 0. 0. 0. 0. 0. 0. 0. 0. 0. 0. 0. 0.
    0. 0. 0. 0. 0. 0. 0. 0. 0. 0. 0. 0. 0. 0. 0. 0. 0. 0. 0. 0. 0. 0. 0.
    0. 0. 0. 0. 0. 0. 0. 0. 0. 0. 0. 0. 0. 0. 0. 0. 0. 0. 0. 0. 0. 0. 0.
    0. 0. 0. 0. 0. 0. 0. 0. 0. 0. 0. 0. 0. 0. 0. 0. 0. 0. 0. 0. 0. 0. 0.
    0. 0. 0. 0. 0. 0. 0. 0. 0. 0. 0. 0. 0. 0. 0. 0. 0. 0. 0. 0. 0. 0. 0.
    0. 0. 0. 0. 0. 0. 0. 0. 0. 0. 0. 0. 0. 0. 0. 0. 0. 0. 0. 0. 0. 0. 0.
    0. 0. 0. 0. 0. 0. 0. 0. 0. 0. 0. 0. 0. 0. 0. 0. 0. 0. 0. 0. 0. 0.
    2.01799989e+00 1.98899996e+00 1.98199999e+00 1.96599996e+00
    1.28299999e+00 1.27699995e+00 1.24600005e+00 1.24399996e+00
    1.23399997e+00 1.22800004e+00 1.22399998e+00 1.22000003e+00
    1.20799994e+00 1.19700003e+00 1.19500005e+00 1.19500005e+00
    1.19500005e+00 1.19500005e+00 1.19500005e+00 1.19500005e+00
    1.19500005e+00 1.18799996e+00 1.17799997e+00 1.17799997e+00
    1.17799997e+00 1.17799997e+00 1.17799997e+00 1.17799997e+00
    1.17799997e+00 1.17799997e+00 1.17700005e+00 1.16999996e+00
    1.16799998e+00 1.16199994e+00 1.16199994e+00 1.16199994e+00
    1.15799999e+00 1.15499997e+00 1.14900005e+00 1.14699996e+00
    2.01799989e+00 2.01799989e+00 1.98899996e+00 1.98199999e+00
    1.98199999e+00 1.88600004e+00 1.32099998e+00 1.25100005e+00
    1.24100006e+00 1.23500001e+00 1.23099995e+00 1.22300005e+00
    1.21500003e+00 1.21200001e+00 1.20599997e+00 1.20400000e+00
    1.20299995e+00 1.19599998e+00 1.19599998e+00 1.19599998e+00
    1.19599998e+00 1.18799996e+00 1.17799997e+00 1.17799997e+00
    1.17799997e+00 1.18400002e+00 1.18599999e+00 1.17999995e+00
    1.17900002e+00 1.17900002e+00 1.17700005e+00 1.17100000e+00
    1.16999996e+00 1.16999996e+00 1.17100000e+00 1.16999996e+00
    1.16999996e+00 1.16999996e+00 1.16400003e+00 1.15100002e+00
    2.01900005e+00 2.01799989e+00 2.01500010e+00 1.98599994e+00
    1.98199999e+00 1.98199999e+00 1.84800005e+00 1.34899998e+00
    1.23399997e+00 1.22399998e+00 1.22000003e+00 1.22500002e+00
    1.22300005e+00 1.22200000e+00 1.22200000e+00 1.21300006e+00
    1.20599997e+00 1.20500004e+00 1.20400000e+00 1.20299995e+00
    1.20099998e+00 1.19299996e+00 1.18499994e+00 1.17999995e+00
    1.17999995e+00 1.18599999e+00 1.18799996e+00 1.18599999e+00
    1.18599999e+00 1.18599999e+00 1.17900002e+00 1.17700005e+00
    1.17200005e+00 1.17400002e+00 1.17499995e+00 1.17200005e+00
    1.17100000e+00 1.16999996e+00 1.16499996e+00 1.16199994e+00
    2.02300000e+00 2.01799989e+00 2.00200009e+00 2. 1.98199999e+00
    1.98199999e+00 1.98199999e+00 1.81599998e+00 1.44099998e+00
    1.43499994e+00 1.43099999e+00 1.30400002e+00 1.22800004e+00
    1.22800004e+00 1.22800004e+00 1.22300005e+00 1.22200000e+00
    1.21300006e+00 1.21200001e+00 1.20700002e+00 1.20500004e+00
    1.20200002e+00 1.19700003e+00 1.19200003e+00 1.18799996e+00
    1.19500005e+00 1.19700003e+00 1.19099998e+00 1.18900001e+00
    1.18799996e+00 1.18499994e+00 1.17999995e+00 1.17799997e+00
    1.17799997e+00 1.17799997e+00 1.17799997e+00 1.17299998e+00
    1.16999996e+00 1.16999996e+00 1.16499996e+00 2.02300000e+00
    2.01799989e+00 2.00200009e+00 2. 1.98199999e+00 1.98199999e+00
    1.98199999e+00 1.98199999e+00 1.98199999e+00 1.98199999e+00
    1.98199999e+00 1.67900002e+00 1.49699998e+00 1.49699998e+00
    1.26800001e+00 1.23099995e+00 1.23099995e+00 1.22300005e+00
    1.22300005e+00 1.22099996e+00 1.21300006e+00 1.20899999e+00
    1.20400000e+00 1.20000005e+00 1.19799995e+00 1.20200002e+00
    1.20299995e+00 1.20299995e+00 1.19799995e+00 1.19700003e+00
    1.18900001e+00 1.18700004e+00 1.18099999e+00 1.18200004e+00
    1.18400002e+00 1.18200004e+00 1.17600000e+00 1.17299998e+00
    1.17299998e+00 1.16999996e+00 2.02300000e+00 2.01799989e+00
    2.00200009e+00 2. 1.99000001e+00 1.98899996e+00 1.98199999e+00
    1.98199999e+00 1.98199999e+00 1.98199999e+00 1.98199999e+00
    1.98199999e+00 1.98199999e+00 1.98199999e+00 1.61899996e+00
    1.25600004e+00 1.23699999e+00 1.22800004e+00 1.22800004e+00
    1.22599995e+00 1.21800005e+00 1.21300006e+00 1.20899999e+00
    1.20400000e+00 1.20299995e+00 1.20599997e+00 1.20599997e+00
    1.20599997e+00 1.20599997e+00 1.20299995e+00 1.19799995e+00
    1.19700003e+00 1.19000006e+00 1.19299996e+00 1.19799995e+00
    1.19599998e+00 1.18599999e+00 1.17900002e+00 1.17799997e+00
    1.17400002e+00 2.02300000e+00 2.01799989e+00 2.00200009e+00 2.
    2.00900006e+00 2.00699997e+00 1.99100006e+00 1.99100006e+00
    1.98800004e+00 1.98199999e+00 1.98199999e+00 1.98199999e+00
    1.98199999e+00 1.98199999e+00 1.98199999e+00 1.28799999e+00
    1.24199998e+00 1.23699999e+00 1.23699999e+00 1.23300004e+00
    1.22000003e+00 1.21800005e+00 1.21599996e+00 1.21300006e+00
    1.21200001e+00 1.21500003e+00 1.21599996e+00 1.21599996e+00
    1.21599996e+00 1.20700002e+00 1.20299995e+00 1.20200002e+00
    1.19900000e+00 1.20099998e+00 1.20299995e+00 1.20299995e+00
    1.19299996e+00 1.18299997e+00 1.17900002e+00 1.17799997e+00
    2.02300000e+00 2.01799989e+00 2.00200009e+00 2. 2.01799989e+00
    2.01500010e+00 2. 2. 1.99699998e+00 1.98800004e+00 1.98199999e+00
    1.98199999e+00 1.98199999e+00 1.98199999e+00 1.98199999e+00
    1.70400000e+00 1.68400002e+00 1.68400002e+00 1.68400002e+00
    1.67799997e+00 1.66299999e+00 1.47800004e+00 1.22000003e+00
    1.22300005e+00 1.22500002e+00 1.22500002e+00 1.22500002e+00
    1.22500002e+00 1.22500002e+00 1.21599996e+00 1.20799994e+00
    1.20799994e+00 1.20799994e+00 1.20799994e+00 1.20599997e+00
    1.20299995e+00 1.19599998e+00 1.18799996e+00 1.18400002e+00
    1.18299997e+00 2.03200006e+00 2.01999998e+00 2.01300001e+00
    2.01200008e+00 2.02999997e+00 2.01500010e+00 2. 2. 2. 1.99199998e+00
    1.98199999e+00 1.98199999e+00 1.99100006e+00 1.98500001e+00
    1.98199999e+00 1.98199999e+00 1.98199999e+00 1.98199999e+00
    1.98199999e+00 1.98099995e+00 1.97300005e+00 1.86300004e+00
    1.72200000e+00 1.44099998e+00 1.23399997e+00 1.60300004e+00
    1.32700002e+00 1.22899997e+00 1.22800004e+00 1.22000003e+00
    1.21700001e+00 1.21599996e+00 1.21099997e+00 1.21099997e+00
    1.20700002e+00 1.20299995e+00 1.19799995e+00 1.19299996e+00
    1.19200003e+00 1.19200003e+00 2.03699994e+00 2.03299999e+00
    2.03200006e+00 2.03200006e+00 2.03699994e+00 2.02999997e+00
    2.01399994e+00 2.01399994e+00 2.00799990e+00 1.99800003e+00
    1.98800004e+00 1.98199999e+00 1.99500000e+00 1.98599994e+00
    1.98199999e+00 1.98199999e+00 1.98199999e+00 1.98199999e+00
    1.98199999e+00 1.98199999e+00 1.98099995e+00 1.97200000e+00
    1.96500003e+00 1.86099994e+00 1.79400003e+00 1.93299997e+00
    1.83200002e+00 1.79600000e+00 1.25000000e+00 1.22599995e+00
    1.22599995e+00 1.22399998e+00 1.21800005e+00 1.21800005e+00
    1.21399999e+00 1.20599997e+00 1.20200002e+00 1.20099998e+00
    1.20099998e+00 1.19599998e+00 2.03699994e+00 2.03699994e+00
    2.03699994e+00 2.03699994e+00 2.03699994e+00 2.03699994e+00
    2.02999997e+00 2.01799989e+00 2.01699996e+00 2.00799990e+00
    1.99800003e+00 1.99699998e+00 1.98899996e+00 1.98300004e+00
    1.98199999e+00 1.98199999e+00 1.98199999e+00 1.98199999e+00
    1.98199999e+00 1.98199999e+00 1.98199999e+00 1.98099995e+00
    1.97899997e+00 1.97899997e+00 1.98099995e+00 1.98199999e+00
    1.98199999e+00 1.98199999e+00 1.26499999e+00 1.23500001e+00
    1.22800004e+00 1.22599995e+00 1.22000003e+00 1.22000003e+00
    1.21599996e+00 1.21000004e+00 1.21000004e+00 1.20500004e+00
    1.20299995e+00 1.20200002e+00 2.01999998e+00 2.01999998e+00
    2.01999998e+00 2.01999998e+00 2.03699994e+00 2.03699994e+00
    2.03699994e+00 2.03500009e+00 2.03500009e+00 2.02600002e+00
    2.01600003e+00 2.00600004e+00 1.98699999e+00 1.98199999e+00
    1.98199999e+00 1.98199999e+00 1.98199999e+00 1.98199999e+00
    1.98199999e+00 1.98199999e+00 1.98199999e+00 1.98199999e+00
    1.98199999e+00 1.98199999e+00 1.98199999e+00 1.98199999e+00
    1.98199999e+00 1.98199999e+00 1.91900003e+00 1.91600001e+00
    1.91299999e+00 1.89999998e+00 1.70700002e+00 1.23500001e+00
    1.23500001e+00 1.23000002e+00 1.22200000e+00 1.21300006e+00
    1.21000004e+00 1.20400000e+00 2.01799989e+00 2.01799989e+00
    2.01799989e+00 2.01799989e+00 2.03699994e+00 2.03699994e+00
    2.03699994e+00 2.03699994e+00 2.03699994e+00 2.02800012e+00
    2.01799989e+00 2.00699997e+00 1.98699999e+00 1.98199999e+00
    1.98199999e+00 1.98199999e+00 1.98199999e+00 1.99800003e+00
    1.98199999e+00 1.98199999e+00 1.98199999e+00 1.98199999e+00
    1.98199999e+00 1.98199999e+00 1.98199999e+00 1.98199999e+00
    1.98199999e+00 1.98199999e+00 1.98199999e+00 1.98199999e+00
    1.98199999e+00 1.98199999e+00 1.98000002e+00 1.97500002e+00
    1.64400005e+00 1.23699999e+00 1.23699999e+00 1.23099995e+00
    1.22200000e+00 1.21200001e+00 2.01399994e+00 2.01900005e+00
    2.01900005e+00 2.01799989e+00 2.03600001e+00 2.03699994e+00
    2.03699994e+00 2.03699994e+00 2.03699994e+00 2.02900004e+00
    2.01900005e+00 2.00799990e+00 2.00099993e+00 2.00099993e+00
    2.00099993e+00 2.00099993e+00 2.00099993e+00 1.99899995e+00
    1.98300004e+00 1.98300004e+00 1.98199999e+00 1.98199999e+00
    1.98199999e+00 1.98199999e+00 1.98199999e+00 1.98199999e+00
    1.99699998e+00 2. 2. 2. 2. 2. 2. 1.99300003e+00 1.98199999e+00
    1.98199999e+00 1.98199999e+00 1.98199999e+00 1.45200002e+00
    1.27600002e+00 1.82299995e+00 1.84000003e+00 1.84300005e+00
    2.01600003e+00 2.01900005e+00 2.03699994e+00 2.03699994e+00
    2.03800011e+00 2.03900003e+00 2.03699994e+00 2.03699994e+00
    2.02500010e+00 2.01799989e+00 2.01799989e+00 2.01799989e+00
    2.01799989e+00 2.01799989e+00 2.01600003e+00 2.00200009e+00
    1.99500000e+00 1.98199999e+00 1.98199999e+00 1.98199999e+00
    1.98199999e+00 1.98199999e+00 1.98199999e+00 1.99699998e+00 2. 2. 2.
    2. 2. 2. 1.99399996e+00 1.98300004e+00 1.98199999e+00 1.98199999e+00
    1.98199999e+00 1.98199999e+00 1.98199999e+00 0. 0. 0. 1.71599996e+00
    1.74699998e+00 2.03699994e+00 2.03699994e+00 2.04299998e+00
    2.04999995e+00 2.03900003e+00 2.03699994e+00 2.02500010e+00
    2.01799989e+00 2.01799989e+00 2.02200007e+00 2.02200007e+00
    2.01799989e+00 2.01799989e+00 2.01500010e+00 1.99600005e+00
    1.98599994e+00 1.98599994e+00 1.98599994e+00 1.98599994e+00
    1.98599994e+00 1.98599994e+00 1.99699998e+00 2. 2. 2. 2. 2. 2. 2.
    1.99199998e+00 1.98199999e+00 1.98199999e+00 1.98199999e+00
    1.98199999e+00 1.98199999e+00 0. 0. 0. 0. 0. 1.62899995e+00
    1.72200000e+00 2.04299998e+00 2.05599999e+00 2.04999995e+00
    2.03999996e+00 2.02900004e+00 2.02399993e+00 2.02399993e+00
    2.02999997e+00 2.03099990e+00 2.01799989e+00 2.01799989e+00
    2.01600003e+00 2.00600004e+00 2.00399995e+00 2. 2. 2. 2. 2.
    2.00500011e+00 2.00600004e+00 2. 2. 2. 2. 2. 2. 1.99399996e+00
    1.98500001e+00 1.98199999e+00 1.98199999e+00 1.98199999e+00
    1.98199999e+00 0. 0. 0. 0. 0. 0. 0. 1.52199996e+00 1.52100003e+00
    1.77100003e+00 2.04600000e+00 2.03699994e+00 2.03699994e+00
    2.03699994e+00 2.02099991e+00 2.01799989e+00 2.02500010e+00
    2.01799989e+00 2.01900005e+00 2.02300000e+00 2.01399994e+00
    2.00399995e+00 2. 2. 2. 2.00500011e+00 2.01600003e+00 2.01799989e+00
    2.00699997e+00 2. 2. 2. 2. 2. 2. 1.99100006e+00 1.98199999e+00
    1.98199999e+00 1.98199999e+00 1.98199999e+00 0. 0. 0. 0. 0. 0. 0. 0.
    0. 1.01900005e+00 1.40699995e+00 1.40300000e+00 1.85000002e+00
    2.03699994e+00 2.02800012e+00 2.02699995e+00 2.03699994e+00
    2.01799989e+00 2.02099991e+00 2.03200006e+00 2.01799989e+00
    2.01399994e+00 2.00799990e+00 2.00799990e+00 2.00799990e+00
    2.01500010e+00 2.01799989e+00 2.01799989e+00 2.01799989e+00 2.
    2.00099993e+00 2.00799990e+00 2.00600004e+00 2. 2. 1.99500000e+00
    1.98500001e+00 1.98199999e+00 1.98800004e+00 1.99000001e+00
    1.47200000e+00 0. 0. 0. 0. 0. 0. 0. 0. 0. 0. 0. 1.11000001e+00
    1.28199995e+00 1.93299997e+00 2.03699994e+00 2.03699994e+00
    2.01799989e+00 2.01999998e+00 2.02699995e+00 2.02800012e+00
    2.02399993e+00 2.01799989e+00 2.01799989e+00 2.01799989e+00
    2.01799989e+00 2.01799989e+00 2.01799989e+00 2.01799989e+00
    2.00999999e+00 2.01099992e+00 2.01799989e+00 2.01300001e+00 2. 2. 2.
    1.99500000e+00 1.99199998e+00 1.99800003e+00 2. 2.08999991e+00
    1.66799998e+00 0. 0. 0. 0. 0. 0. 0. 0. 0. 0. 0. 0. 1.09599996e+00
    1.16400003e+00 1.16400003e+00 1.24399996e+00 2.01799989e+00
    2.01999998e+00 2.02900004e+00 2.03399992e+00 2.02999997e+00
    2.02300000e+00 2.01799989e+00 2.01799989e+00 2.02800012e+00
    2.01900005e+00 2.01799989e+00 2.01799989e+00 2.01799989e+00
    2.01799989e+00 2.01300001e+00 2. 2. 2. 2. 2. 2. 2. 2.10700011e+00
    2.10700011e+00 1.73800004e+00 1.69799995e+00 0. 0. 0. 0. 0. 0. 0. 0.
    0. 0. 0. 0. 0. 0. 1.03499997e+00 1.03299999e+00 1.37300003e+00
    2.03699994e+00 2.03699994e+00 2.02600002e+00 2.01799989e+00
    2.01799989e+00 2.03299999e+00 2.01999998e+00 2.01799989e+00
    2.01799989e+00 2.01799989e+00 2.01500010e+00 2.00399995e+00 2. 2. 2.
    2. 2. 2. 2. 2.11299992e+00 2.11299992e+00 2.11299992e+00
    2.11299992e+00 1.73000002e+00 0. 0. 0. 0. 0. 0. 0. 0. 0. 0. 0. 0. 0.
    0. 0. 0. 0. 1.47500002e+00 2.03500009e+00 2.03299999e+00
    2.03299999e+00 2.03600001e+00 2.03299999e+00 2.03299999e+00
    2.03200006e+00 2.01799989e+00 2.01399994e+00 2. 2. 2.00600004e+00
    2.00699997e+00 2. 2. 2. 2. 2.11299992e+00 2.11299992e+00
    2.11299992e+00 2.11299992e+00 2.09800005e+00 1.90300000e+00
    1.90199995e+00 1.89100003e+00 1.86699998e+00 1.86600006e+00
    1.20299995e+00 0. 0. 0. 0. 0. 0. 0. 0. 0. 0. 0. 0. 0. 0. 0.
    1.81799996e+00 2.05299997e+00 2.05299997e+00 2.05200005e+00
    2.03200006e+00 2.01699996e+00 2.01600003e+00 2.01600003e+00
    2.01699996e+00 2.00900006e+00 2. 2. 1.98800004e+00 1.98399997e+00
    2.11299992e+00 2.11299992e+00 2.11299992e+00 2.11299992e+00
    2.11199999e+00 2.09400010e+00 2.09400010e+00 2.08200002e+00
    2.05599999e+00 2.07299995e+00 2.04699993e+00 2.01099992e+00
    1.04600000e+00 0. 0. 0. 0. 0. 0. 0. 0. 0. 0. 0. 0. 0. 0. 0.
    2.01799989e+00 2.05500007e+00 2.03500009e+00 2.01799989e+00
    2.01799989e+00 2.01799989e+00 2.00999999e+00 2. 2. 2. 1.98599994e+00
    1.98199999e+00 2.11299992e+00 2.11299992e+00 2.13100004e+00
    2.11400008e+00 2.11299992e+00 2.10999990e+00 2.09400010e+00
    2.08899999e+00 2.07599998e+00 2.08400011e+00 2.09400010e+00
    2.09400010e+00 2.09400010e+00 2.09400010e+00 2.09400010e+00 0. 0. 0.
    0. 0. 0. 0. 0. 0. 0. 0. 0. 0. 0. 2.00500011e+00 2.00500011e+00
    2.00500011e+00 2.01399994e+00 2.03699994e+00 2.01999998e+00 2. 2.
    1.98800004e+00 1.98199999e+00 1.98199999e+00 2.12899995e+00
    2.13299990e+00 2.13299990e+00 2.13100004e+00 2.11299992e+00
    2.11299992e+00 2.11299992e+00 2.11299992e+00 2.10599995e+00
    2.09400010e+00 2.09400010e+00 2.09400010e+00 2.09400010e+00
    2.09400010e+00 2.09400010e+00 2.09400010e+00 2.02800012e+00 0. 0. 0.
    0. 0. 0. 0. 0. 0. 0. 0. 0. 0. 0. 0. 0. 1.88600004e+00 1.87100005e+00
    1.92999995e+00 2. 1.98599994e+00 1.98000002e+00 1.98000002e+00
    2.13299990e+00 2.13299990e+00 2.13299990e+00 2.11299992e+00
    2.11299992e+00 2.11299992e+00 2.11299992e+00 2.11299992e+00
    2.10599995e+00 2.09400010e+00 2.09400010e+00 2.09400010e+00
    2.09400010e+00 2.09400010e+00 2.09400010e+00 2.09400010e+00
    2.05599999e+00 2.05699992e+00 1.85200000e+00 0. 0. 0. 0. 0. 0. 0. 0.
    0. 0. 0. 0. 0. 0. 0. 0. 1.17100000e+00 1.89300001e+00 1.97399998e+00
    1.96500003e+00 1.96500003e+00 2.13299990e+00 2.13299990e+00
    2.13299990e+00 2.11299992e+00 2.11299992e+00 2.11299992e+00
    2.11299992e+00 2.11299992e+00 2.10800004e+00 2.09899998e+00
    2.09599996e+00 2.09400010e+00 2.09400010e+00 2.09400010e+00
    2.09400010e+00 2.09400010e+00 2.06100011e+00 2.06599998e+00
    2.10800004e+00 2.10800004e+00 1.72899997e+00 0. 0. 0. 0. 0. 0. 0. 0.
    0. 0. 0. 0. 0. 0. 0. 1.17400002e+00 1.58899999e+00 1.58899999e+00
    1.90999997e+00 2.13299990e+00 2.13299990e+00 2.12700009e+00
    2.11299992e+00 2.11299992e+00 2.11299992e+00 2.11299992e+00
    2.11299992e+00 2.11299992e+00 2.11299992e+00 2.10599995e+00
    2.09999990e+00 2.09599996e+00 2.09400010e+00 2.09400010e+00
    2.09400010e+00 2.07500005e+00 2.07699990e+00 2.09400010e+00
    2.09400010e+00 2.09200001e+00 2.08200002e+00 1.58399999e+00
    1.08599997e+00 0. 0. 0. 0. 0. 0. 0. 0. 0. 0. 0. 0. 0. 0. 0.
    1.33299994e+00 2.13299990e+00 2.13299990e+00 2.11500001e+00
    2.11299992e+00 2.11299992e+00 2.11299992e+00 2.11299992e+00
    2.11299992e+00 2.11299992e+00 2.11299992e+00 2.11299992e+00
    2.11299992e+00 2.10500002e+00 2.10200000e+00 2.10200000e+00
    2.09400010e+00 2.08299994e+00 2.08400011e+00 2.09400010e+00
    2.09400010e+00 2.08800006e+00 2.07500005e+00 2.06599998e+00
    2.05599999e+00 1.48800004e+00 0. 0. 0. 0. 0. 0. 0. 0. 0. 0. 0. 0. 0.
    0. 0. 2.13299990e+00 2.13299990e+00 2.11500001e+00 2.11299992e+00
    2.11299992e+00 2.11299992e+00 2.11299992e+00 2.11299992e+00
    2.11299992e+00 2.11299992e+00 2.11299992e+00 2.11299992e+00
    2.11299992e+00 2.11299992e+00 2.11299992e+00 2.09500003e+00
    2.09400010e+00 2.09400010e+00 2.09400010e+00 2.09400010e+00
    2.08800006e+00 2.07500005e+00 2.06599998e+00 2.05599999e+00
    2.04399991e+00 0. 0. 0. 0. 0. 0. 0. 0. 0. 0. 0. 0. 0. 0. 0. 0. 0. 0.
    0. 0. 0. 0. 0. 0. 0. 0. 0. 0. 0. 0. 0. 0. 0. 0. 0. 0. 0. 0. 0. 0. 0.
    0. 0. 0. 0. 0. 0. 0. 0. 0. 0. 0. 0. 0. 0. 0. 0. 0. 0. 0. 0. 0. 0. 0.
    0. 0. 0. 0. 0. 0. 0. 0. 0. 0. 0. 0. 0. 0. 0. 0. 0. 0. 0. 0. 0. 0. 0.
    0. 0. 0. 0. 0. 0. 0. 0. 0. 0. 0. 0. 0. 0. 0. 0. 0. 0. 0. 0. 0. 0. 0.
    0. 0. 0. 0. 0. 0. 0. 0. 0. 0. 0. 0. 0. 0. 0. 0. 0. 0. 0. 0. 0. 0. 0.
    0. 0. 0. 0. 0. 0. 0. 0. 0. 0. 0. 0. 0. 0. 0. 0. 0. 0. 0. 0. 0. 0. 0.
    0. 0. 0. 0. 0. 0. 0. 0. 0. 0. 0. 0. 0. 0. 0. 0. 0. 0. 0.</data></Depth>
</opencv_storage>
