<?xml version="1.0"?>
<opencv_storage>
<Depth type_id="opencv-matrix">
  <rows>40</rows>
  <cols>40</cols>
  <dt>f</dt>
  <data>
    0. 0. 0. 0. 0. 0. 0. 0. 0. 2.01099992e+00 2.02300000e+00
    2.01799989e+00 0. 0. 0. 0. 0. 0. 0. 0. 0. 0. 0. 2.64499998e+00
    2.65700006e+00 1.98000002e+00 2.69400001e+00 2.66400003e+00
    2.65400004e+00 2.65100002e+00 0. 1.94099998e+00 1.94099998e+00 0. 0.
    0. 0. 0. 0. 0. 0. 0. 0. 0. 0. 0. 0. 0. 2.73099995e+00 2.00900006e+00
    2.01300001e+00 2. 2. 1.99800003e+00 1.99800003e+00 1.99899995e+00
    1.99600005e+00 1.99600005e+00 1.99399996e+00 1.99100006e+00
    1.99100006e+00 1.98699999e+00 1.98300004e+00 1.98399997e+00
    1.98199999e+00 1.98199999e+00 1.98000002e+00 1.97899997e+00
    1.98000002e+00 1.97700000e+00 1.37800002e+00 0. 0. 0. 0. 0. 0. 0. 0.
    0. 0. 0. 0. 0. 0. 0. 0. 0. 2.78500009e+00 2.00900006e+00
    2.00900006e+00 2.00399995e+00 2. 2. 2. 2. 1.99600005e+00
    1.99600005e+00 1.99600005e+00 1.99600005e+00 1.99199998e+00
    1.98699999e+00 1.98699999e+00 1.98699999e+00 1.98500001e+00
    1.98300004e+00 1.97899997e+00 1.97800004e+00 1.97800004e+00
    1.97800004e+00 1.97800004e+00 0. 0. 0. 0. 0. 0. 0. 0. 0. 0. 0. 0. 0.
    0. 0. 0. 1.54400003e+00 2.01099992e+00 2.00900006e+00 2.00900006e+00
    2.00500011e+00 2. 2. 2.00399995e+00 2. 1.99600005e+00 1.99600005e+00
    1.99600005e+00 1.99100006e+00 1.99100006e+00 1.98800004e+00
    1.98699999e+00 1.98699999e+00 1.98699999e+00 1.98300004e+00
    1.98300004e+00 1.97800004e+00 1.97800004e+00 1.97800004e+00
    1.97800004e+00 0. 0. 0. 0. 0. 0. 0. 0. 0. 0. 0. 0. 0. 0. 0. 0.
    2.01900005e+00 2.01399994e+00 2.00900006e+00 2.00900006e+00
    2.00500011e+00 2. 2. 2. 2. 1.99699998e+00 1.99600005e+00
    1.99600005e+00 1.99100006e+00 1.99100006e+00 1.99100006e+00
    1.98699999e+00 1.98699999e+00 1.98599994e+00 1.98300004e+00
    1.98300004e+00 1.97800004e+00 1.97800004e+00 1.97800004e+00
    1.97700000e+00 0. 0. 0. 0. 0. 0. 0. 0. 0. 0. 0. 0. 0. 0. 0. 0.
    2.51600003e+00 2.01399994e+00 2.00900006e+00 2.00900006e+00
    2.00799990e+00 2.00500011e+00 2. 2. 2. 2. 2. 1.99600005e+00
    1.99300003e+00 1.99500000e+00 1.99600005e+00 1.99100006e+00
    1.98599994e+00 1.98300004e+00 1.98300004e+00 1.98300004e+00
    1.98000002e+00 1.97800004e+00 1.97800004e+00 1.97599995e+00 0. 0. 0.
    0. 0. 0. 0. 0. 0. 0. 0. 0. 0. 0. 0. 0. 1.81099999e+00 2.01399994e+00
    2.00900006e+00 2.00900006e+00 2.00799990e+00 2.00200009e+00 2.
    2.00399995e+00 2. 2. 2. 1.99600005e+00 1.99600005e+00 1.99600005e+00
    1.99100006e+00 1.98699999e+00 1.98599994e+00 1.98300004e+00
    1.98300004e+00 1.98300004e+00 1.98000002e+00 1.97800004e+00
    1.97800004e+00 1.97800004e+00 0. 0. 0. 0. 0. 0. 0. 0. 0. 0. 0. 0. 0.
    0. 0. 0. 2.01999998e+00 2.01399994e+00 2.00900006e+00 2.00600004e+00
    2.00500011e+00 2.00200009e+00 1.99800003e+00 2. 2. 2. 1.99600005e+00
    1.99600005e+00 1.99600005e+00 1.99600005e+00 1.99100006e+00
    1.98699999e+00 1.98699999e+00 1.98699999e+00 1.98300004e+00
    1.98300004e+00 1.97800004e+00 1.97800004e+00 1.97800004e+00
    1.98099995e+00 1.17499995e+00 0. 0. 0. 0. 0. 0. 0. 0. 0. 0. 0. 0. 0.
    0. 0. 2.02500010e+00 2.01600003e+00 2.00900006e+00 2.00900006e+00
    2.00900006e+00 2.00300002e+00 2. 2.00399995e+00 2. 2. 2.
    1.99600005e+00 1.99600005e+00 1.99600005e+00 1.99100006e+00
    1.98699999e+00 1.98699999e+00 1.98500001e+00 1.98300004e+00
    1.98300004e+00 1.97800004e+00 1.97800004e+00 1.97800004e+00
    1.98000002e+00 1.93799996e+00 0. 0. 0. 0. 0. 0. 0. 0. 0. 0. 0. 0. 0.
    0. 0. 2.00999999e+00 2.01300001e+00 2.00999999e+00 2.00900006e+00
    2.00799990e+00 2.00500011e+00 2.00500011e+00 2.00799990e+00 2. 2. 2.
    2. 1.99600005e+00 1.99600005e+00 1.99199998e+00 1.99100006e+00
    1.98699999e+00 1.98300004e+00 1.98300004e+00 1.98300004e+00
    1.98300004e+00 1.97899997e+00 1.98300004e+00 1.98300004e+00
    1.97899997e+00 0. 0. 0. 0. 0. 0. 0. 0. 0. 0. 0. 0. 0. 0. 0.
    1.49500000e+00 2.00999999e+00 2.01399994e+00 2.00999999e+00
    2.00900006e+00 2.00500011e+00 2.00099993e+00 2.00399995e+00
    2.00500011e+00 2.00399995e+00 2. 2. 1.99800003e+00 1.99600005e+00
    1.99500000e+00 1.99199998e+00 1.99100006e+00 1.98599994e+00
    1.98300004e+00 1.98300004e+00 1.98300004e+00 1.98300004e+00
    1.98199999e+00 1.98300004e+00 1.97800004e+00 0. 0. 0. 0. 0. 0. 0. 0.
    0. 0. 0. 0. 0. 0. 0. 0. 1.70599997e+00 2.01399994e+00 2.01399994e+00
    2.00900006e+00 2.00500011e+00 2.00099993e+00 2.00600004e+00
    2.00500011e+00 2.00200009e+00 2. 2. 1.99600005e+00 1.99600005e+00
    1.99100006e+00 1.99600005e+00 1.99500000e+00 1.98800004e+00
    1.98699999e+00 1.98699999e+00 1.98300004e+00 1.98199999e+00
    1.97800004e+00 1.97800004e+00 1.96700001e+00 0. 0. 0. 0. 0. 0. 0. 0.
    0. 0. 0. 0. 0. 0. 0. 0. 1.70799994e+00 2.01399994e+00 2.01399994e+00
    2.00900006e+00 2.00900006e+00 2.00399995e+00 2.00500011e+00
    2.00500011e+00 2. 2. 2. 1.99600005e+00 1.99600005e+00 1.99600005e+00
    1.99600005e+00 1.99399996e+00 1.98899996e+00 1.98500001e+00
    1.98500001e+00 1.98300004e+00 1.98300004e+00 1.98300004e+00
    1.98300004e+00 1.97800004e+00 0. 0. 0. 0. 0. 0. 0. 0. 0. 0. 0. 0. 0.
    0. 0. 0. 1.70799994e+00 2.01399994e+00 2.01399994e+00 2.00900006e+00
    2.00900006e+00 2.00600004e+00 2.00699997e+00 2.00500011e+00 2. 2. 2.
    1.99800003e+00 1.99600005e+00 1.99600005e+00 1.99199998e+00
    1.99600005e+00 1.99100006e+00 1.98599994e+00 1.98300004e+00
    1.98300004e+00 1.98300004e+00 1.98300004e+00 1.98300004e+00
    1.98199999e+00 0. 0. 0. 0. 0. 0. 0. 0. 0. 0. 0. 0. 0. 0. 0. 0.
    1.70400000e+00 2.01399994e+00 2.01399994e+00 2.00900006e+00
    2.00900006e+00 2.00699997e+00 2.00799990e+00 2.00500011e+00 2. 2. 2.
    2. 2. 1.99600005e+00 1.99100006e+00 1.99600005e+00 1.99100006e+00
    1.98699999e+00 1.98300004e+00 1.98699999e+00 1.98699999e+00
    1.98599994e+00 1.98300004e+00 1.98000002e+00 0. 0. 0. 0. 0. 0. 0. 0.
    0. 0. 0. 0. 0. 0. 0. 0. 1.70700002e+00 2.00900006e+00 2.00900006e+00
    2.00900006e+00 2.00900006e+00 2.00900006e+00 2.00900006e+00
    2.00500011e+00 2. 2. 2. 2. 1.99600005e+00 1.99600005e+00
    1.99100006e+00 1.99399996e+00 1.98899996e+00 1.98699999e+00
    1.98699999e+00 1.98699999e+00 1.98300004e+00 1.98300004e+00
    1.98300004e+00 1.98300004e+00 0. 0. 0. 0. 0. 0. 0. 0. 0. 0. 0. 0. 0.
    0. 0. 0. 1.79900002e+00 2.01099992e+00 2.01099992e+00 2.00900006e+00
    2.00900006e+00 2.00699997e+00 2.00900006e+00 2.00500011e+00 2. 2. 2.
    2. 1.99600005e+00 1.99600005e+00 1.99600005e+00 1.99399996e+00
    1.98899996e+00 1.98699999e+00 1.98699999e+00 1.98699999e+00
    1.98300004e+00 1.98300004e+00 1.98300004e+00 1.98099995e+00
    1.97800004e+00 0. 0. 0. 0. 0. 0. 0. 0. 0. 0. 0. 0. 0. 0. 0.
    1.87100005e+00 2.01399994e+00 2.01399994e+00 2.01099992e+00
    2.00900006e+00 2.00799990e+00 2.00900006e+00 2.00500011e+00 2. 2. 2.
    2. 1.99800003e+00 1.99600005e+00 1.99600005e+00 1.99600005e+00
    1.99399996e+00 1.98899996e+00 1.98699999e+00 1.98300004e+00
    1.98300004e+00 1.98300004e+00 1.98300004e+00 1.98000002e+00
    1.97800004e+00 0. 0. 0. 0. 0. 0. 0. 0. 0. 0. 0. 0. 0. 0. 0.
    1.90499997e+00 2.01399994e+00 2.00900006e+00 2.00900006e+00
    2.00900006e+00 2.00600004e+00 2.00699997e+00 2.00500011e+00 2. 2. 2.
    2. 1.99699998e+00 1.99600005e+00 1.99300003e+00 1.99600005e+00
    1.99600005e+00 1.99199998e+00 1.99100006e+00 1.98699999e+00
    1.98500001e+00 1.98300004e+00 1.98300004e+00 1.98000002e+00
    1.97800004e+00 0. 0. 0. 0. 0. 0. 0. 0. 0. 0. 0. 0. 0. 0. 0.
    2.01399994e+00 2.00900006e+00 2.00900006e+00 2.00900006e+00
    2.00900006e+00 2.00799990e+00 2.00900006e+00 2.00500011e+00
    2.00399995e+00 2. 2. 2. 1.99699998e+00 1.99100006e+00 1.99500000e+00
    1.99600005e+00 1.99399996e+00 1.99100006e+00 1.99100006e+00
    1.98699999e+00 1.98699999e+00 1.98699999e+00 1.98300004e+00
    1.98300004e+00 1.98300004e+00 0. 0. 0. 0. 0. 0. 0. 0. 0. 0. 0. 0. 0.
    0. 0. 2.01500010e+00 2.01399994e+00 2.00900006e+00 2.01300001e+00
    2.00900006e+00 2.00900006e+00 2.00900006e+00 2.00900006e+00
    2.00500011e+00 2.00900006e+00 2.00300002e+00 2. 2. 1.99600005e+00
    1.99600005e+00 1.99600005e+00 1.99399996e+00 1.98800004e+00
    1.98699999e+00 1.98699999e+00 1.98699999e+00 1.98300004e+00
    1.98300004e+00 1.98000002e+00 1.97800004e+00 0. 0. 0. 0. 0. 0. 0. 0.
    0. 0. 0. 0. 0. 0. 0. 2.01699996e+00 2.01399994e+00 2.00900006e+00
    2.00900006e+00 2.00900006e+00 2.00500011e+00 2.00900006e+00
    2.00900006e+00 2.00500011e+00 2.00500011e+00 2.00300002e+00 2. 2.
    1.99600005e+00 1.99600005e+00 1.99600005e+00 1.99399996e+00
    1.99100006e+00 1.99100006e+00 1.98800004e+00 1.98699999e+00
    1.98699999e+00 1.98500001e+00 1.98000002e+00 1.97800004e+00 0. 0. 0.
    0. 0. 0. 0. 0. 0. 0. 0. 0. 0. 0. 0. 2.01799989e+00 2.01399994e+00
    2.00900006e+00 2.00900006e+00 2.00900006e+00 2.00900006e+00
    2.00900006e+00 2.00900006e+00 2.00600004e+00 2.00500011e+00
    2.00300002e+00 2. 2. 1.99600005e+00 1.99600005e+00 1.99600005e+00
    1.99600005e+00 1.99600005e+00 1.99500000e+00 1.99100006e+00
    1.98699999e+00 1.98300004e+00 1.98300004e+00 1.98300004e+00
    1.98699999e+00 0. 0. 0. 0. 0. 0. 0. 0. 0. 0. 0. 0. 0. 0. 0.
    1.86399996e+00 2.01399994e+00 2.01399994e+00 2.00900006e+00
    2.00900006e+00 2.00900006e+00 2.00900006e+00 2.00900006e+00
    2.00900006e+00 2.00500011e+00 2.00399995e+00 2. 2. 1.99600005e+00
    1.99600005e+00 1.99600005e+00 1.99600005e+00 1.99600005e+00
    1.99199998e+00 1.99100006e+00 1.98699999e+00 1.98300004e+00
    1.98300004e+00 1.98599994e+00 1.98300004e+00 0. 0. 0. 0. 0. 0. 0. 0.
    0. 0. 0. 0. 0. 0. 0. 1.70400000e+00 2.01399994e+00 2.01399994e+00
    2.01300001e+00 2.00900006e+00 2.00900006e+00 2.01300001e+00
    2.00900006e+00 2.00500011e+00 2.00500011e+00 2.00500011e+00 2. 2.
    1.99600005e+00 1.99899995e+00 1.99899995e+00 1.99600005e+00
    1.99600005e+00 1.99199998e+00 1.99100006e+00 1.98699999e+00
    1.98699999e+00 1.98699999e+00 1.98699999e+00 1.98399997e+00 0. 0. 0.
    0. 0. 0. 0. 0. 0. 0. 0. 0. 0. 0. 0. 1.96300006e+00 2.01399994e+00
    2.01399994e+00 2.00900006e+00 2.00900006e+00 2.00900006e+00
    2.00900006e+00 2.00900006e+00 2.00900006e+00 2.00500011e+00
    2.00699997e+00 2.00399995e+00 2. 1.99899995e+00 2. 2. 1.99600005e+00
    1.99600005e+00 1.99600005e+00 1.99500000e+00 1.99000001e+00
    1.98699999e+00 1.98699999e+00 1.98699999e+00 1.98699999e+00 0. 0. 0.
    0. 0. 0. 0. 0. 0. 0. 0. 0. 0. 0. 0. 2.01399994e+00 2.01399994e+00
    2.01399994e+00 2.00900006e+00 2.00900006e+00 2.00900006e+00
    2.00900006e+00 2.00900006e+00 2.00900006e+00 2.00900006e+00
    2.00699997e+00 2.00500011e+00 2. 1.99600005e+00 1.99600005e+00
    1.99600005e+00 1.99600005e+00 1.99600005e+00 1.99100006e+00
    1.99600005e+00 1.99000001e+00 1.98699999e+00 1.98699999e+00
    1.98399997e+00 1.98300004e+00 0. 0. 0. 0. 0. 0. 0. 0. 0. 0. 0. 0. 0.
    0. 0. 2.01500010e+00 2.01399994e+00 2.01399994e+00 2.00900006e+00
    2.00900006e+00 2.00900006e+00 2.01300001e+00 2.00900006e+00
    2.00900006e+00 2.00799990e+00 2.00500011e+00 2.00399995e+00 2.
    1.99600005e+00 1.99600005e+00 1.99600005e+00 1.99600005e+00
    1.99600005e+00 1.99600005e+00 1.99600005e+00 1.99100006e+00
    1.98699999e+00 1.98699999e+00 1.98500001e+00 1.98000002e+00 0. 0. 0.
    0. 0. 0. 0. 0. 0. 0. 0. 0. 0. 0. 0. 1.91400003e+00 2.01399994e+00
    2.01399994e+00 2.00900006e+00 2.00900006e+00 2.00900006e+00
    2.01300001e+00 2.00900006e+00 2.00500011e+00 2.00799990e+00
    2.00399995e+00 2. 2. 1.99699998e+00 1.99600005e+00 1.99600005e+00
    1.99699998e+00 1.99600005e+00 1.99600005e+00 1.99600005e+00
    1.99100006e+00 1.99000001e+00 1.98699999e+00 1.98699999e+00
    1.98699999e+00 0. 0. 0. 0. 0. 0. 0. 0. 0. 0. 0. 0. 0. 0. 0.
    1.71099997e+00 2.01399994e+00 2.01399994e+00 2.00900006e+00
    2.00900006e+00 2.00900006e+00 2.01300001e+00 2.00900006e+00
    2.00500011e+00 2.00900006e+00 2.00699997e+00 2.00200009e+00 2.
    1.99600005e+00 1.99600005e+00 1.99899995e+00 1.99699998e+00
    1.99600005e+00 1.99600005e+00 1.99600005e+00 1.99300003e+00
    1.99000001e+00 1.98699999e+00 1.98399997e+00 1.46300006e+00 0. 0. 0.
    0. 0. 0. 0. 0. 0. 0. 0. 0. 0. 0. 0. 1.71099997e+00 2.01900005e+00
    2.01399994e+00 2.01300001e+00 2.00900006e+00 2.00900006e+00
    2.01300001e+00 2.00900006e+00 2.00900006e+00 2.00900006e+00
    2.00900006e+00 2.00300002e+00 2. 2. 1.99699998e+00 2. 1.99600005e+00
    1.99600005e+00 1.99600005e+00 1.99600005e+00 1.99199998e+00
    1.98800004e+00 1.98699999e+00 1.98699999e+00 0. 0. 0. 0. 0. 0. 0. 0.
    0. 0. 0. 0. 0. 0. 0. 0. 1.97599995e+00 2.01399994e+00 2.01399994e+00
    2.01300001e+00 2.00900006e+00 2.00900006e+00 2.01300001e+00
    2.00900006e+00 2.00900006e+00 2.00900006e+00 2.00900006e+00
    2.00399995e+00 2. 2. 1.99899995e+00 2. 1.99600005e+00 1.99600005e+00
    1.99600005e+00 1.99100006e+00 1.99100006e+00 1.98699999e+00
    1.98899996e+00 1.99100006e+00 0. 0. 0. 0. 0. 0. 0. 0. 0. 0. 0. 0. 0.
    0. 0. 0. 1.71800005e+00 2.01399994e+00 2.01399994e+00 2.01300001e+00
    2.00900006e+00 2.00900006e+00 2.00900006e+00 2.00900006e+00
    2.00900006e+00 2.00900006e+00 2.00900006e+00 2.00300002e+00 2. 2. 2.
    2. 1.99600005e+00 1.99600005e+00 1.99600005e+00 1.99600005e+00
    1.99100006e+00 1.98699999e+00 1.98899996e+00 1.99100006e+00 0. 0. 0.
    0. 0. 0. 0. 0. 0. 0. 0. 0. 0. 0. 0. 1.50300002e+00 2.02099991e+00
    2.01399994e+00 2.01399994e+00 2.00900006e+00 2.00900006e+00
    2.00900006e+00 2.00999999e+00 2.00500011e+00 2.00900006e+00
    2.00699997e+00 2.00699997e+00 2. 2. 2. 2. 2. 2. 2. 1.99699998e+00
    1.99600005e+00 1.99600005e+00 1.99199998e+00 1.99100006e+00
    1.99100006e+00 1.16700006e+00 0. 0. 0. 0. 0. 0. 0. 0. 0. 0. 0. 0. 0.
    0. 2.19700003e+00 2.01500010e+00 2.01399994e+00 2.01399994e+00
    2.00900006e+00 2.00900006e+00 2.00900006e+00 2.00999999e+00
    2.00699997e+00 2.00900006e+00 2.00900006e+00 2.00500011e+00 2. 2. 2.
    2. 1.99899995e+00 1.99600005e+00 1.99600005e+00 1.99600005e+00
    1.99600005e+00 1.99600005e+00 1.99100006e+00 1.99100006e+00
    1.99100006e+00 1.99100006e+00 0. 0. 0. 0. 0. 0. 0. 0. 0. 0. 0. 0. 0.
    0. 2.29999995e+00 2.08400011e+00 2.01399994e+00 2.01399994e+00
    2.00900006e+00 2.00900006e+00 2.00900006e+00 2.01399994e+00
    2.01399994e+00 2.01200008e+00 2.01300001e+00 1.99699998e+00
    1.99399996e+00 2.00200009e+00 2. 2. 1.99899995e+00 1.99600005e+00
    1.99600005e+00 1.99600005e+00 1.99600005e+00 1.99600005e+00
    1.99399996e+00 1.99399996e+00 1.98800004e+00 1.98699999e+00 0. 0. 0.
    0. 0. 0. 0. 0. 0. 0. 0. 0. 0. 0. 2.30699992e+00 2.30699992e+00
    2.23099995e+00 2.21900010e+00 2.21799994e+00 2.21300006e+00
    2.29399991e+00 2.29800010e+00 2.20499992e+00 2.18400002e+00
    1.76499999e+00 1.51699996e+00 1.97800004e+00 1.98599994e+00 0.
    2.00999999e+00 2.00500011e+00 1.99899995e+00 1.99899995e+00 0. 0. 0.
    0. 0. 0. 0. 0. 0. 0. 0. 0. 0. 0. 0. 0. 0. 0. 0. 0. 0. 2.31999993e+00
    2.31500006e+00 2.31399989e+00 2.30699992e+00 2.29999995e+00
    2.29999995e+00 2.29299998e+00 2.28800011e+00 2.28099990e+00
    2.27999997e+00 0. 0. 0. 0. 0. 0. 2.02099991e+00 0. 2.18000007e+00 0.
    0. 0. 0. 0. 0. 0. 0. 0. 0. 0. 0. 0. 0. 0. 0. 0. 0. 0. 0. 0.
    2.32399988e+00 2.31500006e+00 2.30800009e+00 2.30599999e+00
    2.29999995e+00 2.29299998e+00 2.29299998e+00 2.28699994e+00
    2.27999997e+00 0. 0. 0. 1.30599999e+00 0. 0. 0. 2.01900005e+00 0. 0.
    0. 0. 0. 0. 0. 0. 0. 0. 0. 0. 0. 0. 0. 0. 0. 0. 0. 0. 0. 0. 0. 0. 0.
    0. 0. 0. 0. 0. 0. 0. 0. 0. 0. 0. 0. 0. 0. 0. 0. 0. 0. 0. 0. 0. 0. 0.
    0. 0. 0. 0. 0. 0. 0. 0.</data></Depth>
</opencv_storage>
