<?xml version="1.0"?>
<opencv_storage>
<Depth type_id="opencv-matrix">
  <rows>40</rows>
  <cols>40</cols>
  <dt>f</dt>
  <data>
    0. 0. 0. 0. 0. 0. 0. 0. 0. 0. 0. 0. 0. 0. 0. 0. 0. 0. 0. 0. 0. 0. 0.
    0. 0. 0. 0. 0. 0. 0. 0. 0. 0. 0. 0. 0. 0. 0. 0. 0. 0. 0. 0. 0. 0. 0.
    0. 0. 0. 0. 0. 0. 0. 0. 0. 0. 0. 0. 0. 0. 0. 0. 0. 0. 0. 0. 0. 0. 0.
    0. 0. 0. 0. 0. 0. 0. 0. 0. 0. 0. 0. 0. 0. 0. 0. 0. 0. 1.04100001e+00
    0. 0. 2.00699997e+00 1.98099995e+00 1.99000001e+00 2.00099993e+00
    2.00200009e+00 1.99699998e+00 1.99300003e+00 1.99699998e+00 0. 0.
    2.33599997e+00 2.00500011e+00 2. 0. 2.32599998e+00 0. 0.
    2.32399988e+00 2.31599998e+00 2.00399995e+00 2.00300002e+00 0. 0. 0.
    0. 0. 0. 0. 0. 0. 0. 0. 0. 0. 0. 0. 0. 1.04100001e+00 1.99600005e+00
    1.99500000e+00 1.99500000e+00 1.99500000e+00 1.99699998e+00
    1.99600005e+00 1.99600005e+00 1.99600005e+00 1.99500000e+00
    1.99199998e+00 1.99300003e+00 1.99199998e+00 1.99600005e+00
    1.99399996e+00 1.99199998e+00 1.99300003e+00 1.99300003e+00
    1.99500000e+00 1.99699998e+00 1.99800003e+00 1.99800003e+00
    1.99899995e+00 1.99800003e+00 1.99699998e+00 0. 0. 0. 0. 0. 0. 0. 0.
    0. 0. 0. 0. 0. 0. 0. 1.04100001e+00 1.99500000e+00 1.99600005e+00
    1.99699998e+00 1.99699998e+00 1.99500000e+00 1.99500000e+00
    1.99500000e+00 1.99199998e+00 1.99199998e+00 1.98899996e+00
    1.99199998e+00 1.99199998e+00 1.99199998e+00 1.98899996e+00
    1.98899996e+00 1.99300003e+00 1.99399996e+00 1.99300003e+00
    1.99600005e+00 1.99699998e+00 1.99699998e+00 1.99600005e+00
    1.99500000e+00 1.99500000e+00 0. 0. 0. 0. 0. 0. 0. 0. 0. 0. 0. 0. 0.
    0. 0. 1.04100001e+00 1.99199998e+00 1.99600005e+00 1.99699998e+00
    1.99699998e+00 1.99600005e+00 1.99699998e+00 1.99500000e+00
    1.99600005e+00 1.99500000e+00 1.99500000e+00 1.99199998e+00
    1.99100006e+00 1.99500000e+00 1.99300003e+00 1.99000001e+00
    1.99399996e+00 1.99399996e+00 1.99500000e+00 1.99699998e+00
    1.99699998e+00 1.99699998e+00 1.99699998e+00 1.99699998e+00
    1.99800003e+00 0. 0. 0. 0. 0. 0. 0. 0. 0. 0. 0. 0. 0. 0. 0.
    1.04100001e+00 1.72800004e+00 1.99699998e+00 1.99699998e+00
    1.99699998e+00 1.99699998e+00 1.99699998e+00 1.99699998e+00
    1.99699998e+00 1.99500000e+00 1.99500000e+00 1.99500000e+00
    1.99399996e+00 1.99199998e+00 1.99199998e+00 1.99199998e+00
    1.99300003e+00 1.99199998e+00 1.99199998e+00 1.99500000e+00
    1.99699998e+00 1.99899995e+00 1.99699998e+00 1.99800003e+00 2. 0. 0.
    0. 0. 0. 0. 0. 0. 0. 0. 0. 0. 0. 0. 0. 1.04100001e+00 1.99199998e+00
    1.99600005e+00 1.99699998e+00 1.99699998e+00 1.99699998e+00
    1.99699998e+00 1.99699998e+00 1.99500000e+00 1.99500000e+00
    1.99500000e+00 1.99500000e+00 1.99600005e+00 1.99500000e+00
    1.99500000e+00 1.99600005e+00 1.99699998e+00 1.99500000e+00
    1.99500000e+00 1.99699998e+00 1.99699998e+00 1.99699998e+00 2.
    1.99699998e+00 2. 0. 0. 0. 0. 0. 0. 0. 0. 0. 0. 0. 0. 0. 0. 0.
    1.04100001e+00 1.79900002e+00 1.99800003e+00 1.99800003e+00
    1.99699998e+00 1.99699998e+00 1.99699998e+00 1.99699998e+00
    1.99699998e+00 1.99699998e+00 1.99600005e+00 1.99500000e+00
    1.99500000e+00 1.99699998e+00 1.99699998e+00 1.99500000e+00
    1.99699998e+00 1.99699998e+00 1.99699998e+00 1.99899995e+00
    1.99699998e+00 2. 2. 2. 1.99699998e+00 0. 0. 0. 0. 0. 0. 0. 0. 0. 0.
    0. 0. 0. 0. 0. 1.04100001e+00 1.70500004e+00 1.99699998e+00
    1.99699998e+00 1.99800003e+00 1.99699998e+00 1.99699998e+00
    1.99699998e+00 1.99699998e+00 1.99699998e+00 1.99699998e+00
    1.99600005e+00 1.99699998e+00 1.99699998e+00 1.99600005e+00
    1.99500000e+00 1.99699998e+00 1.99699998e+00 1.99699998e+00 2. 2. 2.
    2. 2. 1.99600005e+00 0. 0. 0. 0. 0. 0. 0. 0. 0. 0. 0. 0. 0. 0. 0.
    1.04100001e+00 1.78699994e+00 1.99699998e+00 2. 2. 1.99800003e+00
    1.99699998e+00 1.99699998e+00 1.99699998e+00 1.99699998e+00
    1.99699998e+00 1.99699998e+00 1.99699998e+00 1.99699998e+00
    1.99699998e+00 1.99699998e+00 1.99699998e+00 1.99699998e+00
    1.99699998e+00 2. 2. 2. 2. 2. 1.99699998e+00 0. 0. 0. 0. 0. 0. 0. 0.
    0. 0. 0. 0. 0. 0. 0. 1.04100001e+00 2.00099993e+00 1.99800003e+00 2.
    2. 2. 1.99699998e+00 1.99699998e+00 1.99699998e+00 1.99699998e+00
    1.99699998e+00 1.99699998e+00 1.99500000e+00 1.99699998e+00
    1.99699998e+00 1.99699998e+00 1.99699998e+00 1.99800003e+00
    1.99699998e+00 2. 2. 2. 2. 2. 1.99699998e+00 0. 0. 0. 0. 0. 0. 0. 0.
    0. 0. 0. 0. 0. 0. 0. 1.04100001e+00 1.96099997e+00 2. 1.99699998e+00
    2. 2. 1.99699998e+00 1.99699998e+00 1.99899995e+00 1.99699998e+00
    1.99699998e+00 1.99899995e+00 1.99699998e+00 1.99699998e+00
    1.99699998e+00 1.99699998e+00 1.99699998e+00 1.99699998e+00
    1.99699998e+00 2. 2. 2. 2. 2. 2. 0. 0. 0. 0. 0. 0. 0. 0. 0. 0. 0. 0.
    0. 0. 0. 1.04100001e+00 1.99699998e+00 1.99800003e+00 2. 2. 2. 2.
    1.99899995e+00 1.99899995e+00 1.99699998e+00 1.99899995e+00 2. 2.
    1.99899995e+00 1.99699998e+00 1.99699998e+00 2. 1.99699998e+00
    1.99699998e+00 2.00300002e+00 2.00200009e+00 2. 2. 2. 2. 0. 0. 0. 0.
    0. 0. 0. 0. 0. 0. 0. 0. 0. 0. 0. 1.04100001e+00 1.86500001e+00 2. 2.
    2. 2. 2. 2. 2. 1.99699998e+00 2. 2. 2. 1.99899995e+00 1.99699998e+00
    1.99800003e+00 1.99899995e+00 1.99800003e+00 2. 2.00300002e+00
    2.00099993e+00 2. 2. 2. 2. 0. 0. 0. 0. 0. 0. 0. 0. 0. 0. 0. 0. 0. 0.
    0. 1.04100001e+00 1.99899995e+00 2. 2. 2. 2. 2. 2. 2. 1.99800003e+00
    2. 2. 2. 2. 1.99800003e+00 2. 2. 2. 1.99899995e+00 2. 2. 2. 2.
    2.00200009e+00 2. 0. 0. 0. 0. 0. 0. 0. 0. 0. 0. 0. 0. 0. 0. 0.
    1.04100001e+00 2. 2.00200009e+00 2. 2. 2. 2. 2. 2. 2. 2. 2. 2. 2. 2.
    2. 2. 2. 2. 2.00300002e+00 2. 2.00300002e+00 2. 2.00300002e+00
    2.00300002e+00 0. 0. 0. 0. 0. 0. 0. 0. 0. 0. 0. 0. 0. 0. 0.
    1.04100001e+00 2. 2.00300002e+00 2. 2. 2. 2.00099993e+00 2.
    2.00099993e+00 2. 2. 2. 2. 2. 2. 2. 2. 2. 2. 2.00500011e+00
    2.00300002e+00 2.00300002e+00 2.00200009e+00 2. 2. 0. 0. 0. 0. 0. 0.
    0. 0. 0. 0. 0. 0. 0. 0. 0. 1.04100001e+00 2.00200009e+00
    2.00399995e+00 2.00300002e+00 2. 2.00300002e+00 2.00300002e+00 2.
    2.00200009e+00 2. 2. 2. 2. 2. 2. 2. 2. 2. 2. 2.00300002e+00
    2.00300002e+00 2.00300002e+00 2.00300002e+00 2. 1.99399996e+00 0. 0.
    0. 0. 0. 0. 0. 0. 0. 0. 0. 0. 0. 0. 0. 1.04100001e+00 2.00300002e+00
    2.00200009e+00 2.00300002e+00 2.00300002e+00 2.00300002e+00
    2.00300002e+00 2.00099993e+00 2.00300002e+00 2. 2. 2. 2. 2. 2.
    2.00099993e+00 2.00200009e+00 2.00099993e+00 2. 2.00300002e+00
    2.00300002e+00 2.00300002e+00 2.00300002e+00 2.00300002e+00
    2.00099993e+00 0. 0. 0. 0. 0. 0. 0. 0. 0. 0. 0. 0. 0. 0. 0.
    1.04100001e+00 2. 2.00300002e+00 2.00300002e+00 2.00500011e+00
    2.00300002e+00 2.00500011e+00 2. 2.00300002e+00 2. 2. 2.00099993e+00
    2. 2.00200009e+00 2. 2.00300002e+00 2.00300002e+00 2.00099993e+00
    2.00300002e+00 2.00300002e+00 2.00300002e+00 2.00300002e+00
    2.00300002e+00 2.00300002e+00 2.00300002e+00 0. 0. 0. 0. 0. 0. 0. 0.
    0. 0. 0. 0. 0. 0. 0. 1.04100001e+00 2.00200009e+00 2.00500011e+00
    2.00799990e+00 2.00500011e+00 2. 2.00300002e+00 2.00300002e+00
    2.00500011e+00 2.00300002e+00 2.00300002e+00 2.00300002e+00
    2.00300002e+00 2.00300002e+00 2.00300002e+00 2.00300002e+00
    2.00399995e+00 2.00399995e+00 2.00300002e+00 2.00300002e+00
    2.00300002e+00 2.00399995e+00 2.00300002e+00 2.00500011e+00
    1.98500001e+00 0. 0. 0. 0. 0. 0. 0. 0. 0. 0. 0. 0. 0. 0. 0.
    1.04100001e+00 1.70700002e+00 2.00399995e+00 2.00799990e+00
    2.00300002e+00 2. 2.00399995e+00 2.00300002e+00 2.00300002e+00
    2.00500011e+00 2.00500011e+00 2.00500011e+00 2.00300002e+00
    2.00099993e+00 2.00399995e+00 2.00500011e+00 2.00500011e+00
    2.00500011e+00 2.00300002e+00 2.00500011e+00 2.00500011e+00
    2.00399995e+00 2.00300002e+00 2.00300002e+00 2.00300002e+00 0. 0. 0.
    0. 0. 0. 0. 0. 0. 0. 0. 0. 0. 0. 0. 1.04100001e+00 2.00399995e+00
    2.00300002e+00 2.00600004e+00 2.00399995e+00 2.00399995e+00
    2.00399995e+00 2.00500011e+00 2.00300002e+00 2.00500011e+00
    2.00500011e+00 2. 2.00300002e+00 2.00300002e+00 2.00099993e+00
    2.00300002e+00 2.00500011e+00 2.00500011e+00 2.00300002e+00
    2.00300002e+00 2.00500011e+00 2.00500011e+00 2.00300002e+00
    2.00300002e+00 1.99500000e+00 0. 0. 0. 0. 0. 0. 0. 0. 0. 0. 0. 0. 0.
    0. 0. 1.04100001e+00 2.00500011e+00 2.00500011e+00 2.00799990e+00
    2.00600004e+00 2.00500011e+00 2.00500011e+00 2.00600004e+00
    2.00600004e+00 2.00500011e+00 2.00600004e+00 2.00500011e+00
    2.00500011e+00 2.00399995e+00 2.00300002e+00 2.00300002e+00
    2.00300002e+00 2.00399995e+00 2.00500011e+00 2.00500011e+00
    2.00600004e+00 2.00600004e+00 2.00600004e+00 2.00500011e+00
    2.00399995e+00 0. 0. 0. 0. 0. 0. 0. 0. 0. 0. 0. 0. 0. 0. 0.
    1.04100001e+00 2.00300002e+00 2.00799990e+00 2.00799990e+00
    2.00799990e+00 2.00500011e+00 2.00699997e+00 2.00799990e+00
    2.00799990e+00 2.00500011e+00 2.00799990e+00 2.00600004e+00
    2.00399995e+00 2.00500011e+00 2.00300002e+00 2.00500011e+00
    2.00600004e+00 2.00399995e+00 2.00300002e+00 2.00500011e+00
    2.00799990e+00 2.00799990e+00 2.00799990e+00 2.00500011e+00
    2.00500011e+00 0. 0. 0. 0. 0. 0. 0. 0. 0. 0. 0. 0. 0. 0. 0.
    1.04100001e+00 2.00500011e+00 2.00799990e+00 2.00799990e+00
    2.00799990e+00 2.00500011e+00 2.00799990e+00 2.00799990e+00
    2.00799990e+00 2.00500011e+00 2.00799990e+00 2.00799990e+00
    2.00699997e+00 2.00300002e+00 2.00500011e+00 2.00500011e+00
    2.00799990e+00 2.00699997e+00 2.00500011e+00 2.00799990e+00
    2.00799990e+00 2.00600004e+00 2.00300002e+00 2.00600004e+00
    2.00799990e+00 0. 0. 0. 0. 0. 0. 0. 0. 0. 0. 0. 0. 0. 0. 0.
    1.04100001e+00 2.00500011e+00 2.00799990e+00 2.00799990e+00
    2.00799990e+00 2.00600004e+00 2.00799990e+00 2.00799990e+00
    2.00799990e+00 2.00799990e+00 2.00799990e+00 2.00799990e+00
    2.00799990e+00 2.00799990e+00 2.00699997e+00 2.00500011e+00
    2.00799990e+00 2.00699997e+00 2.00300002e+00 2.00799990e+00
    2.00900006e+00 2.00600004e+00 2.00399995e+00 2.00500011e+00
    2.00099993e+00 0. 0. 0. 0. 0. 0. 0. 0. 0. 0. 0. 0. 0. 0. 0.
    1.04100001e+00 2.00600004e+00 2.00799990e+00 2.00999999e+00
    2.00799990e+00 2.00799990e+00 2.00799990e+00 2.00799990e+00
    2.00799990e+00 2.00799990e+00 2.00799990e+00 2.00799990e+00
    2.00799990e+00 2.00799990e+00 2.00799990e+00 2.00500011e+00
    2.00799990e+00 2.00699997e+00 2.00699997e+00 2.01099992e+00
    2.01099992e+00 2.00900006e+00 2.00799990e+00 2.00900006e+00
    1.99000001e+00 0. 0. 0. 0. 0. 0. 0. 0. 0. 0. 0. 0. 0. 0. 0.
    1.04100001e+00 2.00799990e+00 2.01099992e+00 2.00999999e+00
    2.00799990e+00 2.00799990e+00 2.00799990e+00 2.00799990e+00
    2.00799990e+00 2.00799990e+00 2.00799990e+00 2.00799990e+00
    2.00799990e+00 2.00799990e+00 2.00799990e+00 2.00799990e+00
    2.00799990e+00 2.00799990e+00 2.00799990e+00 2.01099992e+00
    2.01099992e+00 2.01099992e+00 2.01099992e+00 2.01099992e+00
    2.00799990e+00 0. 0. 0. 0. 0. 0. 0. 0. 0. 0. 0. 0. 0. 0. 0.
    1.04100001e+00 2.00799990e+00 2.01099992e+00 2.00999999e+00
    2.00799990e+00 2.00799990e+00 2.00799990e+00 2.00799990e+00
    2.00799990e+00 2.00799990e+00 2.00900006e+00 2.00799990e+00
    2.00799990e+00 2.00799990e+00 2.00799990e+00 2.00799990e+00
    2.00799990e+00 2.00600004e+00 2.00799990e+00 2.01099992e+00
    2.01099992e+00 2.00999999e+00 2.00999999e+00 2.00999999e+00
    2.01099992e+00 0. 0. 0. 0. 0. 0. 0. 0. 0. 0. 0. 0. 0. 0. 0.
    1.04100001e+00 2.00799990e+00 2.01099992e+00 2.01099992e+00
    2.01099992e+00 2.01099992e+00 2.00799990e+00 2.00799990e+00
    2.00799990e+00 2.00799990e+00 2.01099992e+00 2.00900006e+00
    2.00799990e+00 2.00799990e+00 2.00799990e+00 2.00799990e+00
    2.00799990e+00 2.00799990e+00 2.00799990e+00 2.00799990e+00
    2.01099992e+00 2.01099992e+00 2.00900006e+00 2.01099992e+00
    2.00799990e+00 0. 0. 0. 0. 0. 0. 0. 0. 0. 0. 0. 0. 0. 0. 0.
    1.81299996e+00 2.00600004e+00 2.01099992e+00 2.01099992e+00
    2.01099992e+00 2.01099992e+00 2.00900006e+00 2.00799990e+00
    2.00799990e+00 2.00799990e+00 2.01099992e+00 2.00799990e+00
    2.00799990e+00 2.00799990e+00 2.00799990e+00 2.00999999e+00
    2.00799990e+00 2.00799990e+00 2.00799990e+00 2.01099992e+00
    2.01099992e+00 2.01099992e+00 2.00999999e+00 2.00799990e+00
    2.00500011e+00 0. 0. 0. 0. 0. 0. 0. 0. 0. 0. 0. 0. 0. 0. 0.
    2.01399994e+00 2.00699997e+00 2.01099992e+00 2.01099992e+00
    2.00799990e+00 2.01099992e+00 2.01099992e+00 2.00999999e+00
    2.00799990e+00 2.00799990e+00 2.01099992e+00 2.00900006e+00
    2.00799990e+00 2.00799990e+00 2.00799990e+00 2.00799990e+00
    2.00799990e+00 2.00799990e+00 2.00799990e+00 2.01099992e+00
    2.01099992e+00 2.01099992e+00 2.00799990e+00 2.00799990e+00
    1.99300003e+00 0. 0. 0. 0. 0. 0. 0. 0. 0. 0. 0. 0. 0. 0. 0.
    1.57400000e+00 2.00900006e+00 2.01099992e+00 2.01099992e+00
    2.00900006e+00 2.00799990e+00 2.00999999e+00 2.01099992e+00
    2.00900006e+00 2.00900006e+00 2.00900006e+00 2.00900006e+00
    2.00799990e+00 2.00799990e+00 2.00799990e+00 2.00799990e+00
    2.00799990e+00 2.00799990e+00 2.00799990e+00 2.00900006e+00
    2.01099992e+00 2.01099992e+00 2.00500011e+00 2.01099992e+00
    1.99199998e+00 0. 0. 0. 0. 0. 0. 0. 0. 0. 0. 0. 0. 0. 0. 0.
    1.04100001e+00 2.00799990e+00 2.01099992e+00 2.01099992e+00
    2.01099992e+00 2.01099992e+00 2.01099992e+00 2.01099992e+00
    2.01099992e+00 2.01099992e+00 2.01099992e+00 2.00799990e+00
    2.00799990e+00 2.00799990e+00 2.00799990e+00 2.00799990e+00
    2.01099992e+00 2.00799990e+00 2.01099992e+00 2.01200008e+00
    2.01099992e+00 2.01099992e+00 2.01099992e+00 2.01099992e+00
    2.01099992e+00 0. 0. 0. 0. 0. 0. 0. 0. 0. 0. 0. 0. 0. 0. 0.
    1.04100001e+00 2.01200008e+00 2.01099992e+00 2.01099992e+00
    2.01099992e+00 2.01099992e+00 2.01099992e+00 2.01099992e+00
    2.01099992e+00 2.01099992e+00 2.01099992e+00 2.01099992e+00
    2.01099992e+00 2.00799990e+00 2.01099992e+00 2.00799990e+00
    2.00799990e+00 2.00799990e+00 2.00799990e+00 2.01099992e+00
    2.01399994e+00 2.01099992e+00 2.01099992e+00 2.00999999e+00
    2.01099992e+00 0. 0. 0. 0. 0. 0. 0. 0. 0. 0. 0. 0. 0. 0. 0. 0. 0. 0.
    0. 0. 0. 0. 0. 0. 0. 0. 0. 0. 0. 0. 0. 0. 0. 0. 0. 0. 0. 0. 0. 0. 0.
    0. 0. 0. 0. 0. 0. 0. 0. 0. 0. 0. 0. 0. 0. 0. 0. 0. 0. 0. 0. 0. 0. 0.
    0. 0. 0. 0. 0. 0. 0. 0. 0. 0. 0. 0. 0. 0. 0. 0. 0. 0. 0. 0. 0. 0. 0.
    0. 0. 0. 0. 0. 0. 0. 0. 0. 0. 0. 0. 0. 0. 0. 0. 0. 0. 0. 0. 0. 0. 0.
    0. 0. 0. 0. 0. 0. 0. 0. 0. 0. 0. 0. 0. 0. 0. 0. 0. 0.</data></Depth>
</opencv_storage>
