<?xml version="1.0"?>
<opencv_storage>
<Depth type_id="opencv-matrix">
  <rows>40</rows>
  <cols>40</cols>
  <dt>f</dt>
  <data>
    0. 0. 0. 0. 0. 0. 0. 0. 0. 0. 0. 0. 0. 0. 0. 0. 0. 0. 0. 0. 0. 0. 0.
    0. 0. 0. 0. 0. 0. 0. 0. 0. 0. 0. 0. 0. 0. 0. 0. 0. 0. 0. 0. 0. 0. 0.
    0. 0. 0. 0. 0. 0. 0. 0. 0. 0. 0. 0. 0. 0. 0. 0. 0. 0. 0. 0. 0. 0. 0.
    0. 0. 0. 0. 0. 0. 0. 0. 0. 0. 0. 0. 0. 0. 0. 0. 0. 0. 0. 0. 0. 0. 0.
    0. 0. 0. 0. 0. 0. 0. 0. 0. 0. 0. 0. 0. 0. 0. 0. 0. 0. 0. 0. 0. 0. 0.
    0. 0. 0. 0. 0. 0. 0. 0. 0. 0. 0. 0. 0. 0. 0. 0. 0. 0. 0. 0. 0. 0. 0.
    0. 0. 0. 0. 0. 0. 0. 0. 0. 0. 0. 0. 0. 0. 0. 0. 0. 0. 0. 0. 0. 0. 0.
    0. 0. 0. 0. 0. 0. 0. 0. 0. 0. 0. 0. 0. 0. 0. 0. 0. 0. 0. 0. 0. 0. 0.
    0. 0. 0. 0. 0. 0. 0. 0. 0. 0. 0. 0. 0. 0. 0. 0. 0. 0. 0. 0. 0. 0. 0.
    0. 0. 0. 0. 0. 0. 0. 0. 0. 0. 0. 0. 0. 0. 0. 0. 0. 0. 0. 0. 0. 0. 0.
    0. 0. 0. 0. 0. 0. 0. 0. 0. 0. 0. 0. 0. 0. 0. 0. 0. 0. 0. 0. 0. 0. 0.
    0. 0. 0. 0. 0. 0. 0. 0. 0. 0. 0. 0. 0. 0. 0. 0. 0. 0. 0. 0. 0. 0. 0.
    0. 0. 0. 0. 0. 0. 0. 0. 0. 0. 0. 0. 0. 0. 0. 0. 0. 0. 0. 0. 0. 0. 0.
    0. 0. 0. 0. 0. 0. 0. 0. 0. 0. 0. 0. 0. 0. 0. 0. 0. 0. 0. 0. 0. 0. 0.
    0. 2.18000007e+00 2.18000007e+00 2.18000007e+00 2.18000007e+00
    2.18000007e+00 2.18000007e+00 2.18000007e+00 2.18000007e+00
    2.18000007e+00 2.18000007e+00 2.17300010e+00 2.12800002e+00
    2.08800006e+00 2.08800006e+00 2.15199995e+00 2.88000011e+00 0. 0. 0.
    0. 0. 0. 0. 0. 0. 0. 0. 0. 0. 0. 0. 0. 0. 0. 0. 0. 0. 0. 0.
    1.22200000e+00 2.18000007e+00 2.18000007e+00 2.18000007e+00
    2.18000007e+00 2.18000007e+00 2.18000007e+00 2.18000007e+00
    2.18000007e+00 2.17799997e+00 2.16700006e+00 2.15300012e+00
    2.11800003e+00 2.08800006e+00 2.08800006e+00 2.13499999e+00
    2.67100000e+00 0. 0. 0. 0. 0. 0. 0. 0. 2.99099994e+00 0. 0. 0. 0. 0.
    0. 0. 0. 0. 0. 0. 0. 0. 1.32299995e+00 1.83899999e+00 2.18000007e+00
    2.18000007e+00 2.18000007e+00 2.18000007e+00 2.18000007e+00
    2.18000007e+00 2.18000007e+00 2.18000007e+00 2.17400002e+00
    2.14100003e+00 2.11100006e+00 2.09899998e+00 2.08800006e+00
    2.08800006e+00 2.09999990e+00 2.23600006e+00 2.36400008e+00
    2.36400008e+00 2.36500001e+00 2.39599991e+00 2.42600012e+00
    2.40899992e+00 2.39000010e+00 2.37100005e+00 2.35299993e+00
    2.81599998e+00 0. 0. 0. 0. 0. 0. 0. 0. 0. 0. 0. 1.26199996e+00
    2.18000007e+00 2.18000007e+00 2.18000007e+00 2.18000007e+00
    2.18000007e+00 2.18000007e+00 2.18000007e+00 2.18000007e+00
    2.18000007e+00 2.18000007e+00 2.17100000e+00 2.12599993e+00
    2.08800006e+00 2.08800006e+00 2.08800006e+00 2.08800006e+00
    2.07999992e+00 1.99500000e+00 1.91400003e+00 1.91400003e+00
    1.91499996e+00 1.95700002e+00 1.99899995e+00 2. 2. 1.99100006e+00
    1.98199999e+00 2.48000002e+00 0. 0. 0. 0. 0. 0. 0. 0. 0. 0. 0.
    1.85800004e+00 2.18000007e+00 2.18000007e+00 2.18000007e+00
    2.18000007e+00 2.18000007e+00 2.18000007e+00 2.18000007e+00
    2.18000007e+00 2.18000007e+00 2.18000007e+00 2.17100000e+00
    2.12599993e+00 2.08800006e+00 2.08800006e+00 2.08800006e+00
    2.08800006e+00 2.07999992e+00 1.99500000e+00 1.91400003e+00
    1.91400003e+00 1.91499996e+00 1.95700002e+00 1.99899995e+00 2. 2.
    1.97200000e+00 1.94200003e+00 2.12400007e+00 2.32699990e+00
    2.34500003e+00 2.33599997e+00 2.28800011e+00 2.23300004e+00
    2.20600009e+00 2.18499994e+00 2.18099999e+00 2.18099999e+00
    2.59400010e+00 0. 2.20300007e+00 2.18000007e+00 2.18000007e+00
    2.18000007e+00 2.18000007e+00 2.18000007e+00 2.18000007e+00
    2.18000007e+00 2.18000007e+00 2.18000007e+00 2.18000007e+00
    2.16899991e+00 2.11599994e+00 2.06999993e+00 2.06999993e+00
    2.06999993e+00 2.06999993e+00 2.06399989e+00 1.99600005e+00
    1.93099999e+00 1.93099999e+00 1.93200004e+00 1.96599996e+00
    1.99899995e+00 2. 2. 1.96000004e+00 1.91799998e+00 1.91400003e+00
    1.91400003e+00 1.87800002e+00 1.83800006e+00 1.76600003e+00
    1.68700004e+00 1.67200005e+00 1.67200005e+00 1.67200005e+00
    1.67200005e+00 2.14800000e+00 2.79900002e+00 2.18899989e+00
    2.18000007e+00 2.18000007e+00 2.18000007e+00 2.18000007e+00
    2.18000007e+00 2.18000007e+00 2.18000007e+00 2.18000007e+00
    2.18000007e+00 2.18000007e+00 2.16499996e+00 2.08999991e+00
    2.02699995e+00 2.02699995e+00 2.02699995e+00 2.02699995e+00
    2.02500010e+00 1.99800003e+00 1.97399998e+00 1.97399998e+00
    1.97399998e+00 1.98699999e+00 2. 2. 2. 1.96000004e+00 1.91799998e+00
    1.91400003e+00 1.91400003e+00 1.87800002e+00 1.83800006e+00
    1.76600003e+00 1.68700004e+00 1.67200005e+00 1.67200005e+00
    1.67200005e+00 1.67200005e+00 1.88999999e+00 2.18899989e+00
    2.18000007e+00 2.18000007e+00 2.18000007e+00 2.18000007e+00
    2.18000007e+00 2.18000007e+00 2.18000007e+00 2.18000007e+00
    2.18000007e+00 2.17799997e+00 2.17000008e+00 2.14700007e+00
    2.06699991e+00 2. 2. 2. 2. 2. 2. 2. 2. 2. 2. 2. 2. 2. 1.96700001e+00
    1.93299997e+00 1.92299998e+00 1.91499996e+00 1.88499999e+00
    1.85200000e+00 1.77999997e+00 1.70200002e+00 1.68599999e+00
    1.68599999e+00 1.69200003e+00 1.69900000e+00 1.74199998e+00
    1.79900002e+00 2.18000007e+00 2.18000007e+00 2.18000007e+00
    2.18000007e+00 2.18000007e+00 2.18000007e+00 2.18000007e+00
    2.18000007e+00 2.18000007e+00 2.17300010e+00 2.14199996e+00
    2.10700011e+00 2.04900002e+00 2. 2. 2. 2. 2. 2. 2. 2. 2. 2. 2. 2. 2.
    1.98699999e+00 1.97300005e+00 1.94599998e+00 1.91799998e+00
    1.90199995e+00 1.88900006e+00 1.82000005e+00 1.74000001e+00
    1.72500002e+00 1.72500002e+00 1.74500000e+00 1.77199996e+00
    1.77800000e+00 1.77699995e+00 2.18000007e+00 2.18000007e+00
    2.18000007e+00 2.18000007e+00 2.18000007e+00 2.18000007e+00
    2.18000007e+00 2.18000007e+00 2.18000007e+00 2.17000008e+00
    2.12400007e+00 2.07999992e+00 2.03600001e+00 2. 2. 2. 2. 2. 2. 2. 2.
    2. 2. 2. 1.99300003e+00 1.98599994e+00 1.98599994e+00 1.98599994e+00
    1.94700003e+00 1.90499997e+00 1.89999998e+00 1.89999998e+00
    1.84399998e+00 1.77699995e+00 1.76300001e+00 1.76300001e+00
    1.78400004e+00 1.80999994e+00 1.79299998e+00 1.75999999e+00
    2.18000007e+00 2.18000007e+00 2.18000007e+00 2.18000007e+00
    2.18000007e+00 2.18000007e+00 2.18000007e+00 2.18000007e+00
    2.18000007e+00 2.17000008e+00 2.12400007e+00 2.07999992e+00
    2.03600001e+00 2. 2. 2. 2. 2. 2. 2. 2. 2. 2. 2. 1.97300005e+00
    1.94500005e+00 1.94299996e+00 1.94299996e+00 1.90600002e+00
    1.86500001e+00 1.85899997e+00 1.85899997e+00 1.83599997e+00
    1.80900002e+00 1.80299997e+00 1.80299997e+00 1.79400003e+00
    1.78100002e+00 1.76800001e+00 1.75399995e+00 2.18000007e+00
    2.18000007e+00 2.18000007e+00 2.18000007e+00 2.18000007e+00
    2.18000007e+00 2.18000007e+00 2.17799997e+00 2.17100000e+00
    2.15700006e+00 2.11899996e+00 2.07800007e+00 2.02900004e+00
    1.98699999e+00 1.98699999e+00 1.98800004e+00 1.99399996e+00 2. 2. 2.
    2. 2. 2. 2. 1.95899999e+00 1.91600001e+00 1.91400003e+00
    1.91400003e+00 1.87699997e+00 1.83599997e+00 1.83099997e+00
    1.83099997e+00 1.83099997e+00 1.83099997e+00 1.82599998e+00
    1.82000005e+00 1.79299998e+00 1.75899994e+00 1.75000000e+00
    1.75000000e+00 2.18000007e+00 2.18000007e+00 2.18000007e+00
    2.18000007e+00 2.18000007e+00 2.18000007e+00 2.18000007e+00
    2.17199993e+00 2.14299989e+00 2.11700010e+00 2.10100007e+00
    2.07399988e+00 2.00399995e+00 1.94500005e+00 1.94500005e+00
    1.94799995e+00 1.97500002e+00 2. 2. 2. 2. 2. 2. 2. 1.95899999e+00
    1.91600001e+00 1.91400003e+00 1.91400003e+00 1.87699997e+00
    1.83599997e+00 1.83099997e+00 1.83099997e+00 1.83099997e+00
    1.83099997e+00 1.81099999e+00 1.78499997e+00 1.76800001e+00
    1.75399995e+00 1.75000000e+00 1.75000000e+00 2.16799998e+00
    2.16799998e+00 2.16799998e+00 2.17000008e+00 2.17600012e+00
    2.17799997e+00 2.17199993e+00 2.15700006e+00 2.11800003e+00
    2.08699989e+00 2.08100009e+00 2.06100011e+00 1.98099995e+00
    1.91400003e+00 1.91400003e+00 1.91900003e+00 1.96099997e+00 2. 2. 2.
    1.99399996e+00 1.98899996e+00 1.98899996e+00 1.98899996e+00
    1.94700003e+00 1.90499997e+00 1.90300000e+00 1.90300000e+00
    1.87100005e+00 1.83500004e+00 1.83099997e+00 1.83099997e+00
    1.82700002e+00 1.82099998e+00 1.79299998e+00 1.75800002e+00
    1.75000000e+00 1.75000000e+00 1.75000000e+00 1.75000000e+00
    2.12299991e+00 2.12299991e+00 2.12299991e+00 2.13199997e+00
    2.16000009e+00 2.17100000e+00 2.14299989e+00 2.11800003e+00
    2.10100007e+00 2.08200002e+00 2.05500007e+00 2.02200007e+00
    1.96300006e+00 1.91400003e+00 1.91400003e+00 1.91900003e+00
    1.96099997e+00 2. 2. 1.99899995e+00 1.97200000e+00 1.94599998e+00
    1.94599998e+00 1.94599998e+00 1.90600002e+00 1.86500001e+00
    1.86199999e+00 1.86199999e+00 1.84800005e+00 1.83299994e+00
    1.83099997e+00 1.83099997e+00 1.80999994e+00 1.78499997e+00
    1.76900005e+00 1.75399995e+00 1.75000000e+00 1.75000000e+00
    1.75000000e+00 1.75000000e+00 2.08800006e+00 2.08800006e+00
    2.08800006e+00 2.10200000e+00 2.14199996e+00 2.15700006e+00
    2.11700010e+00 2.08800006e+00 2.08800006e+00 2.07800007e+00
    2.03500009e+00 1.99199998e+00 1.94900000e+00 1.91400003e+00
    1.91400003e+00 1.91900003e+00 1.95599997e+00 1.99000001e+00
    1.99000001e+00 1.98800004e+00 1.94599998e+00 1.90499997e+00
    1.90499997e+00 1.90499997e+00 1.86899996e+00 1.83299994e+00
    1.82700002e+00 1.82200003e+00 1.82200003e+00 1.82200003e+00
    1.82200003e+00 1.82200003e+00 1.79200006e+00 1.75699997e+00
    1.75000000e+00 1.75000000e+00 1.74699998e+00 1.74199998e+00
    1.74100006e+00 1.74100006e+00 2.08800006e+00 2.08800006e+00
    2.08800006e+00 2.09400010e+00 2.11199999e+00 2.11899996e+00
    2.10100007e+00 2.08800006e+00 2.08800006e+00 2.07800007e+00
    2.03500009e+00 1.99199998e+00 1.94900000e+00 1.91400003e+00
    1.91400003e+00 1.91600001e+00 1.93299997e+00 1.94799995e+00
    1.94799995e+00 1.94599998e+00 1.90400004e+00 1.86399996e+00
    1.86399996e+00 1.86399996e+00 1.84800005e+00 1.83200002e+00
    1.80799997e+00 1.78400004e+00 1.78199995e+00 1.78199995e+00
    1.78199995e+00 1.78199995e+00 1.76900005e+00 1.75300002e+00
    1.75000000e+00 1.75000000e+00 1.73199999e+00 1.70899999e+00
    1.70299995e+00 1.70299995e+00 1.98599994e+00 2.08800006e+00
    2.08800006e+00 2.08800006e+00 2.08800006e+00 2.08800006e+00
    2.08800006e+00 2.08800006e+00 2.08800006e+00 2.09699988e+00
    2.13499999e+00 2.14100003e+00 2.01799989e+00 1.91400003e+00
    1.91400003e+00 1.91400003e+00 1.91400003e+00 1.91400003e+00
    1.90999997e+00 1.90400004e+00 1.86300004e+00 1.82299995e+00
    1.81900001e+00 1.81599998e+00 1.81599998e+00 1.81599998e+00
    1.78499997e+00 1.75300002e+00 1.75000000e+00 1.75000000e+00
    1.75000000e+00 1.75000000e+00 1.75000000e+00 1.75000000e+00
    1.74699998e+00 1.74300003e+00 1.71599996e+00 1.68099999e+00
    1.67200005e+00 1.67200005e+00 1.46700001e+00 2.08800006e+00
    2.08800006e+00 2.08800006e+00 2.08800006e+00 2.08800006e+00
    2.08800006e+00 2.08800006e+00 2.08800006e+00 2.19300008e+00
    2.64499998e+00 2.90400004e+00 2.36599994e+00 1.91400003e+00
    1.91400003e+00 1.91400003e+00 1.91400003e+00 1.91199994e+00
    1.88800001e+00 1.86300004e+00 1.82299995e+00 1.78299999e+00
    1.76100004e+00 1.73800004e+00 1.73800004e+00 1.73800004e+00
    1.74300003e+00 1.74899995e+00 1.75000000e+00 1.75000000e+00
    1.75000000e+00 1.75000000e+00 1.75000000e+00 1.75000000e+00
    1.73199999e+00 1.70899999e+00 1.69200003e+00 1.67600000e+00
    1.67200005e+00 1.67200005e+00 0. 1.81799996e+00 1.81799996e+00
    1.81799996e+00 1.81799996e+00 1.87899995e+00 2.08100009e+00
    2.22799993e+00 2.22799993e+00 2.39800000e+00 0. 0. 2.74200010e+00
    2.05599999e+00 2.05599999e+00 2.04699993e+00 1.97399998e+00
    1.90400004e+00 1.86699998e+00 1.82900000e+00 1.78900003e+00
    1.74899995e+00 1.71099997e+00 1.67299998e+00 1.67200005e+00
    1.67200005e+00 1.70799994e+00 1.74699998e+00 1.74699998e+00
    1.74399996e+00 1.74399996e+00 1.74399996e+00 1.74399996e+00
    1.74399996e+00 1.71599996e+00 1.67999995e+00 1.67200005e+00
    1.67200005e+00 1.67200005e+00 1.67200005e+00 0. 0. 0. 0. 0. 0.
    2.03500009e+00 0. 0. 0. 0. 0. 0. 2.94199991e+00 2.94199991e+00
    2.87599993e+00 2.34800005e+00 1.86500001e+00 1.84800005e+00
    1.82900000e+00 1.78900003e+00 1.74899995e+00 1.71099997e+00
    1.67299998e+00 1.67200005e+00 1.67200005e+00 1.70799994e+00
    1.74699998e+00 1.73000002e+00 1.70799994e+00 1.70599997e+00
    1.70599997e+00 1.70599997e+00 1.70599997e+00 1.69200003e+00
    1.67600000e+00 1.67200005e+00 1.67200005e+00 1.67200005e+00
    1.67200005e+00 0. 0. 0. 0. 0. 0. 1.99500000e+00 0. 0. 0. 0. 0. 0. 0.
    0. 0. 2.71399999e+00 1.91999996e+00 1.91999996e+00 1.91799998e+00
    1.88100004e+00 1.84399998e+00 1.81200004e+00 1.77999997e+00
    1.77900004e+00 1.77900004e+00 1.81299996e+00 1.84899998e+00
    1.77199996e+00 1.68299997e+00 1.67200005e+00 1.67200005e+00
    1.67200005e+00 1.67200005e+00 1.67200005e+00 1.67200005e+00
    1.67200005e+00 1.67200005e+00 1.67200005e+00 1.67200005e+00 0. 0. 0.
    0. 0. 0. 1.99199998e+00 0. 0. 0. 0. 0. 0. 0. 0. 0. 0. 2.63800001e+00
    2.63800001e+00 2.63700008e+00 2.61999989e+00 2.60200000e+00
    2.62199998e+00 2.64199996e+00 2.64199996e+00 2.64199996e+00
    2.65799999e+00 2.67600012e+00 2.22799993e+00 1.73399997e+00
    1.67200005e+00 1.67200005e+00 1.67200005e+00 1.67200005e+00
    1.67200005e+00 1.67200005e+00 1.67200005e+00 1.67200005e+00
    1.67200005e+00 1.67200005e+00 0. 0. 0. 0. 0. 0. 1.99000001e+00 0. 0.
    0. 0. 0. 0. 0. 0. 0. 0. 0. 0. 0. 0. 0. 0. 0. 0. 0. 0. 0.
    2.64400005e+00 1.78100002e+00 1.67200005e+00 1.67200005e+00
    1.67200005e+00 1.67200005e+00 1.67200005e+00 1.67200005e+00
    1.67200005e+00 1.67200005e+00 1.67200005e+00 1.67200005e+00 0. 0. 0.
    0. 0. 0. 0. 0. 0. 0. 0. 0. 0. 0. 0. 0. 0. 0. 0. 0. 0. 0. 0. 0. 0. 0.
    0. 0. 0. 0. 0. 0. 0. 0. 0. 0. 0. 0. 0. 0. 0. 0. 0. 0. 0. 0. 0. 0. 0.
    0. 0. 0. 0. 0. 0. 0. 0. 0. 0. 0. 0. 0. 0. 0. 0. 0. 0. 0. 0. 0. 0. 0.
    0. 0. 0. 0. 0. 0. 0. 0. 0. 0. 0. 0. 0. 0. 0. 0. 0. 0. 0. 0. 0. 0. 0.
    0. 0. 0. 0. 0. 0. 0. 0. 0. 0. 0. 0. 0. 0. 0. 0. 0. 0. 0. 0. 0. 0. 0.
    0. 0. 0. 0. 0. 0. 0. 0. 0. 0. 0. 0. 0. 0. 0. 0. 0. 0. 0. 0. 0. 0. 0.
    0. 0. 0. 0. 0. 0. 0. 0. 0. 0. 0. 0. 0. 0. 0. 0. 0. 0. 0. 0. 0. 0. 0.
    0. 0. 0. 0. 0. 0. 0. 0. 0. 0. 0. 0. 0. 0. 0. 0. 0. 0. 0. 0. 0. 0. 0.
    0. 0. 0. 0. 0. 0. 0. 0. 0. 0. 0. 0. 0. 0. 0. 0. 0. 0. 0. 0. 0. 0. 0.
    0. 0. 0. 0. 0. 0. 0. 0. 0. 0. 0. 0. 0. 0. 0. 0. 0. 0. 0. 0. 0. 0. 0.
    0. 0. 0. 0. 0. 0. 0. 0. 0. 0. 0. 0. 0. 0. 0. 0. 0. 0. 0. 0. 0. 0. 0.
    0. 0. 0. 0. 0. 0. 0. 0. 0. 0. 0. 0. 0. 0. 0. 0. 0. 0. 0. 0. 0. 0. 0.
    0. 0. 0. 0. 0. 0. 0. 0. 0. 0. 0. 0. 0. 0. 0. 0. 0. 0. 0. 0. 0. 0. 0.
    0. 0. 0. 0. 0. 0. 0. 0. 0. 0. 0. 0. 0. 0. 0. 0. 0. 0.</data></Depth>
</opencv_storage>
