<?xml version="1.0"?>
<opencv_storage>
<Depth type_id="opencv-matrix">
  <rows>40</rows>
  <cols>40</cols>
  <dt>f</dt>
  <data>
    0. 0. 0. 0. 0. 0. 0. 0. 0. 0. 0. 0. 0. 0. 0. 0. 0. 0. 0. 0. 0. 0. 0.
    0. 0. 0. 0. 0. 0. 0. 0. 0. 0. 0. 0. 0. 0. 0. 0. 0. 0. 0. 0. 0. 0. 0.
    0. 0. 0. 0. 0. 0. 0. 0. 0. 0. 0. 0. 0. 0. 0. 0. 0. 0. 0. 0. 0. 0. 0.
    0. 0. 0. 0. 0. 0. 0. 0. 0. 0. 0. 0. 0. 0. 0. 0. 0. 0. 0. 0. 0. 0. 0.
    0. 0. 0. 0. 0. 2.09299994e+00 2.06999993e+00 2.04399991e+00 2. 2.
    1.97800004e+00 1.97599995e+00 1.99500000e+00 2.01799989e+00
    2.04099989e+00 2.04900002e+00 2.04900002e+00 2.04900002e+00 0. 0. 0.
    0. 0. 0. 0. 0. 0. 0. 0. 0. 0. 0. 0. 0. 0. 0. 0. 0. 0. 2.38000011e+00
    2.36800003e+00 2.35700011e+00 2.35700011e+00 2.34899998e+00
    2.25300002e+00 2.05299997e+00 2.04699993e+00 2.02399993e+00 2. 2.
    1.97800004e+00 1.97599995e+00 1.97800004e+00 1.99600005e+00
    2.01799989e+00 2.02600002e+00 2.02600002e+00 2.03699994e+00 0. 0. 0.
    0. 0. 0. 0. 0. 0. 0. 0. 0. 0. 0. 0. 0. 0. 0. 0. 2.56599998e+00
    2.27500010e+00 2.11199999e+00 2.10100007e+00 2.09899998e+00
    2.08999991e+00 2.07699990e+00 2.06699991e+00 2.04399991e+00
    2.02699995e+00 2.02200007e+00 2. 2. 1.97800004e+00 1.97599995e+00
    1.97599995e+00 1.99399996e+00 2.01600003e+00 2.02399993e+00
    2.02399993e+00 2.02600002e+00 2.18899989e+00 0. 0. 0. 0. 0. 0. 0. 0.
    0. 0. 0. 0. 0. 0. 2.87299991e+00 2.85400009e+00 2.83400011e+00
    2.27800012e+00 2.12500000e+00 2.11199999e+00 2.10100007e+00
    2.08899999e+00 2.07900000e+00 2.07699990e+00 2.06699991e+00
    2.04699993e+00 2.02800012e+00 2.02399993e+00 2.02200007e+00
    1.99899995e+00 1.98199999e+00 1.97599995e+00 1.97599995e+00
    1.97599995e+00 1.98000002e+00 1.99699998e+00 2.01699996e+00
    2.02399993e+00 2.02399993e+00 2.02399993e+00 2.91899991e+00 0. 0. 0.
    0. 0. 0. 0. 0. 0. 0. 0. 0. 0. 2.18600011e+00 2.17899990e+00
    2.15499997e+00 2.13100004e+00 2.12500000e+00 2.10800004e+00
    2.09899998e+00 2.08599997e+00 2.07399988e+00 2.07399988e+00
    2.06500006e+00 2.04200006e+00 2.02399993e+00 2.02099991e+00
    2.00600004e+00 1.99899995e+00 1.97700000e+00 1.97599995e+00
    1.97599995e+00 1.97599995e+00 1.97599995e+00 1.99199998e+00
    2.00399995e+00 2.00699997e+00 2.00699997e+00 2.01399994e+00
    2.91899991e+00 0. 0. 0. 0. 0. 0. 0. 0. 0. 0. 0. 0. 0. 2.17799997e+00
    2.17799997e+00 2.15499997e+00 2.13100004e+00 2.12500000e+00
    2.10800004e+00 2.09899998e+00 2.09400010e+00 2.08299994e+00
    2.06699991e+00 2.05500007e+00 2.04200006e+00 2.02399993e+00
    2.01999998e+00 2. 1.99899995e+00 1.97700000e+00 1.96200001e+00
    1.96099997e+00 1.96099997e+00 1.97200000e+00 1.99199998e+00 2. 2. 2.
    2.00300002e+00 2.90899992e+00 0. 0. 0. 0. 0. 0. 0. 0. 0. 0. 0. 0. 0.
    2.17799997e+00 2.17799997e+00 2.15499997e+00 2.14299989e+00
    2.12899995e+00 2.11800003e+00 2.10500002e+00 2.09899998e+00
    2.08699989e+00 2.06399989e+00 2.04900002e+00 2.04200006e+00
    2.02399993e+00 2.01999998e+00 2. 1.99899995e+00 1.97700000e+00
    1.95500004e+00 1.95299995e+00 1.95299995e+00 1.97000003e+00
    1.98199999e+00 1.99399996e+00 2. 2. 2. 2.90400004e+00 0. 0. 0. 0. 0.
    0. 0. 0. 0. 0. 0. 0. 0. 2.17799997e+00 2.17799997e+00 2.16700006e+00
    2.15400004e+00 2.13199997e+00 2.11599994e+00 2.10400009e+00
    2.09899998e+00 2.08699989e+00 2.06900001e+00 2.06200004e+00
    2.05500007e+00 2.03399992e+00 2.01999998e+00 2. 1.99899995e+00
    1.97700000e+00 1.96599996e+00 1.95500004e+00 1.95299995e+00
    1.97000003e+00 1.97599995e+00 1.99100006e+00 2. 2. 2. 2.90400004e+00
    0. 0. 0. 0. 0. 0. 0. 0. 0. 0. 0. 0. 0. 2.17799997e+00 2.17799997e+00
    2.17799997e+00 2.15700006e+00 2.13199997e+00 2.10800004e+00
    2.09899998e+00 2.09899998e+00 2.08699989e+00 2.07399988e+00
    2.07399988e+00 2.06699991e+00 2.04600000e+00 2.03200006e+00
    2.00999999e+00 1.99899995e+00 1.98800004e+00 1.98699999e+00
    1.96700001e+00 1.96399999e+00 1.97300005e+00 1.97599995e+00
    1.99100006e+00 2. 2. 2. 2.47600007e+00 0. 0. 0. 0. 0. 0. 0. 0. 0. 0.
    0. 0. 0. 2.17799997e+00 2.17799997e+00 2.16899991e+00 2.15400004e+00
    2.13199997e+00 2.10800004e+00 2.09899998e+00 2.09899998e+00
    2.08699989e+00 2.07399988e+00 2.06999993e+00 2.05900002e+00
    2.04900002e+00 2.04500008e+00 2.02200007e+00 2. 2. 2. 1.98800004e+00
    1.97800004e+00 1.97599995e+00 1.98300004e+00 1.99399996e+00 2. 2. 2.
    2. 2.72300005e+00 0. 0. 0. 0. 0. 0. 0. 0. 0. 0. 0. 0. 2.17799997e+00
    2.17799997e+00 2.15499997e+00 2.15100002e+00 2.13199997e+00
    2.10800004e+00 2.09899998e+00 2.09899998e+00 2.08699989e+00
    2.07399988e+00 2.06500006e+00 2.04900002e+00 2.04900002e+00
    2.04500008e+00 2.02200007e+00 2. 2. 2. 1.99300003e+00 1.97899997e+00
    1.97599995e+00 1.99199998e+00 2. 2. 2. 2. 2. 2.72300005e+00 0. 0. 0.
    0. 0. 0. 0. 0. 0. 0. 0. 0. 2.18600011e+00 2.17899990e+00
    2.16199994e+00 2.15300012e+00 2.13199997e+00 2.11299992e+00
    2.10200000e+00 2.09899998e+00 2.08699989e+00 2.07399988e+00
    2.06500006e+00 2.04900002e+00 2.04699993e+00 2.03900003e+00
    2.02200007e+00 2. 2. 1.99399996e+00 1.97800004e+00 1.97599995e+00
    1.97599995e+00 1.99199998e+00 2. 2. 2. 2. 2. 2.71700001e+00 0. 0. 0.
    0. 0. 0. 0. 0. 0. 0. 0. 0. 2.21099997e+00 2.18700004e+00
    2.17899990e+00 2.16199994e+00 2.13400006e+00 2.12500000e+00
    2.10899997e+00 2.09899998e+00 2.08699989e+00 2.07399988e+00
    2.06500006e+00 2.04900002e+00 2.04299998e+00 2.02399993e+00
    2.02200007e+00 2.00500011e+00 2. 1.97800004e+00 1.97599995e+00
    1.97599995e+00 1.97599995e+00 1.99199998e+00 2. 2. 2. 2. 2.
    2.69899988e+00 0. 0. 0. 0. 0. 0. 0. 0. 0. 0. 0. 0. 2.70000005e+00
    2.25500011e+00 2.18700004e+00 2.17899990e+00 2.14299989e+00
    2.12599993e+00 2.10899997e+00 2.09899998e+00 2.08699989e+00
    2.07399988e+00 2.06699991e+00 2.05200005e+00 2.04299998e+00
    2.02399993e+00 2.02399993e+00 2.01900005e+00 2. 1.97800004e+00
    1.97599995e+00 1.97300005e+00 1.97200000e+00 1.98800004e+00
    1.99600005e+00 1.99600005e+00 1.99800003e+00 2. 2. 2.58500004e+00 0.
    0. 0. 0. 0. 0. 0. 0. 0. 0. 0. 0. 0. 2.49399996e+00 2.20700002e+00
    2.18099999e+00 2.15799999e+00 2.13400006e+00 2.10899997e+00
    2.09800005e+00 2.08599997e+00 2.07399988e+00 2.07299995e+00
    2.06500006e+00 2.04299998e+00 2.02399993e+00 2.02200007e+00 2. 2.
    1.97800004e+00 1.97599995e+00 1.95799994e+00 1.95299995e+00
    1.96800005e+00 1.97599995e+00 1.97599995e+00 1.98800004e+00 2. 2. 2.
    2.57500005e+00 0. 0. 0. 0. 0. 0. 0. 0. 0. 0. 0. 0. 2.47199988e+00
    2.18199992e+00 2.15700006e+00 2.15100002e+00 2.13400006e+00
    2.10899997e+00 2.08599997e+00 2.07399988e+00 2.07399988e+00
    2.06500006e+00 2.04900002e+00 2.04299998e+00 2.02399993e+00
    2.02200007e+00 2. 2. 1.97800004e+00 1.97599995e+00 1.95799994e+00
    1.95299995e+00 1.96800005e+00 1.97599995e+00 1.97599995e+00
    1.98800004e+00 2. 2. 2. 2.59200001e+00 0. 0. 0. 0. 0. 0. 0. 0. 0. 0.
    0. 0. 2.48099995e+00 2.18199992e+00 2.15700006e+00 2.15100002e+00
    2.13400006e+00 2.10899997e+00 2.08599997e+00 2.07399988e+00
    2.07399988e+00 2.06500006e+00 2.04900002e+00 2.04299998e+00
    2.02399993e+00 2.02200007e+00 2. 2. 1.97800004e+00 1.97599995e+00
    1.95799994e+00 1.95299995e+00 1.96800005e+00 1.97599995e+00
    1.97599995e+00 1.98800004e+00 2. 2. 2. 2.59200001e+00 0. 0. 0. 0. 0.
    0. 0. 0. 0. 0. 0. 0. 2.45900011e+00 2.17799997e+00 2.15700006e+00
    2.13400006e+00 2.12599993e+00 2.10899997e+00 2.09800005e+00
    2.08599997e+00 2.07399988e+00 2.06500006e+00 2.04900002e+00
    2.04299998e+00 2.01999998e+00 2.00200009e+00 2. 2. 1.97800004e+00
    1.97599995e+00 1.97399998e+00 1.97399998e+00 1.99000001e+00
    1.98500001e+00 1.97599995e+00 1.98800004e+00 2. 2. 2. 2.59200001e+00
    0. 0. 0. 0. 0. 0. 0. 0. 0. 0. 0. 0. 2.45700002e+00 2.17799997e+00
    2.15700006e+00 2.13199997e+00 2.12500000e+00 2.10899997e+00
    2.09899998e+00 2.08699989e+00 2.07399988e+00 2.06500006e+00
    2.04900002e+00 2.04299998e+00 2.01999998e+00 2. 2. 2. 1.97800004e+00
    1.97599995e+00 1.97599995e+00 1.97599995e+00 1.99199998e+00
    1.98500001e+00 1.97599995e+00 1.98800004e+00 2. 2. 2. 2.59200001e+00
    0. 0. 0. 0. 0. 0. 0. 0. 0. 0. 0. 0. 2.43700004e+00 2.15700006e+00
    2.16899991e+00 2.13800001e+00 2.12500000e+00 2.10899997e+00
    2.09899998e+00 2.08699989e+00 2.07399988e+00 2.06500006e+00
    2.04900002e+00 2.04299998e+00 2.01999998e+00 2. 2. 2. 1.97800004e+00
    1.97599995e+00 1.97599995e+00 1.97599995e+00 1.99199998e+00
    1.98500001e+00 1.97599995e+00 1.97800004e+00 1.98899996e+00 2. 2.
    2.12299991e+00 2.52099991e+00 0. 0. 0. 0. 0. 0. 0. 0. 0. 0. 0.
    2.43199992e+00 2.15100002e+00 2.15700006e+00 2.13400006e+00
    2.12500000e+00 2.10899997e+00 2.09899998e+00 2.08699989e+00
    2.07399988e+00 2.06500006e+00 2.04399991e+00 2.02500010e+00
    2.00500011e+00 2. 2. 2. 1.97800004e+00 1.97599995e+00 1.97599995e+00
    1.97599995e+00 1.98000002e+00 1.97899997e+00 1.97599995e+00
    1.97599995e+00 1.98599994e+00 2. 2. 2. 2. 0. 0. 0. 0. 0. 0. 0. 0. 0.
    0. 0. 0. 2.46499991e+00 2.15100002e+00 2.13199997e+00 2.12500000e+00
    2.10899997e+00 2.09899998e+00 2.08699989e+00 2.07399988e+00
    2.06500006e+00 2.04200006e+00 2.01900005e+00 2. 2. 2. 2.
    1.99300003e+00 1.97800004e+00 1.97599995e+00 1.97599995e+00
    1.97599995e+00 1.97599995e+00 1.97599995e+00 1.97599995e+00
    1.98599994e+00 2. 2. 2. 2. 0. 0. 0. 0. 0. 0. 0. 0. 0. 0. 0. 0. 0.
    2.53699994e+00 2.12800002e+00 2.12500000e+00 2.10899997e+00
    2.09899998e+00 2.09400010e+00 2.08299994e+00 2.07100010e+00
    2.05699992e+00 2.03399992e+00 2.01200008e+00 2. 2. 2. 2.
    1.97899997e+00 1.97599995e+00 1.97599995e+00 1.97599995e+00
    1.97599995e+00 1.97599995e+00 1.97599995e+00 1.98599994e+00 2. 2. 2.
    2. 0. 0. 0. 0. 0. 0. 0. 0. 0. 0. 0. 0. 0. 2.78699994e+00
    2.12500000e+00 2.11599994e+00 2.10400009e+00 2.09899998e+00
    2.09899998e+00 2.08899999e+00 2.07399988e+00 2.07100010e+00
    2.05699992e+00 2.03099990e+00 2. 2. 2. 2. 1.97899997e+00
    1.97599995e+00 1.97599995e+00 1.97599995e+00 1.97599995e+00
    1.97599995e+00 1.97599995e+00 1.98599994e+00 2. 2. 2. 2. 0. 0. 0. 0.
    0. 0. 0. 0. 0. 0. 0. 0. 0. 2.77600002e+00 2.12500000e+00
    2.10800004e+00 2.09899998e+00 2.09899998e+00 2.09899998e+00
    2.08899999e+00 2.07399988e+00 2.07100010e+00 2.05900002e+00
    2.04299998e+00 2.00999999e+00 2. 2. 2. 1.97899997e+00 1.97599995e+00
    1.97599995e+00 1.97599995e+00 1.97599995e+00 1.97599995e+00
    1.97599995e+00 1.98099995e+00 1.98399997e+00 1.97700000e+00
    1.98000002e+00 1.98800004e+00 0. 0. 0. 0. 0. 0. 0. 0. 0. 0. 0. 0. 0.
    2.76399994e+00 2.12500000e+00 2.10800004e+00 2.09899998e+00
    2.09899998e+00 2.09899998e+00 2.08899999e+00 2.06999993e+00
    2.05900002e+00 2.04699993e+00 2.03600001e+00 2.02200007e+00 2. 2. 2.
    1.97899997e+00 1.97599995e+00 1.97599995e+00 1.97599995e+00
    1.97599995e+00 1.97599995e+00 1.97599995e+00 1.97599995e+00
    1.96800005e+00 1.95299995e+00 1.95799994e+00 1.97599995e+00 0. 0. 0.
    0. 0. 0. 0. 0. 0. 0. 0. 0. 0. 0. 2.43099999e+00 2.10800004e+00
    2.09899998e+00 2.09899998e+00 2.09899998e+00 2.08899999e+00
    2.06500006e+00 2.04900002e+00 2.04299998e+00 2.02399993e+00
    2.02200007e+00 2. 2. 2. 1.98699999e+00 1.97800004e+00 1.97599995e+00
    1.97599995e+00 1.97599995e+00 1.97599995e+00 1.97599995e+00
    1.97599995e+00 1.96800005e+00 1.95299995e+00 1.95799994e+00
    1.97599995e+00 0. 0. 0. 0. 0. 0. 0. 0. 0. 0. 0. 0. 0. 0.
    2.97600007e+00 2.10800004e+00 2.09899998e+00 2.09899998e+00
    2.09899998e+00 2.08899999e+00 2.06500006e+00 2.04900002e+00
    2.04500008e+00 2.02999997e+00 2.02200007e+00 2. 2. 2. 2.
    1.98699999e+00 1.98300004e+00 1.97800004e+00 1.97599995e+00
    1.97599995e+00 1.97300005e+00 1.96899998e+00 1.96300006e+00
    1.95299995e+00 1.95799994e+00 1.97599995e+00 0. 0. 0. 0. 0. 0. 0. 0.
    0. 0. 0. 0. 0. 0. 2.97600007e+00 2.10800004e+00 2.09899998e+00
    2.09899998e+00 2.09899998e+00 2.08899999e+00 2.06699991e+00
    2.05299997e+00 2.04900002e+00 2.04500008e+00 2.02200007e+00 2. 2. 2.
    2. 1.99600005e+00 1.99399996e+00 1.98199999e+00 1.97599995e+00
    1.97599995e+00 1.96500003e+00 1.95299995e+00 1.95500004e+00
    1.95799994e+00 1.96399999e+00 1.98199999e+00 0. 0. 0. 0. 0. 0. 0. 0.
    0. 0. 0. 0. 0. 0. 2.97600007e+00 2.10800004e+00 2.09899998e+00
    2.09899998e+00 2.09899998e+00 2.08899999e+00 2.07399988e+00
    2.06699991e+00 2.04800010e+00 2.04099989e+00 2.02200007e+00 2. 2. 2.
    2. 1.98099995e+00 1.97599995e+00 1.97599995e+00 1.97599995e+00
    1.97399998e+00 1.96300006e+00 1.95299995e+00 1.96099997e+00
    1.97700000e+00 1.98500001e+00 2. 0. 0. 0. 0. 0. 0. 0. 0. 0. 0. 0. 0.
    0. 0. 2.97600007e+00 2.10800004e+00 2.09899998e+00 2.09899998e+00
    2.09899998e+00 2.08899999e+00 2.07399988e+00 2.06699991e+00
    2.04299998e+00 2.02399993e+00 2.02200007e+00 2. 2. 2. 2.
    1.98099995e+00 1.97599995e+00 1.97599995e+00 1.97399998e+00
    1.96200001e+00 1.95299995e+00 1.95299995e+00 1.96099997e+00
    1.98300004e+00 2. 2. 0. 0. 0. 0. 0. 0. 0. 0. 0. 0. 0. 0. 0. 0.
    2.93499994e+00 2.10899997e+00 2.09999990e+00 2.09899998e+00
    2.09899998e+00 2.08899999e+00 2.07399988e+00 2.06699991e+00
    2.04299998e+00 2.02399993e+00 2.02200007e+00 2. 2. 2. 2.
    1.98099995e+00 1.97599995e+00 1.97599995e+00 1.96200001e+00
    1.95299995e+00 1.95299995e+00 1.95299995e+00 1.96099997e+00
    1.98300004e+00 2. 2. 0. 0. 0. 0. 0. 0. 0. 0. 0. 0. 0. 0. 0.
    2.85700011e+00 2.16799998e+00 2.13400006e+00 2.10899997e+00
    2.09899998e+00 2.09899998e+00 2.08899999e+00 2.07399988e+00
    2.06699991e+00 2.04299998e+00 2.02399993e+00 2.02200007e+00 2. 2. 2.
    2. 1.98099995e+00 1.97599995e+00 1.97599995e+00 1.96200001e+00
    1.95299995e+00 1.95299995e+00 1.95299995e+00 1.96099997e+00
    1.98300004e+00 2. 2. 0. 0. 0. 0. 0. 0. 0. 0. 0. 0. 0. 0. 0.
    2.82800007e+00 2.15899992e+00 2.13400006e+00 2.10899997e+00
    2.09899998e+00 2.09899998e+00 2.08899999e+00 2.07399988e+00
    2.07299995e+00 2.06100011e+00 2.02399993e+00 2.02399993e+00
    2.02099991e+00 2. 2. 1.98099995e+00 1.97599995e+00 1.97599995e+00
    1.97599995e+00 1.97500002e+00 1.97399998e+00 1.96399999e+00
    1.95299995e+00 1.96099997e+00 1.98300004e+00 2. 2. 0. 0. 0. 0. 0. 0.
    0. 0. 0. 0. 0. 0. 0. 0. 2.84899998e+00 2.10400009e+00 2.09999990e+00
    2.08699989e+00 2.07699990e+00 2.07599998e+00 2.07399988e+00
    2.07399988e+00 2.06800008e+00 2.04600000e+00 2.04600000e+00
    2.04299998e+00 1.98099995e+00 1.97899997e+00 1.97599995e+00
    1.96000004e+00 1.95599997e+00 1.98300004e+00 1.98399997e+00
    1.97599995e+00 1.96500003e+00 1.95299995e+00 1.96099997e+00
    2.65199995e+00 0. 0. 0. 0. 0. 0. 0. 0. 0. 0. 0. 0. 0. 0. 0. 0.
    2.95700002e+00 2.09899998e+00 2.09899998e+00 2.08599997e+00
    2.07399988e+00 2.07399988e+00 2.07399988e+00 2.07399988e+00
    2.07299995e+00 2.06599998e+00 2.04900002e+00 2.04600000e+00
    1.97800004e+00 1.97599995e+00 1.97599995e+00 1.95799994e+00
    1.95299995e+00 1.98399997e+00 1.98500001e+00 1.97599995e+00
    2.95799994e+00 0. 0. 0. 0. 0. 0. 0. 0. 0. 0. 0. 0. 0. 0. 0. 0. 0. 0.
    0. 0. 0. 0. 0. 0. 0. 0. 0. 0. 0. 0. 0. 0. 0. 0. 0. 0. 0. 0. 0. 0. 0.
    0. 0. 0. 0. 0. 0. 0. 0. 0. 0. 0. 0. 0. 0. 0. 0. 0. 0. 0. 0. 0. 0. 0.
    0. 0. 0. 0. 0. 0. 0. 0. 0. 0. 0. 0. 0. 0. 0. 0. 0. 0. 0. 0. 0. 0. 0.
    0. 0. 0.</data></Depth>
</opencv_storage>
