<?xml version="1.0"?>
<opencv_storage>
<Depth type_id="opencv-matrix">
  <rows>40</rows>
  <cols>40</cols>
  <dt>f</dt>
  <data>
    0. 0. 0. 0. 0. 0. 2.02399993e+00 2.01799989e+00 2.02399993e+00
    2.02500010e+00 2.02399993e+00 2.02399993e+00 2.02500010e+00
    2.02500010e+00 2.02399993e+00 2.02500010e+00 2.02500010e+00
    2.02900004e+00 2.03099990e+00 2.02999997e+00 2.02900004e+00
    2.02500010e+00 2.02500010e+00 2.02900004e+00 2.04099989e+00
    2.04399991e+00 2.04399991e+00 2.04399991e+00 2.03699994e+00
    2.03600001e+00 2.87299991e+00 0. 0. 0. 0. 0. 0. 0. 0. 0. 0. 0. 0. 0.
    0. 0. 2.01799989e+00 2.01799989e+00 2.01799989e+00 2.02500010e+00
    2.01799989e+00 2.01799989e+00 2.02500010e+00 2.02300000e+00
    2.01900005e+00 2.02500010e+00 2.02500010e+00 2.02699995e+00
    2.02500010e+00 2.02500010e+00 2.02500010e+00 2.02500010e+00
    2.02500010e+00 2.02500010e+00 2.03699994e+00 2.04099989e+00
    2.04399991e+00 2.03699994e+00 2.03099990e+00 2.02500010e+00
    2.05500007e+00 0. 0. 0. 0. 0. 0. 0. 0. 0. 0. 0. 0. 0. 0. 0.
    2.04699993e+00 2.02399993e+00 2.02500010e+00 2.01999998e+00
    2.01799989e+00 2.01799989e+00 2.01900005e+00 2.01799989e+00
    2.01900005e+00 2.02500010e+00 2.02500010e+00 2.02500010e+00
    2.02500010e+00 2.02500010e+00 2.02500010e+00 2.02500010e+00
    2.02600002e+00 2.02500010e+00 2.03200006e+00 2.03500009e+00
    2.03699994e+00 2.03600001e+00 2.03099990e+00 2.02500010e+00
    2.01900005e+00 0. 0. 0. 0. 0. 0. 0. 0. 0. 0. 0. 0. 0. 0. 0.
    2.05299997e+00 2.02500010e+00 2.01999998e+00 2.01799989e+00
    2.01799989e+00 2.01799989e+00 2.01799989e+00 2.01799989e+00
    2.01999998e+00 2.01999998e+00 2.01999998e+00 2.01900005e+00
    2.02200007e+00 2.02500010e+00 2.02500010e+00 2.02500010e+00
    2.02500010e+00 2.02500010e+00 2.03099990e+00 2.03099990e+00
    2.03600001e+00 2.03299999e+00 2.03099990e+00 2.02500010e+00
    2.02300000e+00 2.66799998e+00 0. 0. 0. 0. 0. 0. 0. 0. 0. 0. 0. 0. 0.
    0. 2.05399990e+00 2.01500010e+00 2.01500010e+00 2.01799989e+00
    2.01799989e+00 2.01799989e+00 2.01799989e+00 2.01799989e+00
    2.01799989e+00 2.01799989e+00 2.01799989e+00 2.01799989e+00
    2.01999998e+00 2.02099991e+00 2.02099991e+00 2.02099991e+00
    2.02500010e+00 2.02500010e+00 2.03099990e+00 2.02900004e+00
    2.02900004e+00 2.02999997e+00 2.02800012e+00 2.02500010e+00
    2.01799989e+00 2.33599997e+00 0. 0. 0. 0. 0. 0. 0. 0. 0. 0. 0. 0. 0.
    0. 2.06800008e+00 2.01200008e+00 2.01200008e+00 2.01600003e+00
    2.01799989e+00 2.01799989e+00 2.01799989e+00 2.01799989e+00
    2.01799989e+00 2.01799989e+00 2.01799989e+00 2.01799989e+00
    2.01799989e+00 2.01799989e+00 2.01799989e+00 2.01799989e+00
    2.01799989e+00 2.02399993e+00 2.02900004e+00 2.02699995e+00
    2.02500010e+00 2.02500010e+00 2.02500010e+00 2.02500010e+00
    2.02500010e+00 1.69099998e+00 0. 0. 0. 0. 0. 0. 0. 0. 0. 0. 0. 0. 0.
    0. 2.02099991e+00 2.01300001e+00 2.01200008e+00 2.01300001e+00
    2.01799989e+00 2.01799989e+00 2.01799989e+00 2.01799989e+00
    2.01799989e+00 2.01799989e+00 2.01300001e+00 2.01200008e+00
    2.01600003e+00 2.01799989e+00 2.01799989e+00 2.01799989e+00
    2.01799989e+00 2.02399993e+00 2.02500010e+00 2.02500010e+00
    2.02500010e+00 2.02500010e+00 2.02500010e+00 2.02500010e+00
    2.03200006e+00 2.56800008e+00 0. 0. 0. 0. 0. 0. 0. 0. 0. 0. 0. 0. 0.
    0. 2.02699995e+00 2.01799989e+00 2.01200008e+00 2.01799989e+00
    2.01799989e+00 2.01799989e+00 2.01799989e+00 2.01799989e+00
    2.01799989e+00 2.01799989e+00 2.01799989e+00 2.01799989e+00
    2.01799989e+00 2.01799989e+00 2.01799989e+00 2.01799989e+00
    2.01799989e+00 2.02500010e+00 2.02500010e+00 2.02500010e+00
    2.02500010e+00 2.02500010e+00 2.02500010e+00 2.02500010e+00
    2.02500010e+00 2.08500004e+00 0. 0. 0. 0. 0. 0. 0. 0. 0. 0. 0. 0. 0.
    0. 1.28600001e+00 2.02699995e+00 2.01799989e+00 2.01799989e+00
    2.01399994e+00 2.01300001e+00 2.01500010e+00 2.01600003e+00
    2.01300001e+00 2.01300001e+00 2.01699996e+00 2.01799989e+00
    2.01799989e+00 2.01799989e+00 2.01799989e+00 2.01799989e+00
    2.01799989e+00 2.01799989e+00 2.02500010e+00 2.02500010e+00
    2.02500010e+00 2.02399993e+00 2.01900005e+00 2.01900005e+00
    2.01900005e+00 0. 0. 0. 0. 0. 0. 0. 0. 0. 0. 0. 0. 0. 0. 0.
    2.03200006e+00 2.01999998e+00 2.01699996e+00 2.01200008e+00
    2.01200008e+00 2.01200008e+00 2.01500010e+00 2.01600003e+00
    2.01200008e+00 2.01200008e+00 2.01699996e+00 2.01799989e+00
    2.01799989e+00 2.01799989e+00 2.01399994e+00 2.01699996e+00
    2.01399994e+00 2.01399994e+00 2.02500010e+00 2.02500010e+00
    2.01900005e+00 2.01799989e+00 2.01799989e+00 2.02300000e+00
    2.02500010e+00 0. 0. 0. 0. 0. 0. 0. 0. 0. 0. 0. 0. 0. 0. 0.
    2.02600002e+00 2.01699996e+00 2.01200008e+00 2.01200008e+00
    2.01200008e+00 2.01200008e+00 2.01200008e+00 2.01200008e+00
    2.01200008e+00 2.01200008e+00 2.01699996e+00 2.01799989e+00
    2.01300001e+00 2.01200008e+00 2.01200008e+00 2.01200008e+00
    2.01200008e+00 2.01200008e+00 2.01799989e+00 2.01799989e+00
    2.01799989e+00 2.01799989e+00 2.01799989e+00 2.02399993e+00
    2.02500010e+00 0. 0. 0. 0. 0. 0. 0. 0. 0. 0. 0. 0. 0. 0. 0.
    2.04999995e+00 2.01600003e+00 2.01200008e+00 2.01200008e+00
    2.01200008e+00 2.01200008e+00 2.01200008e+00 2.01200008e+00
    2.01200008e+00 2.01200008e+00 2.01500010e+00 2.01300001e+00
    2.01200008e+00 2.01200008e+00 2.01200008e+00 2.01200008e+00
    2.01200008e+00 2.01200008e+00 2.01799989e+00 2.01799989e+00
    2.01799989e+00 2.01799989e+00 2.02200007e+00 2.02200007e+00
    2.02399993e+00 2.72399998e+00 0. 0. 0. 0. 0. 0. 0. 0. 0. 0. 0. 0. 0.
    0. 2.41100001e+00 2.01200008e+00 2.01200008e+00 2.01200008e+00
    2.01200008e+00 2.01200008e+00 2.01200008e+00 2.01200008e+00
    2.01200008e+00 2.01200008e+00 2.01200008e+00 2.01200008e+00
    2.01200008e+00 2.01200008e+00 2.01200008e+00 2.01200008e+00
    2.01200008e+00 2.01600003e+00 2.01799989e+00 2.01799989e+00
    2.01799989e+00 2.01799989e+00 2.01799989e+00 2.01799989e+00
    2.02300000e+00 2.02500010e+00 0. 0. 0. 0. 0. 0. 0. 0. 0. 0. 0. 0. 0.
    0. 0. 2.00999999e+00 2.00600004e+00 2.01099992e+00 2.01200008e+00
    2.01200008e+00 2.01200008e+00 2.01200008e+00 2.00999999e+00
    2.00600004e+00 2.01200008e+00 2.01200008e+00 2.01200008e+00
    2.01200008e+00 2.01200008e+00 2.01200008e+00 2.01200008e+00
    2.01200008e+00 2.01799989e+00 2.01799989e+00 2.01799989e+00
    2.01799989e+00 2.01699996e+00 2.01799989e+00 2.01799989e+00
    2.02399993e+00 0. 0. 0. 0. 0. 0. 0. 0. 0. 0. 0. 0. 0. 0. 0.
    2.00999999e+00 2.00600004e+00 2. 2.00500011e+00 2.00600004e+00
    2.00600004e+00 2.00999999e+00 2.00600004e+00 2.00600004e+00
    2.01099992e+00 2.01200008e+00 2.00600004e+00 2.00600004e+00
    2.01200008e+00 2.01200008e+00 2.01200008e+00 2.01200008e+00
    2.01799989e+00 2.01799989e+00 2.01799989e+00 2.01799989e+00
    2.01200008e+00 2.01200008e+00 2.01200008e+00 2.01200008e+00
    2.05800009e+00 0. 0. 0. 0. 0. 0. 0. 0. 0. 0. 0. 0. 0. 0.
    2.01600003e+00 2.00600004e+00 2.00500011e+00 2.00600004e+00
    2.00099993e+00 2.00099993e+00 2.00099993e+00 2.00200009e+00
    2.00600004e+00 2.00699997e+00 2.01099992e+00 2.00600004e+00
    2.00600004e+00 2.00600004e+00 2.00600004e+00 2.00600004e+00
    2.01200008e+00 2.01799989e+00 2.01799989e+00 2.01600003e+00
    2.01300001e+00 2.01200008e+00 2.01200008e+00 2.00799990e+00
    2.00600004e+00 2.00600004e+00 0. 0. 0. 0. 0. 0. 0. 0. 0. 0. 0. 0. 0.
    1.17100000e+00 2.01699996e+00 2.00600004e+00 2.00600004e+00
    2.00600004e+00 2. 2. 2. 2.00399995e+00 2.00600004e+00 2.00600004e+00
    2.00699997e+00 2.00600004e+00 2.00600004e+00 2.00600004e+00
    2.00600004e+00 2.00600004e+00 2.00600004e+00 2.01200008e+00
    2.01300001e+00 2.01300001e+00 2.01200008e+00 2.01200008e+00
    2.01200008e+00 2.00699997e+00 2.00799990e+00 2.00999999e+00 0. 0. 0.
    0. 0. 0. 0. 0. 0. 0. 0. 0. 0. 1.61800003e+00 2.01699996e+00
    2.01099992e+00 2.00300002e+00 2.00099993e+00 1.99500000e+00
    1.99699998e+00 2. 2.00099993e+00 2.00600004e+00 2.00600004e+00
    2.00600004e+00 2.00600004e+00 2.00600004e+00 2.00600004e+00
    2.00600004e+00 2.00600004e+00 2. 2.00999999e+00 2.01200008e+00
    2.01200008e+00 2.01200008e+00 2.01200008e+00 2.00600004e+00
    2.00600004e+00 2.00999999e+00 2.01200008e+00 0. 0. 0. 0. 0. 0. 0. 0.
    0. 0. 0. 0. 0. 2.04099989e+00 2.01799989e+00 2.00500011e+00 2. 2. 2.
    2. 2. 2. 2.00600004e+00 2.00600004e+00 2.00600004e+00 2.00600004e+00
    2.00600004e+00 2.00600004e+00 2.00300002e+00 2. 2.00200009e+00
    2.00999999e+00 2.01099992e+00 2.01200008e+00 2.01200008e+00
    2.00999999e+00 2.00600004e+00 2.00600004e+00 2.00600004e+00
    2.00600004e+00 0. 0. 0. 0. 0. 0. 0. 0. 0. 0. 0. 0. 0. 0.
    2.02200007e+00 2. 1.99899995e+00 1.99899995e+00 1.99500000e+00
    1.99600005e+00 1.99899995e+00 2. 2. 2. 2.00600004e+00 2.00600004e+00
    2.00600004e+00 2.00600004e+00 2. 2. 2.00500011e+00 2.00600004e+00
    2.00799990e+00 2.01200008e+00 2.01200008e+00 2.00600004e+00
    2.00500011e+00 2.00999999e+00 2.00699997e+00 2.00699997e+00 0. 0. 0.
    0. 0. 0. 0. 0. 0. 0. 0. 0. 0. 0. 2.01200008e+00 1.99899995e+00
    1.99300003e+00 1.99300003e+00 1.99300003e+00 1.99300003e+00
    1.99300003e+00 2. 2.00600004e+00 2.00600004e+00 2. 2. 2.00200009e+00
    2.00600004e+00 2.00500011e+00 2. 2.00500011e+00 2.00600004e+00
    2.00600004e+00 2.01200008e+00 2.00600004e+00 2.00500011e+00 2.
    2.00600004e+00 2.00600004e+00 2.01799989e+00 0. 0. 0. 0. 0. 0. 0. 0.
    0. 0. 0. 0. 0. 0. 2.02099991e+00 1.99300003e+00 1.99300003e+00
    1.99300003e+00 1.99300003e+00 1.99300003e+00 1.99300003e+00 2.
    2.00099993e+00 2. 2. 2. 2. 2. 2.00600004e+00 2. 2.00500011e+00
    2.00099993e+00 2.00600004e+00 2.00600004e+00 2. 2. 2. 2. 2.
    2.00200009e+00 0. 0. 0. 0. 0. 0. 0. 0. 0. 0. 0. 0. 0. 1.68599999e+00
    2.00999999e+00 1.99300003e+00 1.99300003e+00 1.99300003e+00
    1.99300003e+00 1.99300003e+00 1.99300003e+00 1.99300003e+00
    1.99300003e+00 1.99300003e+00 1.99399996e+00 1.99800003e+00 2. 2. 2.
    2. 2. 2. 2.00399995e+00 2.00600004e+00 2. 2. 2. 2. 2.00300002e+00
    2.00500011e+00 0. 0. 0. 0. 0. 0. 0. 0. 0. 0. 0. 0. 0. 0. 2.
    1.99300003e+00 1.99300003e+00 1.99300003e+00 1.99300003e+00
    1.99300003e+00 1.99300003e+00 1.99300003e+00 1.99300003e+00
    1.99300003e+00 1.99300003e+00 1.99300003e+00 1.99500000e+00
    1.99300003e+00 1.99300003e+00 1.99300003e+00 2.00300002e+00
    2.00099993e+00 2. 2. 2.00300002e+00 2. 2. 2. 2.00099993e+00
    2.01200008e+00 0. 0. 0. 0. 0. 0. 0. 0. 0. 0. 0. 0. 0. 0.
    2.02900004e+00 1.99899995e+00 1.99300003e+00 1.99300003e+00
    1.99300003e+00 1.99300003e+00 1.99300003e+00 1.99300003e+00
    1.99300003e+00 1.99300003e+00 1.99300003e+00 1.99300003e+00
    1.99300003e+00 1.99300003e+00 1.99300003e+00 1.99300003e+00
    2.00399995e+00 2.00099993e+00 2. 2. 2.00300002e+00 2. 2. 2.
    1.99300003e+00 1.99300003e+00 0. 0. 0. 0. 0. 0. 0. 0. 0. 0. 0. 0. 0.
    0. 2.02800012e+00 1.99699998e+00 1.99300003e+00 1.99300003e+00
    1.99300003e+00 1.99300003e+00 1.99300003e+00 1.99300003e+00
    1.99300003e+00 1.99300003e+00 1.99300003e+00 1.99300003e+00
    1.99300003e+00 1.99300003e+00 1.99300003e+00 1.99300003e+00
    1.99899995e+00 2. 2. 2. 2. 2. 2. 2. 1.99300003e+00 1.99300003e+00 0.
    0. 0. 0. 0. 0. 0. 0. 0. 0. 0. 0. 0. 0. 2.02300000e+00 1.99300003e+00
    1.99300003e+00 1.99300003e+00 1.99199998e+00 1.99199998e+00
    1.99199998e+00 1.99300003e+00 1.99300003e+00 1.99300003e+00
    1.99300003e+00 1.99300003e+00 1.99300003e+00 1.99300003e+00
    1.99300003e+00 1.99300003e+00 1.99899995e+00 2. 1.99899995e+00
    1.99899995e+00 2. 2. 2. 2. 1.99300003e+00 1.99300003e+00 0. 0. 0. 0.
    0. 0. 0. 0. 0. 0. 0. 0. 0. 2.60400009e+00 2.01200008e+00
    1.99300003e+00 1.99300003e+00 1.99300003e+00 1.98899996e+00
    1.98699999e+00 1.98699999e+00 1.98699999e+00 1.98699999e+00
    1.99199998e+00 1.99300003e+00 1.99300003e+00 1.99300003e+00
    1.99300003e+00 1.99300003e+00 1.99300003e+00 1.99899995e+00 2.
    1.99300003e+00 1.99300003e+00 1.99300003e+00 2. 1.99399996e+00
    1.99800003e+00 1.99300003e+00 1.99300003e+00 0. 0. 0. 0. 0. 0. 0. 0.
    0. 0. 0. 0. 0. 0. 1.11099994e+00 1.99300003e+00 1.98800004e+00
    1.98699999e+00 1.98699999e+00 1.98699999e+00 1.98699999e+00
    1.98699999e+00 1.98699999e+00 1.99199998e+00 1.99300003e+00
    1.98699999e+00 1.98699999e+00 1.98699999e+00 1.98899996e+00
    1.99300003e+00 1.99899995e+00 2. 1.99600005e+00 1.99300003e+00
    1.99300003e+00 1.99399996e+00 1.99300003e+00 1.99300003e+00
    1.99300003e+00 1.99300003e+00 0. 0. 0. 0. 0. 0. 0. 0. 0. 0. 0. 0. 0.
    0. 0. 1.99699998e+00 1.98699999e+00 1.98699999e+00 1.98699999e+00
    1.98699999e+00 1.98699999e+00 1.98699999e+00 1.98699999e+00
    1.98899996e+00 1.98899996e+00 1.98699999e+00 1.98699999e+00
    1.98699999e+00 1.98699999e+00 1.98699999e+00 1.99300003e+00
    1.99699998e+00 1.99399996e+00 1.99300003e+00 1.99300003e+00
    1.99300003e+00 1.99300003e+00 1.99300003e+00 1.99399996e+00
    1.99300003e+00 0. 0. 0. 0. 0. 0. 0. 0. 0. 0. 0. 0. 0. 2.59800005e+00
    0. 1.99300003e+00 1.98699999e+00 1.98699999e+00 1.98699999e+00
    1.98699999e+00 1.98699999e+00 1.98699999e+00 1.98699999e+00
    1.98699999e+00 1.98699999e+00 1.98699999e+00 1.98699999e+00
    1.98699999e+00 1.98699999e+00 1.98699999e+00 1.99199998e+00
    1.99399996e+00 1.99300003e+00 1.99300003e+00 1.99300003e+00
    1.99300003e+00 1.99300003e+00 1.99300003e+00 1.98899996e+00
    1.98699999e+00 0. 0. 0. 0. 0. 0. 0. 0. 0. 0. 0. 0. 0. 0. 0.
    1.98300004e+00 1.98500001e+00 1.98699999e+00 1.98699999e+00
    1.98300004e+00 1.98099995e+00 1.98699999e+00 1.98699999e+00
    1.98699999e+00 1.98699999e+00 1.98699999e+00 1.98699999e+00
    1.98699999e+00 1.98699999e+00 1.98699999e+00 1.99199998e+00
    1.99300003e+00 1.99300003e+00 1.99300003e+00 1.99300003e+00
    1.99300003e+00 1.99300003e+00 1.99100006e+00 1.98699999e+00
    1.98699999e+00 0. 0. 0. 0. 0. 0. 0. 0. 0. 0. 0. 0. 0. 0. 0.
    1.97300005e+00 1.98099995e+00 1.98000002e+00 1.98399997e+00
    1.98199999e+00 1.98699999e+00 1.98699999e+00 1.98599994e+00
    1.98599994e+00 1.98699999e+00 1.98699999e+00 1.98099995e+00
    1.98099995e+00 1.98699999e+00 1.98699999e+00 1.99199998e+00
    1.99300003e+00 1.98899996e+00 1.98899996e+00 1.99300003e+00
    1.99199998e+00 1.99199998e+00 1.98800004e+00 1.98699999e+00
    1.98699999e+00 0. 0. 0. 0. 0. 0. 0. 0. 0. 0. 0. 0. 0. 0. 0.
    1.98599994e+00 1.98099995e+00 1.97599995e+00 1.97899997e+00
    1.98399997e+00 1.98699999e+00 1.98699999e+00 1.98099995e+00
    1.98099995e+00 1.98099995e+00 1.98099995e+00 1.98099995e+00
    1.98699999e+00 1.98699999e+00 1.98699999e+00 1.99199998e+00
    1.98699999e+00 1.98099995e+00 1.98699999e+00 1.99300003e+00
    1.98699999e+00 1.98099995e+00 1.98699999e+00 1.98699999e+00
    2.12899995e+00 0. 0. 0. 0. 0. 0. 0. 0. 0. 0. 0. 0. 0. 0. 0. 0.
    1.97500002e+00 1.97500002e+00 1.98099995e+00 1.98099995e+00
    1.98099995e+00 1.98099995e+00 1.97500002e+00 1.97500002e+00
    1.98000002e+00 1.98099995e+00 1.98699999e+00 1.98699999e+00
    1.98599994e+00 1.98099995e+00 1.99199998e+00 1.98899996e+00
    1.97500002e+00 1.98000002e+00 1.98699999e+00 1.98699999e+00
    1.98099995e+00 1.98599994e+00 0. 0. 0. 0. 0. 0. 0. 0. 0. 0. 0. 0. 0.
    0. 0. 0. 0. 0. 0. 0. 1.97700000e+00 2.78099990e+00 0. 0. 0.
    2.14599991e+00 1.98300004e+00 2.91700006e+00 1.98699999e+00
    1.98699999e+00 1.02900004e+00 1.99699998e+00 1.99800003e+00
    1.99100006e+00 2.80500007e+00 0. 0. 0. 0. 0. 0. 0. 0. 0. 0. 0. 0. 0.
    0. 0. 0. 0. 0. 0. 0. 0. 0. 0. 0. 0. 0. 0. 0. 0. 0. 0. 2.00200009e+00
    1.99300003e+00 1.60599995e+00 1.10599995e+00 0. 1.99600005e+00
    1.99600005e+00 1.99899995e+00 0. 0. 0. 0. 0. 0. 0. 0. 0. 0. 0. 0. 0.
    0. 0. 0. 0. 0. 0. 0. 0. 0. 0. 0. 0. 0. 0. 0. 0. 0. 0. 2.22099996e+00
    1.99699998e+00 1.99000001e+00 1.66700006e+00 1.25000000e+00
    1.39800000e+00 1.97899997e+00 1.99600005e+00 1.99899995e+00 0. 0. 0.
    0. 0. 0. 0. 0. 0. 0. 0. 0. 0. 0. 0. 0. 0. 0. 0. 0. 0. 0. 0. 0. 0. 0.
    0. 0. 0. 0. 0. 0. 1.98500001e+00 1.98699999e+00 2.07100010e+00
    2.06900001e+00 1.14100003e+00 1.97300005e+00 2.00200009e+00
    2.03900003e+00 0. 0. 0. 0. 0. 0. 0. 0. 0. 0. 0. 0. 0. 0. 0. 0. 0. 0.
    0. 0. 0. 0. 0. 0. 0. 0. 0. 0. 0. 2.40199995e+00 0. 0. 1.98199999e+00
    1.98800004e+00 2.03600001e+00 2.05599999e+00 2.05399990e+00
    2.03699994e+00 2.03699994e+00 2.03500009e+00 2.76300001e+00 0. 0. 0.
    0. 0. 0. 0. 0. 0. 0. 0. 0. 0. 0.</data></Depth>
</opencv_storage>
