<?xml version="1.0"?>
<opencv_storage>
<Depth type_id="opencv-matrix">
  <rows>40</rows>
  <cols>40</cols>
  <dt>f</dt>
  <data>
    0. 0. 0. 0. 0. 0. 0. 0. 0. 0. 0. 0. 0. 0. 0. 0. 0. 0. 0. 0. 0. 0. 0.
    0. 0. 0. 0. 0. 0. 0. 0. 0. 0. 0. 0. 0. 0. 0. 0. 0. 0. 0. 0. 0. 0. 0.
    0. 0. 1.95200002e+00 2. 2. 1.97800004e+00 1.96200001e+00
    1.96500003e+00 1.99300003e+00 1.97899997e+00 1.94099998e+00
    1.88900006e+00 1.88900006e+00 1.90799999e+00 1.91600001e+00
    1.88900006e+00 1.88900006e+00 1.88900006e+00 1.88100004e+00
    1.85500002e+00 1.85399997e+00 1.85399997e+00 1.86099994e+00
    1.88699996e+00 1.88900006e+00 1.88900006e+00 1.88900006e+00 0. 0. 0.
    0. 0. 0. 0. 0. 0. 0. 0. 0. 0. 0. 0. 1.93499994e+00 1.95400000e+00
    1.95400000e+00 1.94500005e+00 1.93900001e+00 1.93900001e+00
    1.93299997e+00 1.92400002e+00 1.90900004e+00 1.88900006e+00
    1.88900006e+00 1.89600003e+00 1.89900005e+00 1.88900006e+00
    1.88900006e+00 1.87899995e+00 1.86399996e+00 1.85399997e+00
    1.85399997e+00 1.85399997e+00 1.86099994e+00 1.88699996e+00
    1.88900006e+00 1.88900006e+00 1.88900006e+00 0. 0. 0. 0. 0. 0. 0. 0.
    0. 0. 0. 0. 0. 0. 2.71900010e+00 1.91199994e+00 1.91299999e+00
    1.92299998e+00 1.92499995e+00 1.92100000e+00 1.91100001e+00
    1.89300001e+00 1.88900006e+00 1.88900006e+00 1.88900006e+00
    1.88900006e+00 1.88900006e+00 1.88900006e+00 1.88900006e+00
    1.88000000e+00 1.86600006e+00 1.85399997e+00 1.85399997e+00
    1.85399997e+00 1.85399997e+00 1.86099994e+00 1.88699996e+00
    1.88900006e+00 1.88900006e+00 1.88900006e+00 0. 0. 0. 0. 0. 0. 0. 0.
    0. 0. 0. 0. 0. 1.92499995e+00 1.90300000e+00 1.88900006e+00
    1.89199996e+00 1.91600001e+00 1.92400002e+00 1.91299999e+00
    1.88900006e+00 1.88900006e+00 1.88900006e+00 1.88900006e+00
    1.88900006e+00 1.88900006e+00 1.88900006e+00 1.88900006e+00
    1.88900006e+00 1.86300004e+00 1.85399997e+00 1.85399997e+00
    1.85399997e+00 1.85399997e+00 1.85399997e+00 1.86099994e+00
    1.88699996e+00 1.88900006e+00 1.88900006e+00 1.88900006e+00 0. 0. 0.
    0. 0. 0. 0. 0. 0. 0. 0. 0. 0. 1.92499995e+00 1.90300000e+00
    1.88900006e+00 1.88999999e+00 1.89400005e+00 1.91199994e+00
    1.91299999e+00 1.88900006e+00 1.88900006e+00 1.88900006e+00
    1.88900006e+00 1.88900006e+00 1.88900006e+00 1.88900006e+00
    1.88900006e+00 1.88900006e+00 1.86300004e+00 1.85399997e+00
    1.85399997e+00 1.85399997e+00 1.85399997e+00 1.85399997e+00
    1.86099994e+00 1.88699996e+00 1.88900006e+00 1.88900006e+00
    1.88900006e+00 0. 0. 0. 0. 0. 0. 0. 0. 0. 0. 0. 0. 0. 1.92499995e+00
    1.91600001e+00 1.90199995e+00 1.88900006e+00 1.88900006e+00
    1.90999997e+00 1.91299999e+00 1.88900006e+00 1.88900006e+00
    1.88900006e+00 1.88900006e+00 1.88900006e+00 1.88900006e+00
    1.88900006e+00 1.88900006e+00 1.88900006e+00 1.87800002e+00
    1.86399996e+00 1.85399997e+00 1.85399997e+00 1.85399997e+00
    1.86300004e+00 1.87699997e+00 1.88800001e+00 1.88900006e+00
    1.88900006e+00 1.88900006e+00 0. 0. 0. 0. 0. 0. 0. 0. 0. 0. 0. 0. 0.
    1.94900000e+00 1.93400002e+00 1.91600001e+00 1.89999998e+00
    1.89100003e+00 1.90300000e+00 1.90499997e+00 1.88900006e+00
    1.88900006e+00 1.88900006e+00 1.88900006e+00 1.88900006e+00
    1.88900006e+00 1.88900006e+00 1.88900006e+00 1.88900006e+00
    1.88900006e+00 1.87199998e+00 1.85399997e+00 1.85399997e+00
    1.85399997e+00 1.87000000e+00 1.88900006e+00 1.88900006e+00
    1.88900006e+00 1.88900006e+00 1.88900006e+00 0. 0. 0. 0. 0. 0. 0. 0.
    0. 0. 0. 0. 0. 1.99000001e+00 1.95200002e+00 1.92700005e+00
    1.92100000e+00 1.89499998e+00 1.88900006e+00 1.88900006e+00
    1.88900006e+00 1.88900006e+00 1.88900006e+00 1.88900006e+00
    1.88900006e+00 1.88900006e+00 1.88900006e+00 1.88900006e+00
    1.88900006e+00 1.88900006e+00 1.87300003e+00 1.85599995e+00
    1.85599995e+00 1.85599995e+00 1.87100005e+00 1.88900006e+00
    1.88900006e+00 1.88900006e+00 1.88900006e+00 1.88900006e+00 0. 0. 0.
    0. 0. 0. 0. 0. 0. 0. 0. 0. 0. 1.88199997e+00 1.92700005e+00
    1.94400001e+00 1.92100000e+00 1.89499998e+00 1.88900006e+00
    1.88900006e+00 1.88900006e+00 1.88900006e+00 1.88900006e+00
    1.88900006e+00 1.88900006e+00 1.88900006e+00 1.88900006e+00
    1.88900006e+00 1.88900006e+00 1.88900006e+00 1.88600004e+00
    1.88199997e+00 1.88199997e+00 1.88199997e+00 1.88499999e+00
    1.88900006e+00 1.88900006e+00 1.88900006e+00 1.88900006e+00
    1.88900006e+00 0. 0. 0. 0. 0. 0. 0. 0. 0. 0. 0. 0. 0. 1.85399997e+00
    1.90799999e+00 1.93599999e+00 1.92100000e+00 1.89499998e+00
    1.88900006e+00 1.89499998e+00 1.90699995e+00 1.89300001e+00
    1.88900006e+00 1.88900006e+00 1.88900006e+00 1.88900006e+00
    1.88900006e+00 1.88900006e+00 1.88900006e+00 1.88900006e+00
    1.88900006e+00 1.88900006e+00 1.88900006e+00 1.88900006e+00
    1.88900006e+00 1.88900006e+00 1.88900006e+00 1.88900006e+00
    1.88900006e+00 1.88900006e+00 0. 0. 0. 0. 0. 0. 0. 0. 0. 0. 0. 0. 0.
    1.85399997e+00 1.88499999e+00 1.91199994e+00 1.92100000e+00
    1.89499998e+00 1.88900006e+00 1.90100002e+00 1.92299998e+00
    1.89600003e+00 1.88900006e+00 1.88900006e+00 1.88900006e+00
    1.88900006e+00 1.88900006e+00 1.89199996e+00 1.89900005e+00
    1.89199996e+00 1.88900006e+00 1.88900006e+00 1.88900006e+00
    1.88900006e+00 1.88900006e+00 1.88900006e+00 1.88900006e+00
    1.88900006e+00 1.89300001e+00 1.89999998e+00 0. 0. 0. 0. 0. 0. 0. 0.
    0. 0. 0. 0. 0. 1.85399997e+00 1.85399997e+00 1.87899995e+00
    1.92200005e+00 1.89600003e+00 1.88999999e+00 1.90100002e+00
    1.92299998e+00 1.89699996e+00 1.88999999e+00 1.88999999e+00
    1.88999999e+00 1.88999999e+00 1.88999999e+00 1.89900005e+00
    1.92499995e+00 1.89900005e+00 1.88999999e+00 1.88900006e+00
    1.88900006e+00 1.88900006e+00 1.88900006e+00 1.88900006e+00
    1.88900006e+00 1.88999999e+00 1.90499997e+00 1.92499995e+00 0. 0. 0.
    0. 0. 0. 0. 0. 0. 0. 0. 0. 0. 1.85399997e+00 1.85399997e+00
    1.87899995e+00 1.92400002e+00 1.91799998e+00 1.91700006e+00
    1.91999996e+00 1.92400002e+00 1.91799998e+00 1.91700006e+00
    1.91700006e+00 1.91700006e+00 1.91700006e+00 1.91700006e+00
    1.91900003e+00 1.92499995e+00 1.91900003e+00 1.90300000e+00
    1.88900006e+00 1.88900006e+00 1.88900006e+00 1.88900006e+00
    1.88900006e+00 1.88900006e+00 1.90799999e+00 1.91999996e+00
    1.92499995e+00 0. 0. 0. 0. 0. 0. 0. 0. 0. 0. 0. 0. 0. 1.85399997e+00
    1.88800001e+00 1.92200005e+00 1.94400001e+00 1.94400001e+00
    1.94400001e+00 1.94400001e+00 1.94299996e+00 1.92900002e+00
    1.92499995e+00 1.92499995e+00 1.92499995e+00 1.92499995e+00
    1.92499995e+00 1.92499995e+00 1.92499995e+00 1.92499995e+00
    1.90699995e+00 1.88900006e+00 1.88900006e+00 1.88900006e+00
    1.88900006e+00 1.88900006e+00 1.88900006e+00 1.91400003e+00
    1.93299997e+00 1.94400001e+00 0. 0. 0. 0. 0. 0. 0. 0. 0. 0. 0. 0. 0.
    1.89199996e+00 1.94099998e+00 1.96800005e+00 1.96200001e+00
    1.96200001e+00 1.96200001e+00 1.96200001e+00 1.96000004e+00
    1.93200004e+00 1.92499995e+00 1.92799997e+00 1.93499994e+00
    1.93499994e+00 1.93499994e+00 1.93200004e+00 1.92499995e+00
    1.92499995e+00 1.91199994e+00 1.89600003e+00 1.88900006e+00
    1.88900006e+00 1.88900006e+00 1.88900006e+00 1.88900006e+00
    1.91400003e+00 1.94099998e+00 1.96200001e+00 0. 0. 0. 0. 0. 0. 0. 0.
    0. 0. 0. 0. 0. 2. 2. 1.98699999e+00 1.96200001e+00 1.96200001e+00
    1.96200001e+00 1.96200001e+00 1.96000004e+00 1.93200004e+00
    1.92499995e+00 1.93599999e+00 1.96200001e+00 1.96200001e+00
    1.96200001e+00 1.95200002e+00 1.92499995e+00 1.92499995e+00
    1.92499995e+00 1.91700006e+00 1.88999999e+00 1.88900006e+00
    1.88900006e+00 1.88900006e+00 1.88900006e+00 1.91400003e+00
    1.94099998e+00 1.96200001e+00 0. 0. 0. 0. 0. 0. 0. 0. 0. 0. 0. 0. 0.
    2. 2. 1.99699998e+00 1.98800004e+00 1.96700001e+00 1.96200001e+00
    1.96200001e+00 1.96099997e+00 1.95400000e+00 1.95299995e+00
    1.95500004e+00 1.96200001e+00 1.96200001e+00 1.96200001e+00
    1.96000004e+00 1.95200002e+00 1.93200004e+00 1.92499995e+00
    1.91700006e+00 1.88999999e+00 1.88900006e+00 1.88900006e+00
    1.88900006e+00 1.88900006e+00 1.91400003e+00 1.94099998e+00
    1.96200001e+00 0. 0. 0. 0. 0. 0. 0. 0. 0. 0. 0. 0. 0. 2. 2. 2.
    1.99600005e+00 1.96800005e+00 1.96200001e+00 1.96200001e+00
    1.96200001e+00 1.96200001e+00 1.96200001e+00 1.96200001e+00
    1.96200001e+00 1.96200001e+00 1.96200001e+00 1.96200001e+00
    1.96200001e+00 1.93400002e+00 1.92499995e+00 1.92100000e+00
    1.90699995e+00 1.90699995e+00 1.90699995e+00 1.90699995e+00
    1.90699995e+00 1.91900003e+00 2.59699988e+00 0. 0. 0. 0. 0. 0. 0. 0.
    0. 0. 0. 0. 0. 0. 2. 2. 2. 1.99699998e+00 1.97500002e+00
    1.97099996e+00 1.96800005e+00 1.96200001e+00 1.96200001e+00
    1.96200001e+00 1.96200001e+00 1.96200001e+00 1.96899998e+00
    1.97099996e+00 1.96800005e+00 1.96200001e+00 1.93400002e+00
    1.92100000e+00 1.91700006e+00 1.91700006e+00 1.91700006e+00
    1.91700006e+00 1.91799998e+00 1.92499995e+00 1.92499995e+00 0. 0. 0.
    0. 0. 0. 0. 0. 0. 0. 0. 0. 0. 0. 0. 2. 2. 2. 2. 1.99899995e+00
    1.99899995e+00 1.98699999e+00 1.96200001e+00 1.96200001e+00
    1.96200001e+00 1.96200001e+00 1.96300006e+00 1.99100006e+00
    1.99899995e+00 1.98899996e+00 1.96200001e+00 1.93400002e+00
    1.90799999e+00 1.88999999e+00 1.88999999e+00 1.88999999e+00
    1.88999999e+00 1.89699996e+00 1.92299998e+00 1.92499995e+00 0. 0. 0.
    0. 0. 0. 0. 0. 0. 0. 0. 0. 0. 0. 0. 2. 2. 2. 2. 2. 2. 1.99600005e+00
    1.98699999e+00 1.96700001e+00 1.96200001e+00 1.96200001e+00
    1.96200001e+00 1.97000003e+00 1.98699999e+00 1.99000001e+00
    1.96200001e+00 1.93400002e+00 1.90699995e+00 1.88900006e+00
    1.88900006e+00 1.88900006e+00 1.88900006e+00 1.89600003e+00
    1.92299998e+00 1.92499995e+00 0. 0. 0. 0. 0. 0. 0. 0. 0. 0. 0. 0. 0.
    0. 0. 2.01799989e+00 2.00699997e+00 2. 2. 2. 2. 2. 1.99699998e+00
    1.96899998e+00 1.96200001e+00 1.96200001e+00 1.96200001e+00
    1.96200001e+00 1.98199999e+00 1.99500000e+00 1.97899997e+00
    1.95099998e+00 1.92400002e+00 1.90499997e+00 1.90499997e+00
    1.89400005e+00 1.88900006e+00 1.89600003e+00 1.92299998e+00
    1.94799995e+00 0. 0. 0. 0. 0. 0. 0. 0. 0. 0. 0. 0. 0. 0. 0.
    2.03900003e+00 2.01500010e+00 2. 2. 2. 2. 2. 1.99699998e+00
    1.96899998e+00 1.96200001e+00 1.96200001e+00 1.96200001e+00
    1.96200001e+00 1.97800004e+00 1.99199998e+00 1.99199998e+00
    1.97000003e+00 1.94799995e+00 1.93099999e+00 1.92499995e+00
    1.89900005e+00 1.88900006e+00 1.89600003e+00 1.92299998e+00
    1.97599995e+00 0. 0. 0. 0. 0. 0. 0. 0. 0. 0. 0. 0. 0. 0. 0.
    2.03900003e+00 2.01500010e+00 2. 2. 2. 2. 2. 1.99699998e+00
    1.96899998e+00 1.96200001e+00 1.96200001e+00 1.96200001e+00
    1.96200001e+00 1.96300006e+00 1.96399999e+00 1.96399999e+00
    1.96300006e+00 1.96099997e+00 1.95200002e+00 1.92600000e+00
    1.89900005e+00 1.88900006e+00 1.89600003e+00 1.92299998e+00
    1.97599995e+00 2.09899998e+00 2.23399997e+00 0. 0. 0. 0. 0. 0. 0. 0.
    0. 0. 0. 0. 0. 2.03900003e+00 2.03099990e+00 2.01699996e+00 2. 2. 2.
    2. 1.99899995e+00 1.99000001e+00 1.98800004e+00 1.98800004e+00
    1.98699999e+00 1.96800005e+00 1.96200001e+00 1.96200001e+00
    1.96200001e+00 1.96200001e+00 1.96200001e+00 1.95899999e+00
    1.95099998e+00 1.90699995e+00 1.88900006e+00 1.89600003e+00
    1.92299998e+00 1.95799994e+00 2.00200009e+00 2.03900003e+00 0. 0. 0.
    0. 0. 0. 0. 0. 0. 0. 0. 0. 0. 2.03900003e+00 2.03900003e+00
    2.03099990e+00 2.01500010e+00 2.00300002e+00 2. 2. 2. 2. 2. 2.
    1.99899995e+00 1.98300004e+00 1.97800004e+00 1.97800004e+00
    1.97800004e+00 1.97800004e+00 1.97800004e+00 1.97399998e+00
    1.96200001e+00 1.93200004e+00 1.91999996e+00 1.92400002e+00
    1.93900001e+00 1.95500004e+00 2.60100007e+00 0. 0. 0. 0. 0. 0. 0. 0.
    0. 0. 0. 0. 0. 0. 2.03900003e+00 2.03900003e+00 2.03900003e+00
    2.03600001e+00 2.01200008e+00 2.00600004e+00 2.00600004e+00
    2.00600004e+00 2.00600004e+00 2.00600004e+00 2.00600004e+00
    2.00600004e+00 2.00099993e+00 2. 2. 2. 2. 2. 1.99300003e+00
    1.96899998e+00 1.96800005e+00 1.96800005e+00 1.96800005e+00
    1.96800005e+00 1.96800005e+00 0. 0. 0. 0. 0. 0. 0. 0. 0. 0. 0. 0. 0.
    0. 0. 2.03900003e+00 2.03900003e+00 2.03900003e+00 2.03900003e+00
    2.03600001e+00 2.03500009e+00 2.03500009e+00 2.03500009e+00
    2.03500009e+00 2.03500009e+00 2.03500009e+00 2.03399992e+00
    2.00799990e+00 2. 2. 2. 2. 2. 1.99899995e+00 1.99699998e+00
    1.99699998e+00 1.99699998e+00 1.99699998e+00 1.99699998e+00
    1.99699998e+00 0. 0. 0. 0. 0. 0. 0. 0. 0. 0. 0. 0. 0. 0. 0.
    2.11800003e+00 2.08500004e+00 2.05500007e+00 2.03900003e+00
    2.03900003e+00 2.03900003e+00 2.03900003e+00 2.03900003e+00
    2.03900003e+00 2.03900003e+00 2.03900003e+00 2.03800011e+00
    2.00900006e+00 2. 2. 2. 2. 2. 2. 2. 2. 2. 2. 2. 2. 0. 0. 0. 0. 0. 0.
    0. 0. 0. 0. 0. 0. 0. 0. 0. 2.16000009e+00 2.11899996e+00
    2.07999992e+00 2.05299997e+00 2.04099989e+00 2.03900003e+00
    2.03900003e+00 2.03900003e+00 2.03900003e+00 2.03900003e+00
    2.03900003e+00 2.03800011e+00 2.00900006e+00 2. 2. 2. 2. 2. 2. 2. 2.
    2. 2. 2. 2. 2.88000011e+00 0. 0. 0. 0. 0. 0. 0. 0. 0. 0. 0. 0. 0. 0.
    2.16599989e+00 2.14000010e+00 2.10700011e+00 2.07399988e+00
    2.04500008e+00 2.03900003e+00 2.03900003e+00 2.03900003e+00
    2.03900003e+00 2.03900003e+00 2.03900003e+00 2.03800011e+00
    2.01300001e+00 2.00500011e+00 2.00500011e+00 2.00500011e+00
    2.00500011e+00 2.00300002e+00 2. 2. 2. 2. 2. 2. 2. 2. 2. 0. 0. 0. 0.
    0. 0. 0. 0. 0. 0. 0. 0. 0. 2.19700003e+00 2.17100000e+00
    2.12800002e+00 2.07399988e+00 2.04500008e+00 2.03900003e+00
    2.03900003e+00 2.03900003e+00 2.03900003e+00 2.03900003e+00
    2.03900003e+00 2.03900003e+00 2.03500009e+00 2.03399992e+00
    2.03399992e+00 2.03399992e+00 2.03399992e+00 2.01799989e+00 2. 2. 2.
    2. 2. 2. 2. 2. 2. 0. 0. 0. 0. 0. 0. 0. 0. 0. 0. 0. 0. 0.
    2.22900009e+00 2.18700004e+00 2.13100004e+00 2.07399988e+00
    2.04500008e+00 2.03900003e+00 2.03900003e+00 2.03900003e+00
    2.03900003e+00 2.03900003e+00 2.03200006e+00 2.01500010e+00
    2.01500010e+00 2.02699995e+00 2.03900003e+00 2.03900003e+00
    2.03900003e+00 2.01999998e+00 2. 2. 2. 2. 2. 2. 2. 2. 2. 0. 0. 0. 0.
    0. 0. 0. 0. 0. 0. 0. 0. 0. 2.24499989e+00 2.19300008e+00
    2.13100004e+00 2.07399988e+00 2.04500008e+00 2.03900003e+00
    2.03399992e+00 2.02500010e+00 2.02500010e+00 2.02500010e+00
    2.01799989e+00 2. 2. 2.01999998e+00 2.03900003e+00 2.03900003e+00
    2.02900004e+00 2.01300001e+00 2. 2. 2. 2. 2. 2. 2. 2. 2. 0. 0. 0. 0.
    0. 0. 0. 0. 0. 0. 0. 0. 0. 2.26900005e+00 2.20499992e+00
    2.13199997e+00 2.07100010e+00 2.04500008e+00 2.03900003e+00
    2.02600002e+00 2. 2. 2. 2. 2. 2. 2.01799989e+00 2.03500009e+00
    2.03500009e+00 2.00900006e+00 2. 2. 2. 2. 2. 2.00099993e+00
    2.00399995e+00 2.00399995e+00 2.13899994e+00 2.32299995e+00 0. 0. 0.
    0. 0. 0. 0. 0. 0. 0. 0. 0. 0. 2.43899989e+00 2.28999996e+00
    2.14199996e+00 2.04399991e+00 2.03999996e+00 2.03900003e+00
    2.02600002e+00 2. 2. 2. 2. 2. 2. 2.00300002e+00 2.00600004e+00
    2.00600004e+00 2.00200009e+00 2. 2. 2. 2. 2. 2.00699997e+00
    2.03099990e+00 2.03299999e+00 0. 0. 0. 0. 0. 0. 0. 0. 0. 0. 0. 0. 0.
    0. 0. 2.50399995e+00 2.43499994e+00 2.26600003e+00 2.03900003e+00
    2.03900003e+00 2.03900003e+00 2.03399992e+00 2.02099991e+00
    2.00399995e+00 2. 2.00699997e+00 2.02300000e+00 2.02300000e+00
    2.01099992e+00 2. 2. 2. 2. 2. 2. 2. 2.00999999e+00 2.02600002e+00
    2.03800011e+00 0. 0. 0. 0. 0. 0. 0. 0. 0. 0. 0. 0. 0. 0. 0. 0.
    2.52500010e+00 2.52500010e+00 2.35200000e+00 2.03900003e+00
    2.03900003e+00 2.03900003e+00 2.03900003e+00 2.03600001e+00
    2.00699997e+00 2. 2.01099992e+00 2.03900003e+00 2.03900003e+00
    2.01900005e+00 2. 2. 2. 2. 2. 2. 2. 2.01799989e+00 2.03900003e+00
    2.03900003e+00 0. 0. 0. 0. 0. 0. 0. 0. 0. 0. 0. 0. 0. 0. 0. 0. 0. 0.
    0. 0. 0. 0. 0. 0. 0. 0. 0. 0. 0. 0. 0. 0. 0. 0. 0. 0. 0. 0. 0. 0. 0.
    0. 0. 0. 0. 0. 0. 0. 0. 0.</data></Depth>
</opencv_storage>
