<?xml version="1.0"?>
<opencv_storage>
<Depth type_id="opencv-matrix">
  <rows>40</rows>
  <cols>40</cols>
  <dt>f</dt>
  <data>
    0. 0. 0. 0. 0. 0. 0. 0. 0. 0. 0. 0. 0. 0. 0. 0. 0. 0. 0. 0. 0. 0. 0.
    0. 0. 0. 0. 0. 0. 0. 0. 0. 0. 0. 0. 0. 0. 0. 0. 0. 0. 0. 0. 0. 0. 0.
    0. 0. 0. 0. 0. 0. 0. 0. 0. 0. 2.02500010e+00 2.02500010e+00
    2.02500010e+00 2.02500010e+00 0. 2.76300001e+00 2.02500010e+00
    2.02500010e+00 2.02500010e+00 2.02500010e+00 2.02500010e+00
    2.01900005e+00 2. 2.25300002e+00 0. 0. 0. 0. 0. 0. 0. 0. 0. 0. 0. 0.
    0. 0. 0. 0. 0. 0. 0. 0. 2.37800002e+00 2.37400007e+00 2.36899996e+00
    2.36299992e+00 2.36299992e+00 2.30100012e+00 2.02500010e+00
    2.02500010e+00 2.02500010e+00 2.02500010e+00 2.26699996e+00
    2.11100006e+00 2.01099992e+00 2.00300002e+00 2.00300002e+00
    2.00300002e+00 2.00300002e+00 2.00200009e+00 2. 2.26099992e+00 0. 0.
    0. 0. 0. 0. 0. 0. 0. 0. 0. 0. 0. 0. 0. 2.67000008e+00 2.68799996e+00
    2.69000006e+00 2.66000009e+00 2.25900006e+00 2.04999995e+00
    2.04999995e+00 2.03999996e+00 2.02500010e+00 2.02500010e+00
    2.02500010e+00 2.02500010e+00 2.02500010e+00 2.02500010e+00
    2.02500010e+00 2.02500010e+00 2.01099992e+00 2.00200009e+00 2. 2. 2.
    2. 2. 2. 2.05100012e+00 2.57100010e+00 0. 0. 0. 0. 0. 0. 0. 0. 0. 0.
    0. 0. 0. 0. 2.08299994e+00 2.08299994e+00 2.08299994e+00
    2.07800007e+00 2.05900002e+00 2.04999995e+00 2.04999995e+00
    2.04699993e+00 2.03699994e+00 2.02500010e+00 2.02500010e+00
    2.02500010e+00 2.02500010e+00 2.02500010e+00 2.02500010e+00
    2.01099992e+00 2.00200009e+00 2. 2. 2. 2. 2. 2. 1.99699998e+00
    1.98199999e+00 2.03200006e+00 0. 0. 0. 0. 0. 0. 0. 0. 0. 0. 0. 0. 0.
    0. 2.07599998e+00 2.07599998e+00 2.07599998e+00 2.06399989e+00
    2.05299997e+00 2.04999995e+00 2.04999995e+00 2.04999995e+00
    2.04200006e+00 2.02500010e+00 2.02500010e+00 2.02500010e+00
    2.02500010e+00 2.02500010e+00 2.01099992e+00 2.00200009e+00 2. 2. 2.
    2. 2. 1.99500000e+00 1.98399997e+00 1.98199999e+00 1.97500002e+00
    2.02500010e+00 0. 0. 0. 0. 0. 0. 0. 0. 0. 0. 0. 0. 0. 0.
    2.07599998e+00 2.07599998e+00 2.07599998e+00 2.05699992e+00
    2.04999995e+00 2.04999995e+00 2.04999995e+00 2.04999995e+00
    2.04200006e+00 2.02500010e+00 2.02500010e+00 2.02500010e+00
    2.02500010e+00 2.02500010e+00 2.00300002e+00 2. 2. 2. 2. 2. 2.
    1.99199998e+00 1.97500002e+00 1.97500002e+00 1.97500002e+00
    2.02399993e+00 0. 0. 0. 0. 0. 0. 0. 0. 0. 0. 0. 0. 0. 0.
    2.07599998e+00 2.07599998e+00 2.07599998e+00 2.05699992e+00
    2.04999995e+00 2.04999995e+00 2.04999995e+00 2.04999995e+00
    2.04200006e+00 2.02500010e+00 2.02500010e+00 2.02500010e+00
    2.02500010e+00 2.02500010e+00 2.00300002e+00 2. 2. 2. 2. 2.
    1.99500000e+00 1.98300004e+00 1.97500002e+00 1.97300005e+00
    1.96300006e+00 2.01099992e+00 0. 0. 0. 0. 0. 0. 0. 0. 0. 0. 0. 0. 0.
    0. 2.07599998e+00 2.07599998e+00 2.07599998e+00 2.05699992e+00
    2.04999995e+00 2.04999995e+00 2.04999995e+00 2.04600000e+00
    2.03500009e+00 2.02500010e+00 2.02500010e+00 2.02500010e+00
    2.02500010e+00 2.02500010e+00 2.00300002e+00 2. 2.00699997e+00
    2.00399995e+00 2. 2. 1.99000001e+00 1.97500002e+00 1.97500002e+00
    1.97099996e+00 1.95099998e+00 1.99800003e+00 0. 0. 0. 0. 0. 0. 0. 0.
    0. 0. 0. 0. 0. 0. 2.07599998e+00 2.07599998e+00 2.07599998e+00
    2.06299996e+00 2.05299997e+00 2.04999995e+00 2.04999995e+00
    2.03999996e+00 2.02500010e+00 2.02500010e+00 2.02300000e+00
    2.01699996e+00 2.01699996e+00 2.01699996e+00 2.00200009e+00 2.
    2.01200008e+00 2.00600004e+00 2. 1.99600005e+00 1.98500001e+00
    1.97500002e+00 1.97500002e+00 1.97099996e+00 1.95099998e+00
    1.99800003e+00 0. 0. 0. 0. 0. 0. 0. 0. 0. 0. 0. 0. 0. 0.
    2.07599998e+00 2.07599998e+00 2.07599998e+00 2.07599998e+00
    2.05900002e+00 2.04999995e+00 2.04999995e+00 2.03999996e+00
    2.02500010e+00 2.02500010e+00 2.01999998e+00 2. 2. 2. 2. 2. 2. 2. 2.
    1.98800004e+00 1.97500002e+00 1.97300005e+00 1.96899998e+00
    1.96200001e+00 1.93299997e+00 1.98099995e+00 0. 0. 0. 0. 0. 0. 0. 0.
    0. 0. 0. 0. 0. 0. 2.08100009e+00 2.07699990e+00 2.07599998e+00
    2.07599998e+00 2.05900002e+00 2.04699993e+00 2.04500008e+00
    2.03699994e+00 2.02500010e+00 2.02399993e+00 2.01699996e+00 2. 2. 2.
    2. 2. 2. 1.99699998e+00 1.99500000e+00 1.98599994e+00 1.97500002e+00
    1.96700001e+00 1.95099998e+00 1.93900001e+00 1.88100004e+00
    1.92299998e+00 0. 0. 0. 0. 0. 0. 0. 0. 0. 0. 0. 0. 0. 0.
    2.10200000e+00 2.07900000e+00 2.07599998e+00 2.07399988e+00
    2.05800009e+00 2.03600001e+00 2.02500010e+00 2.02500010e+00
    2.02500010e+00 2.01799989e+00 2. 2. 2. 2. 2. 2. 2. 1.98399997e+00
    1.97500002e+00 1.97500002e+00 1.97500002e+00 1.96800005e+00
    1.95299995e+00 1.93900001e+00 1.88300002e+00 1.88300002e+00
    1.88300002e+00 0. 0. 0. 0. 0. 0. 0. 0. 0. 0. 0. 0. 0. 2.10200000e+00
    2.07900000e+00 2.07500005e+00 2.05699992e+00 2.04999995e+00
    2.03500009e+00 2.02500010e+00 2.02500010e+00 2.02500010e+00
    2.01799989e+00 2. 2. 2. 2. 2. 2. 2. 1.98399997e+00 1.97500002e+00
    1.97500002e+00 1.97500002e+00 1.97500002e+00 1.96899998e+00
    1.94200003e+00 1.90499997e+00 1.90499997e+00 1.90499997e+00 0. 0. 0.
    0. 0. 0. 0. 0. 0. 0. 0. 0. 0. 2.10200000e+00 2.07900000e+00
    2.05599999e+00 2.04999995e+00 2.03500009e+00 2.02600002e+00
    2.02500010e+00 2.02500010e+00 2.02500010e+00 2.01799989e+00 2. 2. 2.
    2. 2. 2. 2. 1.98399997e+00 1.97500002e+00 1.97500002e+00
    1.97500002e+00 1.97500002e+00 1.96300006e+00 1.92799997e+00
    1.92600000e+00 1.92600000e+00 1.92600000e+00 0. 0. 0. 0. 0. 0. 0. 0.
    0. 0. 0. 0. 0. 2.10200000e+00 2.09899998e+00 2.05900002e+00
    2.04999995e+00 2.03399992e+00 2.02500010e+00 2.02500010e+00
    2.02500010e+00 2.02500010e+00 2.01799989e+00 2. 2. 2. 2. 2. 2.
    1.98399997e+00 1.97599995e+00 1.97500002e+00 1.97500002e+00
    1.96599996e+00 1.95400000e+00 1.94700003e+00 1.92700005e+00
    1.92700005e+00 1.92700005e+00 1.92700005e+00 0. 0. 0. 0. 0. 0. 0. 0.
    0. 0. 0. 0. 0. 2.10200000e+00 2.10200000e+00 2.09299994e+00
    2.06100011e+00 2.03399992e+00 2.02500010e+00 2.02500010e+00
    2.02500010e+00 2.02500010e+00 2.01799989e+00 2. 2. 2. 2. 2. 2.
    1.98199999e+00 1.97500002e+00 1.97500002e+00 1.97500002e+00
    1.96500003e+00 1.95099998e+00 1.95000005e+00 1.94599998e+00
    1.94599998e+00 1.94599998e+00 1.94599998e+00 0. 0. 0. 0. 0. 0. 0. 0.
    0. 0. 0. 0. 0. 0. 2.32999992e+00 2.10200000e+00 2.06399989e+00
    2.03399992e+00 2.02500010e+00 2.02500010e+00 2.02500010e+00
    2.02500010e+00 2.01799989e+00 2. 2. 2. 2. 2. 1.98599994e+00
    1.97700000e+00 1.97500002e+00 1.97500002e+00 1.96700001e+00
    1.95500004e+00 1.95099998e+00 1.95099998e+00 1.95099998e+00
    1.95099998e+00 1.95099998e+00 1.95099998e+00 0. 0. 0. 0. 0. 0. 0. 0.
    0. 0. 0. 0. 0. 0. 2.41300011e+00 2.07500005e+00 2.04299998e+00
    2.02800012e+00 2.02500010e+00 2.02500010e+00 2.02500010e+00
    2.02500010e+00 2.01799989e+00 2. 2. 2. 2. 2. 1.98000002e+00
    1.97500002e+00 1.97500002e+00 1.96599996e+00 1.95500004e+00
    1.95099998e+00 1.95099998e+00 1.95099998e+00 1.95099998e+00
    1.95099998e+00 1.95099998e+00 1.95099998e+00 2.78600001e+00 0. 0. 0.
    0. 0. 0. 0. 0. 0. 0. 0. 0. 0. 2.40300012e+00 2.05999994e+00
    2.03200006e+00 2.02500010e+00 2.02500010e+00 2.02500010e+00
    2.02500010e+00 2.02500010e+00 2.01799989e+00 2. 2. 2. 2. 2.
    1.98000002e+00 1.97500002e+00 1.96599996e+00 1.95599997e+00
    1.95099998e+00 1.95099998e+00 1.95099998e+00 1.95099998e+00
    1.95099998e+00 1.95099998e+00 1.95099998e+00 1.95099998e+00
    1.96300006e+00 0. 0. 0. 0. 0. 0. 0. 0. 0. 0. 0. 0. 0. 2.39800000e+00
    2.05999994e+00 2.03200006e+00 2.02500010e+00 2.02500010e+00
    2.02500010e+00 2.01999998e+00 2.01300001e+00 2.00999999e+00 2. 2. 2.
    2. 2. 1.98000002e+00 1.96700001e+00 1.95500004e+00 1.95099998e+00
    1.95099998e+00 1.95099998e+00 1.95099998e+00 1.95099998e+00
    1.94900000e+00 1.93900001e+00 1.93900001e+00 1.93900001e+00
    1.95000005e+00 0. 0. 0. 0. 0. 0. 0. 0. 0. 0. 0. 0. 0. 2.38400006e+00
    2.05599999e+00 2.03200006e+00 2.02500010e+00 2.02500010e+00
    2.02500010e+00 2.01500010e+00 2. 2. 2. 2. 2. 2. 2. 1.98000002e+00
    1.95799994e+00 1.95099998e+00 1.95099998e+00 1.95099998e+00
    1.95099998e+00 1.95099998e+00 1.95099998e+00 1.94700003e+00
    1.92700005e+00 1.92700005e+00 1.92700005e+00 1.92700005e+00 0. 0. 0.
    0. 0. 0. 0. 0. 0. 0. 0. 0. 0. 2.36299992e+00 2.04999995e+00
    2.03800011e+00 2.02800012e+00 2.02500010e+00 2.02099991e+00
    2.00999999e+00 2. 2. 2. 2. 2. 2. 2. 1.98000002e+00 1.95799994e+00
    1.95099998e+00 1.95099998e+00 1.95099998e+00 1.95099998e+00
    1.95099998e+00 1.94900000e+00 1.94000006e+00 1.92700005e+00
    1.92700005e+00 1.91999996e+00 1.91900003e+00 0. 0. 0. 0. 0. 0. 0. 0.
    0. 0. 0. 0. 0. 2.95600009e+00 2.18099999e+00 2.04500008e+00
    2.03200006e+00 2.02500010e+00 2.01300001e+00 2. 2. 2. 2. 2. 2. 2. 2.
    1.98000002e+00 1.95799994e+00 1.95099998e+00 1.95400000e+00
    1.95700002e+00 1.95700002e+00 1.95500004e+00 1.94500005e+00
    1.92700005e+00 1.92700005e+00 1.92700005e+00 1.90499997e+00
    1.90400004e+00 0. 0. 0. 0. 0. 0. 0. 0. 0. 0. 0. 0. 0. 0.
    2.56399989e+00 2.02600002e+00 2.02300000e+00 2.02500010e+00
    2.01500010e+00 2.00300002e+00 2. 2. 2. 2. 2. 2. 1.99600005e+00
    1.97899997e+00 1.95799994e+00 1.95099998e+00 1.96200001e+00
    1.97099996e+00 1.97099996e+00 1.96399999e+00 1.94599998e+00
    1.92999995e+00 1.92700005e+00 1.92700005e+00 1.90499997e+00
    1.90400004e+00 0. 0. 0. 0. 0. 0. 0. 0. 0. 0. 0. 0. 0. 0.
    2.52900004e+00 2. 2.01600003e+00 2.02500010e+00 2.02500010e+00
    2.01500010e+00 2. 2. 2. 2. 2. 2. 1.97800004e+00 1.97500002e+00
    1.95799994e+00 1.95099998e+00 1.95099998e+00 1.95099998e+00
    1.95099998e+00 1.95099998e+00 1.95099998e+00 1.94700003e+00
    1.92700005e+00 1.92700005e+00 1.90499997e+00 1.90400004e+00 0. 0. 0.
    0. 0. 0. 0. 0. 0. 0. 0. 0. 0. 0. 2.51300001e+00 2. 2.01600003e+00
    2.02500010e+00 2.02500010e+00 2.01500010e+00 2. 2. 2. 2. 2. 2.
    1.97899997e+00 1.97500002e+00 1.95799994e+00 1.95099998e+00
    1.95099998e+00 1.95099998e+00 1.95099998e+00 1.95099998e+00
    1.95099998e+00 1.94599998e+00 1.92700005e+00 1.92700005e+00
    1.90600002e+00 1.90400004e+00 0. 0. 0. 0. 0. 0. 0. 0. 0. 0. 0. 0. 0.
    0. 2.51300001e+00 2. 2.01600003e+00 2.02500010e+00 2.02500010e+00
    2.02399993e+00 2.02399993e+00 2.01699996e+00 2. 2. 2. 2.
    1.99899995e+00 1.98000002e+00 1.95799994e+00 1.95099998e+00
    1.95099998e+00 1.94000006e+00 1.92799997e+00 1.92799997e+00
    1.92799997e+00 1.92799997e+00 1.92700005e+00 1.92700005e+00
    1.92600000e+00 1.92600000e+00 2.05299997e+00 0. 0. 0. 0. 0. 0. 0. 0.
    0. 0. 0. 0. 0. 0. 2.65700006e+00 2.00999999e+00 2.00300002e+00
    2.01399994e+00 2.02500010e+00 2.02500010e+00 2.01799989e+00 2. 2.
    1.99899995e+00 1.97899997e+00 1.97800004e+00 1.97599995e+00
    1.95799994e+00 1.95099998e+00 1.95099998e+00 1.93900001e+00
    1.92700005e+00 1.92700005e+00 1.92700005e+00 1.92700005e+00
    1.92700005e+00 1.92700005e+00 1.92700005e+00 1.92700005e+00
    1.92700005e+00 0. 0. 0. 0. 0. 0. 0. 0. 0. 0. 0. 0. 0. 0.
    2.18300009e+00 1.99600005e+00 1.98000002e+00 1.99300003e+00
    2.00500011e+00 2.01200008e+00 2.01799989e+00 2. 2. 1.99899995e+00
    1.97599995e+00 1.97500002e+00 1.97500002e+00 1.95799994e+00
    1.95099998e+00 1.96200001e+00 1.95799994e+00 1.94599998e+00
    1.94599998e+00 1.94099998e+00 1.92700005e+00 1.92700005e+00
    1.92700005e+00 1.92700005e+00 1.92700005e+00 1.92700005e+00 0. 0. 0.
    0. 0. 0. 0. 0. 0. 0. 0. 0. 0. 2.53299999e+00 2.01200008e+00
    1.98599994e+00 1.97500002e+00 1.98699999e+00 2. 2.00799990e+00
    2.01799989e+00 2. 2. 1.99899995e+00 1.97599995e+00 1.97500002e+00
    1.96099997e+00 1.95299995e+00 1.95099998e+00 1.96399999e+00
    1.96300006e+00 1.95099998e+00 1.95099998e+00 1.94900000e+00
    1.94099998e+00 1.92700005e+00 1.92700005e+00 1.92700005e+00
    1.91299999e+00 1.91100001e+00 0. 0. 0. 0. 0. 0. 0. 0. 0. 0. 0. 0. 0.
    2.51999998e+00 2.00300002e+00 1.98399997e+00 1.97500002e+00
    1.98699999e+00 2. 2.00300002e+00 2.00699997e+00 2. 2. 1.99899995e+00
    1.97599995e+00 1.97500002e+00 1.95599997e+00 1.95099998e+00
    1.95099998e+00 1.96399999e+00 1.97099996e+00 1.96599996e+00
    1.96099997e+00 1.95099998e+00 1.94700003e+00 1.92700005e+00
    1.92700005e+00 1.92700005e+00 1.90699995e+00 1.90400004e+00 0. 0. 0.
    0. 0. 0. 0. 0. 0. 0. 0. 0. 0. 2.51300001e+00 2. 1.99300003e+00
    1.98899996e+00 1.99399996e+00 2. 2. 2. 2. 2. 1.99899995e+00
    1.97599995e+00 1.96300006e+00 1.95299995e+00 1.95099998e+00
    1.95099998e+00 1.95700002e+00 1.96200001e+00 1.96200001e+00
    1.95799994e+00 1.95099998e+00 1.94900000e+00 1.93900001e+00
    1.92700005e+00 1.92700005e+00 1.90699995e+00 1.90400004e+00 0. 0. 0.
    0. 0. 0. 0. 0. 0. 0. 0. 0. 0. 0. 0. 2.43799996e+00 2. 2. 2. 2. 2. 2.
    1.99899995e+00 1.98800004e+00 1.97599995e+00 1.95400000e+00
    1.95099998e+00 1.95099998e+00 1.95099998e+00 1.95099998e+00
    1.95099998e+00 1.95099998e+00 1.95099998e+00 1.94799995e+00
    1.94000006e+00 1.94000006e+00 1.93799996e+00 1.93799996e+00
    1.91799998e+00 1.91499996e+00 0. 0. 0. 0. 0. 0. 0. 0. 0. 0. 0. 0. 0.
    0. 0. 2.93000007e+00 2.00999999e+00 2.00500011e+00 2. 2. 2. 2.
    1.99699998e+00 1.97500002e+00 1.96599996e+00 1.95299995e+00
    1.94299996e+00 1.94099998e+00 1.94799995e+00 1.95099998e+00
    1.95099998e+00 1.94700003e+00 1.94099998e+00 1.93799996e+00
    1.92700005e+00 1.92900002e+00 1.95099998e+00 1.94200003e+00
    1.92900002e+00 1.93400002e+00 0. 0. 0. 0. 0. 0. 0. 0. 0. 0. 0. 0. 0.
    0. 0. 0. 2.36899996e+00 2.01300001e+00 2. 2. 1.99800003e+00
    1.99199998e+00 1.99000001e+00 1.97399998e+00 1.95200002e+00
    1.95099998e+00 1.93200004e+00 1.92700005e+00 1.94200003e+00
    1.95500004e+00 1.95899999e+00 1.94599998e+00 1.92700005e+00
    1.92900002e+00 1.93499994e+00 1.93599999e+00 1.95099998e+00
    1.92799997e+00 1.92700005e+00 2.64199996e+00 0. 0. 0. 0. 0. 0. 0. 0.
    0. 0. 0. 0. 0. 0. 0. 0. 0. 2.01300001e+00 2. 2. 1.99300003e+00
    1.97500002e+00 1.97500002e+00 1.97399998e+00 1.95200002e+00
    1.95099998e+00 1.93200004e+00 1.92700005e+00 1.93900001e+00
    1.95500004e+00 2.24099994e+00 2.52900004e+00 2.51900005e+00
    2.52399993e+00 2.53699994e+00 2.53699994e+00 2.53699994e+00
    2.53900003e+00 2.55699992e+00 0. 0. 0. 0. 0. 0. 0. 0. 0. 0. 0. 0. 0.
    0. 0. 0. 0. 0. 2.01300001e+00 2. 2. 1.99300003e+00 1.97500002e+00
    1.97500002e+00 1.97399998e+00 1.95200002e+00 1.95099998e+00
    1.93200004e+00 1.92700005e+00 1.92700005e+00 1.92700005e+00 0. 0. 0.
    0. 0. 0. 0. 0. 0. 0. 0. 0. 0. 0. 0. 0. 0. 0. 0. 0. 0. 0. 0. 0. 0. 0.
    0. 0. 0. 0. 0. 0. 0. 0. 0. 0. 0. 0. 0. 0. 0. 0. 0. 0. 0. 0. 0. 0. 0.
    0. 0. 0. 0. 0. 0. 0. 0. 0. 0. 0. 0. 0. 0. 0. 0. 0. 0. 0. 0. 0. 0. 0.
    0. 0. 0. 0. 0. 0. 0. 0. 0. 0. 0. 0. 0. 0. 0. 0. 0. 0. 0. 0. 0. 0. 0.
    0.</data></Depth>
</opencv_storage>
