<?xml version="1.0"?>
<opencv_storage>
<Depth type_id="opencv-matrix">
  <rows>40</rows>
  <cols>40</cols>
  <dt>f</dt>
  <data>
    2. 2. 2. 2. 2. 2.00500011e+00 2.06900001e+00 2.13199997e+00
    2.19600010e+00 2.26399994e+00 2.33100009e+00 2.40499997e+00
    2.54999995e+00 2.69499993e+00 2.82500005e+00 2.82599998e+00
    2.82699990e+00 2.82699990e+00 2.82800007e+00 2.82900000e+00
    2.82999992e+00 2.82999992e+00 2.82999992e+00 2.82999992e+00
    2.82999992e+00 2.82999992e+00 2.82999992e+00 2.82999992e+00
    2.82999992e+00 2.82999992e+00 2.82999992e+00 2.82999992e+00
    2.82999992e+00 2.82999992e+00 2.82999992e+00 2.84400010e+00
    2.92199993e+00 0. 0. 2.97199988e+00 2. 2. 2. 2. 2. 2.00300002e+00
    2.04500008e+00 2.08800006e+00 2.13199997e+00 2.19799995e+00
    2.26399994e+00 2.33599997e+00 2.45400000e+00 2.57299995e+00
    2.68199992e+00 2.70600009e+00 2.73099995e+00 2.75600004e+00
    2.78200006e+00 2.80699992e+00 2.82999992e+00 2.82999992e+00
    2.82999992e+00 2.82999992e+00 2.82999992e+00 2.82999992e+00
    2.82999992e+00 2.82999992e+00 2.82999992e+00 2.82999992e+00
    2.82999992e+00 2.82999992e+00 2.82999992e+00 2.82999992e+00
    2.82999992e+00 2.84400010e+00 2.92199993e+00 0. 0. 2.97199988e+00 2.
    2. 2. 2. 2. 2.00200009e+00 2.02200007e+00 2.04299998e+00
    2.06699991e+00 2.13299990e+00 2.19799995e+00 2.26600003e+00
    2.35800004e+00 2.45099998e+00 2.53800011e+00 2.58699989e+00
    2.63499999e+00 2.68400002e+00 2.73499990e+00 2.78600001e+00
    2.82999992e+00 2.82999992e+00 2.82999992e+00 2.82999992e+00
    2.82999992e+00 2.82999992e+00 2.82999992e+00 2.82999992e+00
    2.82999992e+00 2.82999992e+00 2.82999992e+00 2.82999992e+00
    2.82999992e+00 2.82999992e+00 2.82999992e+00 2.84400010e+00
    2.92199993e+00 0. 0. 2.97199988e+00 2. 2. 2. 2. 2. 2. 2. 2.
    2.00500011e+00 2.06900001e+00 2.13299990e+00 2.19700003e+00
    2.26399994e+00 2.33100009e+00 2.39800000e+00 2.47000003e+00
    2.54099989e+00 2.61299992e+00 2.68799996e+00 2.76399994e+00
    2.82999992e+00 2.82999992e+00 2.82999992e+00 2.82999992e+00
    2.82999992e+00 2.82999992e+00 2.82999992e+00 2.82999992e+00
    2.82999992e+00 2.82999992e+00 2.82999992e+00 2.82999992e+00
    2.82999992e+00 2.82999992e+00 2.82999992e+00 2.84400010e+00
    2.92100000e+00 2.99799991e+00 0. 2.97000003e+00 2. 2. 2. 2. 2. 2. 2.
    2. 2.00399995e+00 2.04600000e+00 2.08800006e+00 2.13199997e+00
    2.19799995e+00 2.26399994e+00 2.33100009e+00 2.40100002e+00
    2.47099996e+00 2.54399991e+00 2.64400005e+00 2.74300003e+00
    2.82999992e+00 2.82999992e+00 2.82999992e+00 2.82999992e+00
    2.82999992e+00 2.82999992e+00 2.82999992e+00 2.82999992e+00
    2.82999992e+00 2.82999992e+00 2.82999992e+00 2.82999992e+00
    2.82999992e+00 2.82999992e+00 2.82999992e+00 2.83899999e+00
    2.89000010e+00 2.94099998e+00 2.97300005e+00 2.92199993e+00 2. 2. 2.
    2. 2. 2. 2. 2. 2.00200009e+00 2.02200007e+00 2.04299998e+00
    2.06699991e+00 2.13299990e+00 2.19799995e+00 2.26399994e+00
    2.33200002e+00 2.40100002e+00 2.47600007e+00 2.59899998e+00
    2.72199988e+00 2.82999992e+00 2.82999992e+00 2.82999992e+00
    2.82999992e+00 2.82999992e+00 2.82999992e+00 2.82999992e+00
    2.82999992e+00 2.82999992e+00 2.82999992e+00 2.82999992e+00
    2.82999992e+00 2.82999992e+00 2.82999992e+00 2.82999992e+00
    2.83400011e+00 2.85899997e+00 2.88400006e+00 2.90000010e+00
    2.87500000e+00 2. 2. 2. 2. 2. 2. 2. 2. 2. 2. 2. 2.00600004e+00
    2.07100010e+00 2.13499999e+00 2.20000005e+00 2.26600003e+00
    2.33200002e+00 2.40700006e+00 2.55299997e+00 2.69899988e+00
    2.82599998e+00 2.82599998e+00 2.82599998e+00 2.82599998e+00
    2.82699990e+00 2.82900000e+00 2.82999992e+00 2.82999992e+00
    2.82999992e+00 2.82999992e+00 2.82999992e+00 2.82999992e+00
    2.82999992e+00 2.82999992e+00 2.82999992e+00 2.82999992e+00
    2.82999992e+00 2.82999992e+00 2.82999992e+00 2.82999992e+00 2. 2. 2.
    2. 2. 2. 2. 2. 2. 2. 2. 2.00600004e+00 2.07100010e+00 2.13499999e+00
    2.19799995e+00 2.24099994e+00 2.28500009e+00 2.33999991e+00
    2.48300004e+00 2.62599993e+00 2.75099993e+00 2.75099993e+00
    2.75099993e+00 2.75500011e+00 2.78099990e+00 2.80800009e+00
    2.82999992e+00 2.82999992e+00 2.82999992e+00 2.82999992e+00
    2.82999992e+00 2.82999992e+00 2.82999992e+00 2.82999992e+00
    2.82999992e+00 2.82999992e+00 2.82999992e+00 2.82999992e+00
    2.82999992e+00 2.82999992e+00 2. 2. 2. 2. 2. 2. 2. 2. 2. 2. 2.
    2.00600004e+00 2.07100010e+00 2.13499999e+00 2.19499993e+00
    2.21600008e+00 2.23699999e+00 2.27200007e+00 2.41300011e+00
    2.55399990e+00 2.67700005e+00 2.67700005e+00 2.67700005e+00
    2.68400002e+00 2.73499990e+00 2.78600001e+00 2.82999992e+00
    2.82999992e+00 2.82999992e+00 2.82999992e+00 2.82999992e+00
    2.82999992e+00 2.82999992e+00 2.82999992e+00 2.82999992e+00
    2.82999992e+00 2.82999992e+00 2.82999992e+00 2.82999992e+00
    2.82999992e+00 2. 2. 2. 2. 2. 2. 2. 2. 2. 2. 2. 2.00600004e+00
    2.06900001e+00 2.13199997e+00 2.18899989e+00 2.19000006e+00
    2.19199991e+00 2.20900011e+00 2.34599996e+00 2.48300004e+00
    2.60200000e+00 2.60200000e+00 2.60200000e+00 2.61299992e+00
    2.68899989e+00 2.76500010e+00 2.82999992e+00 2.82999992e+00
    2.82999992e+00 2.82999992e+00 2.82999992e+00 2.82999992e+00
    2.82999992e+00 2.82999992e+00 2.82999992e+00 2.82999992e+00
    2.82999992e+00 2.82999992e+00 2.82999992e+00 2.82999992e+00 2. 2. 2.
    2. 2. 2. 2. 2. 2. 2. 2. 2.00399995e+00 2.04600000e+00 2.08699989e+00
    2.12700009e+00 2.15000010e+00 2.17300010e+00 2.20600009e+00
    2.31900001e+00 2.43199992e+00 2.53099990e+00 2.53099990e+00
    2.53099990e+00 2.54500008e+00 2.64499998e+00 2.74499989e+00
    2.82999992e+00 2.82999992e+00 2.82999992e+00 2.82999992e+00
    2.82999992e+00 2.82999992e+00 2.82999992e+00 2.82999992e+00
    2.82999992e+00 2.82999992e+00 2.82999992e+00 2.82999992e+00
    2.82999992e+00 2.82999992e+00 2. 2. 2. 2. 2. 2. 2. 2. 2. 2. 2.
    2.00200009e+00 2.02200007e+00 2.04200006e+00 2.06399989e+00
    2.10899997e+00 2.15400004e+00 2.20300007e+00 2.29299998e+00
    2.38199997e+00 2.46000004e+00 2.46000004e+00 2.46000004e+00
    2.47700000e+00 2.59999990e+00 2.72399998e+00 2.82999992e+00
    2.82999992e+00 2.82999992e+00 2.82999992e+00 2.82999992e+00
    2.82999992e+00 2.82999992e+00 2.82999992e+00 2.82999992e+00
    2.82999992e+00 2.82999992e+00 2.82999992e+00 2.82999992e+00
    2.82999992e+00 2.00500011e+00 2.00500011e+00 2.00500011e+00
    2.00300002e+00 2.00200009e+00 2. 2. 2. 2. 2. 2. 2. 2. 2.
    2.00699997e+00 2.06999993e+00 2.13199997e+00 2.19600010e+00
    2.26300001e+00 2.32999992e+00 2.38899994e+00 2.38899994e+00
    2.38899994e+00 2.40799999e+00 2.55200005e+00 2.69600010e+00
    2.81999993e+00 2.82299995e+00 2.82699990e+00 2.82999992e+00
    2.82999992e+00 2.82999992e+00 2.82999992e+00 2.82999992e+00
    2.82999992e+00 2.82999992e+00 2.82999992e+00 2.82999992e+00
    2.82999992e+00 2.82999992e+00 2.06900001e+00 2.06900001e+00
    2.06800008e+00 2.04500008e+00 2.02099991e+00 2. 2. 2. 2. 2. 2. 2. 2.
    2. 2.00399995e+00 2.04600000e+00 2.08699989e+00 2.13100004e+00
    2.19799995e+00 2.26399994e+00 2.32200003e+00 2.32200003e+00
    2.32200003e+00 2.33800006e+00 2.45499992e+00 2.57299995e+00
    2.68099999e+00 2.73300004e+00 2.78600001e+00 2.82999992e+00
    2.82999992e+00 2.82999992e+00 2.82999992e+00 2.82999992e+00
    2.82999992e+00 2.82999992e+00 2.82999992e+00 2.82999992e+00
    2.82999992e+00 2.82999992e+00 2.13400006e+00 2.13400006e+00
    2.13100004e+00 2.08599997e+00 2.04099989e+00 2. 2. 2. 2. 2. 2. 2. 2.
    2. 2.00200009e+00 2.02200007e+00 2.04200006e+00 2.06699991e+00
    2.13199997e+00 2.19700003e+00 2.25399995e+00 2.25399995e+00
    2.25399995e+00 2.26699996e+00 2.35800004e+00 2.44899988e+00
    2.54200006e+00 2.64299989e+00 2.74499989e+00 2.82999992e+00
    2.82999992e+00 2.82999992e+00 2.82999992e+00 2.82999992e+00
    2.82999992e+00 2.82999992e+00 2.82999992e+00 2.82999992e+00
    2.82999992e+00 2.82999992e+00 2.19899988e+00 2.19899988e+00
    2.19499993e+00 2.13000011e+00 2.06500006e+00 2.00600004e+00
    2.00600004e+00 2.00600004e+00 2.00500011e+00 2.00399995e+00
    2.00200009e+00 2. 2. 2. 2. 2. 2. 2.00699997e+00 2.07200003e+00
    2.13700008e+00 2.19300008e+00 2.19300008e+00 2.19300008e+00
    2.20199990e+00 2.26699996e+00 2.33200002e+00 2.40899992e+00
    2.55299997e+00 2.69600010e+00 2.81800008e+00 2.82200003e+00
    2.82699990e+00 2.82999992e+00 2.82999992e+00 2.82999992e+00
    2.82999992e+00 2.82999992e+00 2.82999992e+00 2.82999992e+00
    2.82999992e+00 2.26600003e+00 2.26600003e+00 2.26200008e+00
    2.19600010e+00 2.13100004e+00 2.06999993e+00 2.06999993e+00
    2.06999993e+00 2.06800008e+00 2.04500008e+00 2.02099991e+00 2. 2. 2.
    2. 2. 2. 2.00699997e+00 2.07200003e+00 2.13700008e+00 2.19300008e+00
    2.19300008e+00 2.19300008e+00 2.19899988e+00 2.24200010e+00
    2.28399992e+00 2.33800006e+00 2.45499992e+00 2.57299995e+00
    2.68000007e+00 2.73300004e+00 2.78600001e+00 2.82999992e+00
    2.82999992e+00 2.82999992e+00 2.82999992e+00 2.82999992e+00
    2.82999992e+00 2.82999992e+00 2.82999992e+00 2.33299994e+00
    2.33299994e+00 2.32900000e+00 2.26200008e+00 2.19600010e+00
    2.13499999e+00 2.13499999e+00 2.13499999e+00 2.13100004e+00
    2.08599997e+00 2.04099989e+00 2. 2. 2. 2. 2. 2. 2.00699997e+00
    2.07200003e+00 2.13700008e+00 2.19300008e+00 2.19300008e+00
    2.19300008e+00 2.19600010e+00 2.21600008e+00 2.23600006e+00
    2.26699996e+00 2.35800004e+00 2.44899988e+00 2.54200006e+00
    2.64299989e+00 2.74499989e+00 2.82999992e+00 2.82999992e+00
    2.82999992e+00 2.82999992e+00 2.82999992e+00 2.82999992e+00
    2.82999992e+00 2.82999992e+00 2.40499997e+00 2.40300012e+00
    2.39599991e+00 2.32900000e+00 2.26200008e+00 2.19899988e+00
    2.19700003e+00 2.19499993e+00 2.18799996e+00 2.12500000e+00
    2.06299996e+00 2.00600004e+00 2.00600004e+00 2.00600004e+00
    2.00600004e+00 2.00600004e+00 2.00600004e+00 2.01300001e+00
    2.07399988e+00 2.13400006e+00 2.18700004e+00 2.18700004e+00
    2.18700004e+00 2.18700004e+00 2.18899989e+00 2.19099998e+00
    2.20199990e+00 2.26799989e+00 2.33299994e+00 2.41000009e+00
    2.55299997e+00 2.69700003e+00 2.81699991e+00 2.82100010e+00
    2.82599998e+00 2.82999992e+00 2.83299994e+00 2.83500004e+00
    2.83800006e+00 2.83800006e+00 2.52500010e+00 2.49799991e+00
    2.46799994e+00 2.39899993e+00 2.32999992e+00 2.26500010e+00
    2.24000001e+00 2.21600008e+00 2.19000006e+00 2.14899993e+00
    2.10800004e+00 2.07100010e+00 2.07100010e+00 2.07100010e+00
    2.07100010e+00 2.07100010e+00 2.07100010e+00 2.07299995e+00
    2.08999991e+00 2.10700011e+00 2.12199998e+00 2.12199998e+00
    2.12199998e+00 2.12500000e+00 2.14899993e+00 2.17300010e+00
    2.19899988e+00 2.24200010e+00 2.28399992e+00 2.33899999e+00
    2.45600009e+00 2.57299995e+00 2.67899990e+00 2.73300004e+00
    2.78600001e+00 2.83500004e+00 2.86400008e+00 2.89299989e+00
    2.91599989e+00 2.91599989e+00 2.64400005e+00 2.59200001e+00
    2.53900003e+00 2.46900010e+00 2.39899993e+00 2.32999992e+00
    2.28299999e+00 2.23600006e+00 2.19099998e+00 2.17199993e+00
    2.15300012e+00 2.13499999e+00 2.13499999e+00 2.13499999e+00
    2.13499999e+00 2.13499999e+00 2.13499999e+00 2.13199997e+00
    2.10599995e+00 2.07999992e+00 2.05800009e+00 2.05800009e+00
    2.05800009e+00 2.06399989e+00 2.10899997e+00 2.15400004e+00
    2.19600010e+00 2.21600008e+00 2.23600006e+00 2.26699996e+00
    2.35800004e+00 2.44899988e+00 2.54099989e+00 2.64400005e+00
    2.74600005e+00 2.83999991e+00 2.89499998e+00 2.95000005e+00
    2.99499989e+00 2.99499989e+00 2.75399995e+00 2.68199992e+00
    2.60999990e+00 2.54200006e+00 2.47300005e+00 2.40400004e+00
    2.33699989e+00 2.26900005e+00 2.20700002e+00 2.20499992e+00
    2.20199990e+00 2.20000005e+00 2.19799995e+00 2.19499993e+00
    2.19300008e+00 2.19300008e+00 2.19300008e+00 2.18600011e+00
    2.12100005e+00 2.05599999e+00 2. 2. 2. 2.00900006e+00 2.07299995e+00
    2.13800001e+00 2.19300008e+00 2.19300008e+00 2.19300008e+00
    2.20300007e+00 2.26799989e+00 2.33299994e+00 2.41100001e+00
    2.55399990e+00 2.69700003e+00 2.82900000e+00 2.91000009e+00
    2.99099994e+00 0. 0. 2.77999997e+00 2.73300004e+00 2.68700004e+00
    2.64199996e+00 2.59699988e+00 2.54999995e+00 2.48000002e+00
    2.41000009e+00 2.34400010e+00 2.31800008e+00 2.29099989e+00
    2.26500010e+00 2.24000001e+00 2.21499991e+00 2.19300008e+00
    2.19300008e+00 2.19300008e+00 2.18600011e+00 2.12100005e+00
    2.05599999e+00 2. 2. 2. 2.00900006e+00 2.07299995e+00 2.13800001e+00
    2.19300008e+00 2.19300008e+00 2.19300008e+00 2.20000005e+00
    2.24200010e+00 2.28399992e+00 2.33899999e+00 2.45600009e+00
    2.57299995e+00 2.68700004e+00 2.78999996e+00 2.89400005e+00
    2.98399997e+00 0. 2.80699992e+00 2.78500009e+00 2.76300001e+00
    2.74200010e+00 2.72099996e+00 2.69600010e+00 2.62299991e+00
    2.55100012e+00 2.48000002e+00 2.43000007e+00 2.38000011e+00
    2.32999992e+00 2.28299999e+00 2.23499990e+00 2.19300008e+00
    2.19300008e+00 2.19300008e+00 2.18600011e+00 2.12100005e+00
    2.05599999e+00 2. 2. 2. 2.00900006e+00 2.07299995e+00 2.13800001e+00
    2.19300008e+00 2.19300008e+00 2.19300008e+00 2.19600010e+00
    2.21600008e+00 2.23600006e+00 2.26699996e+00 2.35800004e+00
    2.44799995e+00 2.54500008e+00 2.67100000e+00 2.79699993e+00
    2.91000009e+00 2.96499991e+00 2.82999992e+00 2.82999992e+00
    2.82999992e+00 2.82999992e+00 2.82999992e+00 2.82500005e+00
    2.75300002e+00 2.68099999e+00 2.60899997e+00 2.53500009e+00
    2.46099997e+00 2.38800001e+00 2.31999993e+00 2.25300002e+00
    2.19300008e+00 2.19300008e+00 2.19300008e+00 2.18600011e+00
    2.12400007e+00 2.06200004e+00 2.00699997e+00 2.00699997e+00
    2.00699997e+00 2.01600003e+00 2.07800007e+00 2.14000010e+00
    2.19300008e+00 2.19300008e+00 2.19300008e+00 2.19300008e+00
    2.19300008e+00 2.19300008e+00 2.20400000e+00 2.26799989e+00
    2.33299994e+00 2.41100001e+00 2.55399990e+00 2.69700003e+00
    2.82800007e+00 2.90599990e+00 2.82999992e+00 2.82999992e+00
    2.82999992e+00 2.82999992e+00 2.82999992e+00 2.82599998e+00
    2.77999997e+00 2.73300004e+00 2.68199992e+00 2.58299994e+00
    2.48399997e+00 2.38800001e+00 2.31999993e+00 2.25300002e+00
    2.19300008e+00 2.19300008e+00 2.19300008e+00 2.18799996e+00
    2.14800000e+00 2.10700011e+00 2.07200003e+00 2.07200003e+00
    2.07200003e+00 2.07800007e+00 2.11800003e+00 2.15799999e+00
    2.19300008e+00 2.19300008e+00 2.19300008e+00 2.19300008e+00
    2.19300008e+00 2.19300008e+00 2.20000005e+00 2.24200010e+00
    2.28399992e+00 2.33999991e+00 2.45600009e+00 2.57200003e+00
    2.68099999e+00 2.75699997e+00 2.82999992e+00 2.82999992e+00
    2.82999992e+00 2.82999992e+00 2.82999992e+00 2.82800007e+00
    2.80699992e+00 2.78500009e+00 2.75399995e+00 2.63000011e+00
    2.50600004e+00 2.38800001e+00 2.31999993e+00 2.25300002e+00
    2.19300008e+00 2.19300008e+00 2.19300008e+00 2.19099998e+00
    2.17199993e+00 2.15300012e+00 2.13700008e+00 2.13700008e+00
    2.13700008e+00 2.13899994e+00 2.15799999e+00 2.17700005e+00
    2.19300008e+00 2.19300008e+00 2.19300008e+00 2.19300008e+00
    2.19300008e+00 2.19300008e+00 2.19600010e+00 2.21600008e+00
    2.23600006e+00 2.26799989e+00 2.35800004e+00 2.44799995e+00
    2.53500009e+00 2.60899997e+00 2.82999992e+00 2.82999992e+00
    2.82999992e+00 2.82999992e+00 2.82999992e+00 2.82999992e+00
    2.82999992e+00 2.82999992e+00 2.81800008e+00 2.67799997e+00
    2.53900003e+00 2.40599990e+00 2.33800006e+00 2.27099991e+00
    2.21000004e+00 2.20700002e+00 2.20400000e+00 2.20099998e+00
    2.19799995e+00 2.19499993e+00 2.19300008e+00 2.19300008e+00
    2.19300008e+00 2.19300008e+00 2.19300008e+00 2.19300008e+00
    2.19300008e+00 2.19300008e+00 2.19300008e+00 2.19300008e+00
    2.19300008e+00 2.19300008e+00 2.19300008e+00 2.19300008e+00
    2.19300008e+00 2.20400000e+00 2.26900005e+00 2.33299994e+00
    2.39800000e+00 2.46600008e+00 2.82999992e+00 2.82999992e+00
    2.82999992e+00 2.82999992e+00 2.82999992e+00 2.82999992e+00
    2.82999992e+00 2.82999992e+00 2.82200003e+00 2.73099995e+00
    2.64000010e+00 2.55100012e+00 2.48099995e+00 2.41100001e+00
    2.34599996e+00 2.31900001e+00 2.29200006e+00 2.26600003e+00
    2.24000001e+00 2.21499991e+00 2.19300008e+00 2.19300008e+00
    2.19300008e+00 2.19300008e+00 2.19300008e+00 2.19300008e+00
    2.19300008e+00 2.19300008e+00 2.19300008e+00 2.19300008e+00
    2.19300008e+00 2.19300008e+00 2.19300008e+00 2.19300008e+00
    2.19300008e+00 2.20000005e+00 2.24200010e+00 2.28399992e+00
    2.32699990e+00 2.37100005e+00 2.82999992e+00 2.82999992e+00
    2.82999992e+00 2.82999992e+00 2.82999992e+00 2.82999992e+00
    2.82999992e+00 2.82999992e+00 2.82599998e+00 2.78399992e+00
    2.74200010e+00 2.69700003e+00 2.62500000e+00 2.55200005e+00
    2.48200011e+00 2.43099999e+00 2.38100004e+00 2.32999992e+00
    2.28299999e+00 2.23499990e+00 2.19300008e+00 2.19300008e+00
    2.19300008e+00 2.19300008e+00 2.19300008e+00 2.19300008e+00
    2.19300008e+00 2.19300008e+00 2.19300008e+00 2.19300008e+00
    2.19300008e+00 2.19300008e+00 2.19300008e+00 2.19300008e+00
    2.19300008e+00 2.19600010e+00 2.21600008e+00 2.23499990e+00
    2.25500011e+00 2.27600002e+00 2.82999992e+00 2.82999992e+00
    2.82999992e+00 2.82999992e+00 2.82999992e+00 2.82999992e+00
    2.83400011e+00 2.83699989e+00 2.83999991e+00 2.83699989e+00
    2.83299994e+00 2.82299995e+00 2.75200009e+00 2.68099999e+00
    2.60999990e+00 2.53800011e+00 2.46700001e+00 2.39599991e+00
    2.32800007e+00 2.26099992e+00 2.20199990e+00 2.19899988e+00
    2.19600010e+00 2.19300008e+00 2.19300008e+00 2.19300008e+00
    2.19300008e+00 2.19300008e+00 2.19300008e+00 2.19300008e+00
    2.19300008e+00 2.19300008e+00 2.19300008e+00 2.19300008e+00
    2.19300008e+00 2.19300008e+00 2.19300008e+00 2.19300008e+00
    2.19300008e+00 2.19300008e+00 2.82999992e+00 2.82999992e+00
    2.82999992e+00 2.82999992e+00 2.82999992e+00 2.83200002e+00
    2.86199999e+00 2.89199996e+00 2.91700006e+00 2.88700008e+00
    2.85700011e+00 2.82599998e+00 2.77900004e+00 2.73300004e+00
    2.68400002e+00 2.61199999e+00 2.53900003e+00 2.46700001e+00
    2.39800000e+00 2.32900000e+00 2.26600003e+00 2.24099994e+00
    2.21499991e+00 2.19300008e+00 2.19300008e+00 2.19300008e+00
    2.19300008e+00 2.19300008e+00 2.19300008e+00 2.19300008e+00
    2.19300008e+00 2.19300008e+00 2.19300008e+00 2.19300008e+00
    2.19300008e+00 2.19300008e+00 2.19300008e+00 2.19300008e+00
    2.19300008e+00 2.19300008e+00 2.82999992e+00 2.82999992e+00
    2.82999992e+00 2.82999992e+00 2.82999992e+00 2.83400011e+00
    2.89000010e+00 2.94700003e+00 2.99300003e+00 2.93700004e+00
    2.88100004e+00 2.82800007e+00 2.80699992e+00 2.78500009e+00
    2.75900006e+00 2.68499994e+00 2.61100006e+00 2.53800011e+00
    2.46799994e+00 2.39800000e+00 2.33100009e+00 2.28299999e+00
    2.23399997e+00 2.19300008e+00 2.19300008e+00 2.19300008e+00
    2.19300008e+00 2.19300008e+00 2.19300008e+00 2.19300008e+00
    2.19300008e+00 2.19300008e+00 2.19300008e+00 2.19300008e+00
    2.19300008e+00 2.19300008e+00 2.19300008e+00 2.19300008e+00
    2.19300008e+00 2.19300008e+00 2.82999992e+00 2.82999992e+00
    2.82999992e+00 2.82999992e+00 2.82999992e+00 2.83599997e+00
    2.91000009e+00 2.98499990e+00 0. 2.97199988e+00 2.89800000e+00
    2.82999992e+00 2.82999992e+00 2.82999992e+00 2.82299995e+00
    2.75600004e+00 2.68899989e+00 2.62100005e+00 2.54900002e+00
    2.47799993e+00 2.40700006e+00 2.33899999e+00 2.27200007e+00
    2.21199989e+00 2.20600009e+00 2.19899988e+00 2.19300008e+00
    2.19300008e+00 2.19300008e+00 2.19300008e+00 2.19300008e+00
    2.19300008e+00 2.19300008e+00 2.19300008e+00 2.19300008e+00
    2.19300008e+00 2.19300008e+00 2.19300008e+00 2.19300008e+00
    2.19300008e+00 2.82999992e+00 2.82999992e+00 2.82999992e+00
    2.82999992e+00 2.82999992e+00 2.83400011e+00 2.88199997e+00
    2.93099999e+00 2.97099996e+00 2.92199993e+00 2.87400007e+00
    2.82999992e+00 2.82999992e+00 2.82999992e+00 2.82800007e+00
    2.81200004e+00 2.79699993e+00 2.77399993e+00 2.70000005e+00
    2.62599993e+00 2.55200005e+00 2.48200011e+00 2.41199994e+00
    2.34400010e+00 2.29099989e+00 2.23799992e+00 2.19300008e+00
    2.19300008e+00 2.19300008e+00 2.19300008e+00 2.19300008e+00
    2.19300008e+00 2.19300008e+00 2.19300008e+00 2.19300008e+00
    2.19300008e+00 2.19300008e+00 2.19300008e+00 2.19300008e+00
    2.19300008e+00 2.82999992e+00 2.82999992e+00 2.82999992e+00
    2.82999992e+00 2.82999992e+00 2.83200002e+00 2.85400009e+00
    2.87599993e+00 2.89400005e+00 2.87199998e+00 2.84999990e+00
    2.82999992e+00 2.82999992e+00 2.82999992e+00 2.83400011e+00
    2.86899996e+00 2.90400004e+00 2.92700005e+00 2.84999990e+00
    2.77399993e+00 2.69799995e+00 2.62500000e+00 2.55299997e+00
    2.47700000e+00 2.37700009e+00 2.27800012e+00 2.19300008e+00
    2.19300008e+00 2.19300008e+00 2.19300008e+00 2.19300008e+00
    2.19300008e+00 2.19300008e+00 2.19300008e+00 2.19300008e+00
    2.19300008e+00 2.19300008e+00 2.19300008e+00 2.19300008e+00
    2.19300008e+00 2.82999992e+00 2.82999992e+00 2.82999992e+00
    2.82999992e+00 2.82999992e+00 2.82999992e+00 2.82999992e+00
    2.82999992e+00 2.82999992e+00 2.82999992e+00 2.82999992e+00
    2.82999992e+00 2.82999992e+00 2.82999992e+00 2.83800006e+00
    2.91700006e+00 2.99600005e+00 0. 2.97700000e+00 2.89899993e+00
    2.82100010e+00 2.75000000e+00 2.68000007e+00 2.59999990e+00
    2.46099997e+00 2.32200003e+00 2.20300007e+00 2.19899988e+00
    2.19600010e+00 2.19300008e+00 2.19300008e+00 2.19300008e+00
    2.19300008e+00 2.19300008e+00 2.19300008e+00 2.19300008e+00
    2.19300008e+00 2.19300008e+00 2.19300008e+00 2.19300008e+00
    2.82999992e+00 2.82999992e+00 2.82999992e+00 2.82999992e+00
    2.82999992e+00 2.82999992e+00 2.82999992e+00 2.82999992e+00
    2.82999992e+00 2.82999992e+00 2.82999992e+00 2.82999992e+00
    2.82999992e+00 2.82999992e+00 2.83800006e+00 2.91700006e+00
    2.99600005e+00 0. 2.97700000e+00 2.89899993e+00 2.82399988e+00
    2.77800012e+00 2.73300004e+00 2.67400002e+00 2.53299999e+00
    2.39100003e+00 2.26699996e+00 2.24099994e+00 2.21499991e+00
    2.19300008e+00 2.19300008e+00 2.19300008e+00 2.19300008e+00
    2.19300008e+00 2.19300008e+00 2.19300008e+00 2.19300008e+00
    2.19300008e+00 2.19300008e+00 2.19300008e+00 2.82999992e+00
    2.82999992e+00 2.82999992e+00 2.82999992e+00 2.82999992e+00
    2.82999992e+00 2.82999992e+00 2.82999992e+00 2.82999992e+00
    2.82999992e+00 2.82999992e+00 2.82999992e+00 2.82999992e+00
    2.82999992e+00 2.83800006e+00 2.91700006e+00 2.99600005e+00 0.
    2.97700000e+00 2.89899993e+00 2.82699990e+00 2.80699992e+00
    2.78600001e+00 2.74799991e+00 2.60400009e+00 2.46099997e+00
    2.33100009e+00 2.28200006e+00 2.23399997e+00 2.19300008e+00
    2.19300008e+00 2.19300008e+00 2.19300008e+00 2.19300008e+00
    2.19300008e+00 2.19300008e+00 2.19300008e+00 2.19300008e+00
    2.19300008e+00 2.19300008e+00 2.82999992e+00 2.82999992e+00
    2.82999992e+00 2.82999992e+00 2.82999992e+00 2.82999992e+00
    2.82999992e+00 2.82999992e+00 2.82999992e+00 2.82999992e+00
    2.82999992e+00 2.82999992e+00 2.83500004e+00 2.83899999e+00
    2.85100007e+00 2.92499995e+00 2.99900007e+00 0. 2.98200011e+00
    2.90799999e+00 2.84299994e+00 2.83800006e+00 2.83400011e+00
    2.81100011e+00 2.67400002e+00 2.53600001e+00 2.40799999e+00
    2.34100008e+00 2.27300000e+00 2.21600008e+00 2.21600008e+00
    2.21600008e+00 2.21499991e+00 2.21099997e+00 2.20700002e+00
    2.20400000e+00 2.20000005e+00 2.19600010e+00 2.19300008e+00
    2.19300008e+00</data></Depth>
</opencv_storage>
