<?xml version="1.0"?>
<opencv_storage>
<Depth type_id="opencv-matrix">
  <rows>40</rows>
  <cols>40</cols>
  <dt>f</dt>
  <data>
    0. 0. 0. 0. 0. 0. 0. 0. 0. 0. 0. 0. 0. 0. 0. 0. 0. 0. 0. 0. 0. 0. 0.
    0. 0. 0. 0. 0. 0. 0. 0. 0. 0. 0. 0. 0. 0. 0. 0. 0. 1.96300006e+00
    1.96500003e+00 1.97099996e+00 1.97700000e+00 0. 0. 0. 0. 0. 0. 0.
    1.98199999e+00 1.97700000e+00 1.98800004e+00 1.97700000e+00
    1.98599994e+00 2.00099993e+00 2.01099992e+00 1.99000001e+00
    2.18499994e+00 0. 0. 0. 0. 0. 0. 0. 0. 0. 0. 0. 0. 0. 0. 0. 0. 0. 0.
    0. 0. 1.96300006e+00 1.96500003e+00 1.96800005e+00 2.78600001e+00 0.
    0. 0. 0. 0. 0. 1.97700000e+00 1.98000002e+00 1.98300004e+00
    1.98199999e+00 1.97700000e+00 1.98199999e+00 1.99300003e+00
    2.02399993e+00 2.00999999e+00 2.00699997e+00 2.99399996e+00 0. 0. 0.
    0. 0. 0. 0. 0. 0. 0. 0. 0. 0. 0. 0. 0. 0. 0. 0. 1.96300006e+00
    1.96500003e+00 1.96500003e+00 0. 0. 0. 2.06200004e+00 2.41400003e+00
    2.41400003e+00 2.06500006e+00 1.97700000e+00 1.97800004e+00
    1.97899997e+00 1.97700000e+00 1.97700000e+00 1.97700000e+00
    1.99000001e+00 2.00300002e+00 2.01399994e+00 2.01600003e+00
    2.21000004e+00 2.45300007e+00 0. 0. 0. 0. 0. 0. 0. 0. 0. 0. 0. 0. 0.
    0. 0. 0. 0. 0. 1.95500004e+00 2.28099990e+00 2.27500010e+00 0. 0. 0.
    2.45900011e+00 2.07200003e+00 2.04600000e+00 1.99699998e+00
    1.98599994e+00 1.97700000e+00 1.97700000e+00 1.98899996e+00
    1.98399997e+00 1.97700000e+00 1.99100006e+00 1.99300003e+00
    1.99800003e+00 2.00099993e+00 2.02800012e+00 2.05399990e+00
    2.05999994e+00 2.85500002e+00 0. 0. 0. 0. 0. 0. 0. 0. 0. 0. 0. 0. 0.
    0. 0. 0. 2.77399993e+00 0. 0. 0. 0. 0. 0. 2.02699995e+00
    1.98599994e+00 1.98300004e+00 1.97700000e+00 1.97700000e+00
    1.97700000e+00 1.98300004e+00 1.98000002e+00 1.97700000e+00
    1.99899995e+00 1.98899996e+00 1.98899996e+00 1.99100006e+00
    2.01099992e+00 2.03200006e+00 2.03800011e+00 2.05200005e+00
    2.91899991e+00 0. 0. 0. 0. 0. 0. 0. 0. 0. 0. 0. 0. 0. 0. 0. 0. 0. 0.
    0. 0. 0. 2.36999989e+00 1.97899997e+00 1.97800004e+00 1.97700000e+00
    1.96700001e+00 1.97200000e+00 1.97700000e+00 1.97700000e+00
    1.97700000e+00 1.97700000e+00 1.99100006e+00 1.98899996e+00
    1.98899996e+00 1.99000001e+00 2.00500011e+00 2.01399994e+00
    2.02399993e+00 2.03200006e+00 2.04800010e+00 2.09999990e+00 0. 0. 0.
    0. 0. 0. 0. 0. 0. 0. 0. 0. 0. 0. 0. 0. 0. 2.07100010e+00
    2.05999994e+00 2.00300002e+00 1.97800004e+00 1.97700000e+00
    1.97700000e+00 1.97700000e+00 1.96700001e+00 1.97099996e+00
    1.97700000e+00 1.98899996e+00 1.98899996e+00 1.98899996e+00
    1.99100006e+00 1.99100006e+00 1.98899996e+00 1.99000001e+00
    1.99899995e+00 2.00900006e+00 2.01200008e+00 2.01600003e+00
    2.03200006e+00 2.04600000e+00 2.06299996e+00 0. 0. 0. 0. 0. 0. 0. 0.
    0. 0. 0. 0. 0. 0. 0. 2.52900004e+00 2.02600002e+00 2.02300000e+00
    2.00699997e+00 1.98000002e+00 1.97700000e+00 1.97700000e+00
    1.97700000e+00 1.97700000e+00 1.97700000e+00 1.97700000e+00
    1.98899996e+00 1.98899996e+00 1.98899996e+00 2. 2. 1.99600005e+00
    1.98899996e+00 1.99600005e+00 2.01099992e+00 2.01200008e+00
    2.01200008e+00 2.02099991e+00 2.02500010e+00 2.03299999e+00
    2.05100012e+00 0. 0. 0. 0. 0. 0. 0. 0. 0. 0. 0. 0. 2.61199999e+00
    1.97000003e+00 1.97399998e+00 1.98099995e+00 2.00300002e+00
    1.99100006e+00 1.97899997e+00 1.97700000e+00 1.97700000e+00
    1.96899998e+00 1.96899998e+00 1.97700000e+00 1.97700000e+00
    1.97899997e+00 1.98399997e+00 1.98899996e+00 2. 2. 2. 1.99899995e+00
    2.00500011e+00 2.00200009e+00 2.01200008e+00 2.01200008e+00
    2.01399994e+00 2.01399994e+00 2.01799989e+00 2.02800012e+00
    2.06200004e+00 2.06500006e+00 2.38400006e+00 0. 0. 0. 0. 0. 0. 0. 0.
    0. 2.53299999e+00 2.19499993e+00 1.96500003e+00 1.96500003e+00
    1.96700001e+00 1.97700000e+00 1.97700000e+00 1.97700000e+00
    1.97700000e+00 1.96700001e+00 1.96700001e+00 1.97700000e+00
    1.97700000e+00 1.97700000e+00 1.97700000e+00 1.98500001e+00
    1.98899996e+00 1.99399996e+00 2. 2. 2. 2. 2.00999999e+00
    2.01099992e+00 2.01200008e+00 2.01200008e+00 2.01200008e+00
    2.01200008e+00 2.03600001e+00 2.04699993e+00 2.05699992e+00
    2.20099998e+00 0. 0. 0. 0. 0. 0. 0. 0. 0. 0. 2.44099998e+00
    1.96599996e+00 1.96700001e+00 1.97700000e+00 1.97700000e+00
    1.97700000e+00 1.97700000e+00 1.97200000e+00 1.97099996e+00
    1.97700000e+00 1.97700000e+00 1.97700000e+00 1.97700000e+00
    1.97700000e+00 1.98899996e+00 1.99399996e+00 2. 2. 2. 2. 2.
    2.00300002e+00 2.01099992e+00 2.01200008e+00 2.00999999e+00
    2.00600004e+00 2.01900005e+00 2.03299999e+00 2.04200006e+00
    2.04900002e+00 2.06100011e+00 2.92499995e+00 0. 0. 0. 0. 0. 0. 0. 0.
    2.98099995e+00 1.97500002e+00 1.97500002e+00 1.97700000e+00
    1.97700000e+00 1.97700000e+00 1.97700000e+00 1.97700000e+00
    1.97700000e+00 1.97700000e+00 1.97700000e+00 1.97700000e+00
    1.97700000e+00 1.97700000e+00 1.98899996e+00 1.99399996e+00 2. 2. 2.
    2. 2.00900006e+00 2. 2.00900006e+00 2.01200008e+00 2.00699997e+00 2.
    2.01300001e+00 2.02500010e+00 2.02699995e+00 2.03900003e+00
    2.04399991e+00 2.06100011e+00 2.62599993e+00 0. 0. 0. 0. 0. 0. 0.
    1.97599995e+00 1.97700000e+00 1.97700000e+00 1.97700000e+00
    1.97700000e+00 1.97700000e+00 1.97700000e+00 1.97700000e+00
    1.97700000e+00 1.97700000e+00 1.97700000e+00 1.97700000e+00
    1.97700000e+00 1.97700000e+00 1.98899996e+00 1.99500000e+00 2.
    2.00099993e+00 2.00699997e+00 2.00200009e+00 2.01099992e+00
    2.00200009e+00 2.00900006e+00 2.01200008e+00 2.00799990e+00
    2.00200009e+00 2.01399994e+00 2.02399993e+00 2.02399993e+00
    2.02500010e+00 2.03600001e+00 2.04500008e+00 2.07200003e+00
    2.83400011e+00 0. 0. 0. 0. 2.97900009e+00 1.96500003e+00
    1.97099996e+00 1.97700000e+00 1.97700000e+00 1.97700000e+00
    1.97700000e+00 1.97700000e+00 1.97700000e+00 1.97700000e+00
    1.97700000e+00 1.97399998e+00 1.97099996e+00 1.97700000e+00
    1.97700000e+00 1.97700000e+00 1.99000001e+00 1.99699998e+00 2.
    2.00099993e+00 2.01200008e+00 2.01200008e+00 2.01200008e+00
    2.01200008e+00 2.01200008e+00 2.01200008e+00 2.01200008e+00
    2.01600003e+00 2.02399993e+00 2.02399993e+00 2.02399993e+00
    2.02399993e+00 2.02699995e+00 2.03500009e+00 2.04500008e+00
    2.06999993e+00 2.08500004e+00 0. 0. 0. 1.96500003e+00 1.96500003e+00
    1.97099996e+00 1.97700000e+00 1.97700000e+00 1.97700000e+00
    1.97700000e+00 1.97700000e+00 1.97700000e+00 1.97700000e+00
    1.97700000e+00 1.97099996e+00 1.96500003e+00 1.97700000e+00
    1.97700000e+00 1.97700000e+00 1.98899996e+00 1.99000001e+00
    1.99800003e+00 2.00099993e+00 2.00799990e+00 2.00300002e+00
    2.01200008e+00 2.01200008e+00 2.01200008e+00 2.01200008e+00
    2.01200008e+00 2.02099991e+00 2.02399993e+00 2.02399993e+00
    2.02399993e+00 2.02399993e+00 2.02399993e+00 2.02600002e+00
    2.02699995e+00 2.03900003e+00 2.05599999e+00 2.17899990e+00 0. 0.
    1.96599996e+00 1.97700000e+00 1.97700000e+00 1.97700000e+00
    1.97700000e+00 1.97700000e+00 1.97700000e+00 1.97700000e+00
    1.97700000e+00 1.97700000e+00 1.97700000e+00 1.97700000e+00
    1.97700000e+00 1.97700000e+00 1.97800004e+00 1.97700000e+00
    1.98899996e+00 1.98899996e+00 1.98899996e+00 1.99000001e+00 2. 2.
    2.01099992e+00 2.01200008e+00 2.01200008e+00 2.01200008e+00
    2.01200008e+00 2.01200008e+00 2.01200008e+00 2.01699996e+00
    2.02399993e+00 2.02300000e+00 2.02300000e+00 2.02399993e+00
    2.02399993e+00 2.02800012e+00 2.03500009e+00 2.04800010e+00
    2.05200005e+00 2.06200004e+00 1.97200000e+00 1.97700000e+00
    1.97700000e+00 1.97700000e+00 1.97700000e+00 1.97700000e+00
    1.97700000e+00 1.97700000e+00 1.97700000e+00 1.97700000e+00
    1.97700000e+00 1.97700000e+00 1.97700000e+00 1.98300004e+00
    1.98599994e+00 1.98199999e+00 1.98899996e+00 1.98899996e+00
    1.98899996e+00 1.99000001e+00 2. 2. 2.00099993e+00 2.01200008e+00
    2.01200008e+00 2.01200008e+00 2.01200008e+00 2.01200008e+00
    2.01200008e+00 2.01699996e+00 2.02399993e+00 2.01200008e+00
    2.01200008e+00 2.01699996e+00 2.01900005e+00 2.02399993e+00
    2.02399993e+00 2.03099990e+00 2.03600001e+00 2.05200005e+00
    1.96500003e+00 1.97700000e+00 1.97700000e+00 1.97700000e+00
    1.97700000e+00 1.97700000e+00 1.97700000e+00 1.97700000e+00
    1.97700000e+00 1.97700000e+00 1.97700000e+00 1.97700000e+00
    1.97700000e+00 1.98899996e+00 1.98899996e+00 1.98899996e+00
    1.99699998e+00 1.98899996e+00 1.98899996e+00 1.99000001e+00 2. 2.
    2.00099993e+00 2.01200008e+00 2.01200008e+00 2.01200008e+00
    2.01200008e+00 2.01200008e+00 2.01200008e+00 2.01699996e+00
    2.02399993e+00 2.02099991e+00 2.01200008e+00 2.01200008e+00
    2.01300001e+00 2.02399993e+00 2.02399993e+00 2.02399993e+00
    2.02900004e+00 2.03900003e+00 1.96300006e+00 1.97700000e+00
    1.97700000e+00 1.97700000e+00 1.97700000e+00 1.97700000e+00
    1.97700000e+00 1.97700000e+00 1.97700000e+00 1.97700000e+00
    1.97700000e+00 1.97700000e+00 1.97700000e+00 1.97599995e+00
    1.96500003e+00 1.98399997e+00 1.99899995e+00 1.98899996e+00
    1.98899996e+00 1.99000001e+00 2. 2. 2. 2.00500011e+00 2.01099992e+00
    2. 2. 2.00900006e+00 2.01200008e+00 2.01600003e+00 2.02300000e+00
    2.02399993e+00 2.02399993e+00 2.01500010e+00 2.01200008e+00
    2.01200008e+00 2.01999998e+00 2.02399993e+00 2.02399993e+00
    2.03200006e+00 1.96099997e+00 1.97200000e+00 1.97200000e+00
    1.97200000e+00 1.97700000e+00 1.97700000e+00 1.97700000e+00
    1.97700000e+00 1.97700000e+00 1.97700000e+00 1.97700000e+00
    1.97700000e+00 1.97700000e+00 1.97599995e+00 1.97300005e+00
    1.98599994e+00 1.99899995e+00 1.98899996e+00 1.99300003e+00
    1.99399996e+00 2. 2. 2. 2.00300002e+00 2.00200009e+00 2. 2.
    2.00900006e+00 2.01200008e+00 2.01200008e+00 2.01200008e+00
    2.01900005e+00 2.02099991e+00 2.01500010e+00 2.01200008e+00
    2.01200008e+00 2.01200008e+00 2.02399993e+00 2.02399993e+00
    2.02399993e+00 2.21099997e+00 1.96500003e+00 1.96500003e+00
    1.96500003e+00 1.97700000e+00 1.97700000e+00 1.97700000e+00
    1.97700000e+00 1.97700000e+00 1.97700000e+00 1.98500001e+00
    1.97700000e+00 1.97700000e+00 1.97800004e+00 1.98699999e+00
    1.98899996e+00 2. 1.99699998e+00 1.99899995e+00 2. 2. 2. 2. 2. 2.
    2.00099993e+00 2.00900006e+00 2.01099992e+00 2.01200008e+00
    2.01200008e+00 2.01200008e+00 2.01200008e+00 2.01699996e+00
    2.01500010e+00 2.01300001e+00 2.02099991e+00 2.01500010e+00
    2.01500010e+00 2.01500010e+00 2.02099991e+00 0. 2.15300012e+00
    2.15599990e+00 2.00200009e+00 1.97800004e+00 1.97800004e+00
    1.97700000e+00 1.97700000e+00 1.97700000e+00 1.97700000e+00
    1.98599994e+00 1.97700000e+00 1.97700000e+00 1.97700000e+00
    1.97700000e+00 1.98599994e+00 1.99000001e+00 2. 2. 2. 2. 2.
    2.01200008e+00 2.01200008e+00 2.00399995e+00 2.00200009e+00
    2.01200008e+00 2.01200008e+00 2.01399994e+00 2.02399993e+00
    2.01500010e+00 2.01200008e+00 2.01200008e+00 2.01200008e+00
    2.02399993e+00 2.02399993e+00 2.01600003e+00 2.01200008e+00
    2.01200008e+00 2.02099991e+00 0. 0. 0. 2.98399997e+00 2.67400002e+00
    1.98800004e+00 1.98199999e+00 1.97700000e+00 1.97700000e+00
    1.97700000e+00 1.97700000e+00 1.97700000e+00 1.97700000e+00
    1.97700000e+00 1.97700000e+00 1.98599994e+00 1.99000001e+00
    1.99699998e+00 2. 2. 2. 2.00399995e+00 2.01200008e+00 2.01200008e+00
    2.01200008e+00 2.01200008e+00 2.01200008e+00 2.01200008e+00
    2.02399993e+00 2.01900005e+00 2.01399994e+00 2.01200008e+00
    2.01500010e+00 2.01200008e+00 2.01900005e+00 2.01900005e+00
    2.02300000e+00 2.01200008e+00 2.01200008e+00 2.02099991e+00 0. 0. 0.
    0. 0. 2.00399995e+00 1.99100006e+00 1.98599994e+00 1.98199999e+00
    1.97700000e+00 1.97700000e+00 1.97700000e+00 1.98399997e+00
    1.98500001e+00 1.97700000e+00 1.97899997e+00 1.98899996e+00
    1.99399996e+00 2. 2. 2.00399995e+00 2.00399995e+00 2.00300002e+00
    2.00300002e+00 2.00999999e+00 2.01200008e+00 2.01200008e+00
    2.01200008e+00 2.01500010e+00 2.01200008e+00 2.01200008e+00
    2.01200008e+00 2.01399994e+00 2.01200008e+00 2.01200008e+00
    2.01200008e+00 2.02099991e+00 2.01200008e+00 2.01200008e+00 0. 0. 0.
    0. 0. 0. 0. 2.49300003e+00 1.97700000e+00 1.97700000e+00
    1.97700000e+00 1.97800004e+00 1.98300004e+00 1.98899996e+00
    1.98800004e+00 1.97700000e+00 1.97700000e+00 1.98899996e+00
    1.98899996e+00 1.99699998e+00 2. 2.00500011e+00 2.00300002e+00 2.
    1.99899995e+00 1.99899995e+00 2.01200008e+00 2.01200008e+00
    2.01099992e+00 2.01200008e+00 2.01200008e+00 2.01200008e+00
    2.01200008e+00 2.01200008e+00 2.01200008e+00 2.01200008e+00
    2.01200008e+00 2.01200008e+00 2.01200008e+00 2.83200002e+00 0. 0. 0.
    0. 0. 0. 0. 0. 2.65899992e+00 1.97700000e+00 1.97700000e+00
    1.98899996e+00 1.98899996e+00 1.98899996e+00 1.98800004e+00
    1.97700000e+00 1.98099995e+00 1.99399996e+00 1.99399996e+00
    1.99899995e+00 2. 2. 2. 1.99899995e+00 1.98899996e+00 1.98899996e+00
    2.00699997e+00 2.00399995e+00 2. 2.01200008e+00 2.01200008e+00
    2.01600003e+00 2.01699996e+00 2.01699996e+00 2.01699996e+00
    2.01699996e+00 2.01200008e+00 2.01200008e+00 2.06200004e+00 0. 0. 0.
    0. 0. 0. 0. 0. 0. 0. 1.97700000e+00 1.98399997e+00 1.98899996e+00
    1.98899996e+00 1.98899996e+00 1.98899996e+00 1.98599994e+00
    1.98800004e+00 2. 2. 2. 2. 2. 2. 2. 1.99399996e+00 1.98899996e+00 2.
    2. 2. 2.01200008e+00 2.01200008e+00 2.02099991e+00 2.02399993e+00
    2.02399993e+00 2.01699996e+00 2.01500010e+00 2.01799989e+00
    2.01200008e+00 0. 0. 0. 0. 0. 0. 0. 0. 0. 0. 0. 0. 2.47600007e+00
    2.12400007e+00 1.99500000e+00 1.98899996e+00 1.98899996e+00
    1.98899996e+00 1.98899996e+00 2. 2. 2. 2. 2.00500011e+00
    2.01200008e+00 2.00099993e+00 2. 2. 2.00099993e+00 2.00600004e+00
    2.01200008e+00 2.01200008e+00 2.01200008e+00 2.02099991e+00
    2.02399993e+00 2.02399993e+00 2.01600003e+00 2.01399994e+00
    2.02399993e+00 2.15199995e+00 0. 0. 0. 0. 0. 0. 0. 0. 0. 0. 0. 0. 0.
    0. 2.74399996e+00 2.75500011e+00 1.98899996e+00 1.98899996e+00
    1.98899996e+00 2. 2. 2. 2.00099993e+00 2.00799990e+00 2.01200008e+00
    2.01099992e+00 2.00300002e+00 2. 2.01200008e+00 2.01200008e+00
    2.01200008e+00 2.01200008e+00 2.01200008e+00 2.02099991e+00
    2.02399993e+00 2.02399993e+00 2.02399993e+00 2.02399993e+00
    2.36199999e+00 0. 0. 0. 0. 0. 0. 0. 0. 0. 0. 0. 0. 0. 0. 0. 0. 0. 0.
    1.98500001e+00 1.98000002e+00 2. 2. 2. 2. 2.00699997e+00
    2.01200008e+00 2.01200008e+00 2.00699997e+00 2. 2.01200008e+00
    2.01200008e+00 2.01900005e+00 2.02099991e+00 2.02099991e+00
    2.02300000e+00 2.01500010e+00 2.01900005e+00 2.02399993e+00
    2.11299992e+00 0. 0. 0. 0. 0. 0. 0. 0. 0. 0. 0. 0. 0. 0. 0. 0. 0. 0.
    0. 0. 2.00999999e+00 2. 2. 2. 2. 2.00500011e+00 2.01200008e+00
    2.01200008e+00 2.00699997e+00 2.00099993e+00 2.01200008e+00
    2.01200008e+00 2.01999998e+00 2.02300000e+00 2.02399993e+00
    2.02300000e+00 2.01200008e+00 2.01200008e+00 2.13100004e+00 0. 0. 0.
    0. 0. 0. 0. 0. 0. 0. 0. 0. 0. 0. 0. 0. 0. 0. 0. 0. 0. 2.99399996e+00
    2. 2.00200009e+00 2.00099993e+00 2. 2.00300002e+00 2.00699997e+00
    2.01200008e+00 2.01200008e+00 2.01200008e+00 2.01200008e+00
    2.01200008e+00 2.01200008e+00 2.01300001e+00 2.01900005e+00
    2.01200008e+00 2.01200008e+00 2.01200008e+00 0. 0. 0. 0. 0. 0. 0. 0.
    0. 0. 0. 0. 0. 0. 0. 0. 0. 0. 0. 0. 0. 0. 0. 0. 2.00999999e+00
    1.99600005e+00 1.99300003e+00 2. 2. 2.01200008e+00 2.01200008e+00
    2.01200008e+00 2.01200008e+00 2.01200008e+00 2.01200008e+00
    2.01200008e+00 2.01699996e+00 2.02099991e+00 2.02099991e+00
    2.02099991e+00 0. 0. 0. 0. 0. 0. 0. 0. 0. 0. 0. 0. 0. 0. 0. 0. 0. 0.
    0. 0. 0. 0. 0. 0. 0. 2.52900004e+00 1.99199998e+00 2.00099993e+00
    2.00099993e+00 2.01200008e+00 2.01699996e+00 2.01500010e+00
    2.01200008e+00 2.01099992e+00 2.01200008e+00 2.01200008e+00
    2.01699996e+00 2.02399993e+00 2.15199995e+00 2.92100000e+00 0. 0. 0.
    0. 0. 0. 0. 0. 0. 0. 0. 0. 0. 0. 0. 0. 0. 0. 0. 0. 0. 0. 0. 0. 0. 0.
    2.02099991e+00 2.01699996e+00 2.01300001e+00 2.01200008e+00
    2.01200008e+00 2.01200008e+00 2.01099992e+00 2. 2.00900006e+00
    2.01200008e+00 2.01500010e+00 2.01900005e+00 0. 0. 0. 0. 0. 0. 0. 0.
    0. 0. 0. 0. 0. 0. 0. 0. 0. 0. 0. 0. 0. 0. 0. 0. 0. 0. 0. 0. 0.
    2.02399993e+00 2.01500010e+00 2.01200008e+00 2.01200008e+00
    2.01200008e+00 2.01200008e+00 2.00900006e+00 2.00500011e+00
    2.00399995e+00 2.01200008e+00 0. 0. 0. 0. 0. 0. 0. 0. 0. 0. 0. 0. 0.
    0. 0. 0. 0. 0. 0. 0. 0. 0. 0. 0. 0. 0. 0. 0. 0. 0. 0. 0. 0.
    2.01200008e+00 2.01200008e+00 2.01300001e+00 2.01200008e+00
    2.00399995e+00 2.25399995e+00 0. 0. 0. 0. 0. 0. 0. 0. 0. 0. 0. 0. 0.
    0. 0. 0. 0. 0. 0. 0. 0. 0. 0. 0. 0. 0. 0. 0. 0. 0. 0. 0. 0. 0.
    2.01200008e+00 2.01200008e+00 2.02300000e+00 2.01200008e+00
    2.01200008e+00 0. 0. 0. 0. 0. 0. 0. 0. 0. 0. 0. 0. 0. 0. 0. 0. 0. 0.
    0. 0. 0. 0. 0. 0. 0. 0. 0. 0. 0. 0. 0. 0. 0. 0. 0. 0. 0. 0. 0. 0. 0.
    0. 0. 0. 0. 0. 0. 0. 0. 0. 0. 0.</data></Depth>
</opencv_storage>
