<?xml version="1.0"?>
<opencv_storage>
<Depth type_id="opencv-matrix">
  <rows>40</rows>
  <cols>40</cols>
  <dt>f</dt>
  <data>
    0. 0. 0. 0. 0. 0. 0. 0. 0. 0. 2.27699995e+00 2.27699995e+00
    2.27699995e+00 2.27699995e+00 2.23699999e+00 2.18099999e+00
    2.12500000e+00 2.07100010e+00 2.01699996e+00 2. 2. 1.98300004e+00
    1.88100004e+00 1.77900004e+00 1.74399996e+00 1.74399996e+00
    1.73800004e+00 1.68900001e+00 1.64100003e+00 1.62199998e+00 0. 0. 0.
    0. 0. 0. 0. 0. 0. 0. 0. 0. 0. 0. 0. 0. 0. 0. 0. 0. 2.27699995e+00
    2.27699995e+00 2.27699995e+00 2.27699995e+00 2.23699999e+00
    2.18099999e+00 2.12500000e+00 2.07100010e+00 2.01699996e+00
    1.99699998e+00 1.99199998e+00 1.97099996e+00 1.87399995e+00
    1.77800000e+00 1.74399996e+00 1.74399996e+00 1.73800004e+00
    1.68900001e+00 1.64100003e+00 1.62199998e+00 0. 0. 0. 0. 0. 0. 0. 0.
    0. 0. 0. 0. 0. 0. 0. 0. 0. 0. 0. 0. 2.27699995e+00 2.27699995e+00
    2.27699995e+00 2.27699995e+00 2.23699999e+00 2.18099999e+00
    2.12500000e+00 2.07100010e+00 2.01699996e+00 1.98199999e+00
    1.95700002e+00 1.92299998e+00 1.84700000e+00 1.76999998e+00
    1.74399996e+00 1.74399996e+00 1.73800004e+00 1.68900001e+00
    1.64100003e+00 1.62199998e+00 0. 0. 0. 0. 0. 0. 0. 0. 0. 0. 0. 0. 0.
    0. 0. 0. 0. 0. 0. 0. 2.27699995e+00 2.27699995e+00 2.27699995e+00
    2.27699995e+00 2.23699999e+00 2.18099999e+00 2.12500000e+00
    2.07100010e+00 2.01699996e+00 1.96800005e+00 1.92200005e+00
    1.87399995e+00 1.81900001e+00 1.76300001e+00 1.74399996e+00
    1.74399996e+00 1.73800004e+00 1.68900001e+00 1.64100003e+00
    1.62199998e+00 0. 0. 0. 0. 0. 0. 0. 0. 0. 0. 0. 0. 0. 0. 0. 0. 0. 0.
    0. 0. 2.27699995e+00 2.27699995e+00 2.27699995e+00 2.27699995e+00
    2.23699999e+00 2.18099999e+00 2.12500000e+00 2.07100010e+00
    2.01699996e+00 1.96399999e+00 1.91199994e+00 1.86099994e+00
    1.81099999e+00 1.76100004e+00 1.74399996e+00 1.74399996e+00
    1.73800004e+00 1.68900001e+00 1.64100003e+00 1.62199998e+00 0. 0. 0.
    0. 0. 0. 0. 0. 0. 0. 0. 0. 0. 0. 0. 0. 0. 0. 0. 0. 2.27699995e+00
    2.27699995e+00 2.27699995e+00 2.27699995e+00 2.23699999e+00
    2.18099999e+00 2.12500000e+00 2.07100010e+00 2.01699996e+00
    1.96399999e+00 1.91199994e+00 1.86099994e+00 1.81099999e+00
    1.76100004e+00 1.74399996e+00 1.74399996e+00 1.73800004e+00
    1.68900001e+00 1.64100003e+00 1.62199998e+00 0. 0. 0. 0. 0. 0. 0. 0.
    0. 0. 0. 0. 0. 0. 0. 0. 0. 0. 0. 0. 2.27699995e+00 2.27600002e+00
    2.27099991e+00 2.26699996e+00 2.22799993e+00 2.17700005e+00
    2.12500000e+00 2.07100010e+00 2.01699996e+00 1.96399999e+00
    1.91199994e+00 1.86099994e+00 1.81099999e+00 1.76100004e+00
    1.74399996e+00 1.74399996e+00 1.73800004e+00 1.69400001e+00
    1.64900005e+00 1.63199997e+00 0. 0. 0. 0. 0. 0. 0. 0. 0. 0. 0. 0. 0.
    0. 0. 0. 0. 0. 0. 0. 2.27699995e+00 2.27099991e+00 2.24399996e+00
    2.21700001e+00 2.18799996e+00 2.15899992e+00 2.12500000e+00
    2.07100010e+00 2.01699996e+00 1.96399999e+00 1.91199994e+00
    1.86099994e+00 1.81099999e+00 1.76100004e+00 1.74399996e+00
    1.74399996e+00 1.74100006e+00 1.71500003e+00 1.69000006e+00
    1.67999995e+00 0. 0. 0. 0. 0. 0. 0. 0. 0. 0. 0. 0. 0. 0. 0. 0. 0. 0.
    0. 0. 2.27699995e+00 2.26500010e+00 2.21600008e+00 2.16700006e+00
    2.14800000e+00 2.14199996e+00 2.12500000e+00 2.07100010e+00
    2.01699996e+00 1.96399999e+00 1.91199994e+00 1.86099994e+00
    1.81099999e+00 1.76100004e+00 1.74399996e+00 1.74399996e+00
    1.74300003e+00 1.73699999e+00 1.73099995e+00 1.72899997e+00 0. 0. 0.
    0. 0. 0. 0. 0. 0. 0. 0. 0. 0. 0. 0. 0. 0. 0. 0. 0. 2.27699995e+00
    2.26399994e+00 2.20799994e+00 2.15199995e+00 2.12500000e+00
    2.11100006e+00 2.09100008e+00 2.05200005e+00 2.01200008e+00
    1.96399999e+00 1.91199994e+00 1.86300004e+00 1.82700002e+00
    1.79100001e+00 1.77800000e+00 1.77800000e+00 1.77600002e+00
    1.76300001e+00 1.74899995e+00 1.74399996e+00 0. 0. 0. 0. 0. 0. 0. 0.
    0. 0. 0. 0. 0. 0. 0. 0. 0. 0. 0. 0. 2.27699995e+00 2.26399994e+00
    2.20799994e+00 2.15199995e+00 2.10999990e+00 2.07399988e+00
    2.04099989e+00 2.02300000e+00 2.00600004e+00 1.96399999e+00
    1.91199994e+00 1.86600006e+00 1.85000002e+00 1.83299994e+00
    1.82799995e+00 1.82799995e+00 1.82299995e+00 1.78999996e+00
    1.75699997e+00 1.74399996e+00 0. 0. 0. 0. 0. 0. 0. 0. 0. 0. 0. 0. 0.
    0. 0. 0. 0. 0. 0. 0. 2.27699995e+00 2.26399994e+00 2.20799994e+00
    2.15199995e+00 2.09699988e+00 2.04299998e+00 2. 2. 2. 1.96700001e+00
    1.91799998e+00 1.87699997e+00 1.87399995e+00 1.87000000e+00
    1.86899996e+00 1.86899996e+00 1.86199999e+00 1.81299996e+00
    1.76300001e+00 1.74399996e+00 0. 0. 0. 0. 0. 0. 0. 0. 0. 0. 0. 0. 0.
    0. 0. 0. 0. 0. 0. 0. 2.27699995e+00 2.26399994e+00 2.20799994e+00
    2.15199995e+00 2.09699988e+00 2.04299998e+00 2. 2. 2. 1.98099995e+00
    1.95299995e+00 1.92600000e+00 1.90199995e+00 1.87699997e+00
    1.86899996e+00 1.86899996e+00 1.86199999e+00 1.81299996e+00
    1.76300001e+00 1.74399996e+00 0. 0. 0. 0. 0. 0. 0. 0. 0. 0. 0. 0. 0.
    0. 0. 0. 0. 0. 0. 0. 2.27699995e+00 2.26399994e+00 2.20799994e+00
    2.15199995e+00 2.09699988e+00 2.04299998e+00 2. 2. 2. 1.99500000e+00
    1.98800004e+00 1.97399998e+00 1.92900002e+00 1.88499999e+00
    1.86899996e+00 1.86899996e+00 1.86199999e+00 1.81299996e+00
    1.76300001e+00 1.74399996e+00 0. 0. 0. 0. 0. 0. 0. 0. 0. 0. 0. 0. 0.
    0. 0. 0. 0. 0. 0. 0. 2.27699995e+00 2.26399994e+00 2.20799994e+00
    2.15199995e+00 2.10700011e+00 2.06699991e+00 2.03500009e+00
    2.03500009e+00 2.03500009e+00 2.02600002e+00 2.01200008e+00
    1.99100006e+00 1.93900001e+00 1.88699996e+00 1.86899996e+00
    1.86899996e+00 1.86199999e+00 1.81299996e+00 1.76300001e+00
    1.74399996e+00 0. 0. 0. 0. 0. 0. 0. 0. 0. 0. 0. 0. 0. 0. 0. 0. 0. 0.
    0. 0. 2.27699995e+00 2.26399994e+00 2.20799994e+00 2.15199995e+00
    2.12299991e+00 2.10400009e+00 2.08899999e+00 2.08899999e+00
    2.08899999e+00 2.06500006e+00 2.02900004e+00 1.99100006e+00
    1.93900001e+00 1.88699996e+00 1.86899996e+00 1.86899996e+00
    1.86199999e+00 1.81299996e+00 1.76300001e+00 1.74399996e+00 0. 0. 0.
    0. 0. 0. 0. 0. 0. 0. 0. 0. 0. 0. 0. 0. 0. 0. 0. 0. 2.27699995e+00
    2.26399994e+00 2.21099997e+00 2.15799999e+00 2.14100003e+00
    2.13800001e+00 2.13599992e+00 2.13599992e+00 2.13599992e+00
    2.09899998e+00 2.04500008e+00 1.99100006e+00 1.93900001e+00
    1.88699996e+00 1.86899996e+00 1.86899996e+00 1.86199999e+00
    1.81299996e+00 1.76300001e+00 1.74399996e+00 0. 0. 0. 0. 0. 0. 0. 0.
    0. 0. 0. 0. 0. 0. 0. 0. 0. 0. 0. 0. 2.27699995e+00 2.26999998e+00
    2.23900008e+00 2.20799994e+00 2.18099999e+00 2.15599990e+00
    2.13599992e+00 2.13599992e+00 2.13599992e+00 2.09899998e+00
    2.04500008e+00 1.99100006e+00 1.93900001e+00 1.88699996e+00
    1.86899996e+00 1.86899996e+00 1.86199999e+00 1.81299996e+00
    1.76300001e+00 1.74399996e+00 0. 0. 0. 0. 0. 0. 0. 0. 0. 0. 0. 0. 0.
    0. 0. 0. 0. 0. 0. 0. 2.27699995e+00 2.27500010e+00 2.26600003e+00
    2.25799990e+00 2.22099996e+00 2.17400002e+00 2.13599992e+00
    2.13599992e+00 2.13599992e+00 2.09899998e+00 2.04500008e+00
    1.99100006e+00 1.93900001e+00 1.88699996e+00 1.86899996e+00
    1.86899996e+00 1.86199999e+00 1.81299996e+00 1.76300001e+00
    1.74399996e+00 0. 0. 0. 0. 0. 0. 0. 0. 0. 0. 0. 0. 0. 0. 0. 0. 0. 0.
    0. 0. 2.31299996e+00 2.30999994e+00 2.29500008e+00 2.28099990e+00
    2.24600005e+00 2.20400000e+00 2.16799998e+00 2.15400004e+00
    2.14000010e+00 2.09899998e+00 2.04500008e+00 1.99100006e+00
    1.93900001e+00 1.88699996e+00 1.86899996e+00 1.86899996e+00
    1.86199999e+00 1.81299996e+00 1.76300001e+00 1.74399996e+00 0. 0. 0.
    0. 0. 0. 0. 0. 0. 0. 0. 0. 0. 0. 0. 0. 0. 0. 0. 0. 2.37199998e+00
    2.36299992e+00 2.32500005e+00 2.28699994e+00 2.26200008e+00
    2.24200010e+00 2.21900010e+00 2.18300009e+00 2.14700007e+00
    2.09899998e+00 2.04500008e+00 1.99100006e+00 1.93900001e+00
    1.88699996e+00 1.86899996e+00 1.86899996e+00 1.86199999e+00
    1.81299996e+00 1.76300001e+00 1.74399996e+00 0. 0. 0. 0. 0. 0. 0. 0.
    0. 0. 0. 0. 0. 0. 0. 0. 0. 0. 0. 0. 2.42499995e+00 2.41100001e+00
    2.35200000e+00 2.29299998e+00 2.27699995e+00 2.27699995e+00
    2.26600003e+00 2.21000004e+00 2.15400004e+00 2.09899998e+00
    2.04500008e+00 1.99199998e+00 1.94200003e+00 1.89199996e+00
    1.87300003e+00 1.87100005e+00 1.86199999e+00 1.81299996e+00
    1.76300001e+00 1.74399996e+00 0. 0. 0. 0. 0. 0. 0. 0. 0. 0. 0. 0. 0.
    0. 0. 0. 0. 0. 0. 0. 2.42499995e+00 2.41100001e+00 2.35200000e+00
    2.29299998e+00 2.27699995e+00 2.27699995e+00 2.26600003e+00
    2.21000004e+00 2.15400004e+00 2.09899998e+00 2.04500008e+00
    1.99500000e+00 1.96599996e+00 1.93599999e+00 1.91100001e+00
    1.88900006e+00 1.86199999e+00 1.81299996e+00 1.76300001e+00
    1.74399996e+00 0. 0. 0. 0. 0. 0. 0. 0. 0. 0. 0. 0. 0. 0. 0. 0. 0. 0.
    0. 0. 2.42499995e+00 2.41100001e+00 2.35200000e+00 2.29299998e+00
    2.27699995e+00 2.27699995e+00 2.26600003e+00 2.21000004e+00
    2.15400004e+00 2.09899998e+00 2.04500008e+00 1.99899995e+00
    1.99000001e+00 1.98099995e+00 1.95000005e+00 1.90699995e+00
    1.86199999e+00 1.81299996e+00 1.76300001e+00 1.74399996e+00 0. 0. 0.
    0. 0. 0. 0. 0. 0. 0. 0. 0. 0. 0. 0. 0. 0. 0. 0. 0. 2.42499995e+00
    2.41100001e+00 2.35200000e+00 2.29299998e+00 2.27699995e+00
    2.27699995e+00 2.26600003e+00 2.21000004e+00 2.15400004e+00
    2.09899998e+00 2.04500008e+00 2. 2. 2. 1.96599996e+00 1.91400003e+00
    1.86199999e+00 1.81299996e+00 1.76300001e+00 1.74399996e+00 0. 0. 0.
    0. 0. 0. 0. 0. 0. 0. 0. 0. 0. 0. 0. 0. 0. 0. 0. 0. 2.42499995e+00
    2.41100001e+00 2.35200000e+00 2.29299998e+00 2.27699995e+00
    2.27699995e+00 2.26600003e+00 2.21000004e+00 2.15400004e+00
    2.09899998e+00 2.04500008e+00 2. 2. 2. 1.96599996e+00 1.91400003e+00
    1.86199999e+00 1.81299996e+00 1.76300001e+00 1.74399996e+00 0. 0. 0.
    0. 0. 0. 0. 0. 0. 0. 0. 0. 0. 0. 0. 0. 0. 0. 0. 0. 2.42499995e+00
    2.41100001e+00 2.35200000e+00 2.29299998e+00 2.27699995e+00
    2.27699995e+00 2.26600003e+00 2.21000004e+00 2.15400004e+00
    2.09999990e+00 2.04699993e+00 2.00300002e+00 2.00300002e+00
    2.00300002e+00 1.96899998e+00 1.91499996e+00 1.86199999e+00
    1.81299996e+00 1.76300001e+00 1.74399996e+00 0. 0. 0. 0. 0. 0. 0. 0.
    0. 0. 0. 0. 0. 0. 0. 0. 0. 0. 0. 0. 2.42499995e+00 2.41100001e+00
    2.35200000e+00 2.29299998e+00 2.27699995e+00 2.27699995e+00
    2.26600003e+00 2.21000004e+00 2.15400004e+00 2.11500001e+00
    2.08299994e+00 2.05699992e+00 2.05699992e+00 2.05699992e+00
    2.00900006e+00 1.93400002e+00 1.86199999e+00 1.81299996e+00
    1.76300001e+00 1.74399996e+00 0. 0. 0. 0. 0. 0. 0. 0. 0. 0. 0. 0. 0.
    0. 0. 0. 0. 0. 0. 0. 2.42499995e+00 2.41100001e+00 2.35200000e+00
    2.29299998e+00 2.27699995e+00 2.27699995e+00 2.26600003e+00
    2.21000004e+00 2.15400004e+00 2.12899995e+00 2.11999989e+00
    2.11100006e+00 2.11100006e+00 2.11100006e+00 2.04900002e+00
    1.95200002e+00 1.86199999e+00 1.81299996e+00 1.76300001e+00
    1.74399996e+00 0. 0. 0. 0. 0. 0. 0. 0. 0. 0. 0. 0. 0. 0. 0. 0. 0. 0.
    0. 0. 2.39299989e+00 2.38199997e+00 2.33599997e+00 2.28999996e+00
    2.27699995e+00 2.27699995e+00 2.26799989e+00 2.22399998e+00
    2.18000007e+00 2.15799999e+00 2.14599991e+00 2.13599992e+00
    2.13599992e+00 2.13599992e+00 2.07399988e+00 1.97899997e+00
    1.88900006e+00 1.82799995e+00 1.76699996e+00 1.74399996e+00 0. 0. 0.
    0. 0. 0. 0. 0. 0. 0. 0. 0. 0. 0. 0. 0. 0. 0. 0. 0. 2.33400011e+00
    2.32900000e+00 2.30599999e+00 2.28299999e+00 2.27699995e+00
    2.27699995e+00 2.27300000e+00 2.25099993e+00 2.22900009e+00
    2.19899988e+00 2.16499996e+00 2.13599992e+00 2.13599992e+00
    2.13599992e+00 2.08800006e+00 2.01399994e+00 1.93799996e+00
    1.85699999e+00 1.77499998e+00 1.74399996e+00 0. 0. 0. 0. 0. 0. 0. 0.
    0. 0. 0. 0. 0. 0. 0. 0. 0. 0. 0. 0. 2.27699995e+00 2.27699995e+00
    2.27699995e+00 2.27699995e+00 2.27699995e+00 2.27699995e+00
    2.27699995e+00 2.27699995e+00 2.27699995e+00 2.23900008e+00
    2.18300009e+00 2.13599992e+00 2.13599992e+00 2.13599992e+00
    2.10100007e+00 2.04699993e+00 1.98599994e+00 1.88499999e+00
    1.78299999e+00 1.74399996e+00 0. 0. 0. 0. 0. 0. 0. 0. 0. 0. 0. 0. 0.
    0. 0. 0. 0. 0. 0. 0. 2.27699995e+00 2.27699995e+00 2.27699995e+00
    2.27699995e+00 2.27699995e+00 2.27699995e+00 2.27699995e+00
    2.27699995e+00 2.27699995e+00 2.23900008e+00 2.18300009e+00
    2.13599992e+00 2.13599992e+00 2.13599992e+00 2.10100007e+00
    2.04699993e+00 1.98599994e+00 1.88499999e+00 1.78299999e+00
    1.74399996e+00 0. 0. 0. 0. 0. 0. 0. 0. 0. 0. 0. 0. 0. 0. 0. 0. 0. 0.
    0. 0. 2.27699995e+00 2.27699995e+00 2.27699995e+00 2.27699995e+00
    2.27699995e+00 2.27699995e+00 2.27699995e+00 2.27699995e+00
    2.27699995e+00 2.23900008e+00 2.18300009e+00 2.13599992e+00
    2.13599992e+00 2.13599992e+00 2.10100007e+00 2.04699993e+00
    1.98599994e+00 1.88499999e+00 1.78299999e+00 1.74399996e+00 0. 0. 0.
    0. 0. 0. 0. 0. 0. 0. 0. 0. 0. 0. 0. 0. 0. 0. 0. 0. 2.27699995e+00
    2.27699995e+00 2.27699995e+00 2.27699995e+00 2.27699995e+00
    2.27699995e+00 2.27699995e+00 2.27699995e+00 2.27699995e+00
    2.23900008e+00 2.18300009e+00 2.13400006e+00 2.12299991e+00
    2.11199999e+00 2.07999992e+00 2.03699994e+00 1.98599994e+00
    1.88499999e+00 1.78299999e+00 1.74399996e+00 0. 0. 0. 0. 0. 0. 0. 0.
    0. 0. 0. 0. 0. 0. 0. 0. 0. 0. 0. 0. 2.27699995e+00 2.27699995e+00
    2.27699995e+00 2.27699995e+00 2.27699995e+00 2.27699995e+00
    2.27699995e+00 2.27699995e+00 2.27699995e+00 2.23900008e+00
    2.18300009e+00 2.13100004e+00 2.09800005e+00 2.06599998e+00
    2.03999996e+00 2.01900005e+00 1.98599994e+00 1.88499999e+00
    1.78299999e+00 1.74399996e+00 0. 0. 0. 0. 0. 0. 0. 0. 0. 0. 0. 0. 0.
    0. 0. 0. 0. 0. 0. 0. 2.27699995e+00 2.27699995e+00 2.27699995e+00
    2.27699995e+00 2.27699995e+00 2.27699995e+00 2.27699995e+00
    2.27699995e+00 2.27699995e+00 2.23900008e+00 2.18300009e+00
    2.12700009e+00 2.07299995e+00 2.01900005e+00 2. 2. 1.98599994e+00
    1.88499999e+00 1.78299999e+00 1.74399996e+00 0. 0. 0. 0. 0. 0. 0. 0.
    0. 0. 0. 0. 0. 0. 0. 0. 0. 0. 0. 0. 2.33500004e+00 2.32999992e+00
    2.30699992e+00 2.28299999e+00 2.27699995e+00 2.27699995e+00
    2.27699995e+00 2.27699995e+00 2.27699995e+00 2.23900008e+00
    2.18300009e+00 2.12700009e+00 2.07299995e+00 2.01900005e+00
    1.98699999e+00 1.96599996e+00 1.93799996e+00 1.85599995e+00
    1.77499998e+00 1.74399996e+00 0. 0. 0. 0. 0. 0. 0. 0. 0. 0. 0. 0. 0.
    0. 0. 0. 0. 0. 0. 0. 2.39400005e+00 2.38299990e+00 2.33599997e+00
    2.28999996e+00 2.27699995e+00 2.27699995e+00 2.27699995e+00
    2.27699995e+00 2.27699995e+00 2.23900008e+00 2.18300009e+00
    2.12700009e+00 2.07299995e+00 2.01900005e+00 1.97300005e+00
    1.93200004e+00 1.88800001e+00 1.82799995e+00 1.76699996e+00
    1.74399996e+00 0. 0. 0. 0. 0. 0. 0. 0. 0. 0. 0. 0. 0. 0. 0. 0. 0. 0.
    0. 0. 2.42499995e+00 2.41100001e+00 2.35200000e+00 2.29299998e+00
    2.27699995e+00 2.27699995e+00 2.27699995e+00 2.27699995e+00
    2.27699995e+00 2.23900008e+00 2.18300009e+00 2.12700009e+00
    2.07299995e+00 2.01900005e+00 1.96599996e+00 1.91400003e+00
    1.86199999e+00 1.81299996e+00 1.76300001e+00 1.74399996e+00 0. 0. 0.
    0. 0. 0. 0. 0. 0. 0.</data></Depth>
</opencv_storage>
