<?xml version="1.0"?>
<opencv_storage>
<Depth type_id="opencv-matrix">
  <rows>40</rows>
  <cols>40</cols>
  <dt>f</dt>
  <data>
    0. 0. 0. 0. 0. 0. 0. 0. 0. 0. 0. 0. 0. 0. 0. 0. 0. 2.05999994e+00
    2.06200004e+00 0. 0. 1.98199999e+00 2.05999994e+00 2.06500006e+00
    2.04399991e+00 2.01699996e+00 2.01699996e+00 2.05800009e+00
    2.02099991e+00 2.01999998e+00 1.16799998e+00 0. 0. 0. 0. 0. 0. 0. 0.
    0. 0. 0. 0. 0. 0. 0. 0. 1.98300004e+00 1.97899997e+00 1.98199999e+00
    1.98399997e+00 1.98599994e+00 2.01999998e+00 1.99199998e+00
    1.98800004e+00 1.98800004e+00 1.99100006e+00 1.99100006e+00
    1.99399996e+00 1.99800003e+00 2. 2. 2.00399995e+00 2.00500011e+00
    2.00999999e+00 2.01099992e+00 2.01200008e+00 2.01500010e+00
    2.01799989e+00 2.01999998e+00 1.09700000e+00 1.09700000e+00 0. 0. 0.
    0. 0. 0. 0. 0. 0. 0. 0. 0. 0. 0. 2.19300008e+00 1.96800005e+00
    1.97200000e+00 1.97200000e+00 1.97500002e+00 1.97700000e+00
    1.97700000e+00 1.98099995e+00 1.98399997e+00 1.98399997e+00
    1.98699999e+00 1.98800004e+00 1.99100006e+00 1.99699998e+00
    1.99899995e+00 2. 2.00399995e+00 2.00699997e+00 2.00999999e+00
    2.01200008e+00 2.01500010e+00 2.01699996e+00 2.01999998e+00
    2.01999998e+00 1.09700000e+00 1.09700000e+00 0. 0. 0. 0. 0. 0. 0. 0.
    0. 0. 0. 0. 0. 0. 1.95899999e+00 1.96599996e+00 1.96800005e+00
    1.97000003e+00 1.97200000e+00 1.97500002e+00 1.97500002e+00
    1.97899997e+00 1.98199999e+00 1.98399997e+00 1.98699999e+00
    1.99000001e+00 1.99199998e+00 1.99899995e+00 2. 2.00200009e+00
    2.00500011e+00 2.00900006e+00 2.00999999e+00 2.01099992e+00
    2.01200008e+00 2.01600003e+00 2.01999998e+00 2.01999998e+00
    1.77300000e+00 1.09700000e+00 0. 0. 0. 0. 0. 0. 0. 0. 0. 0. 0. 0. 0.
    0. 1.96099997e+00 1.96599996e+00 1.97000003e+00 1.97000003e+00
    1.97200000e+00 1.97500002e+00 1.97700000e+00 1.98099995e+00
    1.98199999e+00 1.98500001e+00 1.98699999e+00 1.99000001e+00
    1.99199998e+00 1.99699998e+00 2. 2.00300002e+00 2.00600004e+00
    2.00999999e+00 2.00999999e+00 2.01200008e+00 2.01200008e+00
    2.01600003e+00 2.01999998e+00 2.02200007e+00 1.77400005e+00
    1.09700000e+00 0. 0. 0. 0. 0. 0. 0. 0. 0. 0. 0. 0. 0. 0.
    1.96399999e+00 1.96399999e+00 1.97000003e+00 1.97000003e+00
    1.97200000e+00 1.97700000e+00 1.97700000e+00 1.97899997e+00
    1.98300004e+00 1.98599994e+00 1.98599994e+00 1.99000001e+00
    1.99199998e+00 1.99899995e+00 2. 2.00300002e+00 2.00600004e+00
    2.00999999e+00 2.00999999e+00 2.01200008e+00 2.01200008e+00
    2.01600003e+00 2.01999998e+00 2.02200007e+00 1.77300000e+00
    1.09700000e+00 0. 0. 0. 0. 0. 0. 0. 0. 0. 0. 0. 0. 0. 0.
    1.96399999e+00 1.96599996e+00 1.97000003e+00 1.97000003e+00
    1.97300005e+00 1.97700000e+00 1.97700000e+00 1.97899997e+00
    1.98399997e+00 1.98599994e+00 1.98599994e+00 1.99000001e+00
    1.99399996e+00 1.99899995e+00 2.00300002e+00 2.00300002e+00
    2.00600004e+00 2.00999999e+00 2.00999999e+00 2.01200008e+00
    2.01500010e+00 2.01799989e+00 2.01999998e+00 2.02200007e+00
    1.77300000e+00 1.09700000e+00 0. 0. 0. 0. 0. 0. 0. 0. 0. 0. 0. 0. 0.
    0. 1.96200001e+00 1.96599996e+00 1.97000003e+00 1.97000003e+00
    1.97200000e+00 1.97500002e+00 1.97899997e+00 1.97899997e+00
    1.98500001e+00 1.98599994e+00 1.98599994e+00 1.99000001e+00
    1.99600005e+00 1.99899995e+00 2.00200009e+00 2.00399995e+00
    2.00699997e+00 2.00999999e+00 2.01200008e+00 2.01200008e+00
    2.01399994e+00 2.01799989e+00 2.01999998e+00 2.02200007e+00
    2.02200007e+00 1.09700000e+00 1.09700000e+00 0. 0. 0. 0. 0. 0. 0. 0.
    0. 0. 0. 0. 0. 1.96099997e+00 1.96599996e+00 1.97000003e+00
    1.97000003e+00 1.97500002e+00 1.97599995e+00 1.97899997e+00
    1.98099995e+00 1.98300004e+00 1.98599994e+00 1.98599994e+00
    1.99100006e+00 1.99500000e+00 2. 2.00300002e+00 2.00500011e+00
    2.00600004e+00 2.00999999e+00 2.01099992e+00 2.01200008e+00
    2.01500010e+00 2.01999998e+00 2.01999998e+00 2.02200007e+00
    2.01999998e+00 1.09700000e+00 1.09700000e+00 0. 0. 0. 0. 0. 0. 0. 0.
    0. 0. 0. 0. 0. 1.95500004e+00 1.96599996e+00 1.97000003e+00
    1.97000003e+00 1.97200000e+00 1.97500002e+00 1.97899997e+00
    1.98099995e+00 1.98300004e+00 1.98800004e+00 1.98800004e+00
    1.99100006e+00 1.99500000e+00 2. 2.00200009e+00 2.00600004e+00
    2.00699997e+00 2.00999999e+00 2.01200008e+00 2.01200008e+00
    2.01500010e+00 2.01699996e+00 2.01999998e+00 2.02200007e+00
    2.02399993e+00 1.09700000e+00 1.09700000e+00 0. 0. 0. 0. 0. 0. 0. 0.
    0. 0. 0. 0. 0. 1.95500004e+00 1.96800005e+00 1.97099996e+00
    1.97200000e+00 1.97399998e+00 1.97700000e+00 1.97899997e+00
    1.98099995e+00 1.98300004e+00 1.98500001e+00 1.98800004e+00
    1.99100006e+00 1.99300003e+00 2. 2.00200009e+00 2.00399995e+00
    2.00600004e+00 2.00999999e+00 2.01200008e+00 2.01200008e+00
    2.01699996e+00 2.01999998e+00 2.01999998e+00 2.02200007e+00
    2.02300000e+00 1.09700000e+00 1.09700000e+00 0. 0. 0. 0. 0. 0. 0. 0.
    0. 0. 0. 0. 0. 1.95299995e+00 1.96800005e+00 1.97000003e+00
    1.97200000e+00 1.97500002e+00 1.97899997e+00 1.97899997e+00
    1.98399997e+00 1.98500001e+00 1.98500001e+00 1.99000001e+00
    1.99100006e+00 1.99199998e+00 1.99899995e+00 2.00300002e+00
    2.00399995e+00 2.00600004e+00 2.00999999e+00 2.00999999e+00
    2.01300001e+00 2.01699996e+00 2.01799989e+00 2.02099991e+00
    2.02200007e+00 2.02500010e+00 1.09700000e+00 1.09700000e+00 0. 0. 0.
    0. 0. 0. 0. 0. 0. 0. 0. 0. 0. 1.09700000e+00 1.97000003e+00
    1.97200000e+00 1.97000003e+00 1.97200000e+00 1.97700000e+00
    1.97899997e+00 1.98199999e+00 1.98599994e+00 1.98699999e+00
    1.98899996e+00 1.99199998e+00 1.99300003e+00 2. 2.00300002e+00
    2.00500011e+00 2.00600004e+00 2.01200008e+00 2.01200008e+00
    2.01500010e+00 2.01699996e+00 2.01999998e+00 2.02099991e+00
    2.02200007e+00 2.02300000e+00 1.09700000e+00 1.09700000e+00 0. 0. 0.
    0. 0. 0. 0. 0. 0. 0. 0. 0. 0. 1.09700000e+00 1.97000003e+00
    1.97200000e+00 1.97200000e+00 1.97500002e+00 1.97800004e+00
    1.98000002e+00 1.98199999e+00 1.98399997e+00 1.98800004e+00
    1.98800004e+00 1.99199998e+00 1.99500000e+00 2.00200009e+00
    2.00300002e+00 2.00399995e+00 2.00500011e+00 2.00999999e+00
    2.01200008e+00 2.01399994e+00 2.01699996e+00 2.01999998e+00
    2.02200007e+00 2.02300000e+00 2.02600002e+00 1.80799997e+00
    1.09700000e+00 0. 0. 0. 0. 0. 0. 0. 0. 0. 0. 0. 0. 0. 1.09700000e+00
    1.96800005e+00 1.97200000e+00 1.97200000e+00 1.97500002e+00
    1.97800004e+00 1.97899997e+00 1.98199999e+00 1.98500001e+00
    1.98800004e+00 1.99100006e+00 1.99199998e+00 1.99399996e+00
    2.00200009e+00 2.00300002e+00 2.00500011e+00 2.00799990e+00
    2.01200008e+00 2.01200008e+00 2.01600003e+00 2.01999998e+00
    2.01999998e+00 2.02200007e+00 2.02500010e+00 2.02699995e+00
    1.40499997e+00 1.09700000e+00 0. 0. 0. 0. 0. 0. 0. 0. 0. 0. 0. 0. 0.
    1.09700000e+00 1.97000003e+00 1.97200000e+00 1.97200000e+00
    1.97599995e+00 1.97899997e+00 1.98199999e+00 1.98199999e+00
    1.98399997e+00 1.98800004e+00 1.99100006e+00 1.99199998e+00
    1.99500000e+00 2. 2.00300002e+00 2.00500011e+00 2.00799990e+00
    2.00999999e+00 2.01300001e+00 2.01600003e+00 2.01999998e+00
    2.02200007e+00 2.02300000e+00 2.02600002e+00 2.02900004e+00
    1.47700000e+00 1.09700000e+00 0. 0. 0. 0. 0. 0. 0. 0. 0. 0. 0. 0. 0.
    1.09700000e+00 1.96800005e+00 1.97000003e+00 1.97200000e+00
    1.97700000e+00 1.97899997e+00 1.98099995e+00 1.98399997e+00
    1.98500001e+00 1.98800004e+00 1.99100006e+00 1.99100006e+00
    1.99800003e+00 2. 2.00300002e+00 2.00600004e+00 2.00900006e+00
    2.00999999e+00 2.01200008e+00 2.01699996e+00 2.01999998e+00
    2.02099991e+00 2.02300000e+00 2.02699995e+00 2.02999997e+00
    1.91900003e+00 1.09700000e+00 0. 0. 0. 0. 0. 0. 0. 0. 0. 0. 0. 0. 0.
    1.09700000e+00 1.97000003e+00 1.97000003e+00 1.97200000e+00
    1.97500002e+00 1.97700000e+00 1.98199999e+00 1.98399997e+00
    1.98599994e+00 1.98899996e+00 1.99100006e+00 1.99100006e+00
    1.99399996e+00 2. 2.00200009e+00 2.00699997e+00 2.00999999e+00
    2.01099992e+00 2.01200008e+00 2.01600003e+00 2.01999998e+00
    2.02200007e+00 2.02200007e+00 2.02500010e+00 2.02999997e+00
    1.54299998e+00 1.09700000e+00 0. 0. 0. 0. 0. 0. 0. 0. 0. 0. 0. 0. 0.
    1.09700000e+00 1.92900002e+00 1.97000003e+00 1.97200000e+00
    1.97599995e+00 1.97800004e+00 1.98199999e+00 1.98500001e+00
    1.98500001e+00 1.98699999e+00 1.99100006e+00 1.99199998e+00
    1.99399996e+00 2. 2.00300002e+00 2.00500011e+00 2.00999999e+00
    2.01200008e+00 2.01300001e+00 2.01799989e+00 2.01999998e+00
    2.02200007e+00 2.02300000e+00 2.02600002e+00 2.02999997e+00
    2.03099990e+00 1.09700000e+00 0. 0. 0. 0. 0. 0. 0. 0. 0. 0. 0. 0. 0.
    1.74500000e+00 1.96800005e+00 1.97000003e+00 1.97200000e+00
    1.97700000e+00 1.97700000e+00 1.98199999e+00 1.98300004e+00
    1.98500001e+00 1.98800004e+00 1.99100006e+00 1.99300003e+00
    1.99800003e+00 2. 2.00300002e+00 2.00399995e+00 2.00999999e+00
    2.01099992e+00 2.01300001e+00 2.01699996e+00 2.01799989e+00
    2.02099991e+00 2.02399993e+00 2.02600002e+00 2.02999997e+00
    2.02800012e+00 1.48399997e+00 0. 0. 0. 0. 0. 0. 0. 0. 0. 0. 0. 0. 0.
    2.59999990e+00 1.96800005e+00 1.97000003e+00 1.97200000e+00
    1.97500002e+00 1.97899997e+00 1.97899997e+00 1.98199999e+00
    1.98699999e+00 1.98800004e+00 1.99100006e+00 1.99300003e+00
    1.99699998e+00 2. 2.00300002e+00 2.00500011e+00 2.00999999e+00
    2.00999999e+00 2.01200008e+00 2.01699996e+00 2.01999998e+00
    2.02099991e+00 2.02300000e+00 2.02500010e+00 2.02800012e+00
    2.02600002e+00 2.38700008e+00 0. 0. 0. 0. 0. 0. 0. 0. 0. 0. 0. 0. 0.
    1.11199999e+00 1.92900002e+00 1.97200000e+00 1.97200000e+00
    1.97700000e+00 1.97899997e+00 1.98000002e+00 1.98399997e+00
    1.98399997e+00 1.98699999e+00 1.99100006e+00 1.99399996e+00
    1.99800003e+00 2. 2.00399995e+00 2.00600004e+00 2.00799990e+00
    2.01099992e+00 2.01399994e+00 2.01999998e+00 2.01999998e+00
    2.02099991e+00 2.02300000e+00 2.02500010e+00 2.02900004e+00
    1.09700000e+00 1.09700000e+00 0. 0. 0. 0. 0. 0. 0. 0. 0. 0. 0. 0. 0.
    1.09700000e+00 1.65799999e+00 1.97200000e+00 1.97500002e+00
    1.97700000e+00 1.97800004e+00 1.98099995e+00 1.98399997e+00
    1.98599994e+00 1.98899996e+00 1.99100006e+00 1.99300003e+00
    1.99500000e+00 2. 2.00300002e+00 2.00500011e+00 2.00900006e+00
    2.01200008e+00 2.01399994e+00 2.01699996e+00 2.01999998e+00
    2.02200007e+00 2.02500010e+00 2.02699995e+00 2.02900004e+00
    2.03099990e+00 1.09700000e+00 0. 0. 0. 0. 0. 0. 0. 0. 0. 0. 0. 0. 0.
    1.09700000e+00 1.09700000e+00 1.97200000e+00 1.97500002e+00
    1.97700000e+00 1.97700000e+00 1.98199999e+00 1.98199999e+00
    1.98599994e+00 1.99000001e+00 1.99100006e+00 1.99100006e+00
    1.99699998e+00 2. 2.00300002e+00 2.00699997e+00 2.00900006e+00
    2.01099992e+00 2.01500010e+00 2.01699996e+00 2.01999998e+00
    2.02200007e+00 2.02399993e+00 2.02500010e+00 2.02999997e+00
    2.02999997e+00 1.09700000e+00 0. 0. 0. 0. 0. 0. 0. 0. 0. 0. 0. 0. 0.
    1.09700000e+00 1.09700000e+00 1.97200000e+00 1.97500002e+00
    1.97500002e+00 1.97899997e+00 1.98199999e+00 1.98399997e+00
    1.98699999e+00 1.98800004e+00 1.99100006e+00 1.99500000e+00
    1.99500000e+00 2.00099993e+00 2.00300002e+00 2.00600004e+00
    2.00900006e+00 2.00999999e+00 2.01399994e+00 2.01999998e+00
    2.01999998e+00 2.02200007e+00 2.02500010e+00 2.02500010e+00
    2.02999997e+00 2.02900004e+00 1.09700000e+00 0. 0. 0. 0. 0. 0. 0. 0.
    0. 0. 0. 0. 0. 1.09700000e+00 1.09700000e+00 1.97000003e+00
    1.97500002e+00 1.97700000e+00 1.97899997e+00 1.98199999e+00
    1.98399997e+00 1.98800004e+00 1.98800004e+00 1.99100006e+00
    1.99300003e+00 1.99399996e+00 2. 2.00399995e+00 2.00500011e+00
    2.00999999e+00 2.01099992e+00 2.01600003e+00 2.01999998e+00
    2.02099991e+00 2.02300000e+00 2.02200007e+00 2.02600002e+00
    2.02999997e+00 2.02800012e+00 1.79299998e+00 0. 0. 0. 0. 0. 0. 0. 0.
    0. 0. 0. 0. 0. 1.09700000e+00 1.09700000e+00 1.97000003e+00
    1.97599995e+00 1.97899997e+00 1.98199999e+00 1.98199999e+00
    1.98399997e+00 1.98800004e+00 1.98800004e+00 1.99100006e+00
    1.99500000e+00 1.99699998e+00 2.00200009e+00 2.00399995e+00
    2.00600004e+00 2.00999999e+00 2.01200008e+00 2.01300001e+00
    2.01699996e+00 2.01999998e+00 2.02200007e+00 2.02200007e+00
    2.02800012e+00 2.03200006e+00 2.03200006e+00 1.09700000e+00 0. 0. 0.
    0. 0. 0. 0. 0. 0. 0. 0. 0. 0. 1.09700000e+00 1.09700000e+00
    1.97399998e+00 1.97700000e+00 1.97899997e+00 1.98199999e+00
    1.98199999e+00 1.98599994e+00 1.98800004e+00 1.98800004e+00
    1.99199998e+00 1.99500000e+00 1.99800003e+00 2.00300002e+00
    2.00399995e+00 2.00699997e+00 2.00999999e+00 2.01300001e+00
    2.01500010e+00 2.01799989e+00 2.01999998e+00 2.02200007e+00
    2.02500010e+00 2.02999997e+00 2.03200006e+00 2.02999997e+00
    1.09700000e+00 0. 0. 0. 0. 0. 0. 0. 0. 0. 0. 0. 0. 0. 1.09700000e+00
    1.09700000e+00 1.96500003e+00 1.97700000e+00 1.97899997e+00
    1.98199999e+00 1.98399997e+00 1.98599994e+00 1.98800004e+00
    1.99100006e+00 1.99199998e+00 1.99699998e+00 1.99800003e+00
    2.00300002e+00 2.00300002e+00 2.00699997e+00 2.01099992e+00
    2.01200008e+00 2.01500010e+00 2.01799989e+00 2.01999998e+00
    2.02200007e+00 2.02600002e+00 2.02999997e+00 2.03200006e+00
    2.03200006e+00 2.02999997e+00 0. 0. 0. 0. 0. 0. 0. 0. 0. 0. 0. 0. 0.
    1.09700000e+00 1.09700000e+00 1.91100001e+00 1.97899997e+00
    1.97899997e+00 1.98199999e+00 1.98199999e+00 1.98599994e+00
    1.98800004e+00 1.99100006e+00 1.99399996e+00 1.99500000e+00
    1.99800003e+00 2.00300002e+00 2.00300002e+00 2.00699997e+00
    2.00999999e+00 2.01500010e+00 2.01500010e+00 2.01799989e+00
    2.02099991e+00 2.02200007e+00 2.02500010e+00 2.02999997e+00
    2.02999997e+00 2.03200006e+00 1.09700000e+00 0. 0. 0. 0. 0. 0. 0. 0.
    0. 0. 0. 0. 0. 1.09700000e+00 1.09700000e+00 1.16900003e+00
    1.97899997e+00 1.97899997e+00 1.98199999e+00 1.98199999e+00
    1.98599994e+00 1.98699999e+00 1.99000001e+00 1.99500000e+00
    1.99800003e+00 2. 2.00300002e+00 2.00500011e+00 2.00699997e+00
    2.00999999e+00 2.01200008e+00 2.01600003e+00 2.01999998e+00
    2.02200007e+00 2.02200007e+00 2.02300000e+00 2.02999997e+00
    2.03099990e+00 2.03200006e+00 2.02999997e+00 0. 0. 0. 0. 0. 0. 0. 0.
    0. 0. 0. 0. 0. 1.09700000e+00 1.09700000e+00 1.91499996e+00
    1.97899997e+00 1.98000002e+00 1.98199999e+00 1.98399997e+00
    1.98800004e+00 1.98800004e+00 1.99300003e+00 1.99399996e+00
    1.99800003e+00 1.99800003e+00 2.00300002e+00 2.00500011e+00
    2.00699997e+00 2.01099992e+00 2.01200008e+00 2.01500010e+00
    2.01699996e+00 2.02099991e+00 2.02300000e+00 2.02800012e+00
    2.02999997e+00 2.03200006e+00 2.03200006e+00 1.15100002e+00 0. 0. 0.
    0. 0. 0. 0. 0. 0. 0. 0. 0. 0. 1.09700000e+00 1.09700000e+00
    1.91100001e+00 1.97700000e+00 1.97899997e+00 1.98199999e+00
    1.98399997e+00 1.98800004e+00 1.98800004e+00 1.99199998e+00
    1.99500000e+00 1.99800003e+00 1.99800003e+00 2.00200009e+00
    2.00399995e+00 2.00300002e+00 2.00999999e+00 2.01399994e+00
    2.01500010e+00 2.01600003e+00 2.01999998e+00 2.02500010e+00
    2.02800012e+00 2.03099990e+00 2.03600001e+00 2.03500009e+00
    2.03500009e+00 0. 0. 0. 0. 0. 0. 0. 0. 0. 0. 0. 0. 0. 1.09700000e+00
    1.09700000e+00 1.91100001e+00 1.97899997e+00 1.97899997e+00
    1.98199999e+00 1.98399997e+00 1.98800004e+00 1.99000001e+00
    1.99100006e+00 1.99300003e+00 1.99699998e+00 2. 2.00300002e+00
    2.00300002e+00 2.00699997e+00 2.01099992e+00 2.01200008e+00
    2.01699996e+00 2.01999998e+00 2.02200007e+00 2.02300000e+00
    2.02699995e+00 2.02999997e+00 2.03200006e+00 2.03200006e+00
    2.03699994e+00 0. 0. 0. 0. 0. 0. 0. 0. 0. 0. 0. 0. 0. 1.09700000e+00
    1.09700000e+00 1.09700000e+00 1.97899997e+00 1.98199999e+00
    1.98199999e+00 1.98599994e+00 1.98599994e+00 1.98800004e+00
    1.99100006e+00 1.99300003e+00 1.99399996e+00 1.99800003e+00
    2.00399995e+00 2.00900006e+00 2.00999999e+00 2.01200008e+00
    2.01200008e+00 2.01699996e+00 2.01999998e+00 2.01999998e+00
    2.02200007e+00 2.02200007e+00 2.02600002e+00 2.02999997e+00
    2.02999997e+00 0. 0. 0. 0. 0. 0. 0. 0. 0. 0. 0. 0. 0. 0.
    1.09700000e+00 1.09700000e+00 1.09700000e+00 1.98099995e+00
    1.98399997e+00 1.98500001e+00 1.98599994e+00 1.98800004e+00
    1.99000001e+00 1.99100006e+00 1.99699998e+00 1.99500000e+00
    1.99699998e+00 2.00300002e+00 2.00300002e+00 2.00600004e+00
    2.00999999e+00 2.01300001e+00 2.01799989e+00 2.01900005e+00
    2.01999998e+00 2.02200007e+00 1.43799996e+00 1.13900006e+00 0. 0. 0.
    0. 0. 0. 0. 0. 0. 0. 0. 0. 0. 0. 0. 0. 1.09700000e+00 1.09700000e+00
    1.09700000e+00 1.97899997e+00 1.98199999e+00 1.98599994e+00
    1.98599994e+00 1.98800004e+00 1.98800004e+00 1.99199998e+00
    1.99500000e+00 1.99300003e+00 2.00099993e+00 2.00300002e+00
    2.00500011e+00 2.11700010e+00 2.11500001e+00 2.03299999e+00
    1.14400005e+00 2.35899997e+00 2.34500003e+00 2.33800006e+00
    2.26200008e+00 1.09700000e+00 1.09700000e+00 1.61899996e+00 0. 0. 0.
    0. 0. 0. 0. 0. 0. 0. 0. 0. 0. 0. 1.09700000e+00 1.09700000e+00
    1.09700000e+00 1.97700000e+00 1.97899997e+00 1.98199999e+00
    1.98500001e+00 1.98599994e+00 1.98599994e+00 1.99100006e+00
    1.13100004e+00 1.70099998e+00 2.01699996e+00 2.11100006e+00
    2.11400008e+00 2.11700010e+00 2.11100006e+00 2.11800003e+00
    1.09700000e+00 1.09700000e+00 2.33200002e+00 2.33200002e+00
    2.32299995e+00 2.31999993e+00 1.09700000e+00 1.09700000e+00 0. 0. 0.
    0. 0. 0. 0. 0. 0. 0. 0. 0. 0. 0. 1.09700000e+00 1.09700000e+00
    1.09700000e+00 1.97700000e+00 1.97899997e+00 1.23099995e+00
    1.23099995e+00 1.09700000e+00 1.09700000e+00 1.09700000e+00
    1.09700000e+00 1.18900001e+00 2.01699996e+00 2.10100007e+00
    2.09599996e+00 2.09400010e+00 2.08899999e+00 1.61600006e+00
    1.09700000e+00 1.09700000e+00 1.09700000e+00 2.32200003e+00
    2.31900001e+00 2.31200004e+00 2.30699992e+00 2.12100005e+00
    2.11299992e+00 0. 0. 0. 0. 0. 0. 0. 0. 0. 0. 0. 0. 0. 0. 0. 0. 0. 0.
    0. 0. 0. 0. 0. 0. 0. 0. 0. 0. 0. 0. 0. 0. 0. 0. 0. 0. 0. 0. 0. 0. 0.
    0. 0. 0. 0. 0. 0.</data></Depth>
</opencv_storage>
