<?xml version="1.0"?>
<opencv_storage>
<Depth type_id="opencv-matrix">
  <rows>40</rows>
  <cols>40</cols>
  <dt>f</dt>
  <data>
    0. 0. 0. 0. 0. 0. 0. 0. 0. 0. 0. 0. 0. 0. 0. 0. 0. 0. 0. 0. 0. 0. 0.
    0. 0. 0. 0. 0. 0. 0. 0. 0. 0. 0. 0. 0. 0. 0. 0. 0. 2.86599994e+00
    2.86599994e+00 2.86599994e+00 2.86599994e+00 2.86599994e+00
    2.86599994e+00 2.86599994e+00 2.86599994e+00 2.86599994e+00
    2.86599994e+00 2.86599994e+00 2.86599994e+00 2.85800004e+00
    2.80699992e+00 2.77399993e+00 2.77399993e+00 2.77399993e+00
    2.77399993e+00 2.77399993e+00 2.77399993e+00 2.77399993e+00
    2.77399993e+00 2.77399993e+00 2.75099993e+00 2.70099998e+00
    2.68600011e+00 2.68600011e+00 2.68600011e+00 2.68000007e+00
    2.63100004e+00 2.59999990e+00 2.59999990e+00 2.59999990e+00
    2.59999990e+00 2.49300003e+00 2.35700011e+00 2.23300004e+00
    2.11100006e+00 1.99699998e+00 1.93400002e+00 2.88700008e+00
    2.86899996e+00 2.86599994e+00 2.86599994e+00 2.86599994e+00
    2.86599994e+00 2.86599994e+00 2.86599994e+00 2.86599994e+00
    2.86599994e+00 2.86599994e+00 2.86599994e+00 2.85800004e+00
    2.80699992e+00 2.77399993e+00 2.77399993e+00 2.77399993e+00
    2.77399993e+00 2.77399993e+00 2.77399993e+00 2.77399993e+00
    2.77399993e+00 2.77399993e+00 2.75900006e+00 2.72600007e+00
    2.70400000e+00 2.68799996e+00 2.68600011e+00 2.68000007e+00
    2.63100004e+00 2.59999990e+00 2.59999990e+00 2.59999990e+00
    2.59999990e+00 2.44899988e+00 2.25799990e+00 2.16300011e+00
    2.06999993e+00 1.98199999e+00 1.93400002e+00 2.92199993e+00
    2.87400007e+00 2.86599994e+00 2.86599994e+00 2.86599994e+00
    2.86599994e+00 2.86599994e+00 2.86599994e+00 2.86599994e+00
    2.86599994e+00 2.86599994e+00 2.86599994e+00 2.85800004e+00
    2.80699992e+00 2.77399993e+00 2.77399993e+00 2.77399993e+00
    2.77399993e+00 2.77399993e+00 2.77399993e+00 2.77399993e+00
    2.77399993e+00 2.77399993e+00 2.77200007e+00 2.76699996e+00
    2.73499990e+00 2.69000006e+00 2.68600011e+00 2.68000007e+00
    2.63100004e+00 2.59999990e+00 2.59999990e+00 2.59999990e+00
    2.59999990e+00 2.37599993e+00 2.09500003e+00 2.04900002e+00
    2.00300002e+00 1.95799994e+00 1.93400002e+00 2.94300008e+00
    2.91499996e+00 2.91000009e+00 2.91000009e+00 2.91000009e+00
    2.90300012e+00 2.87899995e+00 2.86599994e+00 2.86599994e+00
    2.84899998e+00 2.82500005e+00 2.82299995e+00 2.81900001e+00
    2.79099989e+00 2.77399993e+00 2.77399993e+00 2.77399993e+00
    2.77399993e+00 2.77399993e+00 2.77399993e+00 2.77399993e+00
    2.77399993e+00 2.77399993e+00 2.77399993e+00 2.77399993e+00
    2.74000001e+00 2.69000006e+00 2.68600011e+00 2.66199994e+00
    2.47399998e+00 2.35200000e+00 2.35200000e+00 2.34200001e+00
    2.32399988e+00 2.19400001e+00 2.03600001e+00 2.01600003e+00
    1.99100006e+00 1.95400000e+00 1.93400002e+00 2.96000004e+00
    2.96000004e+00 2.96000004e+00 2.96000004e+00 2.95799994e+00
    2.94300008e+00 2.89000010e+00 2.86299992e+00 2.86299992e+00
    2.82800007e+00 2.77800012e+00 2.77399993e+00 2.77399993e+00
    2.77399993e+00 2.77399993e+00 2.77399993e+00 2.77399993e+00
    2.77399993e+00 2.77300000e+00 2.77200007e+00 2.77200007e+00
    2.77200007e+00 2.77200007e+00 2.77200007e+00 2.77200007e+00
    2.73200011e+00 2.67600012e+00 2.66899991e+00 2.62299991e+00
    2.28600001e+00 2.06599998e+00 2.06599998e+00 2.04500008e+00
    2.00799990e+00 2. 2. 2. 1.99100006e+00 1.95299995e+00 1.93200004e+00
    2.96000004e+00 2.96000004e+00 2.96000004e+00 2.95799994e+00
    2.92700005e+00 2.89000010e+00 2.83800006e+00 2.81200004e+00
    2.81200004e+00 2.79699993e+00 2.77500010e+00 2.77399993e+00
    2.77399993e+00 2.77399993e+00 2.77399993e+00 2.77399993e+00
    2.77399993e+00 2.77399993e+00 2.75000000e+00 2.72199988e+00
    2.72199988e+00 2.72199988e+00 2.72199988e+00 2.72199988e+00
    2.72199988e+00 2.58299994e+00 2.38000011e+00 2.32100010e+00
    2.26300001e+00 2.11999989e+00 2.02800012e+00 2.02800012e+00
    2.01900005e+00 2.00300002e+00 2. 2. 2. 1.98699999e+00 1.92900002e+00
    1.89699996e+00 2.96000004e+00 2.96000004e+00 2.96000004e+00
    2.95700002e+00 2.90499997e+00 2.85200000e+00 2.79999995e+00
    2.77399993e+00 2.77399993e+00 2.77399993e+00 2.77399993e+00
    2.77399993e+00 2.77399993e+00 2.77399993e+00 2.77399993e+00
    2.77399993e+00 2.77399993e+00 2.77399993e+00 2.73399997e+00
    2.68600011e+00 2.68600011e+00 2.68600011e+00 2.68600011e+00
    2.66400003e+00 2.61700010e+00 2.41799998e+00 2.15100002e+00
    2.06200004e+00 2. 2. 2. 2. 2. 2. 1.99600005e+00 1.99000001e+00
    1.99000001e+00 1.97300005e+00 1.90100002e+00 1.85899997e+00
    2.96000004e+00 2.96000004e+00 2.96000004e+00 2.95700002e+00
    2.90499997e+00 2.85200000e+00 2.79999995e+00 2.77399993e+00
    2.77399993e+00 2.77399993e+00 2.77399993e+00 2.77399993e+00
    2.77399993e+00 2.77399993e+00 2.77399993e+00 2.77399993e+00
    2.77399993e+00 2.77399993e+00 2.73399997e+00 2.68600011e+00
    2.68600011e+00 2.68600011e+00 2.68600011e+00 2.58299994e+00
    2.36299992e+00 2.21399999e+00 2.09800005e+00 2.04299998e+00 2. 2. 2.
    2. 2. 2. 1.97899997e+00 1.95299995e+00 1.95299995e+00 1.93700004e+00
    1.86500001e+00 1.81500006e+00 2.95099998e+00 2.93700004e+00
    2.93400002e+00 2.93199992e+00 2.89400005e+00 2.85200000e+00
    2.79999995e+00 2.77399993e+00 2.77399993e+00 2.77399993e+00
    2.77399993e+00 2.77399993e+00 2.77399993e+00 2.77399993e+00
    2.76900005e+00 2.75500011e+00 2.75000000e+00 2.75000000e+00
    2.72099996e+00 2.68600011e+00 2.70000005e+00 2.71000004e+00
    2.71000004e+00 2.55399990e+00 2.22099996e+00 2.09100008e+00
    2.05299997e+00 2.02399993e+00 2. 2. 2. 2. 2. 2. 1.97099996e+00
    1.93400002e+00 1.92400002e+00 1.90300000e+00 1.84200001e+00
    1.79299998e+00 2.93300009e+00 2.88899994e+00 2.88100004e+00
    2.88100004e+00 2.87199998e+00 2.85200000e+00 2.79999995e+00
    2.77399993e+00 2.77399993e+00 2.77399993e+00 2.77399993e+00
    2.77399993e+00 2.77399993e+00 2.77399993e+00 2.75900006e+00
    2.71700001e+00 2.70000005e+00 2.70000005e+00 2.69400001e+00
    2.68700004e+00 2.72900009e+00 2.75999999e+00 2.75999999e+00
    2.57999992e+00 2.19799995e+00 2.05299997e+00 2.01500010e+00
    2.00500011e+00 2. 2. 2. 2. 2. 2. 1.97099996e+00 1.93400002e+00
    1.90400004e+00 1.87199998e+00 1.83099997e+00 1.79299998e+00
    2.92799997e+00 2.87500000e+00 2.86599994e+00 2.86599994e+00
    2.86599994e+00 2.85800004e+00 2.82699990e+00 2.81100011e+00
    2.81100011e+00 2.79600000e+00 2.77500010e+00 2.75600004e+00
    2.73900008e+00 2.73900008e+00 2.70700002e+00 2.62100005e+00
    2.58599997e+00 2.58599997e+00 2.58599997e+00 2.58699989e+00
    2.61700010e+00 2.61500001e+00 2.51699996e+00 2.35299993e+00
    2.11500001e+00 2.02500010e+00 2.00200009e+00 2. 2. 2. 2. 2.
    2.00900006e+00 2.02399993e+00 1.99699998e+00 1.96000004e+00
    1.90999997e+00 1.86300004e+00 1.82700002e+00 1.78699994e+00
    2.92799997e+00 2.87500000e+00 2.86599994e+00 2.86599994e+00
    2.86599994e+00 2.86500001e+00 2.86299992e+00 2.86199999e+00
    2.86199999e+00 2.82699990e+00 2.77699995e+00 2.73000002e+00
    2.68899989e+00 2.68899989e+00 2.63899994e+00 2.50200009e+00
    2.44600010e+00 2.44600010e+00 2.44600010e+00 2.44600010e+00
    2.44799995e+00 2.39100003e+00 2.15499997e+00 2.02300000e+00
    2.00799990e+00 2.00200009e+00 2. 2. 2. 2. 2. 2. 2.02099991e+00
    2.05800009e+00 2.03500009e+00 1.99699998e+00 1.92600000e+00
    1.86300004e+00 1.82700002e+00 1.77900004e+00 2.89599991e+00
    2.86999989e+00 2.86599994e+00 2.86599994e+00 2.86599994e+00
    2.86599994e+00 2.86599994e+00 2.86599994e+00 2.86599994e+00
    2.81100011e+00 2.73300004e+00 2.63800001e+00 2.54900002e+00
    2.50300002e+00 2.42700005e+00 2.29699993e+00 2.24399996e+00
    2.24399996e+00 2.24399996e+00 2.24399996e+00 2.24399996e+00
    2.21000004e+00 2.07299995e+00 2. 2. 2. 2. 2. 2. 2. 2.00699997e+00
    2.02699995e+00 2.04600000e+00 2.06399989e+00 2.05399990e+00
    2.03500009e+00 1.94200003e+00 1.86300004e+00 1.82700002e+00
    1.77800000e+00 2.86599994e+00 2.86599994e+00 2.86999989e+00
    2.87400007e+00 2.87400007e+00 2.87400007e+00 2.87400007e+00
    2.87400007e+00 2.87400007e+00 2.78500009e+00 2.66100001e+00
    2.52900004e+00 2.40400004e+00 2.32200003e+00 2.22799993e+00
    2.11400008e+00 2.06800008e+00 2.06800008e+00 2.06800008e+00
    2.06800008e+00 2.06500006e+00 2.05399990e+00 2.01900005e+00 2. 2. 2.
    2. 2.00300002e+00 2.00600004e+00 2.00600004e+00 2.01799989e+00
    2.05299997e+00 2.06800008e+00 2.06800008e+00 2.06800008e+00
    2.06699991e+00 1.96599996e+00 1.87699997e+00 1.83299994e+00
    1.77999997e+00 2.86599994e+00 2.86599994e+00 2.89400005e+00
    2.92700005e+00 2.92700005e+00 2.92700005e+00 2.92700005e+00
    2.92700005e+00 2.92700005e+00 2.72700000e+00 2.44499993e+00
    2.35400009e+00 2.28099990e+00 2.22399998e+00 2.16300011e+00
    2.09599996e+00 2.06800008e+00 2.06800008e+00 2.06800008e+00
    2.06699991e+00 2.04299998e+00 2.02099991e+00 2.00699997e+00 2. 2. 2.
    2. 2.02200007e+00 2.04399991e+00 2.04399991e+00 2.04900002e+00
    2.06200004e+00 2.06800008e+00 2.06800008e+00 2.06800008e+00
    2.06800008e+00 2.02800012e+00 1.97399998e+00 1.86699998e+00
    1.79700005e+00 2.86599994e+00 2.86599994e+00 2.90100002e+00
    2.94000006e+00 2.94000006e+00 2.94000006e+00 2.94000006e+00
    2.94600010e+00 2.95700002e+00 2.68400002e+00 2.29399991e+00
    2.22900009e+00 2.18899989e+00 2.15700006e+00 2.12299991e+00
    2.08400011e+00 2.06299996e+00 2.05500007e+00 2.05399990e+00
    2.05299997e+00 2.02300000e+00 2. 2. 2. 2. 2.00500011e+00
    2.01300001e+00 2.04200006e+00 2.06800008e+00 2.06800008e+00
    2.06800008e+00 2.06800008e+00 2.06800008e+00 2.06800008e+00
    2.06800008e+00 2.06800008e+00 2.06800008e+00 1.91199994e+00
    1.23099995e+00 0. 2.86599994e+00 2.86599994e+00 2.87599993e+00
    2.88800001e+00 2.88800001e+00 2.88800001e+00 2.88800001e+00
    2.90799999e+00 2.94799995e+00 2.66700006e+00 2.25500011e+00
    2.18799996e+00 2.15199995e+00 2.14299989e+00 2.12299991e+00
    2.08400011e+00 2.05100012e+00 2.02099991e+00 2.01600003e+00
    2.01500010e+00 2.00699997e+00 2. 2. 2. 2. 2.01999998e+00
    2.04999995e+00 2.05999994e+00 2.06800008e+00 2.06800008e+00
    2.06800008e+00 2.06800008e+00 2.06800008e+00 2.06800008e+00
    2.06800008e+00 2.06800008e+00 2.06800008e+00 1.57900000e+00 0. 0.
    2.85599995e+00 2.83800006e+00 2.82200003e+00 2.80599999e+00
    2.80599999e+00 2.77900004e+00 2.67700005e+00 2.64199996e+00
    2.67700005e+00 2.49699998e+00 2.22799993e+00 2.17100000e+00
    2.13499999e+00 2.12199998e+00 2.10500002e+00 2.07900000e+00
    2.04500008e+00 2.00699997e+00 2. 2. 2. 2.00300002e+00 2.01600003e+00
    2.02300000e+00 2.02300000e+00 2.03999996e+00 2.06599998e+00
    2.06800008e+00 2.06800008e+00 2.06800008e+00 2.06800008e+00
    2.06800008e+00 2.07500005e+00 2.08800006e+00 1.36899996e+00 0. 0. 0.
    0. 0. 2.83800006e+00 2.79200006e+00 2.74699998e+00 2.70499992e+00
    2.70499992e+00 2.63100004e+00 2.35500002e+00 2.21799994e+00
    2.22300005e+00 2.21900010e+00 2.21000004e+00 2.17100000e+00
    2.13199997e+00 2.09699988e+00 2.07399988e+00 2.06999993e+00
    2.04500008e+00 2.00699997e+00 2. 2. 2. 2.00900006e+00 2.04299998e+00
    2.06100011e+00 2.06100011e+00 2.06399989e+00 2.06800008e+00
    2.06800008e+00 2.06800008e+00 2.06800008e+00 2.06800008e+00
    2.06800008e+00 2.08800006e+00 2.12199998e+00 0. 0. 0. 0. 0. 0.
    2.83400011e+00 2.78299999e+00 2.73300004e+00 2.67799997e+00
    2.51999998e+00 2.35899997e+00 2.19099998e+00 2.11400008e+00
    2.13199997e+00 2.15300012e+00 2.17499995e+00 2.15599990e+00
    2.13100004e+00 2.09200001e+00 2.06800008e+00 2.06800008e+00
    2.04500008e+00 2.00699997e+00 2. 2. 2. 2.00999999e+00 2.04800010e+00
    2.06800008e+00 2.06800008e+00 2.06800008e+00 2.06800008e+00
    2.08400011e+00 2.09699988e+00 2.07900000e+00 2.06800008e+00
    2.06800008e+00 1.37500000e+00 0. 0. 0. 0. 0. 0. 0. 2.83400011e+00
    2.78299999e+00 2.72799993e+00 2.65899992e+00 2.31699991e+00
    2.06800008e+00 2.06800008e+00 2.08699989e+00 2.12599993e+00
    2.13700008e+00 2.13700008e+00 2.13700008e+00 2.13100004e+00
    2.09200001e+00 2.06800008e+00 2.06800008e+00 2.04500008e+00
    2.00699997e+00 2. 2. 2. 2.00999999e+00 2.04800010e+00 2.06800008e+00
    2.06800008e+00 2.06800008e+00 2.06900001e+00 2.10400009e+00
    2.12700009e+00 2.04200006e+00 1.98699999e+00 1.98699999e+00 0. 0. 0.
    0. 0. 0. 0. 0. 2.83400011e+00 2.78299999e+00 2.56599998e+00
    2.32100010e+00 2.17499995e+00 2.06800008e+00 2.06800008e+00
    2.08699989e+00 2.12599993e+00 2.13700008e+00 2.13700008e+00
    2.13700008e+00 2.13100004e+00 2.09200001e+00 2.06800008e+00
    2.06800008e+00 2.04500008e+00 2.00699997e+00 2. 2. 2. 2.00999999e+00
    2.04800010e+00 2.06800008e+00 2.06800008e+00 2.08299994e+00
    2.10599995e+00 2.14400005e+00 1.96599996e+00 0. 0. 0. 0. 0. 0. 0. 0.
    0. 0. 0. 2.81100011e+00 2.72000003e+00 2.40799999e+00 2.06800008e+00
    2.06800008e+00 2.06800008e+00 2.06800008e+00 2.08699989e+00
    2.12599993e+00 2.13700008e+00 2.13700008e+00 2.13700008e+00
    2.13100004e+00 2.09200001e+00 2.06800008e+00 2.06800008e+00
    2.04500008e+00 2.00699997e+00 2. 2. 2. 2.00999999e+00 2.04800010e+00
    2.06800008e+00 2.06800008e+00 2.09500003e+00 2.13400006e+00
    1.81599998e+00 1.19700003e+00 0. 0. 0. 0. 0. 0. 0. 0. 0. 0. 0.
    2.71600008e+00 2.47000003e+00 2.25999999e+00 2.06800008e+00
    2.06800008e+00 2.06800008e+00 2.06800008e+00 2.08699989e+00
    2.12599993e+00 2.13700008e+00 2.13700008e+00 2.13700008e+00
    2.13100004e+00 2.09200001e+00 2.06800008e+00 2.06800008e+00
    2.04500008e+00 2.00699997e+00 2. 2. 2. 2.00999999e+00 2.04800010e+00
    2.06800008e+00 2.06800008e+00 2.09500003e+00 2.13400006e+00 0. 0. 0.
    0. 0. 0. 0. 0. 0. 0. 0. 0. 0. 2.55800009e+00 2.30599999e+00
    2.18899989e+00 2.10400009e+00 2.08299994e+00 2.06800008e+00
    2.06800008e+00 2.08699989e+00 2.12599993e+00 2.13000011e+00
    2.11999989e+00 2.11899996e+00 2.11500001e+00 2.08599997e+00
    2.06800008e+00 2.06800008e+00 2.05100012e+00 2.02300000e+00
    2.01799989e+00 2.01799989e+00 2.01799989e+00 1.84599996e+00
    1.15600002e+00 0. 0. 0. 0. 0. 0. 0. 0. 0. 0. 0. 0. 0. 0. 0. 0. 0.
    2.32800007e+00 2.23699999e+00 2.20400000e+00 2.18099999e+00
    2.11599994e+00 2.06800008e+00 2.06800008e+00 2.08699989e+00
    2.12599993e+00 2.11400008e+00 2.08200002e+00 2.07999992e+00
    2.07900000e+00 2.07200003e+00 2.06800008e+00 2.06800008e+00
    2.06399989e+00 2.05699992e+00 2.05599999e+00 2.05599999e+00
    2.05599999e+00 1.49699998e+00 0. 0. 0. 0. 0. 0. 0. 0. 0. 0. 0. 0. 0.
    0. 0. 0. 0. 0. 2.23799992e+00 2.21300006e+00 2.19600010e+00
    2.17799997e+00 2.11400008e+00 2.06800008e+00 2.06800008e+00
    2.08699989e+00 2.12599993e+00 2.10899997e+00 2.07100010e+00
    2.05399990e+00 2.04200006e+00 2.04200006e+00 2.04699993e+00
    2.06200004e+00 2.06800008e+00 2.06800008e+00 2.07999992e+00
    2.06299996e+00 0. 0. 0. 0. 0. 0. 0. 0. 0. 0. 0. 0. 0. 0. 0. 0. 0. 0.
    0. 0. 2.21099997e+00 2.20900011e+00 2.17700005e+00 2.13899994e+00
    2.09800005e+00 2.06800008e+00 2.06800008e+00 2.08699989e+00
    2.12599993e+00 2.10899997e+00 2.07100010e+00 2.03399992e+00
    2.00300002e+00 2.00300002e+00 2.01699996e+00 2.05299997e+00
    2.06800008e+00 2.06800008e+00 2.09800005e+00 2.05500007e+00 0. 0. 0.
    0. 0. 0. 0. 0. 0. 0. 0. 0. 0. 0. 0. 0. 0. 0. 0. 0. 2.20900011e+00
    2.20900011e+00 2.17499995e+00 2.13499999e+00 2.09599996e+00
    2.06800008e+00 2.06800008e+00 2.08699989e+00 2.12599993e+00
    2.09599996e+00 2.03699994e+00 2.01600003e+00 2. 2. 1.50000000e+00 0.
    0. 0. 0. 0. 0. 0. 0. 0. 0. 0. 0. 0. 0. 0. 0. 0. 0. 0. 0. 0. 0. 0. 0.
    0. 2.20900011e+00 2.20000005e+00 2.16499996e+00 2.12500000e+00
    2.08899999e+00 2.06299996e+00 2.06299996e+00 2.08299994e+00
    2.12500000e+00 2.08200002e+00 2.00500011e+00 2. 1.97099996e+00
    1.77499998e+00 0. 0. 0. 0. 0. 0. 0. 0. 0. 0. 0. 0. 0. 0. 0. 0. 0. 0.
    0. 0. 0. 0. 0. 0. 0. 0. 2.20900011e+00 2.13199997e+00 2.08699989e+00
    2.04900002e+00 2.03500009e+00 2.02500010e+00 2.02500010e+00
    2.05599999e+00 2.11899996e+00 2.08200002e+00 2.00500011e+00 2.
    1.74500000e+00 0. 0. 0. 0. 0. 0. 0. 0. 0. 0. 0. 0. 0. 0. 0. 0. 0. 0.
    0. 0. 0. 0. 0. 0. 0. 0. 0. 2.18099999e+00 2.08400011e+00
    2.03600001e+00 2. 1.99199998e+00 1.98699999e+00 1.98699999e+00
    2.02800012e+00 2.11299992e+00 2.09299994e+00 2.03099990e+00
    1.52300000e+00 0. 0. 0. 0. 0. 0. 0. 0. 0. 0. 0. 0. 0. 0. 0. 0. 0. 0.
    0. 0. 0. 0. 0. 0. 0. 0. 0. 0. 2.10200000e+00 2.07299995e+00
    2.03600001e+00 1.99899995e+00 1.97000003e+00 1.95000005e+00
    1.95000005e+00 2.00099993e+00 2.10700011e+00 2.12400007e+00
    2.10500002e+00 0. 0. 0. 0. 0. 0. 0. 0. 0. 0. 0. 0. 0. 0. 0. 0. 0. 0.
    0. 0. 0. 0. 0. 0. 0. 0. 0. 0. 0. 2.04600000e+00 2.04600000e+00
    2.02500010e+00 1.99800003e+00 1.96099997e+00 1.93400002e+00
    1.93400002e+00 1.97200000e+00 2.04999995e+00 1.47099996e+00 0. 0. 0.
    0. 0. 0. 0. 0. 0. 0. 0. 0. 0. 0. 0. 0. 0. 0. 0. 0. 0. 0. 0. 0. 0. 0.
    0. 0. 0. 0. 2.00799990e+00 2.00799990e+00 2.00399995e+00
    1.99800003e+00 1.96099997e+00 1.93400002e+00 1.93400002e+00
    1.94099998e+00 1.95400000e+00 0. 0. 0. 0. 0. 0. 0. 0. 0. 0. 0. 0. 0.
    0. 0. 0. 0. 0. 0. 0. 0. 0. 0. 0. 0. 0. 0. 0. 0. 0. 0. 1.94299996e+00
    1.94299996e+00 1.95599997e+00 1.97099996e+00 1.96599996e+00
    1.96300006e+00 1.96300006e+00 2.11800003e+00 2.43300009e+00 0. 0. 0.
    0. 0. 0. 0. 0. 0. 0. 0. 0. 0. 0. 0. 0. 0. 0. 0. 0. 0. 0. 0. 0. 0. 0.
    0. 0. 0. 0. 0. 1.87100005e+00 1.87100005e+00 1.89999998e+00
    1.93599999e+00 1.97300005e+00 2. 2. 2.34800005e+00 0. 0. 0. 0. 0. 0.
    0. 0. 0. 0. 0. 0. 0. 0. 0. 0. 0. 0. 0. 0. 0. 0. 0. 0. 0. 0. 0. 0. 0.
    0. 0. 0. 0. 0. 0. 0. 0. 0. 0. 0. 0. 0. 0. 0. 0. 0. 0. 0. 0. 0. 0. 0.
    0. 0. 0. 0. 0. 0. 0. 0. 0. 0. 0. 0. 0. 0. 0. 0. 0. 0. 0. 0. 0. 0. 0.
    0. 0. 0. 0. 0. 0. 0. 0. 0. 0. 0. 0. 0. 0. 0. 0. 0. 0. 0. 0. 0. 0. 0.
    0. 0. 0. 0. 0. 0. 0. 0. 0. 0. 0. 0. 0. 0.</data></Depth>
</opencv_storage>
