<?xml version="1.0"?>
<opencv_storage>
<Depth type_id="opencv-matrix">
  <rows>40</rows>
  <cols>40</cols>
  <dt>f</dt>
  <data>
    0. 0. 0. 0. 0. 0. 0. 0. 0. 0. 0. 0. 0. 0. 0. 0. 0. 0. 0. 0. 0. 0. 0.
    0. 0. 0. 0. 0. 0. 0. 0. 0. 0. 0. 0. 0. 0. 0. 0. 0. 0. 0. 0. 0. 0. 0.
    0. 0. 0. 0. 0. 0. 0. 0. 0. 0. 0. 0. 0. 0. 0. 0. 0. 0. 0. 0. 0. 0. 0.
    0. 0. 0. 0. 0. 0. 0. 0. 0. 0. 0. 0. 0. 0. 0. 0. 0. 0. 0. 0. 0. 0. 0.
    0. 0. 0. 0. 0. 0. 0. 0. 0. 0. 0. 0. 0. 0. 0. 0. 0. 0. 0. 0. 0. 0. 0.
    0. 0. 0. 0. 0. 0. 0. 0. 0. 0. 0. 0. 0. 0. 0. 0. 0. 0. 0. 0. 0. 0. 0.
    0. 0. 0. 0. 0. 0. 0. 0. 0. 0. 0. 0. 0. 0. 0. 0. 0. 0. 0. 0. 0. 0. 0.
    0. 0. 0. 0. 0. 0. 0. 0. 0. 0. 0. 0. 0. 0. 0. 0. 0. 0. 0. 0. 0. 0. 0.
    0. 0. 0. 0. 0. 0. 0. 0. 0. 0. 0. 0. 0. 0. 0. 0. 0. 0. 0. 0. 0. 0. 0.
    0. 0. 0. 0. 0. 0. 0. 0. 0. 0. 0. 0. 0. 0. 0. 0. 0. 0. 0. 0. 0. 0. 0.
    0. 0. 0. 0. 0. 0. 0. 0. 0. 0. 0. 0. 0. 0. 0. 0. 0. 0. 0. 0. 0. 0. 0.
    0. 0. 0. 0. 0. 0. 0. 0. 0. 0. 0. 0. 0. 0. 0. 0. 0. 0. 0. 0. 0. 0. 0.
    0. 0. 0. 0. 0. 0. 0. 0. 0. 0. 0. 0. 0. 0. 0. 0. 0. 0. 0. 0. 0. 0. 0.
    0. 0. 0. 0. 0. 0. 0. 0. 0. 0. 0. 0. 0. 0. 0. 0. 0. 0. 0. 0. 0. 0. 0.
    0. 0. 0. 0. 0. 0. 0. 0. 0. 0. 0. 0. 0. 0. 0. 0. 0. 0. 0. 0. 0. 0. 0.
    0. 0. 0. 0. 0. 0. 0. 0. 0. 0. 0. 0. 0. 0. 0. 0. 0. 0. 0. 0. 0. 0. 0.
    0. 0. 0. 0. 0. 0. 0. 0. 0. 0. 0. 0. 0. 0. 0. 0. 0. 0. 0. 0. 0. 0. 0.
    0. 0. 0. 0. 0. 0. 0. 0. 0. 2.89199996e+00 2.89199996e+00
    2.89199996e+00 2.87199998e+00 2.81999993e+00 2.79800010e+00
    2.79800010e+00 2.79800010e+00 2.79800010e+00 2.74900007e+00
    2.70600009e+00 2.70600009e+00 2.70600009e+00 2.70600009e+00
    2.68000007e+00 2.63100004e+00 2.61800003e+00 2.61800003e+00
    2.57399988e+00 2.52600002e+00 2.48000002e+00 2.44899988e+00
    2.44899988e+00 2.38199997e+00 2.25200009e+00 2.13000011e+00
    2.01099992e+00 2. 1.99600005e+00 1.95899999e+00 1.93200004e+00
    1.93200004e+00 1.95000005e+00 1.98800004e+00 2. 2. 2. 1.99699998e+00
    1.96000004e+00 1.93200004e+00 2.89199996e+00 2.88599992e+00
    2.85200000e+00 2.81699991e+00 2.78299999e+00 2.75799990e+00
    2.74200010e+00 2.73799992e+00 2.73799992e+00 2.69099998e+00
    2.64599991e+00 2.63100004e+00 2.62100005e+00 2.62100005e+00
    2.58699989e+00 2.52600002e+00 2.50900006e+00 2.50900006e+00
    2.46700001e+00 2.41899991e+00 2.36199999e+00 2.32299995e+00
    2.32299995e+00 2.27200007e+00 2.17199993e+00 2.08699989e+00
    2.00699997e+00 2. 1.99600005e+00 1.95899999e+00 1.93200004e+00
    1.93200004e+00 1.95000005e+00 1.98800004e+00 1.99100006e+00
    1.97899997e+00 1.97800004e+00 1.97599995e+00 1.95000005e+00
    1.93200004e+00 2.89199996e+00 2.87500000e+00 2.78399992e+00
    2.72499990e+00 2.71900010e+00 2.69199991e+00 2.64899993e+00
    2.63899994e+00 2.63899994e+00 2.59299994e+00 2.54600000e+00
    2.50500011e+00 2.47900009e+00 2.47900009e+00 2.43300009e+00
    2.34999990e+00 2.32800007e+00 2.32800007e+00 2.28800011e+00
    2.24099994e+00 2.16499996e+00 2.11299992e+00 2.11299992e+00
    2.08800006e+00 2.03900003e+00 2.01500010e+00 2.00099993e+00 2.
    1.99600005e+00 1.95899999e+00 1.93200004e+00 1.93200004e+00
    1.95000005e+00 1.98800004e+00 1.97700000e+00 1.94400001e+00
    1.94000006e+00 1.94000006e+00 1.93499994e+00 1.93200004e+00
    2.67499995e+00 2.55200005e+00 2.49399996e+00 2.46499991e+00
    2.48300004e+00 2.45400000e+00 2.39199996e+00 2.36400008e+00
    2.34800005e+00 2.32100010e+00 2.29500008e+00 2.26900005e+00
    2.25200009e+00 2.25200009e+00 2.23399997e+00 2.20199990e+00
    2.19300008e+00 2.19300008e+00 2.15499997e+00 2.11199999e+00
    2.05100012e+00 2.00900006e+00 2.00900006e+00 1.99800003e+00
    1.97599995e+00 1.97000003e+00 1.97000003e+00 1.97000003e+00
    1.96800005e+00 1.94700003e+00 1.93200004e+00 1.93200004e+00
    1.95000005e+00 1.98800004e+00 1.97399998e+00 1.93700004e+00
    1.93200004e+00 1.93200004e+00 1.93200004e+00 1.93200004e+00
    2.40100002e+00 2.14599991e+00 2.14599991e+00 2.16000009e+00
    2.20000005e+00 2.17199993e+00 2.09200001e+00 2.04399991e+00
    2.00600004e+00 2.00399995e+00 2.00399995e+00 2.00399995e+00
    2.00300002e+00 2.00300002e+00 2.02399993e+00 2.06100011e+00
    2.07100010e+00 2.07100010e+00 2.03500009e+00 1.99699998e+00
    1.95899999e+00 1.93299997e+00 1.93299997e+00 1.93299997e+00
    1.93299997e+00 1.93299997e+00 1.93299997e+00 1.93299997e+00
    1.93200004e+00 1.93200004e+00 1.93200004e+00 1.93200004e+00
    1.95000005e+00 1.98800004e+00 1.97399998e+00 1.93700004e+00
    1.93200004e+00 1.93200004e+00 1.93200004e+00 1.93200004e+00
    2.25399995e+00 2.10200000e+00 2.10200000e+00 2.10899997e+00
    2.12700009e+00 2.11400008e+00 2.07800007e+00 2.03999996e+00
    2.00200009e+00 2. 2. 2. 2. 2. 2.00900006e+00 2.02699995e+00
    2.03099990e+00 2.03099990e+00 2.01500010e+00 1.99500000e+00
    1.95799994e+00 1.93200004e+00 1.93200004e+00 1.93200004e+00
    1.93200004e+00 1.93200004e+00 1.93200004e+00 1.91400003e+00
    1.89600003e+00 1.89600003e+00 1.90199995e+00 1.92200005e+00
    1.95000005e+00 1.98800004e+00 1.97399998e+00 1.93700004e+00
    1.93200004e+00 1.93200004e+00 1.93200004e+00 1.93200004e+00
    2.13100004e+00 2.06900001e+00 2.06900001e+00 2.06900001e+00
    2.06900001e+00 2.06699991e+00 2.06299996e+00 2.03600001e+00
    2.00099993e+00 2. 2. 2. 2. 2. 2. 2. 2. 2. 2. 1.99500000e+00
    1.95799994e+00 1.93200004e+00 1.93200004e+00 1.93200004e+00
    1.93200004e+00 1.93200004e+00 1.93200004e+00 1.89900005e+00
    1.86600006e+00 1.86600006e+00 1.87699997e+00 1.91299999e+00
    1.95000005e+00 1.98800004e+00 1.97399998e+00 1.93700004e+00
    1.92900002e+00 1.92499995e+00 1.92499995e+00 1.92499995e+00
    2.11299992e+00 2.06900001e+00 2.06900001e+00 2.06900001e+00
    2.06900001e+00 2.05500007e+00 2.02999997e+00 2.01399994e+00
    2.00099993e+00 2. 2. 2. 2. 2. 2. 2. 2. 2. 2. 1.99500000e+00
    1.95799994e+00 1.93200004e+00 1.93200004e+00 1.93200004e+00
    1.93200004e+00 1.93200004e+00 1.93200004e+00 1.89900005e+00
    1.86600006e+00 1.86600006e+00 1.87699997e+00 1.91299999e+00
    1.95000005e+00 1.98800004e+00 1.97399998e+00 1.93700004e+00
    1.91100001e+00 1.88900006e+00 1.88900006e+00 1.88900006e+00
    2.09500003e+00 2.06900001e+00 2.06900001e+00 2.06900001e+00
    2.06900001e+00 2.04699993e+00 2.00900006e+00 2. 2. 2. 2. 2. 2. 2.
    1.99600005e+00 1.98800004e+00 1.98599994e+00 1.98599994e+00
    1.99300003e+00 1.99600005e+00 1.96599996e+00 1.94599998e+00
    1.94599998e+00 1.94200003e+00 1.93400002e+00 1.93200004e+00
    1.93200004e+00 1.89900005e+00 1.86600006e+00 1.86600006e+00
    1.87500000e+00 1.90300000e+00 1.94000006e+00 1.98599994e+00
    1.98000002e+00 1.95000005e+00 1.90699995e+00 1.86600006e+00
    1.86600006e+00 1.86600006e+00 2.07699990e+00 2.06900001e+00
    2.06900001e+00 2.06900001e+00 2.06900001e+00 2.04699993e+00
    2.00900006e+00 2. 2. 2. 2. 2. 2. 2. 1.98399997e+00 1.95599997e+00
    1.94799995e+00 1.94799995e+00 1.97500002e+00 1.99899995e+00
    1.99000001e+00 1.98399997e+00 1.98399997e+00 1.96899998e+00
    1.94000006e+00 1.93200004e+00 1.93200004e+00 1.89900005e+00
    1.86600006e+00 1.86600006e+00 1.86899996e+00 1.87699997e+00
    1.91400003e+00 1.97899997e+00 1.99399996e+00 1.98500001e+00
    1.92600000e+00 1.86600006e+00 1.86600006e+00 1.86600006e+00
    2.06900001e+00 2.06900001e+00 2.06900001e+00 2.06900001e+00
    2.06900001e+00 2.05399990e+00 2.02800012e+00 2.02200007e+00
    2.02200007e+00 2.00999999e+00 2. 2. 2. 2. 1.98000002e+00
    1.94200003e+00 1.93200004e+00 1.93200004e+00 1.95599997e+00
    1.98000002e+00 1.99199998e+00 2. 2. 1.98699999e+00 1.96099997e+00
    1.94500005e+00 1.93299997e+00 1.89900005e+00 1.86600006e+00
    1.86600006e+00 1.86600006e+00 1.86600006e+00 1.90199995e+00
    1.97700000e+00 2. 2. 1.94500005e+00 1.88699996e+00 1.88699996e+00
    1.88699996e+00 2.06900001e+00 2.06900001e+00 2.06900001e+00
    2.06900001e+00 2.06900001e+00 2.06599998e+00 2.06100011e+00
    2.05999994e+00 2.05999994e+00 2.02800012e+00 2. 2. 2. 2.
    1.98000002e+00 1.94200003e+00 1.93200004e+00 1.93200004e+00
    1.93700004e+00 1.94500005e+00 1.97800004e+00 2. 2. 1.99699998e+00
    1.99300003e+00 1.96800005e+00 1.93499994e+00 1.89900005e+00
    1.86600006e+00 1.86600006e+00 1.86600006e+00 1.86600006e+00
    1.90199995e+00 1.97700000e+00 2. 2. 1.96300006e+00 1.92299998e+00
    1.92299998e+00 1.92299998e+00 2.06900001e+00 2.06900001e+00
    2.06900001e+00 2.06900001e+00 2.06900001e+00 2.06900001e+00
    2.06900001e+00 2.06900001e+00 2.06900001e+00 2.04800010e+00
    2.02900004e+00 2.02900004e+00 2.02399993e+00 2.00699997e+00
    1.98000002e+00 1.94200003e+00 1.93200004e+00 1.93200004e+00
    1.93200004e+00 1.93700004e+00 1.97399998e+00 2.00500011e+00
    2.02099991e+00 2.02099991e+00 2.00500011e+00 1.97300005e+00
    1.93599999e+00 1.91299999e+00 1.89400005e+00 1.89400005e+00
    1.89400005e+00 1.89400005e+00 1.93099999e+00 2.00600004e+00
    2.02900004e+00 2.02900004e+00 2.07200003e+00 2.11199999e+00
    2.04099989e+00 1.99000001e+00 2.06900001e+00 2.06900001e+00
    2.06900001e+00 2.06900001e+00 2.06900001e+00 2.06900001e+00
    2.06900001e+00 2.06900001e+00 2.06900001e+00 2.06800008e+00
    2.06699991e+00 2.06699991e+00 2.05399990e+00 2.01699996e+00
    1.98000002e+00 1.94200003e+00 1.93200004e+00 1.93200004e+00
    1.93200004e+00 1.93700004e+00 1.97399998e+00 2.01200008e+00
    2.04900002e+00 2.04800010e+00 2.01099992e+00 1.97300005e+00
    1.93599999e+00 1.93099999e+00 1.93099999e+00 1.93099999e+00
    1.93099999e+00 1.93099999e+00 1.96800005e+00 2.04399991e+00
    2.06699991e+00 2.06699991e+00 2.20900011e+00 2.34599996e+00
    2.18400002e+00 2.06599998e+00 2.08599997e+00 2.06900001e+00
    2.06900001e+00 2.06900001e+00 2.06900001e+00 2.06900001e+00
    2.06900001e+00 2.06900001e+00 2.06900001e+00 2.08899999e+00
    2.10400009e+00 2.08299994e+00 2.06299996e+00 2.04500008e+00
    2.01600003e+00 1.97800004e+00 1.96800005e+00 1.96800005e+00
    1.98699999e+00 2.00699997e+00 2.02500010e+00 2.10299993e+00
    2.30800009e+00 2.29099989e+00 2.06500006e+00 1.98699999e+00
    1.97000003e+00 1.96800005e+00 1.96800005e+00 1.96800005e+00
    2.02999997e+00 2.23699999e+00 2.36100006e+00 2.39599991e+00
    2.39000010e+00 2.36400008e+00 2.42899990e+00 2.49900007e+00
    2.47499990e+00 2.45700002e+00 2.10500002e+00 2.07500005e+00
    2.07100010e+00 2.06900001e+00 2.06900001e+00 2.06900001e+00
    2.06900001e+00 2.07200003e+00 2.07500005e+00 2.11299992e+00
    2.14299989e+00 2.11400008e+00 2.09500003e+00 2.09500003e+00
    2.07999992e+00 2.05299997e+00 2.04500008e+00 2.04500008e+00
    2.07800007e+00 2.10999990e+00 2.11800003e+00 2.22700000e+00
    2.54999995e+00 2.52099991e+00 2.16400003e+00 2.06299996e+00
    2.06800008e+00 2.06800008e+00 2.06800008e+00 2.06800008e+00
    2.17100000e+00 2.51999998e+00 2.69799995e+00 2.69799995e+00
    2.67100000e+00 2.63000011e+00 2.62599993e+00 2.63299990e+00
    2.72799993e+00 2.79699993e+00 2.12700009e+00 2.10999990e+00
    2.08500004e+00 2.06900001e+00 2.06900001e+00 2.06900001e+00
    2.06900001e+00 2.08899999e+00 2.11400008e+00 2.15400004e+00
    2.19400001e+00 2.23399997e+00 2.25999999e+00 2.25999999e+00
    2.28399992e+00 2.32900000e+00 2.33999991e+00 2.33999991e+00
    2.35299993e+00 2.37299991e+00 2.43499994e+00 2.51699996e+00
    2.64499998e+00 2.63299990e+00 2.49200010e+00 2.47499990e+00
    2.50699997e+00 2.50999999e+00 2.50999999e+00 2.50999999e+00
    2.53299999e+00 2.60999990e+00 2.65000010e+00 2.65000010e+00
    2.65899992e+00 2.67300010e+00 2.67400002e+00 2.67899990e+00
    2.74799991e+00 2.78900003e+00 2.14100003e+00 2.13499999e+00
    2.10299993e+00 2.10899997e+00 2.18000007e+00 2.21000004e+00
    2.21000004e+00 2.23499990e+00 2.26699996e+00 2.29900002e+00
    2.33800006e+00 2.40599990e+00 2.44400001e+00 2.42499995e+00
    2.45600009e+00 2.52900004e+00 2.54200006e+00 2.53299999e+00
    2.53200006e+00 2.54399991e+00 2.64100003e+00 2.70600009e+00
    2.70600009e+00 2.70600009e+00 2.70600009e+00 2.74200010e+00
    2.79299998e+00 2.79800010e+00 2.79800010e+00 2.79800010e+00
    2.76900005e+00 2.66899991e+00 2.61800003e+00 2.61800003e+00
    2.65100002e+00 2.70000005e+00 2.70600009e+00 2.71000004e+00
    2.76099992e+00 2.78399992e+00 2.14100003e+00 2.13899994e+00
    2.12899995e+00 2.22499990e+00 2.49699998e+00 2.61400008e+00
    2.61400008e+00 2.62100005e+00 2.63199997e+00 2.64199996e+00
    2.65400004e+00 2.67499995e+00 2.66300011e+00 2.58899999e+00
    2.56699991e+00 2.58999991e+00 2.56999993e+00 2.53399992e+00
    2.53200006e+00 2.54399991e+00 2.64100003e+00 2.70600009e+00
    2.70600009e+00 2.70600009e+00 2.70600009e+00 2.74200010e+00
    2.79299998e+00 2.79800010e+00 2.79800010e+00 2.79800010e+00
    2.76900005e+00 2.66899991e+00 2.61800003e+00 2.61800003e+00
    2.65100002e+00 2.70000005e+00 2.70600009e+00 2.71000004e+00
    2.76099992e+00 2.78399992e+00 2.14100003e+00 2.14100003e+00
    2.14100003e+00 2.27800012e+00 2.64199996e+00 2.79800010e+00
    2.79800010e+00 2.79800010e+00 2.79800010e+00 2.79800010e+00
    2.79800010e+00 2.79800010e+00 2.76300001e+00 2.66400003e+00
    2.61800003e+00 2.61800003e+00 2.58299994e+00 2.53500009e+00
    2.53200006e+00 2.54399991e+00 2.64100003e+00 2.70600009e+00
    2.70600009e+00 2.70600009e+00 2.70600009e+00 2.74200010e+00
    2.79299998e+00 2.79800010e+00 2.79800010e+00 2.79800010e+00
    2.76900005e+00 2.66899991e+00 2.61800003e+00 2.61800003e+00
    2.65100002e+00 2.70000005e+00 2.70600009e+00 2.71000004e+00
    2.76099992e+00 2.78399992e+00 0. 0. 0. 0. 0. 0. 0. 0. 0. 0. 0. 0. 0.
    0. 0. 0. 0. 0. 0. 0. 0. 0. 0. 0. 0. 0. 0. 0. 0. 0. 0. 0. 0. 0. 0. 0.
    0. 0. 0. 0. 0. 0. 0. 0. 0. 0. 0. 0. 0. 0. 0. 0. 0. 0. 0. 0. 0. 0. 0.
    0. 0. 0. 0. 0. 0. 0. 0. 0. 0. 0. 0. 0. 0. 0. 0. 0. 0. 0. 0. 0. 0. 0.
    0. 0. 0. 0. 0. 0. 0. 0. 0. 0. 0. 0. 0. 0. 0. 0. 0. 0. 0. 0. 0. 0. 0.
    0. 0. 0. 0. 0. 0. 0. 0. 0. 0. 0. 0. 0. 0. 0. 0. 0. 0. 0. 0. 0. 0. 0.
    0. 0. 0. 0. 0. 0. 0. 0. 0. 0. 0. 0. 0. 0. 0. 0. 0. 0. 0. 0. 0. 0. 0.
    0. 0. 0. 0. 0. 0. 0. 0. 0. 0. 0. 0. 0. 0. 0. 0. 0. 0. 0. 0. 0. 0. 0.
    0. 0. 0. 0. 0. 0. 0. 0. 0. 0. 0. 0. 0. 0. 0. 0. 0. 0. 0. 0. 0. 0. 0.
    0. 0. 0. 0. 0. 0. 0. 0. 0. 0. 0. 0. 0. 0. 0. 0. 0. 0. 0. 0. 0. 0. 0.
    0. 0. 0. 0. 0. 0. 0. 0. 0. 0. 0. 0. 0. 0. 0. 0. 0. 0. 0. 0. 0. 0. 0.
    0. 0. 0. 0. 0. 0. 0. 0. 0. 0. 0. 0. 0. 0. 0. 0. 0. 0. 0. 0. 0. 0. 0.
    0. 0. 0. 0. 0. 0. 0. 0. 0. 0. 0. 0. 0. 0. 0. 0. 0. 0. 0. 0. 0. 0. 0.
    0. 0. 0. 0. 0. 0. 0. 0. 0. 0. 0. 0. 0. 0. 0. 0. 0. 0. 0. 0. 0. 0. 0.
    0. 0. 0. 0. 0. 0. 0. 0. 0. 0. 0. 0. 0. 0. 0. 0. 0. 0. 0. 0. 0. 0. 0.
    0. 0. 0. 0. 0. 0. 0. 0. 0. 0. 0. 0. 0. 0. 0. 0. 0. 0. 0. 0. 0. 0. 0.
    0. 0. 0. 0. 0. 0. 0. 0. 0. 0. 0. 0. 0. 0. 0. 0. 0. 0. 0. 0. 0. 0. 0.
    0. 0. 0. 0. 0. 0. 0. 0. 0. 0. 0. 0. 0. 0. 0. 0. 0. 0. 0.</data></Depth>
</opencv_storage>
