<?xml version="1.0"?>
<opencv_storage>
<Depth type_id="opencv-matrix">
  <rows>40</rows>
  <cols>40</cols>
  <dt>f</dt>
  <data>
    0. 0. 0. 0. 0. 0. 0. 0. 0. 0. 0. 0. 0. 0. 0. 0. 0. 0. 0. 0. 0. 0. 0.
    0. 0. 0. 0. 0. 0. 0. 0. 0. 0. 0. 0. 0. 0. 0. 0. 0. 0. 0. 0. 0. 0. 0.
    0. 0. 0. 0. 0. 0. 0. 0. 0. 0. 0. 0. 0. 0. 0. 0. 0. 0. 0. 0. 0. 0. 0.
    0. 0. 0. 0. 0. 0. 0. 0. 0. 0. 0. 0. 0. 0. 0. 0. 0. 0. 0. 0. 0. 0. 0.
    0. 0. 0. 0. 0. 0. 0. 0. 0. 0. 0. 0. 0. 0. 0. 0. 0. 0. 0. 0. 0. 0. 0.
    0. 0. 0. 0. 0. 0. 0. 0. 0. 0. 0. 0. 0. 0. 0. 0. 0. 0. 0. 0. 0. 0. 0.
    0. 0. 0. 0. 0. 0. 0. 0. 0. 0. 0. 0. 0. 0. 0. 0. 0. 0. 0. 0. 0. 0. 0.
    0. 0. 0. 0. 0. 0. 0. 0. 0. 0. 0. 0. 0. 0. 0. 0. 0. 0. 0. 0. 0. 0. 0.
    0. 0. 0. 0. 0. 0. 0. 0. 0. 0. 0. 0. 0. 0. 0. 0. 0. 0. 0. 0. 0. 0. 0.
    0. 0. 0. 0. 0. 0. 0. 0. 0. 0. 0. 0. 0. 0. 0. 0. 0. 0. 0. 0. 0. 0. 0.
    0. 0. 0. 0. 0. 0. 0. 0. 0. 0. 0. 0. 0. 0. 0. 2.05900002e+00
    2.05999994e+00 2.05999994e+00 2.06299996e+00 2.32699990e+00 0. 0.
    2.14000010e+00 0. 0. 0. 0. 0. 0. 0. 0. 0. 0. 0. 0. 0. 0. 0. 0. 0. 0.
    0. 0. 0. 0. 0. 0. 0. 0. 0. 0. 0. 0. 0. 2.05100012e+00 2.05200005e+00
    2.05200005e+00 2.05200005e+00 2.05200005e+00 2.05200005e+00
    2.04500008e+00 2.04200006e+00 2.04299998e+00 2.04800010e+00
    2.05200005e+00 2.05100012e+00 2.13700008e+00 2.29099989e+00
    2.29099989e+00 2.30800009e+00 2.30900002e+00 2.28200006e+00
    2.27800012e+00 2.27800012e+00 2.28399992e+00 2.28500009e+00
    2.28200006e+00 2.35299993e+00 0. 0. 0. 0. 0. 0. 0. 0. 0. 0. 0. 0. 0.
    0. 0. 0. 2.05100012e+00 2.05100012e+00 2.05100012e+00 2.04299998e+00
    2.04200006e+00 2.03800011e+00 2.04099989e+00 2.04200006e+00
    2.03800011e+00 2.04299998e+00 2.04600000e+00 2.04299998e+00
    2.04200006e+00 2.03800011e+00 2.03800011e+00 2.03999996e+00
    2.04600000e+00 2.03800011e+00 2.03800011e+00 2.03800011e+00
    2.03800011e+00 2.04099989e+00 2.03900003e+00 2.03399992e+00
    2.02500010e+00 0. 0. 0. 0. 0. 0. 0. 0. 0. 0. 0. 0. 0. 0. 0.
    2.05100012e+00 2.05100012e+00 2.05100012e+00 2.04299998e+00
    2.04099989e+00 2.03399992e+00 2.03900003e+00 2.04200006e+00
    2.03399992e+00 2.03800011e+00 2.03399992e+00 2.03399992e+00
    2.03399992e+00 2.03399992e+00 2.03399992e+00 2.03399992e+00
    2.03999996e+00 2.03399992e+00 2.03399992e+00 2.03399992e+00
    2.04200006e+00 2.04200006e+00 2.03800011e+00 2.03399992e+00
    2.03399992e+00 2.03399992e+00 2.03399992e+00 2.03399992e+00
    2.03399992e+00 2.03399992e+00 2.03399992e+00 2.03399992e+00
    2.03399992e+00 2.03399992e+00 0. 0. 0. 0. 0. 1.81200004e+00
    2.04399991e+00 2.04900002e+00 2.04800010e+00 2.04200006e+00
    2.03399992e+00 2.03399992e+00 2.03399992e+00 2.03500009e+00
    2.03399992e+00 2.03399992e+00 2.03399992e+00 2.03399992e+00
    2.03399992e+00 2.03399992e+00 2.03399992e+00 2.03399992e+00
    2.03399992e+00 2.03399992e+00 2.03399992e+00 2.03399992e+00
    2.03600001e+00 2.03600001e+00 2.03399992e+00 2.03399992e+00
    2.03399992e+00 2.03399992e+00 2.03399992e+00 2.03399992e+00
    2.03399992e+00 2.03399992e+00 2.03399992e+00 2.03399992e+00
    2.03399992e+00 2.03399992e+00 2.03399992e+00 0. 0. 0. 0.
    2.04200006e+00 2.03900003e+00 2.03900003e+00 2.03900003e+00
    2.03900003e+00 2.03399992e+00 2.03399992e+00 2.03399992e+00
    2.03399992e+00 2.03399992e+00 2.03399992e+00 2.03399992e+00
    2.03399992e+00 2.03399992e+00 2.03399992e+00 2.03399992e+00
    2.03399992e+00 2.03200006e+00 2.03200006e+00 2.03399992e+00
    2.03399992e+00 2.03099990e+00 2.03099990e+00 2.03200006e+00
    2.03399992e+00 2.03099990e+00 2.03099990e+00 2.03099990e+00
    2.03200006e+00 2.03399992e+00 2.03399992e+00 2.03399992e+00
    2.02600002e+00 2.02500010e+00 2.02500010e+00 2.02900004e+00 0. 0. 0.
    0. 2.03500009e+00 2.03399992e+00 2.03399992e+00 2.03399992e+00
    2.03399992e+00 2.03399992e+00 2.03399992e+00 2.03399992e+00
    2.03399992e+00 2.03399992e+00 2.03399992e+00 2.03399992e+00
    2.03399992e+00 2.03399992e+00 2.03399992e+00 2.03399992e+00
    2.03200006e+00 2.02500010e+00 2.02500010e+00 2.02600002e+00
    2.02900004e+00 2.02500010e+00 2.02500010e+00 2.02900004e+00
    2.02600002e+00 2.02500010e+00 2.02500010e+00 2.02500010e+00
    2.02500010e+00 2.02600002e+00 2.02600002e+00 2.02800012e+00
    2.02600002e+00 2.02500010e+00 2.02500010e+00 2.02500010e+00 0. 0. 0.
    0. 2.02900004e+00 2.02999997e+00 2.03399992e+00 2.02500010e+00
    2.02900004e+00 2.02900004e+00 2.02500010e+00 2.02800012e+00
    2.03399992e+00 2.03399992e+00 2.03399992e+00 2.03200006e+00
    2.02500010e+00 2.02500010e+00 2.02500010e+00 2.02900004e+00
    2.02800012e+00 2.02500010e+00 2.02500010e+00 2.02500010e+00
    2.02500010e+00 2.02500010e+00 2.02500010e+00 2.02500010e+00
    2.02500010e+00 2.02500010e+00 2.02500010e+00 2.02500010e+00
    2.02500010e+00 2.02500010e+00 2.02500010e+00 2.02500010e+00
    2.02099991e+00 2.01900005e+00 2.01699996e+00 2.01999998e+00 0. 0. 0.
    2.23499990e+00 2.02600002e+00 2.02600002e+00 2.03299999e+00
    2.02500010e+00 2.02500010e+00 2.02500010e+00 2.02500010e+00
    2.02500010e+00 2.02800012e+00 2.02500010e+00 2.02500010e+00
    2.03099990e+00 2.02500010e+00 2.02500010e+00 2.02500010e+00
    2.02500010e+00 2.02500010e+00 2.02500010e+00 2.02500010e+00
    2.02500010e+00 2.02500010e+00 2.02500010e+00 2.02500010e+00
    2.02500010e+00 2.02500010e+00 2.02500010e+00 2.02500010e+00
    2.02500010e+00 2.02399993e+00 2.02399993e+00 2.02399993e+00
    2.02399993e+00 2.01799989e+00 2.01600003e+00 2.01600003e+00
    2.01600003e+00 0. 0. 0. 1.87000000e+00 2.02600002e+00 2.02500010e+00
    2.02500010e+00 2.02500010e+00 2.02500010e+00 2.02500010e+00
    2.02500010e+00 2.02500010e+00 2.02500010e+00 2.02500010e+00
    2.02500010e+00 2.02500010e+00 2.02500010e+00 2.01900005e+00
    2.02500010e+00 2.02500010e+00 2.02500010e+00 2.02500010e+00
    2.02500010e+00 2.02500010e+00 2.02500010e+00 2.02399993e+00
    2.01900005e+00 2.02500010e+00 2.02500010e+00 2.01900005e+00
    2.01900005e+00 2.01900005e+00 2.01699996e+00 2.01699996e+00
    2.01699996e+00 2.01699996e+00 2.01699996e+00 2.00900006e+00
    2.00900006e+00 2.00900006e+00 0. 0. 0. 1.92400002e+00 2.02500010e+00
    2.02500010e+00 2.02500010e+00 2.02500010e+00 2.02500010e+00
    2.02200007e+00 2.02200007e+00 2.02399993e+00 2.02200007e+00
    2.02200007e+00 2.02500010e+00 2.02500010e+00 2.01900005e+00
    2.01699996e+00 2.02200007e+00 2.02200007e+00 2.02099991e+00
    2.01500010e+00 2.01699996e+00 2.02200007e+00 2.01999998e+00
    2.01699996e+00 2.01699996e+00 2.02399993e+00 2.02200007e+00
    2.01699996e+00 2.01799989e+00 2.01699996e+00 2.01699996e+00
    2.01399994e+00 2.01399994e+00 2.01399994e+00 2.01399994e+00
    2.01200008e+00 2.01200008e+00 2.00900006e+00 0. 0. 0. 2.02500010e+00
    2.02500010e+00 2.02500010e+00 2.02500010e+00 2.02500010e+00
    2.02500010e+00 2.01699996e+00 2.01699996e+00 2.01699996e+00
    2.01699996e+00 2.01699996e+00 2.02200007e+00 2.02500010e+00
    2.01900005e+00 2.01699996e+00 2.01699996e+00 2.01699996e+00
    2.00900006e+00 2.00900006e+00 2.01200008e+00 2.01699996e+00
    2.01200008e+00 2.01099992e+00 2.01699996e+00 2.01699996e+00
    2.01699996e+00 2.01699996e+00 2.01699996e+00 2.01699996e+00
    2.01699996e+00 2.00900006e+00 2.00900006e+00 2.00900006e+00
    2.00900006e+00 2.01300001e+00 2.01600003e+00 2.00900006e+00 0. 0. 0.
    2.01200008e+00 2.01500010e+00 2.01699996e+00 2.01699996e+00
    2.01699996e+00 2.01699996e+00 2.01500010e+00 2.01200008e+00
    2.01200008e+00 2.01699996e+00 2.01699996e+00 2.01699996e+00
    2.01699996e+00 2.01699996e+00 2.01699996e+00 2.01699996e+00
    2.01200008e+00 2.00399995e+00 2.00799990e+00 2.00999999e+00
    2.01200008e+00 2.00999999e+00 2.00999999e+00 2.01200008e+00
    2.01699996e+00 2.01699996e+00 2.01699996e+00 2.01699996e+00
    2.01699996e+00 2.01699996e+00 2.00900006e+00 2.00900006e+00
    2.00900006e+00 2.00099993e+00 2.00600004e+00 2.01600003e+00
    2.00300002e+00 0. 0. 0. 2. 2.00900006e+00 2.01699996e+00
    2.01699996e+00 2.01699996e+00 2.00999999e+00 2.00699997e+00
    2.00699997e+00 2.00699997e+00 2.01300001e+00 2.00699997e+00
    2.00699997e+00 2.00900006e+00 2.00900006e+00 2.01600003e+00
    2.00900006e+00 2.00900006e+00 2. 2. 2.00699997e+00 2.00699997e+00
    2.00699997e+00 2.00699997e+00 2.00699997e+00 2.00900006e+00
    2.01699996e+00 2.01699996e+00 2.00900006e+00 2.00900006e+00
    2.00699997e+00 2.00699997e+00 2.00799990e+00 2.00500011e+00 2.
    2.00399995e+00 2.00699997e+00 2.00900006e+00 0. 0. 0. 2.
    2.00900006e+00 2.01699996e+00 2.01699996e+00 2.01699996e+00
    2.00999999e+00 2. 2. 2. 2.00099993e+00 2. 2. 2.00900006e+00
    2.00900006e+00 2.00900006e+00 2.00900006e+00 2.00200009e+00 2. 2. 2.
    2. 2. 2. 2. 2.00200009e+00 2.01099992e+00 2.01099992e+00
    2.00699997e+00 2.00200009e+00 2. 2. 2.00099993e+00 2. 2. 2. 2.
    2.00600004e+00 0. 0. 2.00900006e+00 2.00900006e+00 2.01200008e+00
    2.01399994e+00 2.01399994e+00 2.01200008e+00 2.00900006e+00
    2.00399995e+00 2. 2. 2.00200009e+00 2. 2. 2. 2. 2. 2. 2. 2. 2. 2. 2.
    2. 2. 2. 2. 2. 2. 2. 2. 2. 2. 2. 2. 2. 2. 1.99199998e+00
    1.99800003e+00 0. 0. 2.00900006e+00 2.00900006e+00 2.00900006e+00
    2.00900006e+00 2.00900006e+00 2.00900006e+00 2.00900006e+00 2. 2. 2.
    2.00600004e+00 2. 2. 2. 2. 2. 2. 2. 2. 2. 2. 2. 2. 2. 2. 2. 2. 2. 2.
    2. 2. 2. 2. 2. 2. 2. 2. 0. 0. 0. 2.01399994e+00 2.00900006e+00
    2.00200009e+00 2. 2.00300002e+00 2.00900006e+00 2.00099993e+00 2. 2.
    2. 2. 2. 2. 2. 1.99600005e+00 1.99399996e+00 1.99199998e+00 2.
    1.99500000e+00 1.99199998e+00 1.99500000e+00 2. 2. 2. 2. 2.
    1.99500000e+00 1.99199998e+00 1.99300003e+00 1.99500000e+00
    1.99500000e+00 2. 1.99500000e+00 1.99199998e+00 1.99199998e+00
    1.99500000e+00 1.99600005e+00 1.52600002e+00 0. 0. 2.00699997e+00
    2.00099993e+00 2. 2. 2. 2. 2. 2. 2. 2. 2. 2. 2. 2. 1.99399996e+00
    1.99199998e+00 1.99199998e+00 1.99500000e+00 1.99199998e+00
    1.99199998e+00 1.99199998e+00 1.99800003e+00 1.99199998e+00
    1.99199998e+00 1.99199998e+00 1.99199998e+00 1.99199998e+00
    1.99199998e+00 1.99199998e+00 1.99199998e+00 1.99199998e+00
    1.99199998e+00 1.99199998e+00 1.99199998e+00 1.99199998e+00
    1.99199998e+00 1.99300003e+00 2. 0. 0. 2. 1.99399996e+00
    1.99399996e+00 2. 2. 2. 2. 2. 1.99399996e+00 1.99800003e+00
    1.99399996e+00 1.99399996e+00 2. 1.99899995e+00 1.99199998e+00
    1.99199998e+00 1.99199998e+00 1.99199998e+00 1.99199998e+00
    1.99199998e+00 1.99199998e+00 1.99199998e+00 1.99199998e+00
    1.99199998e+00 1.99199998e+00 1.99199998e+00 1.99199998e+00
    1.99199998e+00 1.99000001e+00 1.98599994e+00 1.99199998e+00
    1.99199998e+00 1.99199998e+00 1.99199998e+00 1.99199998e+00
    1.99199998e+00 1.99199998e+00 1.99800003e+00 0. 0. 1.99800003e+00
    1.99199998e+00 1.99199998e+00 2. 2. 1.99699998e+00 1.99199998e+00
    1.99500000e+00 1.99199998e+00 1.99800003e+00 1.99399996e+00
    1.99199998e+00 1.99199998e+00 1.99600005e+00 1.99199998e+00
    1.99100006e+00 1.98899996e+00 1.98899996e+00 1.99199998e+00
    1.99199998e+00 1.99199998e+00 1.99199998e+00 1.99199998e+00
    1.98899996e+00 1.98899996e+00 1.99000001e+00 1.99199998e+00
    1.99199998e+00 1.99000001e+00 1.98399997e+00 1.98399997e+00
    1.98399997e+00 1.98899996e+00 1.98899996e+00 1.98500001e+00
    1.98199999e+00 1.97300005e+00 0. 0. 0. 2. 2. 2. 2. 1.99399996e+00
    1.99199998e+00 1.99199998e+00 1.99199998e+00 1.99199998e+00
    1.99199998e+00 1.99199998e+00 1.99199998e+00 1.99199998e+00
    1.99199998e+00 1.99199998e+00 1.98399997e+00 1.98399997e+00
    1.98399997e+00 1.98599994e+00 1.99199998e+00 1.99199998e+00
    1.99199998e+00 1.98699999e+00 1.98399997e+00 1.98399997e+00
    1.98399997e+00 1.98399997e+00 1.98399997e+00 1.98399997e+00
    1.98399997e+00 1.98399997e+00 1.98300004e+00 1.97599995e+00
    1.97800004e+00 1.98399997e+00 1.98000002e+00 1.96800005e+00 0. 0. 0.
    2.86400008e+00 2. 2. 2.00500011e+00 1.99800003e+00 1.99699998e+00
    1.99699998e+00 1.99699998e+00 1.99699998e+00 1.99699998e+00
    1.99500000e+00 1.99199998e+00 1.99199998e+00 1.99199998e+00
    1.99199998e+00 1.98399997e+00 1.98399997e+00 1.98399997e+00
    1.98399997e+00 1.98399997e+00 1.98399997e+00 1.98399997e+00
    1.98099995e+00 1.97899997e+00 1.97899997e+00 1.97899997e+00
    1.97899997e+00 1.97899997e+00 1.98000002e+00 1.97700000e+00
    1.97599995e+00 1.97599995e+00 1.97300005e+00 1.97200000e+00
    1.98300004e+00 1.98000002e+00 1.97300005e+00 0. 0. 0. 0. 0.
    2.48600006e+00 2.05999994e+00 2.04600000e+00 2.03699994e+00
    2.03099990e+00 2.01500010e+00 2.00500011e+00 2.00399995e+00 2.
    1.99399996e+00 2. 2.00099993e+00 1.99399996e+00 1.99500000e+00
    1.99199998e+00 1.98599994e+00 1.98599994e+00 1.98599994e+00
    1.98800004e+00 1.98599994e+00 1.98000002e+00 1.97599995e+00
    1.97800004e+00 1.97700000e+00 1.97599995e+00 1.96800005e+00
    1.97599995e+00 1.97599995e+00 1.97599995e+00 1.97599995e+00
    1.97200000e+00 1.97099996e+00 1.98099995e+00 1.97599995e+00
    1.97599995e+00 1.08899999e+00 0. 0. 0. 0. 0. 2.06699991e+00
    2.05999994e+00 2.05999994e+00 2.05200005e+00 2.04900002e+00
    2.04600000e+00 2.04500008e+00 2.03900003e+00 2.02099991e+00
    2.02500010e+00 2.02200007e+00 2.02099991e+00 2.01900005e+00
    2.01300001e+00 2.00600004e+00 2.00699997e+00 2.00699997e+00
    1.99899995e+00 1.99899995e+00 1.98599994e+00 1.98399997e+00
    1.99100006e+00 1.99000001e+00 1.97599995e+00 1.97500002e+00
    1.97800004e+00 1.98300004e+00 1.98000002e+00 1.97599995e+00
    1.97599995e+00 1.97599995e+00 1.97599995e+00 1.97300005e+00
    1.96899998e+00 1.96899998e+00 0. 0. 0. 0. 0. 0. 0. 0. 0.
    2.93799996e+00 2.93499994e+00 2.93499994e+00 2.92100000e+00 0. 0. 0.
    2.93000007e+00 2.93300009e+00 2.93300009e+00 2.39899993e+00
    2.03200006e+00 2.02900004e+00 2.02399993e+00 2.01999998e+00
    2.00799990e+00 2.00399995e+00 2.00699997e+00 2.00699997e+00
    2.00200009e+00 1.99100006e+00 1.98699999e+00 1.98699999e+00
    1.98699999e+00 1.98300004e+00 1.97899997e+00 1.98099995e+00
    1.97700000e+00 1.96800005e+00 1.96800005e+00 2.60999990e+00 0. 0. 0.
    0. 0. 0. 0. 0. 0. 0. 0. 0. 0. 0. 0. 0. 0. 0. 0. 0. 0. 0. 0.
    2.10700011e+00 2.10899997e+00 2.09100008e+00 2.02500010e+00
    2.02500010e+00 2.02600002e+00 2.01999998e+00 2.01600003e+00
    2.00999999e+00 2.01799989e+00 2. 1.99199998e+00 1.99199998e+00
    1.97899997e+00 2.00399995e+00 2.21700001e+00 0. 0. 0. 0. 0. 0. 0. 0.
    0. 0. 0. 0. 0. 0. 0. 0. 0. 0. 0. 0. 0. 0. 0. 0. 0. 0. 0. 0. 0. 0. 0.
    0. 0. 0. 0. 0. 0. 0. 0. 0. 0. 0. 0. 0. 0. 0. 0. 0. 0. 0. 0. 0. 0. 0.
    0. 0. 0. 0. 0. 0. 0. 0. 0. 0. 0. 0. 0. 0. 0. 0. 0. 0. 0. 0. 0. 0. 0.
    0. 0. 0. 0. 0. 0. 0. 0. 0. 0. 0. 0. 0. 0. 0. 0. 0. 0. 0. 0. 0. 0. 0.
    0. 0. 0. 0. 0. 0. 0. 0. 0. 0. 0. 0. 0. 0. 0. 0. 0. 0. 0. 0. 0. 0. 0.
    0. 0. 0. 0. 0. 0. 0. 0. 0. 0. 0. 0. 0. 0. 0. 0. 0. 0. 0. 0. 0. 0. 0.
    0. 0. 0. 0. 0. 0. 0. 0. 0. 0. 0. 0. 0. 0. 0. 0. 0. 0. 0. 0. 0. 0. 0.
    0. 0. 0. 0. 0. 0. 0. 0. 0. 0. 0. 0. 0. 0. 0. 0. 0. 0. 0. 0. 0. 0. 0.
    0. 0. 0. 0. 0. 0. 0. 0. 0. 0. 0. 0. 0. 0. 0. 0. 0. 0. 0. 0. 0. 0. 0.
    0. 0. 0. 0. 0. 0. 0. 0. 0. 0. 0. 0. 0. 0. 0. 0. 0. 0. 0. 0. 0. 0. 0.
    0. 0. 0. 0. 0. 0. 0. 0. 0. 0. 0. 0. 0. 0. 0. 0. 0. 0. 0. 0. 0. 0. 0.
    0. 0. 0. 0. 0. 0. 0. 0. 0. 0. 0. 0. 0. 0. 0. 0. 0. 0. 0. 0. 0.</data></Depth>
</opencv_storage>
