<?xml version="1.0"?>
<opencv_storage>
<Depth type_id="opencv-matrix">
  <rows>40</rows>
  <cols>40</cols>
  <dt>f</dt>
  <data>
    0. 0. 0. 0. 0. 0. 0. 0. 0. 0. 0. 0. 2.05100012e+00 2.05699992e+00
    2.04600000e+00 0. 0. 0. 0. 0. 0. 0. 0. 0. 0. 0. 0. 0. 0. 0. 0. 0. 0.
    0. 0. 0. 0. 0. 0. 0. 0. 0. 0. 0. 0. 0. 0. 0. 0. 0. 2.04800010e+00
    2.04299998e+00 2.04500008e+00 2.04900002e+00 2.04600000e+00
    2.04800010e+00 2.05599999e+00 2.05399990e+00 2.05399990e+00 0. 0. 0.
    0. 0. 0. 0. 0. 0. 0. 0. 0. 0. 0. 0. 0. 0. 0. 0. 0. 0. 0. 0. 0. 0. 0.
    0. 0. 0. 0. 1.41499996e+00 1.77100003e+00 2.03699994e+00
    2.04299998e+00 2.04500008e+00 2.04699993e+00 2.04800010e+00
    2.05100012e+00 2.05399990e+00 2.05399990e+00 2.05399990e+00
    2.05399990e+00 2.05900002e+00 2.06500006e+00 2.11599994e+00 0. 0. 0.
    0. 0. 0. 0. 0. 0. 0. 0. 0. 0. 0. 0. 0. 0. 0. 0. 0. 0. 0. 0. 0.
    1.40900004e+00 1.52999997e+00 1.67600000e+00 2.03800011e+00
    2.04099989e+00 2.04299998e+00 2.04299998e+00 2.04699993e+00
    2.04800010e+00 2.04800010e+00 2.04800010e+00 2.04800010e+00
    2.05399990e+00 2.05399990e+00 2.05599999e+00 2.06100011e+00
    2.05900002e+00 2.05999994e+00 2.06500006e+00 2.06599998e+00
    2.06500006e+00 2.06999993e+00 0. 0. 0. 0. 0. 0. 0. 0. 0. 0. 0. 0. 0.
    0. 0. 0. 0. 0. 0. 0. 2.03200006e+00 2.03699994e+00 2.03900003e+00
    2.04299998e+00 2.04299998e+00 2.04299998e+00 2.04500008e+00
    2.04500008e+00 2.04299998e+00 2.04800010e+00 2.05399990e+00
    2.05399990e+00 2.05399990e+00 2.05599999e+00 2.06500006e+00
    2.06500006e+00 2.06500006e+00 2.06599998e+00 2.06699991e+00
    2.06699991e+00 2.07100010e+00 2.07599998e+00 2.06999993e+00
    2.55100012e+00 0. 0. 0. 0. 0. 0. 0. 0. 0. 0. 0. 0. 0. 0. 0. 0.
    2.02699995e+00 2.02800012e+00 2.03299999e+00 2.03699994e+00
    2.03900003e+00 2.04200006e+00 2.04299998e+00 2.04299998e+00
    2.04299998e+00 2.04299998e+00 2.04800010e+00 2.04999995e+00
    2.05399990e+00 2.05399990e+00 2.05900002e+00 2.06100011e+00
    2.06500006e+00 2.06500006e+00 2.06500006e+00 2.06599998e+00
    2.06999993e+00 2.06999993e+00 2.07399988e+00 2.06999993e+00 0. 0. 0.
    0. 0. 0. 0. 0. 0. 0. 0. 0. 0. 0. 2.48600006e+00 1.01900005e+00
    2.02699995e+00 2.02699995e+00 2.03099990e+00 2.03299999e+00
    2.03399992e+00 2.03699994e+00 2.04200006e+00 2.04299998e+00
    2.04299998e+00 2.04299998e+00 2.04299998e+00 2.04800010e+00
    2.04800010e+00 2.05399990e+00 2.05900002e+00 2.05900002e+00
    2.05900002e+00 2.06100011e+00 2.06500006e+00 2.06699991e+00
    2.06900001e+00 2.06699991e+00 2.06999993e+00 2.06500006e+00 0. 0. 0.
    0. 0. 0. 0. 0. 0. 0. 0. 0. 0. 2.64000010e+00 0. 2.01600003e+00
    2.01900005e+00 2.02500010e+00 2.02699995e+00 2.02800012e+00
    2.02800012e+00 2.03299999e+00 2.03800011e+00 2.04299998e+00
    2.04299998e+00 2.04299998e+00 2.04399991e+00 2.04800010e+00
    2.04800010e+00 2.04800010e+00 2.05399990e+00 2.05100012e+00
    2.05100012e+00 2.05599999e+00 2.06100011e+00 2.06500006e+00
    2.06500006e+00 2.06500006e+00 2.06500006e+00 2.06999993e+00 0. 0. 0.
    0. 0. 0. 0. 0. 0. 0. 0. 0. 0. 2.64000010e+00 0. 2.01799989e+00
    2.01900005e+00 2.02200007e+00 2.02099991e+00 2.02099991e+00
    2.02300000e+00 2.02699995e+00 2.03299999e+00 2.03299999e+00
    2.03699994e+00 2.04299998e+00 2.04299998e+00 2.04299998e+00
    2.04299998e+00 2.04299998e+00 2.04800010e+00 2.04800010e+00
    2.04800010e+00 2.05500007e+00 2.05900002e+00 2.05900002e+00
    2.05900002e+00 2.06100011e+00 2.06100011e+00 2.06599998e+00 0. 0. 0.
    0. 0. 0. 0. 0. 0. 0. 0. 0. 0. 2.70300007e+00 0. 2.01600003e+00
    2.01600003e+00 2.02099991e+00 2.02099991e+00 2.02099991e+00
    2.02099991e+00 2.02600002e+00 2.02800012e+00 2.03099990e+00
    2.03200006e+00 2.03699994e+00 2.03900003e+00 2.03800011e+00
    2.04299998e+00 2.04299998e+00 2.04399991e+00 2.04800010e+00
    2.04800010e+00 2.04900002e+00 2.05399990e+00 2.05399990e+00
    2.05399990e+00 2.05500007e+00 2.05900002e+00 2.05999994e+00 0. 0. 0.
    0. 0. 0. 0. 0. 0. 0. 0. 0. 0. 2.64000010e+00 0. 2.00799990e+00
    2.01200008e+00 2.01999998e+00 2.02099991e+00 2.02099991e+00
    2.02099991e+00 2.02600002e+00 2.02699995e+00 2.02699995e+00
    2.03200006e+00 2.03699994e+00 2.03699994e+00 2.03699994e+00
    2.04299998e+00 2.04299998e+00 2.04299998e+00 2.04800010e+00
    2.04800010e+00 2.04800010e+00 2.04800010e+00 2.04900002e+00
    2.05399990e+00 2.05399990e+00 2.05500007e+00 1.61500001e+00 0. 0. 0.
    0. 0. 0. 0. 0. 0. 0. 0. 0. 0. 2.64000010e+00 1.12399995e+00
    2.00600004e+00 2.00699997e+00 2.01500010e+00 2.01999998e+00
    2.02099991e+00 2.02099991e+00 2.02600002e+00 2.02300000e+00
    2.02600002e+00 2.02900004e+00 2.03299999e+00 2.03299999e+00
    2.03699994e+00 2.03699994e+00 2.03699994e+00 2.04299998e+00
    2.04299998e+00 2.04399991e+00 2.04399991e+00 2.04800010e+00
    2.04800010e+00 2.04800010e+00 2.04900002e+00 2.05399990e+00
    1.61500001e+00 0. 0. 0. 0. 0. 0. 0. 0. 0. 0. 0. 0. 2.74799991e+00
    1.93900001e+00 2.01399994e+00 2.00600004e+00 2.00600004e+00
    2.00999999e+00 2.01699996e+00 2.01699996e+00 2.02099991e+00
    2.02200007e+00 2.02099991e+00 2.02099991e+00 2.02600002e+00
    2.02699995e+00 2.02699995e+00 2.03200006e+00 2.02800012e+00
    2.02800012e+00 2.03699994e+00 2.04299998e+00 2.04299998e+00
    2.04299998e+00 2.04800010e+00 2.04800010e+00 2.04800010e+00
    2.04699993e+00 2.04399991e+00 2.55200005e+00 0. 0. 0. 0. 0. 0. 0. 0.
    0. 0. 0. 0. 2.72000003e+00 1.44900000e+00 2.00900006e+00
    2.00099993e+00 2.00099993e+00 2.00099993e+00 2.00600004e+00
    2.00999999e+00 2.01600003e+00 2.02099991e+00 2.02099991e+00
    2.02099991e+00 2.02600002e+00 2.02699995e+00 2.02699995e+00
    2.02699995e+00 2.02699995e+00 2.02699995e+00 2.03699994e+00
    2.03800011e+00 2.03699994e+00 2.03800011e+00 2.03900003e+00
    2.04299998e+00 2.04399991e+00 2.04299998e+00 2.04299998e+00 0. 0. 0.
    0. 0. 0. 0. 0. 0. 0. 0. 0. 0. 2.71700001e+00 0. 2.00500011e+00 2. 2.
    2. 2. 2.00600004e+00 2.00699997e+00 2.00699997e+00 2.02099991e+00
    2.01600003e+00 2.02099991e+00 2.02099991e+00 2.02699995e+00
    2.02699995e+00 2.02699995e+00 2.02699995e+00 2.03200006e+00
    2.03299999e+00 2.03699994e+00 2.03699994e+00 2.03800011e+00
    2.04299998e+00 2.04299998e+00 2.04299998e+00 2.03699994e+00
    1.60300004e+00 0. 0. 0. 0. 0. 0. 0. 0. 0. 0. 0. 0. 2.84899998e+00
    1.43400002e+00 2. 1.99699998e+00 1.99800003e+00 2. 2. 2.
    2.00600004e+00 2.00600004e+00 2.00999999e+00 2.01500010e+00
    2.01600003e+00 2.02099991e+00 2.02099991e+00 2.02099991e+00
    2.02099991e+00 2.02699995e+00 2.02800012e+00 2.03200006e+00
    2.03699994e+00 2.03699994e+00 2.03699994e+00 2.03699994e+00
    2.03699994e+00 2.03699994e+00 2.03699994e+00 1.60300004e+00 0. 0. 0.
    0. 0. 0. 0. 0. 0. 0. 0. 0. 2.69099998e+00 1.42799997e+00
    1.99000001e+00 1.99000001e+00 1.99500000e+00 1.99800003e+00 2. 2. 2.
    2.00600004e+00 2.00600004e+00 2.01500010e+00 2.01600003e+00
    2.01600003e+00 2.02099991e+00 2.02099991e+00 2.01600003e+00
    2.02099991e+00 2.02699995e+00 2.03200006e+00 2.02699995e+00
    2.02699995e+00 2.02800012e+00 2.03200006e+00 2.03200006e+00
    2.03699994e+00 2.03699994e+00 2.39100003e+00 0. 0. 0. 0. 0. 0. 0. 0.
    0. 0. 0. 0. 2.71700001e+00 1.98500001e+00 1.98500001e+00
    1.98500001e+00 1.99300003e+00 1.99500000e+00 1.99500000e+00
    1.99899995e+00 2. 2.00600004e+00 2.00600004e+00 2.00999999e+00
    2.01099992e+00 2.01099992e+00 2.01600003e+00 2.01600003e+00
    2.01600003e+00 2.02099991e+00 2.02099991e+00 2.02699995e+00
    2.02699995e+00 2.02699995e+00 2.02699995e+00 2.02800012e+00
    2.03200006e+00 2.03200006e+00 2.03099990e+00 2.33599997e+00 0. 0. 0.
    0. 0. 0. 0. 0. 0. 0. 0. 0. 2.69099998e+00 1.98500001e+00
    1.98500001e+00 1.98500001e+00 1.98800004e+00 1.99000001e+00
    1.99500000e+00 2. 2. 2. 2.00600004e+00 2.00600004e+00 2.00600004e+00
    2.00600004e+00 2.01099992e+00 2.01099992e+00 2.01600003e+00
    2.02099991e+00 2.02099991e+00 2.02099991e+00 2.02200007e+00
    2.02699995e+00 2.02699995e+00 2.02699995e+00 2.02699995e+00
    2.02699995e+00 1.64800000e+00 0. 0. 0. 0. 0. 0. 0. 0. 0. 0. 0. 0. 0.
    0. 1.98500001e+00 1.98000002e+00 1.98300004e+00 1.98500001e+00
    1.98500001e+00 1.98500001e+00 1.99000001e+00 1.99399996e+00
    1.99899995e+00 2. 2.00600004e+00 2.00600004e+00 2.00099993e+00 2.
    2.01099992e+00 2.01099992e+00 2.01600003e+00 2.01600003e+00
    2.01600003e+00 2.02099991e+00 2.02200007e+00 2.02699995e+00
    2.02099991e+00 2.02699995e+00 2.02500010e+00 2.02099991e+00
    2.39199996e+00 0. 0. 0. 0. 0. 0. 0. 0. 0. 0. 0. 0. 1.32700002e+00
    1.98699999e+00 1.98000002e+00 1.98300004e+00 1.98500001e+00
    1.98500001e+00 1.98500001e+00 1.98500001e+00 1.99199998e+00
    1.99500000e+00 1.99899995e+00 2. 2.00500011e+00 2.00500011e+00
    2.00600004e+00 2.00600004e+00 2.01099992e+00 2.01600003e+00
    2.01600003e+00 2.01600003e+00 2.01600003e+00 2.01699996e+00
    2.02099991e+00 2.02099991e+00 2.02600002e+00 2.02600002e+00
    1.99199998e+00 2.70400000e+00 0. 0. 0. 0. 0. 0. 0. 0. 0. 0. 0.
    2.78999996e+00 0. 1.97399998e+00 1.97500002e+00 1.97899997e+00
    1.98399997e+00 1.98399997e+00 1.98500001e+00 1.98500001e+00
    1.99000001e+00 1.99500000e+00 1.99500000e+00 1.99899995e+00
    1.99500000e+00 2. 2.00600004e+00 2.00600004e+00 2.00600004e+00
    2.00999999e+00 2.01500010e+00 2.01600003e+00 2.01600003e+00
    2.01699996e+00 2.02099991e+00 2.02099991e+00 2.02099991e+00
    2.02099991e+00 1.97500002e+00 0. 0. 0. 0. 0. 0. 0. 0. 0. 0. 0. 0.
    2.48000002e+00 0. 1.97000003e+00 1.97000003e+00 1.97500002e+00
    1.97800004e+00 1.97700000e+00 1.97899997e+00 1.98399997e+00
    1.98500001e+00 1.98899996e+00 1.99300003e+00 1.99399996e+00
    1.99000001e+00 1.99500000e+00 2. 2.00500011e+00 2.00600004e+00
    2.00600004e+00 2.00999999e+00 2.01099992e+00 2.01600003e+00
    2.01999998e+00 2.01600003e+00 2.01699996e+00 2.02099991e+00
    2.01600003e+00 1.62699997e+00 0. 0. 0. 0. 0. 0. 0. 0. 0. 0. 0. 0. 0.
    0. 1.96599996e+00 1.96599996e+00 1.97300005e+00 1.97500002e+00
    1.97800004e+00 1.98000002e+00 1.98399997e+00 1.98500001e+00
    1.98500001e+00 1.98500001e+00 1.98899996e+00 1.99000001e+00
    1.99500000e+00 1.99399996e+00 1.99800003e+00 2. 2.00500011e+00
    2.00600004e+00 2.00600004e+00 2.00999999e+00 2.01099992e+00
    2.01099992e+00 2.01500010e+00 2.01699996e+00 2.01600003e+00
    1.89300001e+00 0. 0. 0. 0. 0. 0. 0. 0. 0. 0. 0. 0. 0. 0.
    1.96500003e+00 1.96599996e+00 1.97000003e+00 1.97500002e+00
    1.97599995e+00 1.97399998e+00 1.97899997e+00 1.98399997e+00
    1.98000002e+00 1.98399997e+00 1.98500001e+00 1.98899996e+00
    1.99000001e+00 1.98899996e+00 1.99000001e+00 2. 2. 2.00600004e+00 2.
    2.00500011e+00 2.00600004e+00 2.00600004e+00 2.00999999e+00
    2.00999999e+00 2.01399994e+00 2.82999992e+00 0. 0. 0. 0. 0. 0. 0. 0.
    0. 0. 0. 0. 0. 1.37800002e+00 1.96200001e+00 1.96599996e+00
    1.96599996e+00 1.96599996e+00 1.96599996e+00 1.96899998e+00
    1.97000003e+00 1.97000003e+00 1.97899997e+00 1.98000002e+00
    1.98000002e+00 1.98500001e+00 1.98500001e+00 1.98500001e+00
    1.99000001e+00 1.99500000e+00 2. 2. 2. 2. 2.00600004e+00
    2.00500011e+00 2.00600004e+00 2.00600004e+00 2.00600004e+00
    2.19099998e+00 0. 0. 0. 0. 0. 0. 0. 0. 0. 0. 0. 0. 0. 1.94599998e+00
    1.96099997e+00 1.96099997e+00 1.96099997e+00 1.96599996e+00
    1.96599996e+00 1.96599996e+00 1.96899998e+00 1.97000003e+00
    1.97300005e+00 1.97800004e+00 1.97500002e+00 1.98000002e+00
    1.98500001e+00 1.98500001e+00 1.98500001e+00 1.98500001e+00
    1.99899995e+00 1.99899995e+00 1.99899995e+00 2. 2. 2. 2.00500011e+00
    2.00600004e+00 2.00600004e+00 2.18499994e+00 0. 0. 0. 0. 0. 0. 0. 0.
    0. 0. 0. 0. 0. 1.77900004e+00 1.95099998e+00 1.95400000e+00
    1.96099997e+00 1.96300006e+00 1.96599996e+00 1.96599996e+00
    1.96800005e+00 1.97000003e+00 1.97000003e+00 1.97300005e+00
    1.98000002e+00 1.98000002e+00 1.98000002e+00 1.98000002e+00
    1.98500001e+00 1.98500001e+00 1.99300003e+00 1.99000001e+00
    1.99000001e+00 1.99399996e+00 2. 2. 2. 2. 2. 0. 0. 0. 0. 0. 0. 0. 0.
    0. 0. 0. 0. 0. 0. 1.95500004e+00 1.94599998e+00 1.95599997e+00
    1.95799994e+00 1.95899999e+00 1.96099997e+00 1.96599996e+00
    1.96599996e+00 1.96800005e+00 1.97000003e+00 1.97000003e+00
    1.97500002e+00 1.98000002e+00 1.98000002e+00 1.98000002e+00
    1.98300004e+00 1.98500001e+00 1.98500001e+00 1.99000001e+00
    1.99000001e+00 1.99100006e+00 1.99500000e+00 1.99800003e+00
    1.99800003e+00 1.99699998e+00 1.88699996e+00 0. 0. 0. 0. 0. 0. 0. 0.
    0. 0. 0. 0. 0. 0. 1.94900000e+00 1.94900000e+00 1.94900000e+00
    1.94900000e+00 1.95400000e+00 1.95599997e+00 1.96399999e+00
    1.96599996e+00 1.96599996e+00 1.96599996e+00 1.96899998e+00
    1.97399998e+00 1.97800004e+00 1.97800004e+00 1.98000002e+00
    1.98000002e+00 1.98000002e+00 1.98300004e+00 1.98500001e+00
    1.98500001e+00 1.99500000e+00 1.99000001e+00 1.98800004e+00
    1.99100006e+00 1.99000001e+00 1.64699996e+00 0. 0. 0. 0. 0. 0. 0. 0.
    0. 0. 0. 0. 0. 1.08899999e+00 1.94200003e+00 1.94599998e+00
    1.94599998e+00 1.94599998e+00 1.95599997e+00 1.95500004e+00
    1.95500004e+00 1.96099997e+00 1.96099997e+00 1.96399999e+00
    1.96599996e+00 1.96599996e+00 1.97200000e+00 1.97300005e+00
    1.97000003e+00 1.97800004e+00 1.98000002e+00 1.98000002e+00
    1.98500001e+00 1.98800004e+00 1.99100006e+00 1.98800004e+00
    1.98500001e+00 1.99000001e+00 1.98500001e+00 0. 2.19099998e+00 0. 0.
    0. 0. 0. 0. 0. 0. 0. 0. 0. 0. 1.32700002e+00 1.94099998e+00
    1.94299996e+00 1.94400001e+00 1.94599998e+00 1.94799995e+00
    1.95099998e+00 1.95299995e+00 1.95599997e+00 1.96099997e+00
    1.96099997e+00 1.96300006e+00 1.96599996e+00 1.96599996e+00
    1.96800005e+00 1.97000003e+00 1.97500002e+00 1.98000002e+00
    1.98000002e+00 1.98500001e+00 1.98500001e+00 1.98500001e+00
    1.98500001e+00 1.98500001e+00 1.98699999e+00 1.98300004e+00 0.
    2.16899991e+00 0. 0. 0. 0. 0. 0. 0. 0. 0. 0. 0. 0. 1.04400003e+00
    1.94099998e+00 1.94200003e+00 1.94200003e+00 1.94500005e+00
    1.94599998e+00 1.94599998e+00 1.94599998e+00 1.95599997e+00
    1.95400000e+00 1.95599997e+00 1.96099997e+00 1.96099997e+00
    1.96500003e+00 1.96599996e+00 1.97000003e+00 1.97500002e+00
    1.97800004e+00 1.97800004e+00 1.97800004e+00 1.98000002e+00
    1.98000002e+00 1.98300004e+00 1.98300004e+00 1.98399997e+00
    1.98000002e+00 0. 2.15899992e+00 0. 0. 0. 0. 0. 0. 0. 0. 0. 0. 0. 0.
    0. 1.94000006e+00 1.93700004e+00 1.94099998e+00 1.94299996e+00
    1.94599998e+00 1.94599998e+00 1.94599998e+00 1.95700002e+00
    1.94599998e+00 1.95099998e+00 1.96000004e+00 1.96099997e+00
    1.96399999e+00 1.96599996e+00 1.96099997e+00 1.96800005e+00
    1.97000003e+00 1.97000003e+00 1.97000003e+00 1.97000003e+00
    1.97500002e+00 1.97800004e+00 1.98000002e+00 1.98000002e+00
    1.98000002e+00 1.19400001e+00 0. 0. 0. 0. 0. 0. 0. 0. 0. 0. 0. 0. 0.
    1.93900001e+00 1.93200004e+00 1.93099999e+00 1.94000006e+00
    1.94200003e+00 1.94299996e+00 1.94299996e+00 1.94299996e+00
    1.94500005e+00 1.94599998e+00 1.95099998e+00 1.95599997e+00
    1.96000004e+00 1.96099997e+00 1.96099997e+00 1.96099997e+00
    1.96300006e+00 1.96599996e+00 1.96599996e+00 1.96599996e+00
    1.97000003e+00 1.97500002e+00 1.97500002e+00 1.97800004e+00
    1.98000002e+00 1.98099995e+00 0. 2.14700007e+00 0. 0. 0. 0. 0. 0. 0.
    0. 0. 0. 0. 0. 1.93799996e+00 1.93299997e+00 1.93099999e+00
    2.90300012e+00 0. 2.50099993e+00 1.94200003e+00 1.94200003e+00
    1.94500005e+00 1.94599998e+00 1.94799995e+00 1.94799995e+00
    1.94799995e+00 1.95599997e+00 1.96099997e+00 1.96099997e+00
    1.96099997e+00 1.96099997e+00 1.96599996e+00 1.96599996e+00
    1.96599996e+00 1.97500002e+00 1.97000003e+00 1.97200000e+00
    1.97000003e+00 1.30200005e+00 1.30299997e+00 0. 0. 0. 0. 0. 0. 0. 0.
    0. 0. 0. 0. 0. 0. 0. 0. 0. 0. 0. 0. 0. 2.41300011e+00 1.94400001e+00
    1.94400001e+00 1.94599998e+00 1.94599998e+00 1.94599998e+00
    1.95799994e+00 1.95799994e+00 1.96099997e+00 1.95799994e+00
    1.96099997e+00 1.96300006e+00 1.96300006e+00 1.97099996e+00
    1.97000003e+00 1.97000003e+00 1.96599996e+00 1.66799998e+00 0. 0. 0.
    0. 0. 0. 0. 0. 0. 0. 0. 0. 0. 0. 0. 0. 0. 0. 0. 0. 0. 0. 0. 0. 0.
    1.65999997e+00 0. 0. 1.96200001e+00 1.95899999e+00 1.96099997e+00
    1.95899999e+00 1.96099997e+00 1.96099997e+00 1.96099997e+00
    1.97000003e+00 1.96800005e+00 1.96599996e+00 1.96599996e+00 0. 0. 0.
    0. 0. 0. 0. 0. 0. 0. 0. 0. 0. 0. 0. 0. 0. 0. 0. 0. 0. 0. 0. 0. 0. 0.
    1.45400000e+00 0. 0. 2.24300003e+00 1.96399999e+00 0. 0. 0. 0. 0. 0.
    0. 0. 0. 0. 0. 0. 0. 0. 0. 0. 0. 0. 0. 0. 0. 0. 0. 0. 0. 0. 0. 0. 0.
    0. 0. 0. 0. 0. 0. 0. 0. 0. 0. 0. 0. 0. 0. 0. 0. 0. 0. 0. 0. 0. 0. 0.
    0. 0. 0. 0. 0. 0. 0.</data></Depth>
</opencv_storage>
