<?xml version="1.0"?>
<opencv_storage>
<Depth type_id="opencv-matrix">
  <rows>40</rows>
  <cols>40</cols>
  <dt>f</dt>
  <data>
    0. 0. 0. 0. 0. 0. 0. 0. 0. 0. 0. 0. 0. 0. 0. 0. 0. 0. 0. 0. 0. 0. 0.
    0. 0. 0. 0. 0. 0. 0. 0. 0. 0. 0. 0. 0. 0. 0. 0. 0. 0. 0. 0. 0. 0. 0.
    0. 0. 0. 0. 0. 0. 0. 0. 0. 0. 0. 0. 0. 0. 0. 0. 0. 0. 0. 0. 0. 0. 0.
    0. 0. 0. 0. 0. 0. 0. 0. 0. 0. 0. 0. 0. 0. 0. 0. 0. 0. 0. 0. 0. 0. 0.
    0. 0. 0. 0. 0. 0. 0. 0. 0. 0. 0. 0. 0. 0. 0. 0. 0. 0. 0. 0. 0. 0. 0.
    0. 0. 0. 0. 0. 0. 0. 0. 0. 0. 0. 0. 0. 0. 0. 0. 0. 0. 0. 0. 0. 0. 0.
    0. 0. 0. 0. 0. 0. 0. 0. 0. 0. 0. 0. 0. 0. 0. 0. 0. 0. 0. 0. 0. 0. 0.
    0. 0. 0. 0. 0. 0. 0. 0. 0. 0. 0. 0. 0. 0. 0. 0. 0. 0. 0. 0. 0. 0. 0.
    0. 0. 0. 0. 0. 0. 0. 0. 0. 0. 0. 0. 0. 0. 0. 0. 0. 0. 0. 0. 0. 0. 0.
    0. 0. 0. 0. 0. 0. 0. 0. 0. 0. 0. 0. 0. 0. 0. 0. 0. 0. 0. 0. 0. 0. 0.
    0. 0. 0. 0. 0. 0. 0. 0. 0. 0. 0. 0. 0. 0. 0. 0. 0. 0. 0. 0. 0. 0. 0.
    0. 0. 0. 0. 0. 0. 0. 0. 0. 0. 0. 0. 0. 0. 0. 0. 0. 0. 0. 0. 0. 0. 0.
    0. 0. 0. 0. 2.96000004e+00 2.96000004e+00 2.96000004e+00
    2.96000004e+00 2.96000004e+00 2.96000004e+00 2.96000004e+00
    2.96000004e+00 2.96000004e+00 2.96000004e+00 2.92899990e+00
    2.87599993e+00 2.82399988e+00 2.77399993e+00 2.77399993e+00
    2.76200008e+00 2.71199989e+00 2.68600011e+00 2.68600011e+00
    2.72000003e+00 2.76999998e+00 2.77399993e+00 2.77399993e+00
    2.77399993e+00 2.77399993e+00 2.77399993e+00 2.77399993e+00
    2.77399993e+00 2.77399993e+00 2.77399993e+00 2.77399993e+00
    2.76300001e+00 2.71300006e+00 2.68600011e+00 2.68600011e+00
    2.68600011e+00 2.68600011e+00 2.24699998e+00 1.80799997e+00
    1.80799997e+00 2.96000004e+00 2.96000004e+00 2.96000004e+00
    2.96000004e+00 2.96000004e+00 2.96000004e+00 2.96000004e+00
    2.96000004e+00 2.96000004e+00 2.96000004e+00 2.94000006e+00
    2.90499997e+00 2.85599995e+00 2.80599999e+00 2.80599999e+00
    2.79299998e+00 2.74300003e+00 2.71600008e+00 2.71600008e+00
    2.73900008e+00 2.77099991e+00 2.77399993e+00 2.77399993e+00
    2.77399993e+00 2.77399993e+00 2.77399993e+00 2.77399993e+00
    2.77399993e+00 2.63700008e+00 2.46399999e+00 2.45199990e+00
    2.43499994e+00 2.40300012e+00 2.38499999e+00 2.38499999e+00
    2.38499999e+00 2.38499999e+00 2.09699988e+00 1.80799997e+00
    1.80799997e+00 2.96000004e+00 2.96000004e+00 2.96000004e+00
    2.96000004e+00 2.96000004e+00 2.96000004e+00 2.96000004e+00
    2.96000004e+00 2.96000004e+00 2.96000004e+00 2.95700002e+00
    2.95199990e+00 2.90799999e+00 2.85700011e+00 2.85700011e+00
    2.84400010e+00 2.79299998e+00 2.76600003e+00 2.76600003e+00
    2.76900005e+00 2.77399993e+00 2.77399993e+00 2.77399993e+00
    2.77399993e+00 2.77399993e+00 2.77399993e+00 2.77399993e+00
    2.77399993e+00 2.41199994e+00 1.95700002e+00 1.92499995e+00
    1.89900005e+00 1.89400005e+00 1.89199996e+00 1.89199996e+00
    1.89199996e+00 1.89199996e+00 1.85000002e+00 1.80799997e+00
    1.80799997e+00 2.96000004e+00 2.97300005e+00 2.99799991e+00
    2.98699999e+00 2.96199989e+00 2.96000004e+00 2.96000004e+00
    2.96000004e+00 2.96000004e+00 2.96000004e+00 2.96000004e+00
    2.96000004e+00 2.91700006e+00 2.86599994e+00 2.86599994e+00
    2.85299993e+00 2.80100012e+00 2.77399993e+00 2.77399993e+00
    2.77399993e+00 2.77399993e+00 2.77399993e+00 2.77399993e+00
    2.77399993e+00 2.69099998e+00 2.45499992e+00 2.35299993e+00
    2.35299993e+00 2.13899994e+00 1.87100005e+00 1.83500004e+00
    1.80799997e+00 1.80799997e+00 1.80799997e+00 1.80799997e+00
    1.80799997e+00 1.80799997e+00 1.80799997e+00 1.80799997e+00
    1.80799997e+00 2.96300006e+00 2.98900008e+00 0. 0. 2.96399999e+00
    2.96000004e+00 2.96000004e+00 2.96000004e+00 2.96000004e+00
    2.96000004e+00 2.96000004e+00 2.96000004e+00 2.90599990e+00
    2.84200001e+00 2.84200001e+00 2.83299994e+00 2.79600000e+00
    2.77699995e+00 2.77699995e+00 2.77600002e+00 2.77399993e+00
    2.77399993e+00 2.77200007e+00 2.75900006e+00 2.57800007e+00
    2.08400011e+00 1.87100005e+00 1.87100005e+00 1.87100005e+00
    1.87100005e+00 1.83500004e+00 1.80799997e+00 1.80799997e+00
    1.80799997e+00 1.80900002e+00 1.80900002e+00 1.80799997e+00
    1.80799997e+00 1.80799997e+00 1.80799997e+00 0. 0. 0. 0.
    2.96399999e+00 2.96000004e+00 2.96000004e+00 2.96000004e+00
    2.96000004e+00 2.96000004e+00 2.96000004e+00 2.96000004e+00
    2.68499994e+00 2.35500002e+00 2.35500002e+00 2.42199993e+00
    2.68700004e+00 2.82800007e+00 2.82800007e+00 2.80699992e+00
    2.77699995e+00 2.77399993e+00 2.73799992e+00 2.46000004e+00
    2.19799995e+00 1.97000003e+00 1.87100005e+00 1.87100005e+00
    1.87100005e+00 1.87100005e+00 1.83500004e+00 1.80799997e+00
    1.80799997e+00 1.81700003e+00 1.83800006e+00 1.83099997e+00
    1.80999994e+00 1.80799997e+00 1.80799997e+00 1.80799997e+00 0. 0. 0.
    0. 2.96300006e+00 2.96000004e+00 2.96099997e+00 2.97000003e+00
    2.94400001e+00 2.85899997e+00 2.82100010e+00 2.81599998e+00
    2.44400001e+00 2. 2. 2.10299993e+00 2.51600003e+00 2.73499990e+00
    2.73499990e+00 2.70400000e+00 2.66100001e+00 2.65700006e+00
    2.60400009e+00 2.19799995e+00 1.92200005e+00 1.88600004e+00
    1.87100005e+00 1.87100005e+00 1.86699998e+00 1.86099994e+00
    1.83099997e+00 1.80799997e+00 1.80799997e+00 1.82200003e+00
    1.85200000e+00 1.84500003e+00 1.82000005e+00 1.81299996e+00
    1.80799997e+00 1.80799997e+00 0. 2.98799992e+00 2.98799992e+00
    2.97700000e+00 2.96099997e+00 2.96000004e+00 2.96600008e+00 0.
    2.88299990e+00 2.48600006e+00 2.30800009e+00 2.27999997e+00
    2.15000010e+00 2. 2. 2.03500009e+00 2.17400002e+00 2.24799991e+00
    2.24799991e+00 2.23799992e+00 2.22300005e+00 2.22199988e+00
    2.20099998e+00 2.03900003e+00 1.92200005e+00 1.88600004e+00
    1.87100005e+00 1.87100005e+00 1.85099995e+00 1.82599998e+00
    1.81599998e+00 1.80799997e+00 1.80799997e+00 1.81299996e+00
    1.82299995e+00 1.83599997e+00 1.85099995e+00 1.83000004e+00
    1.80799997e+00 1.80799997e+00 2.98799992e+00 2.96000004e+00
    2.96000004e+00 2.96000004e+00 2.96000004e+00 2.83200002e+00
    2.72000003e+00 2.75999999e+00 2.63599992e+00 2.23300004e+00
    2.04500008e+00 2.00699997e+00 2. 2. 2. 2. 2. 2. 2. 2. 2. 2.
    1.99500000e+00 1.95799994e+00 1.92200005e+00 1.88600004e+00
    1.87100005e+00 1.87100005e+00 1.84300005e+00 1.80799997e+00
    1.80799997e+00 1.80799997e+00 1.80799997e+00 1.80799997e+00
    1.80799997e+00 1.83200002e+00 1.86699998e+00 1.84000003e+00
    1.80799997e+00 1.80799997e+00 2.98799992e+00 2.96000004e+00
    2.96000004e+00 2.96000004e+00 2.96000004e+00 2.56999993e+00
    2.21499991e+00 2.22399998e+00 2.19600010e+00 2.10500002e+00
    2.04500008e+00 2.00699997e+00 2. 2. 2. 2. 2. 2. 2. 2. 2. 2.
    1.99500000e+00 1.95799994e+00 1.92200005e+00 1.88600004e+00
    1.87100005e+00 1.87100005e+00 1.84300005e+00 1.80799997e+00
    1.80799997e+00 1.80799997e+00 1.80799997e+00 1.80799997e+00
    1.80799997e+00 1.83200002e+00 1.86699998e+00 1.84000003e+00
    1.80799997e+00 1.80799997e+00 2.67700005e+00 2.65300012e+00
    2.63599992e+00 2.63199997e+00 2.63199997e+00 2.33699989e+00
    2.06800008e+00 2.06800008e+00 2.06800008e+00 2.06800008e+00
    2.04500008e+00 2.00699997e+00 2. 2. 2. 2.00399995e+00 2.01900005e+00
    2.01999998e+00 2.00500011e+00 2. 2. 2. 1.99500000e+00 1.95799994e+00
    1.92200005e+00 1.88600004e+00 1.87100005e+00 1.87100005e+00
    1.84300005e+00 1.80799997e+00 1.80799997e+00 1.80799997e+00
    1.80799997e+00 1.80799997e+00 1.80799997e+00 1.83200002e+00
    1.86699998e+00 1.85200000e+00 1.83299994e+00 1.83299994e+00
    2.24000001e+00 2.22000003e+00 2.18099999e+00 2.16899991e+00
    2.16899991e+00 2.11599994e+00 2.06800008e+00 2.06800008e+00
    2.06800008e+00 2.06800008e+00 2.04500008e+00 2.00699997e+00 2. 2. 2.
    2.00900006e+00 2.04600000e+00 2.04800010e+00 2.01099992e+00 2. 2. 2.
    1.99500000e+00 1.95799994e+00 1.92200005e+00 1.88600004e+00
    1.87100005e+00 1.87100005e+00 1.84300005e+00 1.80799997e+00
    1.80799997e+00 1.80799997e+00 1.80799997e+00 1.80799997e+00
    1.80799997e+00 1.83200002e+00 1.86699998e+00 1.87000000e+00
    1.86899996e+00 1.86899996e+00 2.17100000e+00 2.16199994e+00
    2.14299989e+00 2.12299991e+00 2.10200000e+00 2.08400011e+00
    2.06800008e+00 2.06800008e+00 2.06100011e+00 2.04099989e+00
    2.02200007e+00 2.00300002e+00 2. 2. 2. 2.00500011e+00 2.02300000e+00
    2.02399993e+00 2.00600004e+00 2. 2. 2. 1.99500000e+00 1.95799994e+00
    1.92200005e+00 1.88600004e+00 1.87100005e+00 1.87100005e+00
    1.84300005e+00 1.80799997e+00 1.80799997e+00 1.80799997e+00
    1.80799997e+00 1.80799997e+00 1.80799997e+00 1.83200002e+00
    1.86699998e+00 1.87100005e+00 1.87100005e+00 1.87100005e+00
    2.13700008e+00 2.13700008e+00 2.13700008e+00 2.10899997e+00
    2.07100010e+00 2.06800008e+00 2.06800008e+00 2.06399989e+00
    2.04900002e+00 2.01399994e+00 2. 2. 2. 2. 2. 2. 2. 2. 2. 2. 2. 2.
    1.99600005e+00 1.96200001e+00 1.92600000e+00 1.88800001e+00
    1.87100005e+00 1.87100005e+00 1.84500003e+00 1.81299996e+00
    1.81299996e+00 1.81299996e+00 1.80999994e+00 1.80799997e+00
    1.80799997e+00 1.83200002e+00 1.86699998e+00 1.87100005e+00
    1.84700000e+00 1.62699997e+00 2.13700008e+00 2.13700008e+00
    2.13700008e+00 2.10899997e+00 2.07100010e+00 2.06800008e+00
    2.06399989e+00 2.03999996e+00 2.01900005e+00 2.00600004e+00 2. 2. 2.
    2. 2. 2. 2. 2. 2. 2. 2. 2. 1.99800003e+00 1.98500001e+00
    1.95599997e+00 1.89699996e+00 1.87100005e+00 1.87100005e+00
    1.86099994e+00 1.84899998e+00 1.84899998e+00 1.84300005e+00
    1.82099998e+00 1.80799997e+00 1.80799997e+00 1.83200002e+00
    1.86699998e+00 1.87100005e+00 1.68599999e+00 0. 2.13700008e+00
    2.13700008e+00 2.13700008e+00 2.10899997e+00 2.07100010e+00
    2.06800008e+00 2.06200004e+00 2.02399993e+00 2. 2. 2. 2. 2. 2. 2. 2.
    2. 2. 2. 2. 2. 2. 2. 2. 1.98000002e+00 1.92299998e+00 1.88900006e+00
    1.87399995e+00 1.87100005e+00 1.87100005e+00 1.87100005e+00
    1.86500001e+00 1.83700001e+00 1.57700002e+00 1.03499997e+00 0. 0. 0.
    0. 0. 2.13700008e+00 2.13700008e+00 2.13700008e+00 2.10899997e+00
    2.07100010e+00 2.06800008e+00 2.06200004e+00 2.02399993e+00 2. 2. 2.
    2. 2. 2. 2. 2. 2. 2. 2. 2. 2. 2. 2. 2. 1.99399996e+00 1.97700000e+00
    1.93900001e+00 1.88300002e+00 1.87100005e+00 1.87100005e+00
    1.87100005e+00 1.86899996e+00 1.86099994e+00 0. 0. 0. 0. 0. 0. 0.
    2.13700008e+00 2.13700008e+00 2.13700008e+00 2.10899997e+00
    2.07100010e+00 2.06800008e+00 2.06200004e+00 2.02399993e+00 2. 2. 2.
    2. 2. 2. 2. 2. 2. 2. 2. 2. 2. 2.01200008e+00 2.02300000e+00
    2.02300000e+00 2.02300000e+00 2.02300000e+00 2.05999994e+00
    2.12700009e+00 2.12800002e+00 2.11299992e+00 2.11299992e+00
    1.88300002e+00 0. 0. 0. 0. 0. 0. 0. 0. 2.13700008e+00 2.13700008e+00
    2.13700008e+00 2.10899997e+00 2.07100010e+00 2.06800008e+00
    2.06200004e+00 2.02399993e+00 2. 2. 2. 2. 2. 2. 2. 2. 2. 2. 2. 2. 2.
    2.03099990e+00 2.06100011e+00 2.06100011e+00 2.06100011e+00
    2.06100011e+00 2.23300004e+00 2.53500009e+00 2.56500006e+00
    2.52200007e+00 2.52200007e+00 1.90300000e+00 0. 0. 0. 0. 0. 0. 0. 0.
    2.13700008e+00 2.12800002e+00 2.11100006e+00 2.09100008e+00
    2.06900001e+00 2.05200005e+00 2.03399992e+00 2.01300001e+00 2. 2.
    1.27999997e+00 0. 0. 2.03099990e+00 2.03099990e+00 2.02699995e+00
    2.00900006e+00 2. 2. 2. 2. 2.01900005e+00 2.05999994e+00
    2.23499990e+00 2.34899998e+00 2.34899998e+00 2.45700002e+00
    2.64599991e+00 2.64800000e+00 2.59999990e+00 2.59999990e+00
    1.90699995e+00 0. 0. 0. 0. 0. 0. 0. 0. 2.13599992e+00 2.11700010e+00
    2.07900000e+00 2.06800008e+00 2.06800008e+00 2.03200006e+00 2. 2.
    1.98300004e+00 1.93799996e+00 0. 0. 0. 1.98699999e+00 1.98699999e+00
    1.97700000e+00 1.94000006e+00 1.91999996e+00 1.91999996e+00
    1.91999996e+00 1.91999996e+00 1.96700001e+00 2.06100011e+00
    2.44000006e+00 2.68600011e+00 2.68600011e+00 2.68600011e+00
    2.68600011e+00 2.64800000e+00 2.59999990e+00 2.59999990e+00
    1.91799998e+00 0. 0. 0. 0. 0. 0. 0. 0. 2.10899997e+00 2.08899999e+00
    2.07299995e+00 2.06800008e+00 2.06800008e+00 2.03200006e+00 2. 2.
    1.42600000e+00 0. 0. 0. 0. 0. 0. 0. 0. 0. 0. 0. 0. 0. 2.41799998e+00
    2.57999992e+00 2.68600011e+00 2.68600011e+00 2.68600011e+00
    2.68600011e+00 2.64800000e+00 2.59999990e+00 2.59999990e+00
    2.30800009e+00 1.03499997e+00 0. 0. 0. 0. 0. 0. 0. 2.08800006e+00
    2.06800008e+00 2.06800008e+00 2.06800008e+00 2.06800008e+00
    2.03699994e+00 2.00999999e+00 2.00999999e+00 1.01600003e+00 0. 0. 0.
    0. 0. 0. 0. 0. 0. 0. 0. 0. 0. 2.68600011e+00 2.68600011e+00
    2.68400002e+00 2.67700005e+00 2.67400002e+00 2.67400002e+00
    2.65199995e+00 2.62400007e+00 2.61100006e+00 2.59999990e+00
    2.59999990e+00 2.59999990e+00 2.59999990e+00 0. 0. 0. 0. 0.
    2.08800006e+00 2.06800008e+00 2.06800008e+00 2.06800008e+00
    2.06800008e+00 2.05699992e+00 2.04800010e+00 2.04800010e+00
    1.04600000e+00 0. 0. 0. 0. 0. 0. 0. 0. 0. 0. 1.12100005e+00
    1.12100005e+00 1.92100000e+00 2.68600011e+00 2.68600011e+00
    2.67400002e+00 2.64000010e+00 2.62599993e+00 2.62599993e+00
    2.66799998e+00 2.72199988e+00 2.65300012e+00 2.59999990e+00
    2.59999990e+00 2.59999990e+00 2.59999990e+00 0. 0. 0. 0. 0.
    2.08800006e+00 2.06800008e+00 2.06800008e+00 2.06800008e+00
    2.06800008e+00 2.06800008e+00 2.06800008e+00 2.06800008e+00
    1.06200004e+00 0. 0. 0. 0. 0. 0. 0. 0. 0. 1.80700004e+00
    2.77399993e+00 2.77399993e+00 2.72900009e+00 2.68600011e+00
    2.68600011e+00 2.66899991e+00 2.62100005e+00 2.59999990e+00
    2.59999990e+00 2.67700005e+00 2.77300000e+00 2.67499995e+00
    2.59999990e+00 2.59999990e+00 2.59999990e+00 2.59999990e+00 0. 0. 0.
    0. 0. 0. 0. 0. 0. 0. 0. 0. 0. 0. 0. 0. 0. 0. 0. 0. 0. 0. 0. 0. 0. 0.
    0. 0. 0. 0. 0. 0. 0. 0. 0. 0. 0. 0. 0. 0. 0. 0. 0. 0. 0. 0. 0. 0. 0.
    0. 0. 0. 0. 0. 0. 0. 0. 0. 0. 0. 0. 0. 0. 0. 0. 0. 0. 0. 0. 0. 0. 0.
    0. 0. 0. 0. 0. 0. 0. 0. 0. 0. 0. 0. 0. 0. 0. 0. 0. 0. 0. 0. 0. 0. 0.
    0. 0. 0. 0. 0. 0. 0. 0. 0. 0. 0. 0. 0. 0. 0. 0. 0. 0. 0. 0. 0. 0. 0.
    0. 0. 0. 0. 0. 0. 0. 0. 0. 0. 0. 0. 0. 0. 0. 0. 0. 0. 0. 0. 0. 0. 0.
    0. 0. 0. 0. 0. 0. 0. 0. 0. 0. 0. 0. 0. 0. 0. 0. 0. 0. 0. 0. 0. 0. 0.
    0. 0. 0. 0. 0. 0. 0. 0. 0. 0. 0. 0. 0. 0. 0. 0. 0. 0. 0. 0. 0. 0. 0.
    0. 0. 0. 0. 0. 0. 0. 0. 0. 0. 0. 0. 0. 0. 0. 0. 0. 0. 0. 0. 0. 0. 0.
    0. 0. 0. 0. 0. 0. 0. 0. 0. 0. 0. 0. 0. 0. 0. 0. 0. 0. 0. 0. 0. 0. 0.
    0. 0. 0. 0. 0. 0. 0. 0. 0. 0. 0. 0. 0. 0. 0. 0. 0. 0. 0. 0. 0. 0. 0.
    0. 0. 0. 0. 0. 0. 0. 0. 0. 0. 0. 0. 0. 0. 0. 0. 0. 0. 0. 0. 0. 0. 0.
    0. 0. 0. 0. 0. 0. 0. 0. 0. 0. 0. 0. 0. 0. 0. 0. 0. 0. 0. 0. 0. 0. 0.
    0. 0. 0. 0. 0. 0. 0. 0. 0. 0. 0. 0. 0. 0. 0. 0. 0. 0. 0. 0. 0. 0. 0.</data></Depth>
</opencv_storage>
