<?xml version="1.0"?>
<opencv_storage>
<Depth type_id="opencv-matrix">
  <rows>40</rows>
  <cols>40</cols>
  <dt>f</dt>
  <data>
    0. 0. 0. 0. 0. 0. 0. 0. 0. 0. 0. 0. 0. 0. 0. 0. 0. 0. 2.07399988e+00
    2.07900000e+00 2.07900000e+00 2.06100011e+00 2.01200008e+00
    2.01699996e+00 2.00500011e+00 2.00600004e+00 2.01099992e+00
    1.20500004e+00 0. 0. 0. 0. 0. 0. 0. 0. 0. 0. 0. 0. 0. 0. 0. 0. 0. 0.
    0. 0. 0. 0. 0. 0. 0. 0. 0. 2.29299998e+00 2.06500006e+00
    2.06299996e+00 2.03699994e+00 2.03500009e+00 2.00799990e+00
    1.99800003e+00 1.99699998e+00 2. 2.00500011e+00 2.00799990e+00
    2.01200008e+00 1.37800002e+00 1.15100002e+00 0. 0. 0. 0. 0. 0. 0. 0.
    0. 0. 0. 0. 0. 0. 0. 0. 0. 0. 0. 0. 0. 0. 0. 0. 0. 2.05100012e+00
    2.05500007e+00 2.05699992e+00 1.99399996e+00 1.99300003e+00
    1.98800004e+00 1.98800004e+00 1.99399996e+00 1.99600005e+00 2.
    2.00300002e+00 2.00699997e+00 2.01099992e+00 1.37800002e+00
    1.15100002e+00 0. 0. 0. 0. 0. 0. 0. 0. 0. 0. 0. 0. 0. 0. 0. 0. 0. 0.
    0. 0. 0. 2.68600011e+00 2.03999996e+00 2.03900003e+00 2.02900004e+00
    1.98699999e+00 1.98599994e+00 1.98500001e+00 1.98099995e+00
    1.98099995e+00 1.98899996e+00 1.99000001e+00 1.99399996e+00
    1.99699998e+00 2. 2.00500011e+00 2.00799990e+00 2.01099992e+00
    2.01300001e+00 1.15100002e+00 0. 0. 0. 0. 0. 0. 0. 0. 0. 0. 0. 0. 0.
    0. 0. 0. 0. 0. 0. 2.03600001e+00 2.02699995e+00 2.02300000e+00
    2.01399994e+00 1.97399998e+00 1.96399999e+00 1.96700001e+00
    1.97399998e+00 1.97800004e+00 1.98000002e+00 1.98099995e+00
    1.99000001e+00 1.99000001e+00 1.99600005e+00 1.99800003e+00
    2.00200009e+00 2.00600004e+00 2.00999999e+00 2.01300001e+00
    2.01699996e+00 1.15100002e+00 0. 0. 0. 0. 0. 0. 0. 0. 0. 0. 0. 0. 0.
    0. 0. 0. 0. 1.96000004e+00 1.99600005e+00 2.01699996e+00
    2.00900006e+00 2.00300002e+00 1.96700001e+00 1.96599996e+00
    1.96700001e+00 1.97000003e+00 1.97200000e+00 1.97599995e+00
    1.98000002e+00 1.98300004e+00 1.98899996e+00 1.99100006e+00
    1.99399996e+00 1.99800003e+00 2.00099993e+00 2.00699997e+00
    2.00999999e+00 2.01300001e+00 2.01900005e+00 1.24199998e+00
    1.31200004e+00 0. 0. 0. 0. 0. 0. 0. 0. 0. 0. 0. 0. 0. 0.
    1.15100002e+00 1.46399999e+00 1.96099997e+00 1.96200001e+00
    1.98599994e+00 1.95500004e+00 1.96000004e+00 1.96200001e+00
    1.96399999e+00 1.96800005e+00 1.97099996e+00 1.97399998e+00
    1.97599995e+00 1.98000002e+00 1.98500001e+00 1.98899996e+00
    1.99300003e+00 1.99600005e+00 2. 2.00500011e+00 2.00699997e+00
    2.01099992e+00 2.01399994e+00 2.01999998e+00 2.02200007e+00
    1.15100002e+00 0. 0. 0. 0. 0. 0. 0. 0. 0. 0. 0. 0. 0. 0.
    1.17400002e+00 1.95899999e+00 1.94900000e+00 1.95299995e+00
    1.95400000e+00 1.95599997e+00 1.96000004e+00 1.96200001e+00
    1.96399999e+00 1.96800005e+00 1.97000003e+00 1.97200000e+00
    1.97800004e+00 1.98099995e+00 1.98599994e+00 1.99000001e+00
    1.99500000e+00 1.99800003e+00 2.00099993e+00 2.00500011e+00
    2.00699997e+00 2.01300001e+00 2.01500010e+00 2.02099991e+00
    2.02399993e+00 1.15100002e+00 0. 0. 0. 0. 0. 0. 0. 0. 0. 0. 0. 0. 0.
    0. 1.99800003e+00 1.96899998e+00 1.95000005e+00 1.95299995e+00
    1.95400000e+00 1.95599997e+00 1.96000004e+00 1.96200001e+00
    1.96500003e+00 1.97000003e+00 1.97200000e+00 1.97300005e+00
    1.97800004e+00 1.98199999e+00 1.98599994e+00 1.99000001e+00
    1.99300003e+00 1.99800003e+00 2. 2.00500011e+00 2.00799990e+00
    2.01200008e+00 2.01600003e+00 2.01999998e+00 2.02399993e+00
    1.15100002e+00 1.15100002e+00 0. 0. 0. 0. 0. 0. 0. 0. 0. 0. 0. 0. 0.
    1.19599998e+00 1.98500001e+00 1.95099998e+00 1.95200002e+00
    1.95400000e+00 1.95599997e+00 1.96000004e+00 1.96399999e+00
    1.96700001e+00 1.97000003e+00 1.97300005e+00 1.97500002e+00
    1.97899997e+00 1.98199999e+00 1.98599994e+00 1.99100006e+00
    1.99500000e+00 1.99800003e+00 2.00200009e+00 2.00500011e+00
    2.00900006e+00 2.01300001e+00 2.01699996e+00 2.02099991e+00
    2.02399993e+00 1.97599995e+00 1.15100002e+00 0. 0. 0. 0. 0. 0. 0. 0.
    0. 0. 0. 0. 0. 2.03699994e+00 1.99000001e+00 1.96500003e+00
    1.95400000e+00 1.95500004e+00 1.95799994e+00 1.96000004e+00
    1.96200001e+00 1.96700001e+00 1.97099996e+00 1.97399998e+00
    1.97700000e+00 1.98199999e+00 1.98399997e+00 1.98699999e+00
    1.99300003e+00 1.99500000e+00 2. 2.00200009e+00 2.00699997e+00
    2.01099992e+00 2.01399994e+00 2.01699996e+00 2.02200007e+00
    2.02399993e+00 2.02600002e+00 1.15100002e+00 2.27500010e+00 0. 0. 0.
    0. 0. 0. 0. 0. 0. 0. 0. 0. 2.03600001e+00 2.00999999e+00
    1.97599995e+00 1.95599997e+00 1.95599997e+00 1.96000004e+00
    1.96200001e+00 1.96399999e+00 1.97000003e+00 1.97099996e+00
    1.97300005e+00 1.97800004e+00 1.98199999e+00 1.98599994e+00
    1.98800004e+00 1.99399996e+00 1.99600005e+00 2. 2.00200009e+00
    2.00699997e+00 2.00999999e+00 2.01399994e+00 2.01900005e+00
    2.02200007e+00 2.02600002e+00 2.03099990e+00 1.15100002e+00
    1.15100002e+00 0. 0. 0. 0. 0. 0. 0. 0. 0. 0. 0. 0. 1.15100002e+00
    1.18099999e+00 1.99399996e+00 1.95599997e+00 1.95599997e+00
    1.96000004e+00 1.96200001e+00 1.96399999e+00 1.96899998e+00
    1.97099996e+00 1.97399998e+00 1.97800004e+00 1.98199999e+00
    1.98599994e+00 1.98800004e+00 1.99399996e+00 1.99600005e+00 2.
    2.00500011e+00 2.00699997e+00 2.00999999e+00 2.01500010e+00
    2.01999998e+00 2.02300000e+00 2.02600002e+00 2.02900004e+00
    2.03099990e+00 1.15100002e+00 2.77999997e+00 0. 0. 0. 0. 0. 0. 0. 0.
    0. 0. 0. 1.15100002e+00 2.03600001e+00 2.00600004e+00 1.97500002e+00
    1.95700002e+00 1.96099997e+00 1.96399999e+00 1.96500003e+00
    1.97000003e+00 1.97099996e+00 1.97500002e+00 1.97800004e+00
    1.98000002e+00 1.98599994e+00 1.98899996e+00 1.99399996e+00
    1.99699998e+00 2. 2.00200009e+00 2.00799990e+00 2.01300001e+00
    2.01500010e+00 2.02099991e+00 2.02300000e+00 2.02600002e+00
    2.03099990e+00 2.03299999e+00 1.15100002e+00 2.76600003e+00 0. 0. 0.
    0. 0. 0. 0. 0. 0. 0. 0. 1.15100002e+00 2.03999996e+00 2.01399994e+00
    1.98399997e+00 1.95899999e+00 1.96000004e+00 1.96399999e+00
    1.96800005e+00 1.97000003e+00 1.97200000e+00 1.97599995e+00
    1.98000002e+00 1.98199999e+00 1.98599994e+00 1.98899996e+00
    1.99399996e+00 1.99800003e+00 2.00200009e+00 2.00500011e+00
    2.00900006e+00 2.01300001e+00 2.01500010e+00 2.02200007e+00
    2.02300000e+00 2.02900004e+00 2.03099990e+00 2.03299999e+00
    1.15100002e+00 2.00099993e+00 0. 0. 0. 0. 0. 0. 0. 0. 0. 0. 0.
    1.15100002e+00 1.15100002e+00 2.02900004e+00 2.00500011e+00
    1.96700001e+00 1.96200001e+00 1.96399999e+00 1.96800005e+00
    1.97000003e+00 1.97200000e+00 1.97800004e+00 1.98199999e+00
    1.98399997e+00 1.98800004e+00 1.99199998e+00 1.99600005e+00
    1.99800003e+00 2.00200009e+00 2.00600004e+00 2.00799990e+00
    2.01399994e+00 2.01699996e+00 2.02099991e+00 2.02399993e+00
    2.02900004e+00 2.03099990e+00 2.03299999e+00 1.49899995e+00
    1.15100002e+00 0. 0. 0. 0. 0. 0. 0. 0. 0. 0. 0. 1.15100002e+00
    1.15100002e+00 1.15100002e+00 2.00500011e+00 1.97700000e+00
    1.96399999e+00 1.96399999e+00 1.96800005e+00 1.97200000e+00
    1.97399998e+00 1.97700000e+00 1.98199999e+00 1.98399997e+00
    1.98599994e+00 1.99199998e+00 1.99699998e+00 1.99899995e+00
    2.00399995e+00 2.00699997e+00 2.00699997e+00 2.01500010e+00
    2.01900005e+00 2.02200007e+00 2.02399993e+00 2.02900004e+00
    2.03299999e+00 2.03299999e+00 1.70899999e+00 1.15100002e+00 0. 0. 0.
    0. 0. 0. 0. 0. 0. 0. 0. 1.15100002e+00 1.15100002e+00 1.15100002e+00
    2.02300000e+00 1.98599994e+00 1.96399999e+00 1.96399999e+00
    1.96800005e+00 1.97200000e+00 1.97500002e+00 1.97800004e+00
    1.98199999e+00 1.98399997e+00 1.98800004e+00 1.99100006e+00
    1.99600005e+00 1.99899995e+00 2.00399995e+00 2.00699997e+00
    2.00900006e+00 2.01500010e+00 2.01699996e+00 2.02200007e+00
    2.02399993e+00 2.02900004e+00 2.03099990e+00 2.03600001e+00
    2.03900003e+00 1.15100002e+00 0. 0. 0. 0. 0. 0. 0. 0. 0. 0. 0.
    1.15100002e+00 1.15100002e+00 1.15100002e+00 2.03099990e+00
    2.00200009e+00 1.96599996e+00 1.96599996e+00 1.97000003e+00
    1.97200000e+00 1.97599995e+00 1.97800004e+00 1.98199999e+00
    1.98599994e+00 1.98800004e+00 1.99100006e+00 1.99699998e+00
    2.00200009e+00 2.00399995e+00 2.00699997e+00 2.01099992e+00
    2.01500010e+00 2.01900005e+00 2.02200007e+00 2.02399993e+00
    2.02999997e+00 2.03299999e+00 2.03600001e+00 2.03999996e+00
    1.61600006e+00 1.15100002e+00 0. 0. 0. 0. 0. 0. 0. 0. 0. 0. 0.
    1.15100002e+00 1.15100002e+00 1.64600003e+00 2.01699996e+00
    1.97800004e+00 1.96800005e+00 1.97000003e+00 1.97200000e+00
    1.97599995e+00 1.97899997e+00 1.98199999e+00 1.98599994e+00
    1.98899996e+00 1.99000001e+00 1.99699998e+00 2.00099993e+00
    2.00500011e+00 2.00699997e+00 2.01300001e+00 2.01500010e+00
    2.01799989e+00 2.02200007e+00 2.02399993e+00 2.03099990e+00
    2.03099990e+00 2.03699994e+00 2.04099989e+00 2.04200006e+00
    1.15100002e+00 0. 0. 0. 0. 0. 0. 0. 0. 0. 0. 0. 1.15100002e+00
    1.15100002e+00 1.64900005e+00 2.04099989e+00 1.98899996e+00
    1.97000003e+00 1.97000003e+00 1.97300005e+00 1.97700000e+00
    1.98000002e+00 1.98399997e+00 1.98699999e+00 1.99000001e+00
    1.99399996e+00 1.99699998e+00 2. 2.00500011e+00 2.00799990e+00
    2.01099992e+00 2.01500010e+00 2.01900005e+00 2.02300000e+00
    2.02600002e+00 2.03099990e+00 2.03299999e+00 2.03800011e+00
    2.03999996e+00 2.04200006e+00 1.15100002e+00 0. 0. 0. 0. 0. 0. 0. 0.
    0. 0. 0. 1.15100002e+00 1.15100002e+00 1.15100002e+00 2.04800010e+00
    2.00200009e+00 1.97399998e+00 1.97200000e+00 1.97500002e+00
    1.97800004e+00 1.98099995e+00 1.98399997e+00 1.98800004e+00
    1.99000001e+00 1.99399996e+00 1.99899995e+00 2.00300002e+00
    2.00699997e+00 2.00900006e+00 2.01300001e+00 2.01600003e+00
    2.01999998e+00 2.02399993e+00 2.02800012e+00 2.03099990e+00
    2.03399992e+00 2.03600001e+00 2.03999996e+00 2.04500008e+00
    1.15100002e+00 1.15100002e+00 0. 0. 0. 0. 0. 0. 0. 0. 0. 0. 0.
    1.15100002e+00 1.15100002e+00 2.05200005e+00 2.03099990e+00
    1.99100006e+00 1.97200000e+00 1.97500002e+00 1.97800004e+00
    1.98099995e+00 1.98599994e+00 1.98800004e+00 1.99000001e+00
    1.99600005e+00 1.99899995e+00 2.00500011e+00 2.00699997e+00
    2.00900006e+00 2.01300001e+00 2.01799989e+00 2.02200007e+00
    2.02399993e+00 2.02900004e+00 2.03299999e+00 2.03299999e+00
    2.03800011e+00 2.04099989e+00 2.04500008e+00 1.88600004e+00
    1.15100002e+00 0. 0. 0. 0. 0. 0. 0. 0. 0. 0. 0. 1.15100002e+00
    1.15100002e+00 1.15100002e+00 2.03999996e+00 1.99600005e+00
    1.97599995e+00 1.97599995e+00 1.97899997e+00 1.98199999e+00
    1.98599994e+00 1.99000001e+00 1.99199998e+00 1.99399996e+00
    1.99899995e+00 2.00600004e+00 2.00699997e+00 2.01099992e+00
    2.01300001e+00 2.01900005e+00 2.02099991e+00 2.02399993e+00
    2.02900004e+00 2.03099990e+00 2.03299999e+00 2.03800011e+00
    2.04200006e+00 2.04399991e+00 2.04900002e+00 1.15100002e+00 0. 0. 0.
    0. 0. 0. 0. 0. 0. 0. 0. 0. 1.15100002e+00 1.15100002e+00
    2.05299997e+00 2.01500010e+00 1.98099995e+00 1.97599995e+00
    1.97899997e+00 1.98199999e+00 1.98599994e+00 1.98800004e+00
    1.99199998e+00 1.99500000e+00 1.99899995e+00 2.00600004e+00
    2.00699997e+00 2.01099992e+00 2.01500010e+00 2.01900005e+00
    2.02099991e+00 2.02500010e+00 2.02900004e+00 2.03299999e+00
    2.03600001e+00 2.03999996e+00 2.04299998e+00 2.04699993e+00
    2.04900002e+00 2.04699993e+00 1.16999996e+00 0. 0. 0. 0. 0. 0. 0. 0.
    0. 0. 0. 1.15100002e+00 1.15100002e+00 2.04900002e+00 2.00699997e+00
    1.99899995e+00 1.98000002e+00 1.98000002e+00 1.98199999e+00
    1.98599994e+00 1.98800004e+00 1.99399996e+00 1.99699998e+00 2.
    2.00600004e+00 2.00999999e+00 2.01300001e+00 2.01500010e+00
    2.01900005e+00 2.02200007e+00 2.02800012e+00 2.03099990e+00
    2.03299999e+00 2.03800011e+00 2.03999996e+00 2.04200006e+00
    2.04699993e+00 2.05100012e+00 2.05399990e+00 0. 0. 0. 0. 0. 0. 0. 0.
    0. 0. 0. 0. 1.15100002e+00 1.15100002e+00 1.15100002e+00
    2.04800010e+00 2.00699997e+00 1.98099995e+00 1.98099995e+00
    1.98500001e+00 1.98800004e+00 1.98800004e+00 1.99399996e+00
    1.99699998e+00 2.00300002e+00 2.00699997e+00 2.00900006e+00
    2.01300001e+00 2.01500010e+00 2.01900005e+00 2.02300000e+00
    2.02699995e+00 2.03099990e+00 2.03299999e+00 2.03800011e+00
    2.04099989e+00 2.04200006e+00 2.04800010e+00 2.05100012e+00
    2.05900002e+00 1.73399997e+00 0. 0. 0. 0. 0. 0. 0. 0. 0. 0. 0. 0.
    1.15100002e+00 1.15100002e+00 2.04999995e+00 2.02600002e+00
    1.98399997e+00 1.98199999e+00 1.98500001e+00 1.98800004e+00
    1.99199998e+00 1.99399996e+00 1.99800003e+00 2.00500011e+00
    2.00699997e+00 2.00900006e+00 2.01300001e+00 2.01900005e+00
    2.02200007e+00 2.02300000e+00 2.02699995e+00 2.03099990e+00
    2.03399992e+00 2.03800011e+00 2.03999996e+00 2.04399991e+00
    2.04900002e+00 2.05100012e+00 2.05999994e+00 1.63900006e+00 0. 0. 0.
    0. 0. 0. 0. 0. 0. 0. 0. 0. 1.63900006e+00 1.15100002e+00
    2.06500006e+00 2.05200005e+00 2.00500011e+00 1.98500001e+00
    1.98599994e+00 1.98800004e+00 1.99000001e+00 1.99600005e+00
    1.99899995e+00 2.00600004e+00 2.00799990e+00 2.00999999e+00
    2.01500010e+00 2.01799989e+00 2.02200007e+00 2.02399993e+00
    2.02800012e+00 2.03200006e+00 2.03299999e+00 2.03999996e+00
    2.04200006e+00 2.04600000e+00 2.04900002e+00 2.05299997e+00
    2.05999994e+00 2.05900002e+00 0. 0. 0. 0. 0. 0. 0. 0. 0. 0. 0. 0. 0.
    1.15100002e+00 2.07900000e+00 2.04699993e+00 2.01300001e+00
    1.98800004e+00 1.98699999e+00 1.98899996e+00 1.99399996e+00
    1.99600005e+00 2.00099993e+00 2.00600004e+00 2.00799990e+00
    2.01300001e+00 2.01500010e+00 2.01799989e+00 2.02200007e+00
    2.02399993e+00 2.02900004e+00 2.03099990e+00 2.03299999e+00
    2.03999996e+00 2.04299998e+00 2.04699993e+00 2.05200005e+00
    2.05399990e+00 2.05699992e+00 2.06399989e+00 0. 0. 0. 0. 0. 0. 0. 0.
    2.50500011e+00 0. 0. 0. 0. 1.46500003e+00 1.15100002e+00
    2.07399988e+00 2.03299999e+00 1.99399996e+00 1.98800004e+00
    1.99199998e+00 1.99399996e+00 1.99600005e+00 2.00099993e+00
    2.00600004e+00 2.00799990e+00 2.01300001e+00 2.01500010e+00
    2.01999998e+00 2.02399993e+00 2.02500010e+00 2.02999997e+00
    2.03200006e+00 2.03600001e+00 2.04200006e+00 2.04500008e+00
    2.04900002e+00 2.05200005e+00 2.05500007e+00 2.06900001e+00 0. 0. 0.
    0. 0. 0. 0. 0. 0. 2.48799992e+00 2.48799992e+00 0. 0. 0.
    1.46399999e+00 1.15100002e+00 1.15100002e+00 2.04900002e+00
    2.00699997e+00 1.99000001e+00 1.99199998e+00 1.99600005e+00
    1.99800003e+00 2.00200009e+00 2.00699997e+00 2.00999999e+00
    2.01500010e+00 2.01500010e+00 2.01999998e+00 2.02399993e+00
    2.02600002e+00 2.03099990e+00 2.03500009e+00 2.03800011e+00
    2.04200006e+00 2.04699993e+00 2.04900002e+00 2.04999995e+00
    2.16799998e+00 0. 0. 0. 0. 0. 0. 0. 0. 0. 0. 2.48300004e+00
    2.47300005e+00 2.46499991e+00 2.46600008e+00 0. 2.77699995e+00
    1.15100002e+00 1.15100002e+00 2.05800009e+00 2.01799989e+00
    1.99300003e+00 1.99399996e+00 1.99500000e+00 1.99899995e+00
    2.00399995e+00 2.00799990e+00 2.01099992e+00 2.01500010e+00
    2.01799989e+00 2.02200007e+00 2.02399993e+00 2.02699995e+00
    2.03099990e+00 2.03500009e+00 2.03999996e+00 2.04099989e+00
    2.04900002e+00 2.04900002e+00 2.76600003e+00 0. 0. 0. 0. 0. 0. 0. 0.
    0. 0. 0. 2.48600006e+00 2.46900010e+00 2.45000005e+00 2.44600010e+00
    2.44099998e+00 1.15100002e+00 1.15100002e+00 1.15100002e+00
    2.07999992e+00 2.03800011e+00 1.99600005e+00 1.99399996e+00
    1.99800003e+00 2. 2.00500011e+00 2.00699997e+00 2.00999999e+00
    2.01600003e+00 2.01799989e+00 2.02200007e+00 2.02399993e+00
    2.02699995e+00 2.03200006e+00 2.03500009e+00 2.03999996e+00
    2.03999996e+00 2.66100001e+00 0. 0. 0. 0. 0. 0. 0. 0. 0. 0. 0. 0. 0.
    2.47300005e+00 2.46700001e+00 2.44300008e+00 2.42799997e+00
    2.42400002e+00 2.02300000e+00 1.15100002e+00 1.15100002e+00
    1.15100002e+00 1.46800005e+00 2.01500010e+00 1.99600005e+00
    1.99800003e+00 2. 2.00300002e+00 2.00999999e+00 2.01300001e+00
    2.01500010e+00 2.01900005e+00 2.02200007e+00 2.02500010e+00
    2.02999997e+00 2.03099990e+00 2.09800005e+00 2.06100011e+00
    2.06100011e+00 0. 0. 0. 0. 0. 0. 0. 0. 0. 0. 0. 0. 0. 0.
    2.47700000e+00 2.46199989e+00 2.44700003e+00 2.43300009e+00
    2.40599990e+00 2.39800000e+00 2.38599992e+00 1.96200001e+00
    1.15100002e+00 1.15100002e+00 2.02300000e+00 1.99899995e+00 2. 2.
    2.00300002e+00 2.00799990e+00 2.01099992e+00 2.01699996e+00
    2.02200007e+00 2.02399993e+00 2.02600002e+00 2.11899996e+00
    2.12899995e+00 2.12500000e+00 2.06599998e+00 2.06599998e+00
    2.13800001e+00 0. 2.99900007e+00 2.96799994e+00 2.95799994e+00
    2.95700002e+00 0. 0. 0. 0. 0. 0. 0. 0. 1.20000005e+00 2.46499991e+00
    2.43700004e+00 2.41899991e+00 2.40400004e+00 2.38800001e+00
    2.38299990e+00 2.37800002e+00 1.91700006e+00 1.15100002e+00
    1.73699999e+00 2.00500011e+00 2.00200009e+00 2.00200009e+00
    2.00300002e+00 2.00900006e+00 2.01399994e+00 2.01900005e+00
    2.02200007e+00 2.02399993e+00 2.12899995e+00 2.12299991e+00
    2.11599994e+00 2.10999990e+00 2.07299995e+00 2.06900001e+00
    2.08699989e+00 2.07599998e+00 2.08699989e+00 2.44300008e+00
    2.93600011e+00 2.92700005e+00 0. 0. 0. 0. 0. 0. 0. 0. 2.37299991e+00
    2.37899995e+00 2.39599991e+00 2.40100002e+00 2.40599990e+00
    2.39299989e+00 2.36999989e+00 2.36400008e+00 2.35500002e+00
    2.35500002e+00 2.34800005e+00 2.00900006e+00 2. 2.00200009e+00
    2.00500011e+00 2.00900006e+00 2.01399994e+00 2.03200006e+00
    2.11500001e+00 2.04900002e+00 2.10999990e+00 2.10599995e+00
    2.09800005e+00 2.09100008e+00 2.08100009e+00 2.06900001e+00
    2.06900001e+00 2.06699991e+00 2.05699992e+00 2.39599991e+00
    2.40899992e+00 2.84200001e+00 0. 0. 0. 0. 0. 0. 0. 0. 2.36400008e+00
    2.37599993e+00 2.38899994e+00 2.40000010e+00 2.40100002e+00
    2.39100003e+00 2.37800002e+00 2.36100006e+00 2.34200001e+00
    2.33800006e+00 2.33500004e+00 2.02600002e+00 2.00500011e+00
    2.00500011e+00 2.00600004e+00 2.02200007e+00 2.11400008e+00
    2.11199999e+00 2.10100007e+00 2.07999992e+00 2.05999994e+00
    2.08500004e+00 2.07999992e+00 2.07399988e+00 2.06500006e+00
    2.06299996e+00 2.05800009e+00 2.04800010e+00 2.04699993e+00
    2.05100012e+00 2.34999990e+00 2.39700007e+00 0. 0. 0. 0. 0. 0. 0. 0.
    2.36500001e+00 2.74699998e+00 2.75600004e+00 0. 2.39800000e+00
    2.38700008e+00 2.37199998e+00 2.36199999e+00 2.33899999e+00
    2.32299995e+00 2.31800008e+00 2.31800008e+00 2.00799990e+00
    2.00500011e+00 1.62899995e+00 2.11599994e+00 2.10200000e+00
    2.09100008e+00 2.08299994e+00 2.07500005e+00 2.05399990e+00
    2.06299996e+00 2.05900002e+00 2.05699992e+00 2.04999995e+00
    2.04699993e+00 2.04099989e+00 2.04299998e+00 2.04699993e+00
    2.05100012e+00 2.05200005e+00 2.40199995e+00 0. 0. 0. 0.</data></Depth>
</opencv_storage>
