<?xml version="1.0"?>
<opencv_storage>
<Depth type_id="opencv-matrix">
  <rows>40</rows>
  <cols>40</cols>
  <dt>f</dt>
  <data>
    0. 0. 0. 0. 0. 0. 0. 1.10599995e+00 1.98800004e+00 1.98800004e+00
    1.98800004e+00 1.98800004e+00 1.98800004e+00 1.98599994e+00
    1.98599994e+00 1.98599994e+00 1.98599994e+00 1.98800004e+00
    1.98599994e+00 1.98599994e+00 1.98599994e+00 1.98599994e+00
    1.98800004e+00 1.98599994e+00 1.98599994e+00 1.98800004e+00
    1.98800004e+00 1.98599994e+00 1.98599994e+00 1.98800004e+00
    1.10599995e+00 1.10599995e+00 0. 0. 0. 0. 0. 0. 0. 0. 0. 0. 0. 0. 0.
    0. 0. 1.10599995e+00 1.98800004e+00 1.98800004e+00 1.98800004e+00
    1.98800004e+00 1.98800004e+00 1.98599994e+00 1.98599994e+00
    1.98599994e+00 1.98599994e+00 1.98800004e+00 1.98800004e+00
    1.98599994e+00 1.98599994e+00 1.98800004e+00 1.98800004e+00
    1.98800004e+00 1.98800004e+00 1.98800004e+00 1.98800004e+00
    1.98800004e+00 1.98599994e+00 1.98599994e+00 1.10599995e+00
    1.10599995e+00 0. 0. 0. 0. 0. 0. 0. 0. 0. 0. 0. 0. 0. 0. 0.
    1.10599995e+00 1.98800004e+00 1.99100006e+00 1.98800004e+00
    1.98800004e+00 1.98599994e+00 1.98599994e+00 1.98800004e+00
    1.98599994e+00 1.98599994e+00 1.98800004e+00 1.98800004e+00
    1.98800004e+00 1.98599994e+00 1.98800004e+00 1.98800004e+00
    1.98800004e+00 1.98800004e+00 1.98800004e+00 1.98800004e+00
    1.98800004e+00 1.98800004e+00 1.98800004e+00 1.98599994e+00
    1.10599995e+00 0. 0. 0. 0. 0. 0. 0. 0. 0. 0. 0. 0. 0. 0. 0.
    1.10599995e+00 1.99100006e+00 1.98800004e+00 1.99100006e+00
    1.98800004e+00 1.98599994e+00 1.98800004e+00 1.98800004e+00
    1.98800004e+00 1.98599994e+00 1.98800004e+00 1.98800004e+00
    1.98800004e+00 1.98599994e+00 1.98800004e+00 1.98800004e+00
    1.98800004e+00 1.98800004e+00 1.98800004e+00 1.98800004e+00
    1.98800004e+00 1.98800004e+00 1.98800004e+00 1.10599995e+00
    1.10599995e+00 0. 0. 0. 0. 0. 0. 0. 0. 0. 0. 0. 0. 0. 0. 0.
    1.10599995e+00 1.99100006e+00 1.99100006e+00 1.99100006e+00
    1.99100006e+00 1.98800004e+00 1.98800004e+00 1.98599994e+00
    1.98800004e+00 1.98800004e+00 1.98800004e+00 1.98800004e+00
    1.99100006e+00 1.98800004e+00 1.99100006e+00 1.98800004e+00
    1.98800004e+00 1.98800004e+00 1.98800004e+00 1.98800004e+00
    1.98800004e+00 1.98800004e+00 1.98800004e+00 1.10599995e+00
    1.10599995e+00 0. 0. 0. 0. 0. 0. 0. 0. 0. 0. 0. 0. 0. 0. 0.
    1.10599995e+00 1.99100006e+00 1.99300003e+00 1.99100006e+00
    1.99100006e+00 1.99100006e+00 1.98800004e+00 1.98800004e+00
    1.98800004e+00 1.98800004e+00 1.99100006e+00 1.99100006e+00
    1.98800004e+00 1.99100006e+00 1.99100006e+00 1.99100006e+00
    1.99100006e+00 1.98800004e+00 1.98800004e+00 1.99100006e+00
    1.98800004e+00 1.98800004e+00 1.98800004e+00 1.10599995e+00
    1.10599995e+00 0. 0. 0. 0. 0. 0. 0. 0. 0. 0. 0. 0. 0. 0. 0.
    1.10599995e+00 1.99300003e+00 1.99300003e+00 1.99100006e+00
    1.99100006e+00 1.98800004e+00 1.98800004e+00 1.98800004e+00
    1.98800004e+00 1.98800004e+00 1.99100006e+00 1.99100006e+00
    1.99100006e+00 1.99100006e+00 1.99300003e+00 1.99300003e+00
    1.99100006e+00 1.99300003e+00 1.99300003e+00 1.99100006e+00
    1.99100006e+00 1.99100006e+00 1.99100006e+00 1.99100006e+00
    1.10599995e+00 0. 0. 0. 0. 0. 0. 0. 0. 0. 0. 0. 0. 0. 0. 0.
    1.99300003e+00 1.99300003e+00 1.99300003e+00 1.99100006e+00
    1.99100006e+00 1.99100006e+00 1.99100006e+00 1.99100006e+00
    1.99100006e+00 1.99100006e+00 1.99300003e+00 1.99100006e+00
    1.99100006e+00 1.98800004e+00 1.99300003e+00 1.99100006e+00
    1.99100006e+00 1.99100006e+00 1.99100006e+00 1.99100006e+00
    1.99300003e+00 1.99300003e+00 1.99100006e+00 1.99100006e+00
    1.10599995e+00 0. 0. 0. 0. 0. 0. 0. 0. 0. 0. 0. 0. 0. 0. 0.
    1.99500000e+00 1.99300003e+00 1.99300003e+00 1.99300003e+00
    1.99300003e+00 1.99300003e+00 1.99100006e+00 1.99100006e+00
    1.99100006e+00 1.99100006e+00 1.99300003e+00 1.99100006e+00
    1.99100006e+00 1.99100006e+00 1.99300003e+00 1.99300003e+00
    1.99100006e+00 1.99100006e+00 1.99300003e+00 1.99100006e+00
    1.99100006e+00 1.99300003e+00 1.99100006e+00 1.98800004e+00
    1.10599995e+00 0. 0. 0. 0. 0. 0. 0. 0. 0. 0. 0. 0. 0. 0. 0.
    1.99500000e+00 1.99500000e+00 1.99300003e+00 1.99300003e+00
    1.99300003e+00 1.99300003e+00 1.99300003e+00 1.99300003e+00
    1.99100006e+00 1.99300003e+00 1.99300003e+00 1.99500000e+00
    1.99300003e+00 1.99300003e+00 1.99300003e+00 1.99500000e+00
    1.99300003e+00 1.99300003e+00 1.99100006e+00 1.99100006e+00
    1.99300003e+00 1.99100006e+00 1.99300003e+00 1.99300003e+00
    1.10599995e+00 0. 0. 0. 0. 0. 0. 0. 0. 0. 0. 0. 0. 0. 0. 0.
    1.99500000e+00 1.99500000e+00 1.99300003e+00 1.99300003e+00
    1.99300003e+00 1.99300003e+00 1.99300003e+00 1.99300003e+00
    1.99300003e+00 1.99300003e+00 1.99500000e+00 1.99500000e+00
    1.99300003e+00 1.99300003e+00 1.99300003e+00 1.99500000e+00
    1.99500000e+00 1.99500000e+00 1.99300003e+00 1.99300003e+00
    1.99300003e+00 1.99100006e+00 1.99300003e+00 1.99300003e+00
    1.10599995e+00 0. 0. 0. 0. 0. 0. 0. 0. 0. 0. 0. 0. 0. 0. 0.
    1.99500000e+00 1.99300003e+00 1.99500000e+00 1.99500000e+00
    1.99300003e+00 1.99300003e+00 1.99300003e+00 1.99300003e+00
    1.99300003e+00 1.99300003e+00 1.99500000e+00 1.99500000e+00
    1.99500000e+00 1.99500000e+00 1.99500000e+00 1.99500000e+00
    1.99500000e+00 1.99500000e+00 1.99500000e+00 1.99500000e+00
    1.99300003e+00 1.99500000e+00 1.99500000e+00 1.99300003e+00
    1.10599995e+00 0. 0. 0. 0. 0. 0. 0. 0. 0. 0. 0. 0. 0. 0. 0.
    1.99500000e+00 1.99500000e+00 1.99500000e+00 1.99300003e+00
    1.99300003e+00 1.99300003e+00 1.99300003e+00 1.99300003e+00
    1.99300003e+00 1.99500000e+00 1.99500000e+00 1.99500000e+00
    1.99500000e+00 1.99500000e+00 1.99500000e+00 1.99500000e+00
    1.99500000e+00 1.99500000e+00 1.99500000e+00 1.99500000e+00
    1.99500000e+00 1.99500000e+00 1.99500000e+00 1.99300003e+00
    1.10599995e+00 0. 0. 0. 0. 0. 0. 0. 0. 0. 0. 0. 0. 0. 0. 0.
    1.99500000e+00 1.99699998e+00 1.99500000e+00 1.99500000e+00
    1.99300003e+00 1.99300003e+00 1.99300003e+00 1.99300003e+00
    1.99300003e+00 1.99500000e+00 1.99500000e+00 1.99699998e+00
    1.99699998e+00 1.99500000e+00 1.99500000e+00 1.99699998e+00
    1.99500000e+00 1.99500000e+00 1.99500000e+00 1.99500000e+00
    1.99500000e+00 1.99500000e+00 1.99500000e+00 1.99100006e+00
    1.10599995e+00 0. 0. 0. 0. 0. 0. 0. 0. 0. 0. 0. 0. 0. 0. 0.
    1.99699998e+00 1.99699998e+00 1.99699998e+00 1.99500000e+00
    1.99500000e+00 1.99500000e+00 1.99500000e+00 1.99500000e+00
    1.99300003e+00 1.99500000e+00 1.99500000e+00 1.99500000e+00
    1.99500000e+00 1.99699998e+00 1.99500000e+00 1.99699998e+00
    1.99500000e+00 1.99500000e+00 1.99500000e+00 1.99500000e+00
    1.99500000e+00 1.99500000e+00 1.99500000e+00 1.99500000e+00
    1.10599995e+00 0. 0. 0. 0. 0. 0. 0. 0. 0. 0. 0. 0. 0. 0. 0. 2.
    1.99699998e+00 1.99500000e+00 1.99500000e+00 1.99500000e+00
    1.99500000e+00 1.99500000e+00 1.99500000e+00 1.99500000e+00
    1.99500000e+00 1.99699998e+00 1.99699998e+00 1.99699998e+00
    1.99500000e+00 1.99699998e+00 1.99699998e+00 1.99699998e+00
    1.99699998e+00 1.99500000e+00 1.99500000e+00 1.99699998e+00
    1.99699998e+00 1.99500000e+00 1.99300003e+00 1.10599995e+00 0. 0. 0.
    0. 0. 0. 0. 0. 0. 0. 0. 0. 0. 0. 0. 2.00200009e+00 1.99699998e+00
    1.99699998e+00 1.99500000e+00 1.99699998e+00 1.99500000e+00
    1.99500000e+00 1.99500000e+00 1.99500000e+00 1.99500000e+00
    1.99699998e+00 1.99699998e+00 1.99699998e+00 1.99699998e+00
    1.99699998e+00 1.99699998e+00 1.99699998e+00 1.99699998e+00
    1.99699998e+00 1.99699998e+00 1.99699998e+00 1.99699998e+00
    1.99500000e+00 1.99300003e+00 1.10599995e+00 0. 0. 0. 0. 0. 0. 0. 0.
    0. 0. 0. 0. 0. 0. 0. 2.00200009e+00 1.99699998e+00 1.99699998e+00
    1.99699998e+00 1.99699998e+00 1.99500000e+00 1.99500000e+00
    1.99500000e+00 1.99500000e+00 1.99500000e+00 2. 1.99699998e+00
    1.99699998e+00 1.99699998e+00 1.99500000e+00 1.99699998e+00
    1.99699998e+00 1.99500000e+00 1.99699998e+00 1.99699998e+00
    1.99699998e+00 1.99500000e+00 1.99500000e+00 1.99500000e+00
    1.10599995e+00 0. 0. 0. 0. 0. 0. 0. 0. 0. 0. 0. 0. 0. 0. 0.
    1.99699998e+00 1.99699998e+00 2.00200009e+00 1.99699998e+00
    1.99699998e+00 1.99699998e+00 1.99500000e+00 1.99500000e+00
    1.99500000e+00 1.99699998e+00 2. 1.99699998e+00 1.99699998e+00
    1.99699998e+00 1.99500000e+00 1.99699998e+00 1.99699998e+00
    1.99699998e+00 1.99699998e+00 1.99500000e+00 1.99699998e+00
    1.99699998e+00 1.99500000e+00 1.99500000e+00 1.10599995e+00 0. 0. 0.
    0. 0. 0. 0. 0. 0. 0. 0. 0. 0. 0. 0. 2.00399995e+00 2. 2.
    1.99699998e+00 1.99699998e+00 1.99699998e+00 1.99699998e+00
    1.99500000e+00 1.99500000e+00 1.99699998e+00 2. 1.99699998e+00
    1.99699998e+00 1.99699998e+00 1.99500000e+00 1.99699998e+00
    1.99699998e+00 1.99500000e+00 1.99699998e+00 1.99500000e+00
    1.99699998e+00 1.99699998e+00 1.99500000e+00 1.99699998e+00
    1.10599995e+00 0. 0. 0. 0. 0. 0. 0. 0. 0. 0. 0. 0. 0. 0. 0.
    2.00200009e+00 2. 1.99699998e+00 1.99699998e+00 2. 2. 2.
    1.99699998e+00 1.99699998e+00 1.99699998e+00 2. 2. 2. 1.99699998e+00
    1.99699998e+00 1.99699998e+00 1.99699998e+00 1.99699998e+00
    1.99699998e+00 1.99699998e+00 1.99699998e+00 1.99699998e+00
    1.99699998e+00 1.99500000e+00 1.10599995e+00 0. 0. 0. 0. 0. 0. 0. 0.
    0. 0. 0. 0. 0. 0. 0. 2.00200009e+00 2. 2.00200009e+00 2. 2. 2.
    1.99699998e+00 1.99699998e+00 1.99699998e+00 2. 2. 2. 2. 2.
    1.99699998e+00 1.99699998e+00 1.99699998e+00 1.99699998e+00
    1.99699998e+00 1.99699998e+00 1.99699998e+00 1.99699998e+00
    1.99699998e+00 1.99500000e+00 1.10599995e+00 0. 0. 0. 0. 0. 0. 0. 0.
    0. 0. 0. 0. 0. 0. 0. 2.00399995e+00 2.00200009e+00 2.00200009e+00 2.
    2. 2. 2.00200009e+00 2. 1.99699998e+00 2. 2.00200009e+00
    2.00200009e+00 2.00200009e+00 2. 1.99699998e+00 2. 1.99699998e+00 2.
    1.99699998e+00 2. 1.99699998e+00 1.99699998e+00 1.99500000e+00
    1.99500000e+00 1.99699998e+00 0. 0. 0. 0. 0. 0. 0. 0. 0. 0. 0. 0. 0.
    0. 0. 2.00399995e+00 2.00200009e+00 2.00200009e+00 2.00200009e+00 2.
    2. 2. 2. 2.00200009e+00 1.99699998e+00 2.00200009e+00 2.00200009e+00
    2.00200009e+00 2.00200009e+00 2. 2. 2. 2.00200009e+00 2.
    1.99699998e+00 1.99699998e+00 1.99699998e+00 1.99500000e+00
    1.99500000e+00 1.99699998e+00 0. 0. 0. 0. 0. 0. 0. 0. 0. 0. 0. 0. 0.
    0. 0. 1.10599995e+00 2.00200009e+00 2.00200009e+00 2.00200009e+00
    2.00200009e+00 2.00200009e+00 2.00200009e+00 2. 2.00200009e+00 2.
    2.00200009e+00 2.00200009e+00 2.00200009e+00 2.00200009e+00 2. 2. 2.
    1.99699998e+00 2. 2. 1.99699998e+00 1.99699998e+00 1.99699998e+00
    1.99699998e+00 1.99500000e+00 0. 0. 0. 0. 0. 0. 0. 0. 0. 0. 0. 0. 0.
    0. 0. 1.10599995e+00 2.00399995e+00 2.00200009e+00 2.00200009e+00
    2.00200009e+00 2.00200009e+00 2. 2. 2.00200009e+00 2.00200009e+00
    2.00399995e+00 2. 2.00399995e+00 2.00200009e+00 2.00200009e+00
    2.00200009e+00 2. 1.99699998e+00 2. 2. 2. 1.99699998e+00 2.
    1.99699998e+00 2.00399995e+00 0. 0. 0. 0. 0. 0. 0. 0. 0. 0. 0. 0. 0.
    0. 0. 1.10599995e+00 2.00399995e+00 2.00200009e+00 2.00399995e+00
    2.00200009e+00 2.00200009e+00 2.00200009e+00 2.00200009e+00
    2.00200009e+00 2.00200009e+00 2.00399995e+00 2.00200009e+00
    2.00200009e+00 2.00399995e+00 2.00200009e+00 2.00200009e+00
    2.00200009e+00 2.00200009e+00 1.99699998e+00 2.00200009e+00
    2.00200009e+00 2. 2. 2. 1.99699998e+00 0. 0. 0. 0. 0. 0. 0. 0. 0. 0.
    0. 0. 0. 0. 0. 1.10599995e+00 2.00200009e+00 2.00200009e+00
    2.00200009e+00 2.00399995e+00 2.00200009e+00 2.00200009e+00
    2.00200009e+00 2.00200009e+00 2.00200009e+00 2.00399995e+00
    2.00399995e+00 2.00399995e+00 2.00399995e+00 2.00200009e+00
    2.00200009e+00 2. 2. 2. 2.00200009e+00 2.00200009e+00 2. 2.
    1.99699998e+00 2. 0. 0. 0. 0. 0. 0. 0. 0. 0. 0. 0. 0. 0. 0. 0.
    1.10599995e+00 2.00399995e+00 2.00399995e+00 2.00200009e+00
    2.00200009e+00 2.00399995e+00 2.00200009e+00 2.00200009e+00
    2.00200009e+00 2.00200009e+00 2.00699997e+00 2.00399995e+00
    2.00399995e+00 2.00399995e+00 2.00200009e+00 2.00200009e+00
    2.00200009e+00 2.00200009e+00 2.00200009e+00 2.00399995e+00
    2.00200009e+00 2.00200009e+00 2. 2. 2. 0. 0. 0. 0. 0. 0. 0. 0. 0. 0.
    0. 0. 0. 0. 0. 1.10599995e+00 2.00399995e+00 2.00399995e+00
    2.00399995e+00 2.00399995e+00 2.00399995e+00 2.00200009e+00
    2.00200009e+00 2.00399995e+00 2.00399995e+00 2.00399995e+00
    2.00399995e+00 2.00399995e+00 2.00399995e+00 2.00399995e+00
    2.00200009e+00 2.00200009e+00 2.00200009e+00 2.00200009e+00
    2.00399995e+00 2.00200009e+00 2. 1.99699998e+00 2. 2.00200009e+00 0.
    0. 0. 0. 0. 0. 0. 0. 0. 0. 0. 0. 0. 0. 0. 1.10599995e+00
    2.00699997e+00 2.00399995e+00 2.00399995e+00 2.00399995e+00
    2.00200009e+00 2.00200009e+00 2.00399995e+00 2.00200009e+00
    2.00200009e+00 2.00699997e+00 2.00399995e+00 2.00399995e+00
    2.00399995e+00 2.00399995e+00 2.00399995e+00 2.00399995e+00
    2.00200009e+00 2.00200009e+00 2.00399995e+00 2.00200009e+00 2.
    2.00200009e+00 2.00200009e+00 2. 0. 0. 0. 0. 0. 0. 0. 0. 0. 0. 0. 0.
    0. 0. 0. 1.10599995e+00 2.01200008e+00 2.00699997e+00 2.00399995e+00
    2.00399995e+00 2.00399995e+00 2.00399995e+00 2.00399995e+00
    2.00399995e+00 2.00200009e+00 2.00699997e+00 2.00399995e+00
    2.00399995e+00 2.00399995e+00 2.00699997e+00 2.00699997e+00
    2.00699997e+00 2.00399995e+00 2.00200009e+00 2.00399995e+00
    2.00399995e+00 2.00399995e+00 2.00200009e+00 2.00200009e+00
    2.00200009e+00 0. 0. 0. 0. 0. 0. 0. 0. 0. 0. 0. 0. 0. 0. 0.
    1.10599995e+00 2.01200008e+00 2.00699997e+00 2.00699997e+00
    2.00399995e+00 2.00699997e+00 2.00399995e+00 2.00399995e+00
    2.00399995e+00 2.00399995e+00 2.00699997e+00 2.00399995e+00
    2.00699997e+00 2.00399995e+00 2.00399995e+00 2.00399995e+00
    2.00399995e+00 2.00399995e+00 2.00399995e+00 2.00399995e+00
    2.00200009e+00 2.00399995e+00 2.00399995e+00 2.00399995e+00
    2.00399995e+00 0. 0. 0. 0. 0. 0. 0. 0. 0. 0. 0. 0. 0. 0. 0.
    1.10599995e+00 2.01200008e+00 2.00699997e+00 2.00699997e+00
    2.00399995e+00 2.00399995e+00 2.00399995e+00 2.00399995e+00
    2.00399995e+00 2.00699997e+00 2.01200008e+00 2.00699997e+00
    2.00699997e+00 2.00699997e+00 1.10599995e+00 2.00900006e+00
    2.00699997e+00 2.00399995e+00 2.00699997e+00 2.00399995e+00
    2.00200009e+00 2.00399995e+00 1.10599995e+00 1.10599995e+00
    1.10599995e+00 0. 0. 0. 0. 0. 0. 0. 0. 0. 0. 0. 0. 0. 0. 0.
    1.10599995e+00 1.10599995e+00 1.10599995e+00 1.10599995e+00
    1.10599995e+00 1.10599995e+00 1.10599995e+00 1.10599995e+00
    1.10599995e+00 1.10599995e+00 2.02600002e+00 1.10599995e+00
    1.10599995e+00 1.10599995e+00 1.10599995e+00 1.10599995e+00
    2.02600002e+00 1.10599995e+00 1.10599995e+00 1.10599995e+00
    1.10599995e+00 1.10599995e+00 1.10599995e+00 1.10599995e+00
    1.10599995e+00 0. 0. 0. 0. 0. 0. 0. 0. 0. 0. 0. 0. 0. 0. 0.
    1.10599995e+00 1.10599995e+00 1.10599995e+00 1.10599995e+00
    1.10599995e+00 1.10599995e+00 1.10599995e+00 2.12199998e+00
    1.10599995e+00 1.10599995e+00 2.01600003e+00 2.11599994e+00
    2.11299992e+00 2.11299992e+00 1.10599995e+00 1.10599995e+00
    2.02600002e+00 2.10700011e+00 1.10599995e+00 1.10599995e+00
    1.10599995e+00 1.10599995e+00 1.10599995e+00 1.10599995e+00
    1.10599995e+00 0. 0. 0. 0. 0. 0. 0. 0. 0. 0. 0. 0. 0. 0. 0. 0. 0.
    1.10599995e+00 0. 1.10599995e+00 1.10599995e+00 1.10599995e+00
    2.10400009e+00 2.08400011e+00 2.02099991e+00 2.02399993e+00
    2.09299994e+00 2.08999991e+00 2.08699989e+00 2.08999991e+00
    2.02399993e+00 2.08699989e+00 2.08699989e+00 1.10599995e+00
    1.10599995e+00 1.10599995e+00 1.10599995e+00 1.10599995e+00
    1.10599995e+00 1.10599995e+00 0. 0. 0. 0. 0. 0. 0. 0. 0. 0. 0. 0. 0.
    0. 0. 0. 0. 0. 0. 0. 1.10599995e+00 1.10599995e+00 2.07599998e+00
    2.07299995e+00 2.07299995e+00 2.02600002e+00 2.07299995e+00
    2.06800008e+00 2.06800008e+00 2.06500006e+00 2.03399992e+00
    2.07900000e+00 2.05699992e+00 2.05200005e+00 1.10599995e+00
    1.10599995e+00 1.10599995e+00 1.10599995e+00 1.10599995e+00
    1.10599995e+00 0. 0. 0. 0. 0. 0. 0. 0. 0. 0. 0. 0. 0. 0. 0. 0. 0. 0.
    0. 0. 1.10599995e+00 1.10599995e+00 2.04399991e+00 2.04099989e+00
    2.03900003e+00 2.03399992e+00 2.04399991e+00 2.04399991e+00
    2.04399991e+00 2.04099989e+00 2.03600001e+00 2.02600002e+00
    2.03399992e+00 2.02600002e+00 2.01900005e+00 1.10599995e+00
    1.10599995e+00 1.10599995e+00 1.10599995e+00 1.10599995e+00 0. 0. 0.
    0. 0. 0. 0. 0. 0. 0. 0. 0. 0. 0. 0. 0. 0. 0. 0. 1.10599995e+00
    1.10599995e+00 1.10599995e+00 2.02399993e+00 2.01900005e+00
    2.02099991e+00 2.01399994e+00 2.01600003e+00 2.01399994e+00
    2.00900006e+00 2.01399994e+00 2.01200008e+00 2.00900006e+00
    2.00900006e+00 2.00900006e+00 2.00399995e+00 1.10599995e+00
    1.10599995e+00 1.10599995e+00 1.10599995e+00 1.10599995e+00 0. 0. 0.
    0. 0. 0. 0. 0.</data></Depth>
</opencv_storage>
