<?xml version="1.0"?>
<opencv_storage>
<Depth type_id="opencv-matrix">
  <rows>40</rows>
  <cols>40</cols>
  <dt>f</dt>
  <data>
    0. 0. 0. 0. 0. 0. 0. 1.24300003e+00 1.24300003e+00 1.24300003e+00 0.
    0. 0. 1.24300003e+00 1.24300003e+00 2.08299994e+00 2.07800007e+00
    2.07599998e+00 1.24300003e+00 2.07599998e+00 2.06900001e+00
    2.06999993e+00 2.06699991e+00 2.06599998e+00 2.03600001e+00
    2.05399990e+00 2.04999995e+00 1.75000000e+00 1.24300003e+00
    1.24300003e+00 1.24300003e+00 1.24300003e+00 0. 0. 0. 0. 0. 0. 0. 0.
    0. 0. 0. 0. 0. 0. 0. 1.24300003e+00 1.24300003e+00 1.24300003e+00 0.
    0. 1.27199996e+00 1.24300003e+00 1.24300003e+00 2.10599995e+00
    2.10299993e+00 1.24300003e+00 1.28100002e+00 2.09800005e+00
    2.09699988e+00 2.09200001e+00 2.08400011e+00 2.08500004e+00
    2.03299999e+00 2.08299994e+00 1.67700005e+00 1.24300003e+00
    1.24300003e+00 1.24300003e+00 1.24300003e+00 1.24300003e+00 0. 0. 0.
    0. 0. 0. 0. 0. 0. 0. 0. 0. 0. 0. 0. 1.24300003e+00 1.24300003e+00 0.
    2.91100001e+00 0. 0. 1.24300003e+00 1.24300003e+00 1.24300003e+00
    1.33200002e+00 1.41199994e+00 1.24300003e+00 1.24300003e+00
    2.11500001e+00 2.11400008e+00 2.10599995e+00 2.03600001e+00
    2.03399992e+00 2.09999990e+00 1.24300003e+00 1.24300003e+00
    1.24300003e+00 1.24300003e+00 1.24300003e+00 1.24300003e+00 0. 0. 0.
    0. 0. 0. 0. 0. 0. 0. 0. 0. 0. 0. 0. 1.24300003e+00 1.24300003e+00
    2.00399995e+00 2.00399995e+00 2.00399995e+00 2.00500011e+00
    1.92900002e+00 1.92900002e+00 1.92900002e+00 1.93299997e+00
    1.24300003e+00 1.24300003e+00 1.24300003e+00 1.33000004e+00
    2.11100006e+00 2.12299991e+00 2.03500009e+00 2.03200006e+00
    1.24300003e+00 1.24300003e+00 1.24300003e+00 1.24300003e+00
    1.24300003e+00 1.24300003e+00 1.24300003e+00 0. 0. 0. 0. 0. 0. 0. 0.
    0. 0. 0. 0. 0. 0. 0. 1.24300003e+00 1.24300003e+00 2.00399995e+00
    2.00399995e+00 2.00399995e+00 2.00500011e+00 2.00600004e+00
    2.00799990e+00 2.00699997e+00 2.00900006e+00 2.00500011e+00
    2.00900006e+00 2.00999999e+00 2.00999999e+00 2.00999999e+00
    2.01099992e+00 2.00699997e+00 2.03200006e+00 1.58399999e+00
    1.24300003e+00 1.24300003e+00 1.24300003e+00 1.24300003e+00
    1.24300003e+00 1.24300003e+00 0. 0. 0. 0. 0. 0. 0. 0. 0. 0. 0. 0. 0.
    0. 0. 1.24300003e+00 1.24300003e+00 2.00300002e+00 2.00200009e+00
    2.00399995e+00 2.00500011e+00 2.00500011e+00 2.00699997e+00
    2.00500011e+00 2.00900006e+00 2.00900006e+00 2.00900006e+00
    2.00900006e+00 2.00900006e+00 2.00900006e+00 2.00999999e+00
    2.01399994e+00 2.01300001e+00 2.01200008e+00 2.01399994e+00
    2.01399994e+00 2.01500010e+00 2.01200008e+00 1.24300003e+00
    1.24300003e+00 0. 0. 0. 0. 0. 0. 0. 0. 0. 0. 0. 0. 0. 0. 0.
    1.24300003e+00 1.24300003e+00 2.00399995e+00 2.00300002e+00
    2.00399995e+00 2.00500011e+00 2.00500011e+00 2.00500011e+00
    2.00500011e+00 2.00500011e+00 2.00699997e+00 2.00699997e+00
    2.00699997e+00 2.00999999e+00 2.00999999e+00 2.00999999e+00
    2.00999999e+00 2.01200008e+00 2.01200008e+00 2.01399994e+00
    2.01399994e+00 2.01399994e+00 2.01399994e+00 2.01399994e+00
    2.01600003e+00 0. 0. 0. 0. 0. 0. 0. 0. 0. 0. 0. 0. 0. 0. 0.
    1.24300003e+00 1.24300003e+00 2.00099993e+00 2.00399995e+00
    2.00200009e+00 2.00399995e+00 2.00500011e+00 2.00500011e+00
    2.00500011e+00 2.00500011e+00 2.00500011e+00 2.00699997e+00
    2.00699997e+00 2.00900006e+00 2.00999999e+00 2.00900006e+00
    2.00900006e+00 2.01200008e+00 2.01399994e+00 2.01300001e+00
    2.01399994e+00 2.01399994e+00 2.01399994e+00 2.01399994e+00
    2.01399994e+00 0. 0. 0. 0. 0. 0. 0. 0. 0. 0. 0. 0. 0. 0. 0.
    1.24300003e+00 1.24300003e+00 2.00099993e+00 2.00200009e+00
    2.00200009e+00 2.00399995e+00 2.00399995e+00 2.00500011e+00
    2.00500011e+00 2.00399995e+00 2.00500011e+00 2.00500011e+00
    2.00699997e+00 2.00799990e+00 2.00799990e+00 2.00900006e+00
    2.00900006e+00 2.01200008e+00 2.01200008e+00 2.01300001e+00
    2.01300001e+00 2.01200008e+00 2.01399994e+00 2.01200008e+00
    2.01200008e+00 0. 0. 0. 0. 0. 0. 0. 0. 0. 0. 0. 0. 0. 0. 0.
    1.24300003e+00 1.24300003e+00 2. 2. 2.00200009e+00 2.00200009e+00
    2.00399995e+00 2.00500011e+00 2.00399995e+00 2.00500011e+00
    2.00399995e+00 2.00500011e+00 2.00500011e+00 2.00500011e+00
    2.00900006e+00 2.00699997e+00 2.00999999e+00 2.00999999e+00
    2.01200008e+00 2.01099992e+00 2.00999999e+00 2.01200008e+00
    2.01399994e+00 2.01200008e+00 2.01200008e+00 0. 0. 0. 0. 0. 0. 0. 0.
    0. 0. 0. 0. 0. 0. 0. 1.24300003e+00 1.24300003e+00 1.99899995e+00 2.
    2. 2.00200009e+00 2.00399995e+00 2.00399995e+00 2.00500011e+00
    2.00399995e+00 2.00399995e+00 2.00500011e+00 2.00500011e+00
    2.00500011e+00 2.00699997e+00 2.00500011e+00 2.00900006e+00
    2.00999999e+00 2.00999999e+00 2.00999999e+00 2.01200008e+00
    2.01200008e+00 2.01200008e+00 2.01200008e+00 2.01300001e+00 0. 0. 0.
    0. 0. 0. 0. 0. 0. 0. 0. 0. 0. 0. 0. 1.24300003e+00 1.85800004e+00
    1.99800003e+00 2. 1.99800003e+00 2.00200009e+00 2.00399995e+00
    2.00399995e+00 2.00399995e+00 2.00399995e+00 2.00500011e+00
    2.00500011e+00 2.00500011e+00 2.00500011e+00 2.00500011e+00
    2.00500011e+00 2.00999999e+00 2.00900006e+00 2.00900006e+00
    2.01099992e+00 2.00900006e+00 2.00999999e+00 2.01200008e+00
    2.01200008e+00 2.01200008e+00 0. 0. 0. 0. 0. 0. 0. 0. 0. 0. 0. 0. 0.
    0. 0. 1.24300003e+00 1.37500000e+00 1.99800003e+00 2. 1.99800003e+00
    2.00200009e+00 2.00399995e+00 2.00500011e+00 2.00399995e+00
    2.00399995e+00 2.00399995e+00 2.00500011e+00 2.00399995e+00
    2.00500011e+00 2.00500011e+00 2.00500011e+00 2.00699997e+00
    2.00699997e+00 2.00900006e+00 2.00699997e+00 2.00799990e+00
    2.00999999e+00 2.00999999e+00 2.00999999e+00 2.01200008e+00 0. 0. 0.
    0. 0. 0. 0. 0. 0. 0. 0. 0. 0. 0. 0. 1.24300003e+00 1.90400004e+00
    1.99699998e+00 1.99800003e+00 1.99800003e+00 2. 2.00200009e+00
    2.00300002e+00 2.00399995e+00 2.00399995e+00 2.00300002e+00
    2.00399995e+00 2.00399995e+00 2.00500011e+00 2.00500011e+00
    2.00500011e+00 2.00699997e+00 2.00900006e+00 2.00699997e+00
    2.00900006e+00 2.00799990e+00 2.00999999e+00 2.00900006e+00
    2.00900006e+00 2.01200008e+00 0. 0. 0. 0. 0. 0. 0. 0. 0. 0. 0. 0. 0.
    0. 0. 1.24300003e+00 1.99800003e+00 1.99699998e+00 1.99699998e+00
    1.99699998e+00 1.99800003e+00 2.00099993e+00 2.00200009e+00
    2.00399995e+00 2.00200009e+00 2.00200009e+00 2.00399995e+00
    2.00500011e+00 2.00399995e+00 2.00399995e+00 2.00500011e+00
    2.00900006e+00 2.00699997e+00 2.00900006e+00 2.00699997e+00
    2.00900006e+00 2.00699997e+00 2.00699997e+00 2.00900006e+00
    2.00900006e+00 0. 0. 0. 0. 0. 0. 0. 0. 0. 0. 0. 0. 0. 0. 0.
    1.24300003e+00 1.99699998e+00 1.99699998e+00 1.99699998e+00
    1.99699998e+00 1.99800003e+00 2.00099993e+00 2.00200009e+00
    2.00200009e+00 2.00200009e+00 2.00200009e+00 2.00399995e+00
    2.00399995e+00 2.00399995e+00 2.00399995e+00 2.00399995e+00
    2.00699997e+00 2.00699997e+00 2.00699997e+00 2.00600004e+00
    2.00900006e+00 2.00699997e+00 2.00699997e+00 2.00900006e+00
    2.00900006e+00 0. 0. 0. 0. 0. 0. 0. 0. 0. 0. 0. 0. 0. 0. 0.
    1.24300003e+00 1.99699998e+00 1.99699998e+00 1.99699998e+00
    1.99800003e+00 2. 2. 2. 2.00099993e+00 2. 2.00200009e+00
    2.00300002e+00 2.00399995e+00 2.00399995e+00 2.00399995e+00
    2.00399995e+00 2.00500011e+00 2.00600004e+00 2.00699997e+00
    2.00699997e+00 2.00699997e+00 2.00699997e+00 2.00699997e+00
    2.00900006e+00 2.00500011e+00 0. 0. 0. 0. 0. 0. 0. 0. 0. 0. 0. 0. 0.
    0. 0. 1.24300003e+00 1.99699998e+00 1.99699998e+00 1.99699998e+00
    1.99699998e+00 1.99899995e+00 2. 1.99899995e+00 2. 1.99800003e+00
    2.00099993e+00 2.00099993e+00 2.00200009e+00 2.00200009e+00
    2.00399995e+00 2.00399995e+00 2.00500011e+00 2.00500011e+00
    2.00699997e+00 2.00500011e+00 2.00699997e+00 2.00699997e+00
    2.00699997e+00 2.00699997e+00 2.00399995e+00 0. 0. 0. 0. 0. 0. 0. 0.
    0. 0. 0. 0. 0. 0. 0. 1.44700003e+00 1.99500000e+00 1.99600005e+00
    1.99699998e+00 1.99699998e+00 1.99800003e+00 1.99800003e+00
    1.99800003e+00 1.99800003e+00 1.99800003e+00 1.99899995e+00
    2.00200009e+00 2.00200009e+00 2.00300002e+00 2.00200009e+00
    2.00399995e+00 2.00500011e+00 2.00500011e+00 2.00699997e+00
    2.00500011e+00 2.00699997e+00 2.00699997e+00 2.00500011e+00
    2.00699997e+00 1.77400005e+00 0. 0. 0. 0. 0. 0. 0. 0. 0. 0. 0. 0. 0.
    0. 0. 1.44700003e+00 1.99500000e+00 1.99600005e+00 1.99699998e+00
    1.99699998e+00 1.99800003e+00 1.99800003e+00 1.99800003e+00
    1.99800003e+00 1.99800003e+00 1.99899995e+00 2. 2. 2.00200009e+00 2.
    2.00300002e+00 2.00399995e+00 2.00500011e+00 2.00500011e+00
    2.00500011e+00 2.00500011e+00 2.00500011e+00 2.00500011e+00
    2.00699997e+00 1.46300006e+00 0. 0. 0. 0. 0. 0. 0. 0. 0. 0. 0. 0. 0.
    0. 0. 1.44700003e+00 1.99500000e+00 1.99500000e+00 1.99500000e+00
    1.99699998e+00 1.99800003e+00 1.99800003e+00 1.99800003e+00
    1.99800003e+00 1.99800003e+00 2. 2. 2. 2.00200009e+00 2.
    2.00300002e+00 2.00399995e+00 2.00500011e+00 2.00500011e+00
    2.00399995e+00 2.00500011e+00 2.00500011e+00 2.00500011e+00
    2.00500011e+00 1.24300003e+00 0. 0. 0. 0. 0. 0. 0. 0. 0. 0. 0. 0. 0.
    0. 0. 1.44700003e+00 1.99500000e+00 1.99500000e+00 1.99500000e+00
    1.99500000e+00 1.99699998e+00 1.99699998e+00 1.99699998e+00
    1.99800003e+00 1.99800003e+00 1.99800003e+00 1.99800003e+00
    1.99899995e+00 1.99899995e+00 1.99899995e+00 2. 2.00200009e+00
    2.00500011e+00 2.00399995e+00 2.00399995e+00 2.00399995e+00
    2.00500011e+00 2.00500011e+00 2.00500011e+00 1.24300003e+00 0. 0. 0.
    0. 0. 0. 0. 0. 0. 0. 0. 0. 0. 0. 0. 1.99500000e+00 1.99300003e+00
    1.99500000e+00 1.99500000e+00 1.99500000e+00 1.99699998e+00
    1.99800003e+00 1.99699998e+00 1.99800003e+00 1.99699998e+00
    1.99800003e+00 1.99800003e+00 1.99800003e+00 1.99699998e+00
    1.99800003e+00 2. 2.00399995e+00 2.00399995e+00 2.00200009e+00
    2.00500011e+00 2.00399995e+00 2.00500011e+00 2.00500011e+00
    2.00399995e+00 1.24300003e+00 0. 0. 0. 0. 0. 0. 0. 0. 0. 0. 0. 0. 0.
    0. 0. 1.99500000e+00 1.99300003e+00 1.99300003e+00 1.99500000e+00
    1.99500000e+00 1.99600005e+00 1.99699998e+00 1.99699998e+00
    1.99699998e+00 1.99800003e+00 1.99699998e+00 1.99699998e+00
    1.99800003e+00 1.99800003e+00 1.99800003e+00 2.00099993e+00
    2.00399995e+00 2.00200009e+00 2.00200009e+00 2.00200009e+00
    2.00399995e+00 2.00399995e+00 2.00399995e+00 2.00399995e+00
    1.24300003e+00 0. 0. 0. 0. 0. 0. 0. 0. 0. 0. 0. 0. 0. 0. 0.
    1.99500000e+00 1.99300003e+00 1.99300003e+00 1.99300003e+00
    1.99500000e+00 1.99699998e+00 1.99699998e+00 1.99699998e+00
    1.99699998e+00 1.99600005e+00 1.99699998e+00 1.99800003e+00
    1.99699998e+00 1.99800003e+00 1.99699998e+00 1.99899995e+00
    2.00200009e+00 2. 2. 2.00200009e+00 2.00300002e+00 2.00300002e+00
    2.00399995e+00 2.00399995e+00 1.24300003e+00 0. 0. 0. 0. 0. 0. 0. 0.
    0. 0. 0. 0. 0. 0. 0. 1.99300003e+00 1.99300003e+00 1.99300003e+00
    1.99300003e+00 1.99199998e+00 1.99699998e+00 1.99600005e+00
    1.99500000e+00 1.99500000e+00 1.99699998e+00 1.99699998e+00
    1.99699998e+00 1.99699998e+00 1.99699998e+00 1.99699998e+00
    1.99899995e+00 1.99800003e+00 2. 2. 2.00200009e+00 2.00200009e+00
    2.00200009e+00 2.00200009e+00 2. 1.24300003e+00 0. 0. 0. 0. 0. 0. 0.
    0. 0. 0. 0. 0. 0. 0. 0. 1.99100006e+00 1.99300003e+00 1.99199998e+00
    1.99300003e+00 1.99199998e+00 1.99500000e+00 1.99300003e+00
    1.99500000e+00 1.99500000e+00 1.99699998e+00 1.99699998e+00
    1.99699998e+00 1.99699998e+00 1.99699998e+00 1.99699998e+00
    1.99899995e+00 1.99899995e+00 2. 2. 2.00099993e+00 2. 2.
    2.00200009e+00 1.42499995e+00 1.24300003e+00 0. 0. 0. 0. 0. 0. 0. 0.
    0. 0. 0. 0. 0. 0. 0. 1.99100006e+00 1.99199998e+00 1.99199998e+00
    1.99199998e+00 1.99199998e+00 1.99500000e+00 1.99300003e+00
    1.99500000e+00 1.99500000e+00 1.99500000e+00 1.99699998e+00
    1.99699998e+00 1.99500000e+00 1.99699998e+00 1.99500000e+00
    1.99800003e+00 1.99800003e+00 2. 2. 2. 2. 2.00099993e+00 2.
    1.99800003e+00 1.24300003e+00 0. 0. 0. 0. 0. 0. 0. 0. 0. 0. 0. 0. 0.
    0. 0. 1.99199998e+00 1.99100006e+00 1.99000001e+00 1.99100006e+00
    1.99199998e+00 1.99300003e+00 1.99399996e+00 1.99300003e+00
    1.99300003e+00 1.99300003e+00 1.99500000e+00 1.99500000e+00
    1.99500000e+00 1.99500000e+00 1.99699998e+00 1.99699998e+00
    1.99800003e+00 2. 1.99800003e+00 1.99899995e+00 2. 2. 2.00200009e+00
    1.42499995e+00 1.24300003e+00 0. 0. 0. 0. 0. 0. 0. 0. 0. 0. 0. 0. 0.
    0. 0. 1.99100006e+00 1.99000001e+00 1.99000001e+00 1.99000001e+00
    1.99100006e+00 1.99199998e+00 1.99199998e+00 1.99199998e+00
    1.99300003e+00 1.99500000e+00 1.99300003e+00 1.99300003e+00
    1.99500000e+00 1.99500000e+00 1.99699998e+00 1.99699998e+00
    1.99800003e+00 1.99800003e+00 1.99800003e+00 1.99899995e+00 2. 2. 2.
    1.42299998e+00 1.24300003e+00 0. 0. 0. 0. 0. 0. 0. 0. 0. 0. 0. 0. 0.
    0. 0. 1.44599998e+00 1.99000001e+00 1.99000001e+00 1.99000001e+00
    1.99000001e+00 1.99199998e+00 1.99199998e+00 1.99199998e+00
    1.99199998e+00 1.99300003e+00 1.99300003e+00 1.99300003e+00
    1.99399996e+00 1.99399996e+00 1.99500000e+00 1.99600005e+00
    1.99800003e+00 1.99800003e+00 1.99800003e+00 1.99800003e+00 2. 2. 2.
    1.24300003e+00 1.24300003e+00 0. 0. 0. 0. 0. 0. 0. 0. 0. 0. 0. 0. 0.
    0. 0. 1.44599998e+00 1.98899996e+00 1.99000001e+00 1.99000001e+00
    1.98899996e+00 1.99199998e+00 1.99199998e+00 1.99199998e+00
    1.99300003e+00 1.99199998e+00 1.99199998e+00 1.99199998e+00
    1.99300003e+00 1.99300003e+00 1.99300003e+00 1.99600005e+00
    1.99699998e+00 1.99800003e+00 1.99800003e+00 1.99800003e+00
    1.99800003e+00 1.99800003e+00 2. 1.24300003e+00 1.24300003e+00 0. 0.
    0. 0. 0. 0. 0. 0. 0. 0. 0. 0. 0. 0. 0. 1.44599998e+00 1.98899996e+00
    1.98899996e+00 1.99100006e+00 1.99000001e+00 1.99000001e+00
    1.99199998e+00 1.99199998e+00 1.99199998e+00 1.99199998e+00
    1.99199998e+00 1.99199998e+00 1.99300003e+00 1.99300003e+00
    1.99300003e+00 1.99600005e+00 1.99699998e+00 1.99699998e+00
    1.99800003e+00 1.99800003e+00 1.99800003e+00 1.99800003e+00 2.
    1.24300003e+00 1.24300003e+00 0. 0. 0. 0. 0. 0. 0. 0. 0. 0. 0. 0. 0.
    0. 0. 1.54799998e+00 1.98800004e+00 1.98699999e+00 1.99000001e+00
    1.98899996e+00 1.99000001e+00 1.99199998e+00 1.99199998e+00
    1.99199998e+00 1.99199998e+00 1.99199998e+00 1.99199998e+00
    1.99300003e+00 1.99199998e+00 1.99300003e+00 1.99500000e+00
    1.99699998e+00 1.99800003e+00 1.99800003e+00 1.99800003e+00
    1.99800003e+00 1.99800003e+00 1.99800003e+00 1.24300003e+00
    1.24300003e+00 0. 0. 0. 0. 0. 0. 0. 0. 0. 0. 0. 0. 0. 0. 0.
    1.98800004e+00 1.98899996e+00 1.98899996e+00 1.98800004e+00
    1.98699999e+00 1.99100006e+00 1.99100006e+00 1.99199998e+00
    1.99199998e+00 1.99199998e+00 1.99199998e+00 1.99199998e+00
    1.99199998e+00 1.99300003e+00 1.99300003e+00 1.99399996e+00
    1.99500000e+00 1.99800003e+00 1.99800003e+00 1.99800003e+00
    1.99800003e+00 1.99800003e+00 1.99800003e+00 1.24300003e+00
    1.24300003e+00 0. 0. 0. 0. 0. 0. 0. 0. 0. 0. 0. 0. 0. 0. 0.
    1.98800004e+00 1.98899996e+00 1.98899996e+00 1.44700003e+00
    1.98599994e+00 1.99000001e+00 1.98899996e+00 1.99000001e+00
    1.99199998e+00 1.99199998e+00 1.99000001e+00 1.99199998e+00
    1.99199998e+00 1.99199998e+00 1.99300003e+00 1.99399996e+00
    1.99500000e+00 1.99699998e+00 1.99500000e+00 1.99800003e+00
    1.99800003e+00 1.99800003e+00 1.88000000e+00 1.24300003e+00
    2.68400002e+00 0. 0. 0. 0. 0. 0. 0. 0. 0. 0. 0. 0. 0. 0. 0.
    1.98699999e+00 1.98699999e+00 1.98899996e+00 1.98699999e+00
    1.98899996e+00 1.99000001e+00 1.99000001e+00 1.99000001e+00
    1.99199998e+00 1.99199998e+00 1.99100006e+00 1.99199998e+00
    1.99199998e+00 1.99199998e+00 1.99300003e+00 1.99399996e+00
    1.99500000e+00 1.99699998e+00 1.99699998e+00 1.99699998e+00
    1.99699998e+00 1.99800003e+00 2. 1.24300003e+00 1.24300003e+00 0. 0.
    0. 0. 0. 0. 0. 0. 0. 0. 0. 0. 0. 0. 0. 0. 1.98699999e+00
    1.98899996e+00 1.98899996e+00 1.98899996e+00 1.99000001e+00
    1.99000001e+00 1.99000001e+00 1.99100006e+00 1.99199998e+00
    1.99199998e+00 1.99199998e+00 1.99199998e+00 1.99199998e+00
    1.99199998e+00 1.99399996e+00 1.99500000e+00 1.99600005e+00
    1.99800003e+00 1.99699998e+00 1.99699998e+00 1.99899995e+00
    1.99300003e+00 1.24300003e+00 1.24300003e+00 0. 0. 0. 0. 0. 0. 0. 0.
    0. 0. 0. 0. 0. 0. 0. 0. 0. 0. 0. 0. 0. 0. 0. 0. 1.99199998e+00
    1.99000001e+00 1.99000001e+00 1.99199998e+00 1.99100006e+00
    1.99199998e+00 1.99199998e+00 1.99300003e+00 1.99500000e+00
    1.99699998e+00 1.99699998e+00 1.99800003e+00 1.99800003e+00
    1.29999995e+00 1.24300003e+00 0. 0. 0. 0. 0. 0. 0. 0. 0. 0. 0. 0. 0.
    0. 0. 0. 0. 0. 0. 0. 0. 0. 0. 0. 0. 0. 0. 0. 0. 0. 0. 0. 0. 0. 2.
    2.00099993e+00 2.00099993e+00 1.99899995e+00 1.24300003e+00
    1.24300003e+00 0. 0. 0. 0. 0. 0. 0. 0. 0.</data></Depth>
</opencv_storage>
