<?xml version="1.0"?>
<opencv_storage>
<Depth type_id="opencv-matrix">
  <rows>40</rows>
  <cols>40</cols>
  <dt>f</dt>
  <data>
    0. 0. 0. 0. 0. 0. 0. 0. 0. 0. 0. 0. 0. 0. 0. 0. 0. 0. 0. 0. 0. 0. 0.
    0. 0. 0. 0. 0. 0. 0. 0. 0. 0. 0. 0. 0. 0. 0. 0. 0. 0. 0. 0. 0. 0. 0.
    0. 0. 0. 0. 0. 0. 0. 0. 0. 0. 0. 0. 0. 0. 0. 0. 0. 0. 0. 0. 0. 0. 0.
    0. 0. 0. 0. 0. 0. 0. 0. 0. 0. 0. 0. 0. 0. 0. 0. 0. 0. 0. 0. 0. 0. 0.
    0. 0. 0. 0. 0. 0. 0. 0. 0. 0. 0. 0. 0. 0. 0. 0. 0. 0. 0. 0. 0. 0. 0.
    0. 0. 0. 0. 0. 0. 0. 0. 0. 0. 0. 0. 0. 0. 0. 0. 0. 0. 0. 0. 0. 0. 0.
    0. 0. 0. 0. 0. 0. 0. 0. 0. 0. 0. 0. 0. 0. 0. 0. 0. 0. 0. 0. 0. 0. 0.
    0. 0. 0. 0. 0. 0. 0. 0. 0. 0. 0. 0. 0. 0. 0. 0. 0. 0. 0. 0. 0. 0. 0.
    0. 0. 0. 0. 0. 0. 0. 0. 0. 0. 0. 0. 0. 0. 0. 0. 0. 0. 0. 0. 0. 0. 0.
    0. 0. 0. 0. 0. 0. 0. 0. 0. 0. 0. 0. 0. 0. 0. 0. 0. 0. 0. 0. 0. 0. 0.
    0. 0. 0. 0. 0. 0. 0. 0. 0. 0. 0. 0. 0. 0. 0. 0. 0. 0. 0. 0. 0. 0. 0.
    0. 0. 0. 0. 0. 0. 0. 0. 0. 0. 0. 0. 0. 0. 0. 0. 0. 0. 0. 0. 0. 0. 0.
    0. 0. 0. 0. 0. 2.02600002e+00 2.02800012e+00 2.02800012e+00
    2.02399993e+00 2.02200007e+00 2.02200007e+00 2.01600003e+00
    2.01600003e+00 2.00999999e+00 2.00600004e+00 2.01200008e+00
    2.00999999e+00 2.00799990e+00 2.00900006e+00 2.00699997e+00
    2.00399995e+00 2.00399995e+00 1.99500000e+00 1.99699998e+00 2.
    2.12700009e+00 2.75300002e+00 2.85700011e+00 2.00200009e+00
    1.99600005e+00 1.99100006e+00 2.72600007e+00 2.35200000e+00 0.
    2.59800005e+00 2.41799998e+00 2.41599989e+00 2.40700006e+00
    2.40899992e+00 2.38199997e+00 2.36599994e+00 2.36400008e+00
    1.56500006e+00 1.55999994e+00 1.15100002e+00 2.02200007e+00
    2.02099991e+00 2.01999998e+00 2.01699996e+00 2.01399994e+00
    2.01300001e+00 2.01300001e+00 2.01300001e+00 2.01099992e+00
    2.00999999e+00 2.00999999e+00 2.00999999e+00 2.00600004e+00
    2.00600004e+00 2. 2. 2. 2. 2. 2. 1.99899995e+00 1.99399996e+00
    1.99300003e+00 1.99100006e+00 1.98899996e+00 1.98899996e+00
    1.98899996e+00 1.98599994e+00 1.98300004e+00 1.98599994e+00
    1.98599994e+00 1.98599994e+00 1.98199999e+00 1.98500001e+00
    1.98000002e+00 1.97399998e+00 1.97700000e+00 0. 0. 1.15100002e+00
    2.02200007e+00 2.02099991e+00 2.01999998e+00 2.01699996e+00
    2.01300001e+00 2.01300001e+00 2.01300001e+00 2.01300001e+00
    2.00999999e+00 2.00999999e+00 2.00999999e+00 2.00999999e+00
    2.00500011e+00 2.00300002e+00 2. 2. 2. 2. 1.99699998e+00 2.
    1.99899995e+00 1.99600005e+00 1.99300003e+00 1.98899996e+00
    1.98899996e+00 1.98899996e+00 1.98899996e+00 1.98599994e+00
    1.98599994e+00 1.98599994e+00 1.98599994e+00 1.98699999e+00
    1.97899997e+00 1.97899997e+00 1.97700000e+00 1.97399998e+00
    1.97599995e+00 0. 0. 1.14999998e+00 2.02200007e+00 2.02099991e+00
    2.01799989e+00 2.01699996e+00 2.01500010e+00 2.01300001e+00
    2.01300001e+00 2.01300001e+00 2.01300001e+00 2.01300001e+00
    2.00600004e+00 2.00600004e+00 2.00600004e+00 2.00500011e+00
    2.00200009e+00 2. 2. 1.99600005e+00 2. 2. 2. 1.99699998e+00
    1.99500000e+00 1.99300003e+00 1.99000001e+00 1.98899996e+00
    1.98899996e+00 1.98899996e+00 1.98899996e+00 1.98599994e+00
    1.98599994e+00 1.98500001e+00 1.97700000e+00 1.98099995e+00
    1.97700000e+00 1.97300005e+00 1.13399994e+00 0. 0. 2.02399993e+00
    2.02200007e+00 2.02099991e+00 2.01799989e+00 2.01699996e+00
    2.01500010e+00 2.01300001e+00 2.01099992e+00 2.01099992e+00
    2.00999999e+00 2.00999999e+00 2.00600004e+00 2.00600004e+00
    2.00399995e+00 2. 2.00099993e+00 2. 2. 1.99899995e+00 2. 2. 2.
    1.99800003e+00 1.99300003e+00 1.99300003e+00 1.98899996e+00
    1.99000001e+00 1.98800004e+00 1.98800004e+00 1.98599994e+00
    1.98599994e+00 1.98599994e+00 1.98300004e+00 1.97599995e+00
    1.97599995e+00 1.97700000e+00 1.97599995e+00 0. 0. 0. 1.24399996e+00
    2.02099991e+00 2.02099991e+00 2.01900005e+00 2.01699996e+00
    2.01300001e+00 2.01300001e+00 2.01300001e+00 2.01300001e+00
    2.00999999e+00 2.00999999e+00 2.00600004e+00 2.00600004e+00
    2.00300002e+00 2.00099993e+00 2.00099993e+00 2.00099993e+00 2. 2. 2.
    2. 2. 1.99399996e+00 1.98899996e+00 1.99300003e+00 1.98899996e+00
    1.98899996e+00 1.98899996e+00 1.98800004e+00 1.98599994e+00
    1.98599994e+00 1.98599994e+00 1.98300004e+00 1.97899997e+00
    1.97899997e+00 1.97899997e+00 1.97300005e+00 1.17499995e+00 0.
    1.76199996e+00 2.02300000e+00 2.02300000e+00 2.02099991e+00
    2.02099991e+00 2.01699996e+00 2.01300001e+00 2.01300001e+00
    2.01200008e+00 2.00999999e+00 2.00999999e+00 2.00999999e+00
    2.00799990e+00 2.00600004e+00 2.00300002e+00 2.00300002e+00
    2.00300002e+00 2.00300002e+00 2. 2.00200009e+00 1.99600005e+00
    1.99899995e+00 2. 1.99600005e+00 1.99300003e+00 1.99199998e+00
    1.98899996e+00 1.98800004e+00 1.98699999e+00 1.98599994e+00
    1.98599994e+00 1.98599994e+00 1.98599994e+00 1.98599994e+00
    1.98000002e+00 1.98099995e+00 1.98000002e+00 1.97300005e+00
    1.63900006e+00 1.43700004e+00 2.06399989e+00 2.02399993e+00
    2.02200007e+00 2.01999998e+00 2.01699996e+00 2.01999998e+00
    2.01500010e+00 2.01300001e+00 2.01099992e+00 2.01300001e+00
    2.01300001e+00 2.00999999e+00 2.00999999e+00 2.00999999e+00
    2.00799990e+00 2.00300002e+00 2. 2. 1.99899995e+00 1.99899995e+00
    1.99899995e+00 1.99600005e+00 1.99899995e+00 1.99600005e+00
    1.99300003e+00 1.98899996e+00 1.98899996e+00 1.98899996e+00
    1.98899996e+00 1.98599994e+00 1.98599994e+00 1.98599994e+00
    1.98300004e+00 1.98300004e+00 1.97899997e+00 1.97899997e+00
    1.98000002e+00 1.97300005e+00 2.04099989e+00 2.06599998e+00
    2.06299996e+00 2.02399993e+00 2.02200007e+00 2.02200007e+00
    2.01600003e+00 2.01500010e+00 2.01300001e+00 2.01300001e+00
    2.01300001e+00 2.00999999e+00 2.00999999e+00 2.00999999e+00
    2.00999999e+00 2.00600004e+00 2.00399995e+00 2.00200009e+00
    1.99600005e+00 1.99899995e+00 1.99699998e+00 1.99899995e+00 2. 2.
    1.99800003e+00 1.99500000e+00 1.99300003e+00 1.99100006e+00
    1.98699999e+00 1.98800004e+00 1.98699999e+00 1.98599994e+00
    1.98399997e+00 1.98399997e+00 1.98399997e+00 1.98099995e+00
    1.97599995e+00 1.98199999e+00 1.98000002e+00 1.97500002e+00
    2.05699992e+00 2.05699992e+00 2.05200005e+00 2.02099991e+00
    2.02200007e+00 2.02099991e+00 2.01699996e+00 2.01699996e+00
    2.01300001e+00 2.01300001e+00 2.01300001e+00 2.00999999e+00
    2.00600004e+00 2.00600004e+00 2.00600004e+00 2.00600004e+00
    2.00300002e+00 2. 2. 2. 1.99600005e+00 1.99899995e+00 2. 2.
    1.99600005e+00 1.99300003e+00 1.99300003e+00 1.98899996e+00
    1.98899996e+00 1.98599994e+00 1.98599994e+00 1.98599994e+00
    1.98300004e+00 1.98300004e+00 1.98300004e+00 1.98300004e+00
    1.97899997e+00 1.98300004e+00 1.97899997e+00 1.98399997e+00
    1.99500000e+00 1.99600005e+00 1.99300003e+00 2.02399993e+00
    2.02200007e+00 2.01699996e+00 2.02099991e+00 2.02099991e+00
    2.01699996e+00 2.01300001e+00 2.01500010e+00 2.01300001e+00
    2.01099992e+00 2.00999999e+00 2.00900006e+00 2.00999999e+00
    2.00799990e+00 2.00500011e+00 2.00200009e+00 2. 1.99800003e+00
    2.00099993e+00 2.00200009e+00 2. 2. 1.99800003e+00 1.99800003e+00
    1.99300003e+00 1.98899996e+00 1.98899996e+00 1.98699999e+00
    1.98699999e+00 1.98599994e+00 1.98699999e+00 1.98599994e+00
    1.98300004e+00 1.98099995e+00 1.97899997e+00 1.97599995e+00
    1.97599995e+00 1.98500001e+00 1.99800003e+00 1.99500000e+00
    2.02300000e+00 2.02099991e+00 2.02099991e+00 2.02099991e+00
    2.01699996e+00 2.01500010e+00 2.01300001e+00 2.01300001e+00
    2.00999999e+00 2.01300001e+00 2.00999999e+00 2.00999999e+00
    2.00699997e+00 2.00600004e+00 2.00300002e+00 2.00200009e+00 2. 2.
    2.00200009e+00 2. 2. 2. 1.99600005e+00 1.99600005e+00 1.99199998e+00
    1.98899996e+00 1.98899996e+00 1.98899996e+00 1.98899996e+00
    1.98599994e+00 1.98599994e+00 1.98599994e+00 1.98500001e+00
    1.98000002e+00 1.97899997e+00 1.98199999e+00 1.97300005e+00
    1.21200001e+00 2.06900001e+00 2.06100011e+00 2.02500010e+00
    2.02099991e+00 2.02099991e+00 2.01799989e+00 2.01699996e+00
    2.01799989e+00 2.01300001e+00 2.01300001e+00 2.01099992e+00
    2.01200008e+00 2.00999999e+00 2.00999999e+00 2.00600004e+00
    2.00200009e+00 2.00099993e+00 2. 2.00099993e+00 2. 2.00200009e+00
    2.00099993e+00 2. 1.99800003e+00 1.99600005e+00 1.99600005e+00
    1.98899996e+00 1.98899996e+00 1.98899996e+00 1.98699999e+00
    1.98599994e+00 1.98599994e+00 1.98599994e+00 1.98599994e+00
    1.98300004e+00 1.98300004e+00 1.98300004e+00 1.98199999e+00
    1.97599995e+00 1.97599995e+00 2.06299996e+00 2.06200004e+00
    2.02399993e+00 2.02399993e+00 2.02099991e+00 2.01699996e+00
    2.01699996e+00 2.01699996e+00 2.01300001e+00 2.01300001e+00
    2.01300001e+00 2.00999999e+00 2.00999999e+00 2.00999999e+00
    2.00300002e+00 2.00500011e+00 2.00300002e+00 2. 2.00099993e+00 2.
    2.00200009e+00 2. 2. 1.99600005e+00 1.99600005e+00 1.99300003e+00
    1.98899996e+00 1.99300003e+00 1.99100006e+00 1.98899996e+00
    1.98599994e+00 1.98599994e+00 1.98599994e+00 1.98599994e+00
    1.98300004e+00 1.97899997e+00 1.98500001e+00 1.97899997e+00
    1.97300005e+00 2.03399992e+00 2.06200004e+00 2.06500006e+00
    2.02399993e+00 2.02200007e+00 2.01699996e+00 2.01799989e+00
    2.01699996e+00 2.01399994e+00 2.01300001e+00 2.01300001e+00
    2.01300001e+00 2.00999999e+00 2.00600004e+00 2.00799990e+00
    2.00600004e+00 2.00399995e+00 2.00200009e+00 2. 2. 2. 2.00099993e+00
    2. 2. 1.99600005e+00 1.99300003e+00 1.99300003e+00 1.98899996e+00
    1.98899996e+00 1.98899996e+00 1.98899996e+00 1.98599994e+00
    1.98599994e+00 1.98599994e+00 1.98599994e+00 1.98300004e+00
    1.98099995e+00 1.98300004e+00 1.98099995e+00 1.97399998e+00
    2.06100011e+00 2.05599999e+00 2.05900002e+00 0. 2.01900005e+00
    2.01999998e+00 2.02099991e+00 2.01699996e+00 2.01699996e+00
    2.01300001e+00 2.01300001e+00 2.01300001e+00 2.01099992e+00
    2.00900006e+00 2.00900006e+00 2.00900006e+00 2.00600004e+00
    2.00300002e+00 2. 2. 2. 2. 2. 2. 1.99899995e+00 1.99600005e+00
    1.99300003e+00 1.98899996e+00 1.99300003e+00 1.99199998e+00
    1.98899996e+00 1.98800004e+00 1.98599994e+00 1.98599994e+00
    1.98599994e+00 1.98300004e+00 1.98300004e+00 1.98500001e+00
    1.98300004e+00 1.98500001e+00 2.00099993e+00 1.98599994e+00
    1.98899996e+00 0. 2.02099991e+00 2.02399993e+00 2.02200007e+00
    2.02099991e+00 2.01500010e+00 2.01300001e+00 2.01300001e+00
    2.01300001e+00 2.01099992e+00 2.01200008e+00 2.00999999e+00
    2.00999999e+00 2.00600004e+00 2.00300002e+00 2.00300002e+00 2. 2. 2.
    2. 2. 2. 1.99699998e+00 1.99300003e+00 1.99300003e+00 1.99300003e+00
    1.99300003e+00 1.98899996e+00 1.98800004e+00 1.98899996e+00
    1.98899996e+00 1.98699999e+00 1.98599994e+00 1.98599994e+00
    1.98500001e+00 1.97899997e+00 1.97899997e+00 1.99500000e+00
    1.98699999e+00 1.98800004e+00 1.10300004e+00 2.02200007e+00
    2.02200007e+00 2.02099991e+00 2.01300001e+00 2.01500010e+00
    2.01300001e+00 2.01300001e+00 2.01099992e+00 2.00999999e+00
    2.00999999e+00 2.00999999e+00 2.00999999e+00 2.00300002e+00 2.
    2.00300002e+00 2. 2. 2. 2. 2. 2. 1.99600005e+00 1.99300003e+00
    1.99300003e+00 1.99300003e+00 1.98899996e+00 1.98899996e+00
    1.98899996e+00 1.98599994e+00 1.98599994e+00 1.98599994e+00
    1.98599994e+00 1.98599994e+00 1.98199999e+00 1.97599995e+00
    2.04500008e+00 2.29600000e+00 2.25200009e+00 2.30999994e+00
    1.14999998e+00 2.02099991e+00 2.02399993e+00 2.02099991e+00
    2.02099991e+00 2.01699996e+00 2.01300001e+00 2.01300001e+00
    2.01099992e+00 2.00999999e+00 2.00999999e+00 2.00900006e+00
    2.00600004e+00 2.00500011e+00 2.00300002e+00 2.00300002e+00 2. 2.
    2.00200009e+00 2. 2. 2. 1.99600005e+00 1.99300003e+00 1.99199998e+00
    1.99199998e+00 1.98899996e+00 1.98899996e+00 1.98599994e+00
    1.98899996e+00 1.98899996e+00 1.98599994e+00 1.98599994e+00
    1.98599994e+00 1.98500001e+00 1.98099995e+00 2.10999990e+00
    2.26699996e+00 2.27900004e+00 2.30500007e+00 1.14999998e+00
    2.02200007e+00 2.02399993e+00 2.02099991e+00 2.02099991e+00
    2.01699996e+00 2.01300001e+00 2.01399994e+00 2.01300001e+00
    2.01300001e+00 2.01200008e+00 2.00999999e+00 2.00600004e+00
    2.00600004e+00 2.00300002e+00 2.00200009e+00 2. 2. 2. 2. 2. 2.
    1.99600005e+00 1.99399996e+00 1.99100006e+00 1.98899996e+00
    1.98899996e+00 1.98599994e+00 1.98599994e+00 1.98899996e+00
    1.98699999e+00 1.98599994e+00 1.98599994e+00 1.98599994e+00
    1.98599994e+00 1.98300004e+00 2.25000000e+00 2.25900006e+00
    2.25600004e+00 2.27999997e+00 2.02699995e+00 2.02399993e+00
    2.02099991e+00 2.02300000e+00 2.02099991e+00 2.01600003e+00
    2.01300001e+00 2.01300001e+00 2.01300001e+00 2.01300001e+00
    2.00999999e+00 2.00999999e+00 2.00600004e+00 2.00600004e+00
    2.00500011e+00 2.00399995e+00 2. 2. 2. 2. 2. 2. 1.99600005e+00
    1.99300003e+00 1.99300003e+00 1.98899996e+00 1.98899996e+00
    1.98899996e+00 1.98899996e+00 1.98599994e+00 1.98599994e+00
    1.98599994e+00 1.98599994e+00 1.98300004e+00 1.98300004e+00
    1.98500001e+00 2.05800009e+00 2.24699998e+00 2.23699999e+00
    2.22900009e+00 2.02699995e+00 2.02399993e+00 2.02099991e+00
    2.02200007e+00 2.02099991e+00 2.01500010e+00 2.01300001e+00
    2.01300001e+00 2.01300001e+00 2.01200008e+00 2.00999999e+00
    2.00999999e+00 2.00600004e+00 2.00600004e+00 2.00300002e+00
    2.00099993e+00 2. 1.99899995e+00 1.99899995e+00 2. 2. 1.99600005e+00
    1.99600005e+00 1.99300003e+00 1.99300003e+00 1.98899996e+00
    1.98899996e+00 1.98899996e+00 1.98899996e+00 1.98800004e+00
    1.98599994e+00 1.98599994e+00 1.98599994e+00 1.98300004e+00
    1.98399997e+00 1.98399997e+00 2.00099993e+00 2.23900008e+00
    2.23099995e+00 2.22000003e+00 2.02699995e+00 2.02399993e+00
    2.02399993e+00 2.02099991e+00 2.01999998e+00 2.01699996e+00
    2.01399994e+00 2.01300001e+00 2.01200008e+00 2.00999999e+00
    2.00999999e+00 2.00600004e+00 2.00600004e+00 2.00600004e+00
    2.00300002e+00 2.00099993e+00 2. 1.99600005e+00 1.99899995e+00 2.
    1.99800003e+00 1.99600005e+00 1.99600005e+00 1.98899996e+00
    1.99100006e+00 1.99000001e+00 1.98899996e+00 1.98899996e+00
    1.98599994e+00 1.98599994e+00 1.98599994e+00 1.98599994e+00
    1.98599994e+00 1.98599994e+00 1.98599994e+00 1.98399997e+00
    1.97200000e+00 2.23300004e+00 2.22099996e+00 2.20700002e+00
    2.02699995e+00 2.02099991e+00 2.02200007e+00 2.01799989e+00
    2.01399994e+00 2.01399994e+00 2.01399994e+00 2.01300001e+00
    2.01200008e+00 2.00699997e+00 2.00699997e+00 2.00999999e+00
    2.00600004e+00 2.00600004e+00 2.00300002e+00 2.00300002e+00
    2.00099993e+00 1.99600005e+00 1.99899995e+00 2. 2.00099993e+00
    1.99899995e+00 1.99600005e+00 1.99300003e+00 1.99300003e+00
    1.99000001e+00 1.98899996e+00 1.98899996e+00 1.98800004e+00
    1.98599994e+00 1.98599994e+00 1.98599994e+00 1.98599994e+00
    1.98500001e+00 1.98599994e+00 1.98000002e+00 1.97000003e+00
    2.15599990e+00 2.21099997e+00 2.19700003e+00 0. 0. 0. 0. 0. 0. 0.
    2.28699994e+00 2.30299997e+00 0. 2.37299991e+00 2.27999997e+00
    2.27999997e+00 2.27900004e+00 2.27600002e+00 2.92300010e+00 0.
    2.25999999e+00 2.26300001e+00 2.26300001e+00 2.26600003e+00 2.
    2.26099992e+00 2.25000000e+00 2.09400010e+00 1.98599994e+00
    1.98699999e+00 1.98899996e+00 1.98899996e+00 1.98599994e+00
    1.98599994e+00 1.98899996e+00 1.98599994e+00 1.98300004e+00
    1.98300004e+00 1.97700000e+00 1.97300005e+00 2.08599997e+00
    2.21000004e+00 2.19199991e+00 0. 0. 0. 0. 0. 0. 0. 0. 0. 0. 0. 0. 0.
    0. 0. 0. 0. 0. 0. 0. 0. 0. 0. 0. 0. 0. 0. 0. 0. 0. 0. 0. 0. 0. 0. 0.
    0. 0. 0. 0. 0. 0. 0. 0. 0. 0. 0. 0. 0. 0. 0. 0. 0. 0. 0. 0. 0. 0. 0.
    0. 0. 0. 0. 0. 0. 0. 0. 0. 0. 0. 0. 0. 0. 0. 0. 0. 0. 0. 0. 0. 0. 0.
    0. 0. 0. 0. 0. 0. 0. 0. 0. 0. 0. 0. 0. 0. 0. 0. 0. 0. 0. 0. 0. 0. 0.
    0. 0. 0. 0. 0. 0. 0. 0. 0. 0. 0. 0. 0. 0. 0. 0. 0. 0. 0. 0. 0. 0. 0.
    0. 0. 0. 0. 0. 0. 0. 0. 0. 0. 0. 0. 0. 0. 0. 0. 0. 0. 0. 0. 0. 0. 0.
    0. 0. 0. 0. 0. 0. 0. 0. 0. 0. 0. 0. 0. 0. 0. 0. 0. 0. 0. 0. 0. 0. 0.
    0. 0. 0. 0. 0. 0. 0. 0. 0. 0. 0. 0. 0. 0. 0. 0. 0. 0. 0. 0. 0. 0. 0.
    0. 0. 0. 0. 0. 0. 0. 0. 0. 0. 0. 0. 0. 0. 0. 0. 0. 0. 0. 0. 0. 0. 0.
    0. 0. 0. 0. 0. 0. 0. 0. 0. 0. 0. 0. 0. 0. 0. 0. 0. 0. 0. 0. 0. 0. 0.
    0. 0. 0. 0. 0. 0. 0. 0. 0. 0. 0. 0. 0. 0. 0. 0. 0. 0. 0. 0. 0. 0. 0.
    0. 0. 0. 0. 0. 0. 0. 0. 0. 0. 0. 0. 0. 0. 0. 0. 0. 0. 0. 0. 0. 0. 0.
    0. 0. 0. 0. 0. 0. 0. 0. 0. 0. 0. 0. 0. 0. 0. 0. 0. 0. 0. 0. 0. 0. 0.
    0. 0. 0. 0. 0. 0. 0. 0.</data></Depth>
</opencv_storage>
